# .PCD v0.7 - Point Cloud Data file format
VERSION 0.7
FIELDS x y z
SIZE 4 4 4
TYPE F F F
COUNT 1 1 1
WIDTH 757
HEIGHT 1
VIEWPOINT 0 0 0 1 0 0 0
POINTS 757
DATA ascii
-0.009828226714735978 -0.09316443112206696 0.05012425491711808
-0.010259291123320125 -0.11310788908093927 0.03710365372556784
-0.010266075364361282 -0.11249326428904594 0.03579219243314474
-0.010272834078168626 -0.11187616376154341 0.034479959251756453
-0.010279601697015197 -0.11125825016462326 0.03316599711908991
-0.01028637823851188 -0.11063952189031201 0.031850302615890724
-0.010293198362650084 -0.1100216366985286 0.03053189339874479
-0.010299992848215603 -0.10940127323463428 0.029212718771712054
-0.010306796309634401 -0.10878009023985996 0.02789180144952469
-0.010313608764704663 -0.10815808608917526 0.02656913797661692
-0.010320430231271396 -0.10753525915323892 0.025244724888287995
-0.009870541169652915 -0.08524438106369758 0.03707434117368735
-0.009830723387171785 -0.08245265792148349 0.03714546732138346
-0.009791476339986869 -0.0796952189605068 0.03720874349895886
-0.009752572518054694 -0.07696117632690225 0.0372706104381465
-0.00971524177292672 -0.07430832910269819 0.037294991291870805
-0.009680248134275109 -0.07177213945945882 0.037258943717939974
-0.009646144541780921 -0.06928411087456021 0.037204333082154206
-0.009612431457323992 -0.06682062067349925 0.03714563901540363
-0.009579013210099404 -0.06437709284222481 0.037085572862021354
-0.009545469001167508 -0.06193383080931736 0.03703657336786137
-0.009513549586821114 -0.05957231920535816 0.036946335502640426
-0.009481666560366918 -0.05721835930016783 0.03686199190983902
-0.009452391463289469 -0.054991103876117 0.0367060805240228
-0.009443752099747606 -0.053723570484664196 0.03593280783522551
-0.009453852542024401 -0.053322567034639556 0.034592915853389195
-0.009472416400876165 -0.05330956381782054 0.03299313201312498
-0.009491583500221203 -0.05332088328726747 0.03137085255196126
-0.009511419888106535 -0.05335938953985553 0.029723854036851072
-0.009531072032599043 -0.053385816600054425 0.028078183993409833
-0.009550149438513204 -0.053382371052712096 0.026445963046705157
-0.00956984233906693 -0.053403491143551085 0.024790490215866545
-0.00958853428324876 -0.053375438411849774 0.023161840042765947
-0.009608627465151393 -0.05340759813653423 0.021485362617278403
-0.009627501683035621 -0.05338081329729566 0.01984266774517135
-0.009647454353505029 -0.05339934822277759 0.018161944622736625
-0.009666909317446465 -0.05339174964398663 0.01649255254654347
-0.009686841744188128 -0.053402089433847166 0.01480379055387293
-0.009708150651541335 -0.05347065737838608 0.013066949359938518
-0.009727944259942958 -0.05346732066354176 0.011373735557571596
-0.009748440159017267 -0.053491795931133235 0.009653731293566947
-0.009769053810490454 -0.05351776894085991 0.007925462666485639
-0.0097889401415448 -0.053507521794802615 0.006216100194982865
-0.009809568290364716 -0.053526635188347826 0.0044784194055438875
-0.011782689928161392 -0.12596697377199606 0.048113397739494024
-0.01160700803559789 -0.1174452277142517 0.05107663139598151
-0.01143645066823082 -0.10917226003710678 0.05395367337482876
-0.011270869530027615 -0.10114046511655317 0.05674653366346982
-0.011194451355118738 -0.09695829919113963 0.057468956938688975
-0.011202595914263888 -0.096407396407929 0.056204227255329864
-0.011210716376103769 -0.09585415547986204 0.05493851055459059
-0.011218884628257927 -0.09530164719661127 0.0536700982517746
-0.011227064791970625 -0.09474833320440706 0.0523998362550358
-0.011235256893316416 -0.09419421173954706 0.05112772051537706
-0.011243460958445932 -0.09363928103317476 0.04985374697197659
-0.011741132345177095 -0.11379451506965543 0.0367102066376479
-0.011748867746512 -0.1131778258653176 0.0353976299289635
-0.011756652891236164 -0.11256199047477017 0.03408235617560901
-0.011764408763463964 -0.11194367244961528 0.032766309665690996
-0.01177217487547689 -0.11132453808266018 0.0314485256294364
-0.011779951247566945 -0.11070458575615116 0.03012900062359153
-0.011787777653867071 -0.11008547683796849 0.028806744455424693
-0.01179557465981024 -0.10946388272427388 0.02748372202670124
-0.011803381987134173 -0.1088414657679646 0.02615894823118059
-0.01181119965634714 -0.10821822433409173 0.024832419588966925
-0.011281966754752659 -0.08530030503115055 0.037040385654721175
-0.011234752347754673 -0.08243769647905763 0.037154603796237695
-0.011190080543295974 -0.07968781218502397 0.03721329255905981
-0.011145265024555779 -0.0769391755166598 0.03728420000328231
-0.011102675889997382 -0.07428944415905142 0.03730672290242226
-0.011063106604850983 -0.07177070008797704 0.03725984304729196
-0.011023853132834672 -0.06927127215362244 0.03721239987861019
-0.010985222470210294 -0.06680365523551213 0.03715635926639027
-0.010946964462599944 -0.06435747588546781 0.037098038897287355
-0.01090897201223576 -0.061928276004212024 0.037040123342517495
-0.010872493561365545 -0.05956681235804717 0.03694987472927719
-0.010836123880574332 -0.057215629741882656 0.036863756126496616
-0.01080316784190043 -0.05500870344033598 0.03669464172666942
-0.010793960098122493 -0.05376807886848678 0.03590371683392807
-0.010806140534139922 -0.05339271606518342 0.034546808351855585
-0.010827497362521853 -0.053385255967094314 0.03294310212591384
-0.010849544935385945 -0.053402149256159936 0.03131683781281919
-0.010872122093224629 -0.05343675969677103 0.029672141242556682
-0.010894487788323944 -0.05345926988348371 0.028028815154985898
-0.010916263792222035 -0.053454607622198835 0.026397141419043868
-0.010938914359940275 -0.053481344486652926 0.024737579672948207
-0.010960181106895594 -0.053449332858055365 0.023111341037950373
-0.010983187041412629 -0.053483024534434986 0.02143353074468296
-0.011004730391814188 -0.05345500901213629 0.019791399166648294
-0.011027715166742835 -0.053480586666166396 0.01810549909721837
-0.011049957697908059 -0.05347315052520102 0.016435681794202683
-0.011073096906177488 -0.05349748866318921 0.014736772264998144
-0.011097178738085188 -0.053555192540731655 0.013007236082604012
-0.011119914906067004 -0.05355619432303543 0.011310612448056478
-0.0111430996637011 -0.05357111852730839 0.009597082503087717
-0.01116652399682267 -0.053591684490841285 0.007872385870617116
-0.011189581321097973 -0.05359416553009083 0.0061535428725674746
-0.01121323766355451 -0.053616266889073116 0.004413350805732186
-0.013214544826593212 -0.12439330472937482 0.0489583133210883
-0.013018113782153944 -0.11592090644665914 0.051899962070119154
-0.012827395174706503 -0.10769509913233449 0.054756307511864055
-0.012642184047947608 -0.09970683274552877 0.057530168776535884
-0.012606315302879917 -0.09743685991580553 0.057205812887189234
-0.012615455739109988 -0.09688421631994443 0.055940481298572875
-0.012624649972022674 -0.09633230974233536 0.054672457157925625
-0.012633857616274726 -0.0957795981160166 0.05340258339034776
-0.012643038050545587 -0.09522454198521307 0.052131721696411004
-0.012652272546254138 -0.09467021562859873 0.0508581412435537
-0.012661520541525837 -0.09411507892317661 0.049582698991306795
-0.013227080878885161 -0.11448304422252803 0.03631566900784988
-0.013235807343977243 -0.11386595404498007 0.03500101173229603
-0.013244589941750958 -0.11324972065307332 0.03368364957935216
-0.013253339532556916 -0.11263099833393642 0.03236551217431277
-0.013262100691168649 -0.11201145800412876 0.031045632064195305
-0.013270873440542124 -0.11139109804034891 0.029724005790673136
-0.013279657803693725 -0.11076991681498405 0.028400629886270845
-0.013288498710701507 -0.11014957931954905 0.02707450625260316
-0.013297306430252249 -0.10952674966939446 0.025747615500922805
-0.013306125833116189 -0.10890309384478758 0.02441896464789539
-0.01269274612968115 -0.08531995724405 0.03702845341166555
-0.012639950479191 -0.08246911700030385 0.03713541652026553
-0.012588519067996958 -0.07967596176401198 0.03722057075235352
-0.012538344032696876 -0.07693624234003171 0.03728601184697511
-0.01249027313877161 -0.07428072862269419 0.03731213716505505
-0.012445601793832861 -0.07175630578478331 0.03726883602862402
-0.0124016008501419 -0.06926271345147811 0.03721777748845018
-0.012358026453206036 -0.06679093202686237 0.0371643989239519
-0.012315142873920328 -0.06435047032340352 0.03710249078773559
-0.012272287771750148 -0.06191716669073277 0.037047223026009934
-0.012231670051236408 -0.05957094268888502 0.03694722031737829
-0.012190791166539419 -0.057221089248005785 0.03686022767101099
-0.012153977640304065 -0.05502359650219496 0.0366849620262692
-0.012144818407890192 -0.05382608821894197 0.03586580147991186
-0.012158938590748411 -0.05346558700774706 0.03449891179107045
-0.012183199534580306 -0.05346638383729507 0.0328894794099826
-0.012207974385259099 -0.05348209031751794 0.03126370369618847
-0.012233383003635807 -0.05351687349333878 0.02961859464703659
-0.012258400797224105 -0.05353410883244247 0.027978514992551662
-0.012283022315669308 -0.05353368636070255 0.02634369545249088
-0.012308474920684986 -0.05355922561096904 0.024684650249412965
-0.012332563269387609 -0.053532836305165976 0.023054275291084725
-0.012358338338220533 -0.053562593341223985 0.021378852267250226
-0.012382544459611969 -0.053533354079669804 0.0197372634177313
-0.012408255003730594 -0.05355358937684901 0.018054775874259132
-0.012433600741518783 -0.053557342687970855 0.016376860909227964
-0.012459681884504303 -0.05358324530414649 0.014676527936470674
-0.012486665648630489 -0.05363698721913435 0.012949458609384956
-0.012512333060951144 -0.053640935728155814 0.011250424303822004
-0.012538306109804255 -0.05365186234310554 0.009539418737084304
-0.01256458794737457 -0.05366981113413272 0.00781628519537897
-0.012590738302098288 -0.05367944536123109 0.006091970298958804
-0.012617200155496057 -0.053696126129375854 0.004355376584176174
-0.014861122357822974 -0.13151012318336075 0.0467885496389322
-0.01463757313011431 -0.12282933648760763 0.04979802046458437
-0.014420649752519813 -0.11440584252366548 0.05271829258062233
-0.014210015731705617 -0.10622677812931819 0.05555413837601675
-0.014010790931017881 -0.0984668780368016 0.058207938113023494
-0.014020952440006547 -0.09791483249741967 0.0569429922355032
-0.014031173759316954 -0.09736352835492856 0.05567535686024572
-0.014041364866232944 -0.09680987774408972 0.054406729967200584
-0.014051615979379165 -0.09625696371817127 0.0531353961382266
-0.01406188207134636 -0.09570324178008449 0.051862204649487154
-0.01407216317498894 -0.0951487101577671 0.05058715142641451
-0.014707443648735576 -0.11579016064604469 0.03723504311144932
-0.014717153824883034 -0.11517348446322323 0.03592003629579338
-0.014726876831163986 -0.1145559934613456 0.034603291951247894
-0.014736612693024223 -0.11393768602440879 0.03328480663181721
-0.014746411207104808 -0.11332023575880668 0.03196360001422471
-0.01475617292264562 -0.11270028960175005 0.03064161725905895
-0.014765947570638285 -0.1120795221318065 0.029317883123512634
-0.014775735176799629 -0.1114579317157694 0.027992394124897235
-0.014785585802831985 -0.11083718799015124 0.026664149374129698
-0.014795399469196193 -0.1102139457636846 0.02533513500182305
-0.014805226171421503 -0.10958987566128897 0.024004355249994225
-0.014102232714734953 -0.08529274722138169 0.03704497471202173
-0.014044480513458413 -0.0824721097634355 0.03713358902541869
-0.013986975516430997 -0.07966707437723858 0.03722602915262807
-0.013930872231871134 -0.076915710419242 0.03729869410649789
-0.013878037904606212 -0.07427927616688651 0.03731303952198306
-0.013828053237246927 -0.07174335170306978 0.03727692922509018
-0.013779383340393013 -0.06925700787023364 0.037221362448559836
-0.013730968539198248 -0.06678527756530189 0.03716797195902899
-0.01368314987698113 -0.06433926180859606 0.03710961352250358
-0.013635663121150209 -0.061910223696298616 0.03705166014810918
-0.01359070280428776 -0.05956956606203412 0.03694810512669372
-0.01354528208056921 -0.05721972450702206 0.03686110979294416
-0.013505004527484958 -0.05504255274071734 0.03667264145558807
-0.013495743760123012 -0.05387466605723512 0.03583405064675238
-0.013512355648733923 -0.05354388290012141 0.03444744951741924
-0.013539321934281083 -0.05354483612606775 0.03283762516343286
-0.0135667751982911 -0.053557993680099225 0.03121325330522412
-0.013595101431708419 -0.05359565810303035 0.029565936457046582
-0.013622866548921139 -0.05361169627869666 0.02792636752894373
-0.013650190879785487 -0.05361006544412544 0.026292074071127547
-0.013678738404870449 -0.053643969963253935 0.02462705644463803
-0.01370568561197609 -0.053623220281300066 0.022992507425904196
-0.013734120583824628 -0.05364630907373441 0.021321324081078674
-0.013760939916399656 -0.05361447772070771 0.01968120769617504
-0.01378930021269087 -0.05362799461318979 0.018003078156841157
-0.013817733947409467 -0.05364018634336115 0.01631898216080535
-0.013846680122631091 -0.053664883730464075 0.014619176671685052
-0.013876408873269734 -0.05371048994373118 0.012897538349142368
-0.013905026339147593 -0.05371737013263611 0.01119613627030236
-0.013934117588654689 -0.0537354218583293 0.009479744116460187
-0.013963330819207663 -0.05375354927571113 0.007756155045445801
-0.013992353113465101 -0.0537619608355101 0.006032393611258791
-0.01402176629678761 -0.05377881821701391 0.004295345839570586
-0.016296240078071178 -0.1299050217074087 0.04764519021742053
-0.016051856204563678 -0.12127497962219214 0.05063256718271769
-0.01581469377792708 -0.11289995186949775 0.053531668339284744
-0.015584386836913034 -0.1047672179127096 0.056347208955615846
-0.015427207091415962 -0.09894600446151391 0.05794604380234897
-0.015438456604104926 -0.09839530348453174 0.056678797796511304
-0.015449672869611568 -0.09784225296714005 0.05541055734644773
-0.015460955182052533 -0.09728994342938158 0.05413961302144038
-0.015472204174228055 -0.09673528213740085 0.05286767558296235
-0.015483519430079752 -0.09618135698933056 0.051593016735560215
-0.01549485124829177 -0.09562662105033776 0.05031649214530565
-0.01620065749160172 -0.11648291895073337 0.03684039917320309
-0.016211368378669284 -0.11586584375944137 0.03552330393586528
-0.016222093437798728 -0.11524795208801653 0.03420446599005372
-0.016232832697136393 -0.11462924231490856 0.03288388187469027
-0.016243641085738426 -0.1140113927096924 0.03156056852889494
-0.01625440890303996 -0.1133910408668376 0.030236476526947276
-0.016265191005581523 -0.1127698660276994 0.0289106279043288
-0.016275987421809246 -0.11214786655342801 0.02758301916306405
-0.01628679818024524 -0.11152504080083209 0.026253646795876828
-0.01629767857620452 -0.11090306206558759 0.024921501923130418
-0.01630851817846622 -0.11027857780416211 0.023588586553256574
-0.015511054907835435 -0.08525042673474514 0.03707067069721037
-0.015449723893256762 -0.08249605239278807 0.03711896822163774
-0.015385821529696421 -0.07967151821172641 0.03722329997848134
-0.01532371583020587 -0.07690837811306722 0.03730322321040719
-0.015265793854277744 -0.0742778237203256 0.03731394187316639
-0.015210618483725133 -0.0717361553637254 0.037281425246056155
-0.015156892061834725 -0.06924417068794819 0.03722942827825143
-0.015103211600722062 -0.06675983382665751 0.03718404950568904
-0.015051418289317168 -0.06433786088859661 0.037110503839132336
-0.01499908954169928 -0.061906058051426516 0.037054322354836744
-0.014949727102457655 -0.05956818944376713 0.03694898993049184
-0.014899302684608545 -0.05720471172877756 0.03687081277437476
-0.014856010582828766 -0.055057448104478324 0.03666296025907306
-0.014847244792680942 -0.053931353838748364 0.03579699908207429
-0.014866258336967444 -0.05362220688648034 0.034395968778171915
-0.014895885737547656 -0.05362196327214114 0.03278664679167487
-0.014926187722569838 -0.05363799184973833 0.031160081230653447
-0.014957451112920702 -0.05367854846015063 0.029510534056572113
-0.014988051092825446 -0.05369612095034204 0.02786962467620574
-0.01501835414309909 -0.05370148266226049 0.026230289036804855
-0.015049392575937575 -0.05372464434370622 0.024572228670756813
-0.015079234714028486 -0.05370953082013402 0.022933523326975347
-0.015110240516288485 -0.05372456427941252 0.02126754829183175
-0.01513989544606037 -0.05369700726319576 0.019624180507688327
-0.015170624690138992 -0.053696910976288426 0.017955194185518053
-0.015202440635984629 -0.05372444296106277 0.016260116244369516
-0.015234100572760746 -0.05374378375720246 0.014563749144553662
-0.01526695952040746 -0.053793730428566056 0.01283873959724452
-0.015298548142188189 -0.053803564626653755 0.011134916058640698
-0.015330561162358642 -0.05382180028894301 0.00941805634451065
-0.01536261022665912 -0.053837319537926365 0.007696001830530819
-0.015394448387887685 -0.05384310814466986 0.005973804748815592
-0.015427062520914695 -0.05386715111837698 0.004231220111312273
-0.01772249175040388 -0.1283116318664721 0.048495580311547104
-0.01745747441877573 -0.11973014580438957 0.05146200089989944
-0.017200322749961264 -0.11140315142341889 0.05434013420964945
-0.01695058210167161 -0.10331634030842912 0.057135561727540196
-0.016846499121013613 -0.09942763558177181 0.057682780404971545
-0.016858741650967693 -0.0988751858867527 0.056414927000285886
-0.01687105627588588 -0.09832348157131271 0.05514437278591938
-0.01688338890454205 -0.09777097067520452 0.053871961046578765
-0.016895685128927886 -0.09721610382381185 0.05259855391881513
-0.01690805380395992 -0.09666197510495711 0.05132241963773504
-0.016920440601433537 -0.09610703448313374 0.050044415579392265
-0.017697964957298338 -0.11717591568976238 0.036445619406136165
-0.0177097418314644 -0.11656013012324584 0.03512546733703187
-0.01772147448958375 -0.11594183794301105 0.03380452922734767
-0.017733222703640972 -0.11532272599003063 0.032481839730270134
-0.01774498650459443 -0.11470279263286448 0.03115739536032669
-0.017756826062228552 -0.11408371983532067 0.029830205154611655
-0.017768621210099353 -0.11346213776985614 0.028502235388998154
-0.017780432038394495 -0.11283972937570114 0.0271725002256189
-0.017792258578402734 -0.1122164930039749 0.025840996141767658
-0.017804100861496603 -0.11159242700141953 0.024507719605351475
-0.017816019459494813 -0.11096920833887919 0.023171653688565996
-0.01691913109825314 -0.08519451492523489 0.03710461898384815
-0.016852673812507355 -0.08245265853650724 0.03714546732068402
-0.01678544672698572 -0.07969670098110149 0.03720783366875213
-0.016716408422542347 -0.0768981132283888 0.03730956371332533
-0.016653699682997097 -0.07428072898738314 0.03731213716461357
-0.016593507586076434 -0.07173903404172255 0.0372796268545279
-0.016534948330520067 -0.06924844982867634 0.03722673971902696
-0.016476076036815362 -0.06675559358363264 0.037186728919835654
-0.01641931818093846 -0.06432665300565854 0.03711762617236114
-0.016362694694576078 -0.06190744675029308 0.0370534349579405
-0.016308590756867053 -0.059562682699304315 0.03695252909102548
-0.016253684424520347 -0.05720198233980617 0.03687257688159873
-0.016207359019033384 -0.055079115842732285 0.03664887734340666
-0.01619909658705594 -0.05398805633274306 0.03575993790120652
-0.01622074728457553 -0.05370326127579389 0.03434269339875279
-0.01625313048226253 -0.053704533034273305 0.03273207103374992
-0.016286402071707326 -0.053726159362383785 0.0311014792623856
-0.016320521377276933 -0.053766908885925335 0.0294514755569239
-0.0163539166975313 -0.053784665743450255 0.02781011263564631
-0.01638688555496667 -0.053787477070029344 0.026172169055650396
-0.016420964733575915 -0.05381629376073688 0.024509942051702427
-0.016453636741658013 -0.053804100558088874 0.022868894933642026
-0.016487009298453835 -0.053806968480834605 0.021210921371356772
-0.016519684651207605 -0.053787825789182175 0.019561425696142
-0.01655316915874487 -0.05378653474109557 0.01789292242126217
-0.016587996689543263 -0.05381702458124693 0.016195434053633218
-0.016622549462100584 -0.05383656233310735 0.014498571876264188
-0.016658146194371767 -0.053879778933866584 0.012777957335317003
-0.016692407518207657 -0.0538842289999083 0.011077623657540503
-0.016727557199375034 -0.053908212892745944 0.009356344167534447
-0.016762372886820025 -0.053919724971152716 0.0076368286647615635
-0.016797387618328788 -0.05393268498922277 0.005909129700195526
-0.016833305550159525 -0.05396534068382225 0.004159938876708069
-0.01913984516897493 -0.12672639323407764 0.04934162011615861
-0.018854507159803805 -0.11819474778447014 0.052286368461212096
-0.018577612634699786 -0.10991535912446454 0.05514373451525251
-0.01830861524735676 -0.10187250503651146 0.05792008795866749
-0.018269276958618307 -0.09992731719261055 0.05740965046363805
-0.018282390647802942 -0.09937000015086528 0.056142845685795695
-0.018295523176448794 -0.09881188245333922 0.05487422098397371
-0.01830867458518277 -0.09825296237342407 0.05360377243353115
-0.018322022222158695 -0.09769789025329023 0.052328892276403305
-0.018335389335003713 -0.09714200821373381 0.051052151910064625
-0.018348835242338782 -0.09658686386219856 0.04977266978574829
-0.019199497722174795 -0.11787253114376572 0.03604877816388724
-0.019212226584854875 -0.11725465940442359 0.03472749154304533
-0.019224972336588753 -0.11663596785362113 0.03340445179786394
-0.019237800169715828 -0.11601814511852565 0.03207867552075677
-0.019250579887152522 -0.11539780806268052 0.030752113896186428
-0.01926337659499142 -0.11477664628011758 0.029423788632187142
-0.019276255746599705 -0.11415634544509606 0.028092700806855886
-0.01928908662416746 -0.11353352827535912 0.026760832510691945
-0.019301934594298083 -0.1129098814242509 0.025427189975733178
-0.019314799691168637 -0.11228540323277764 0.0240917696543117
-0.019327681949047885 -0.11166009203753235 0.022754567989287044
-0.018326634544918365 -0.08513257417534581 0.03714222788790433
-0.01825442346818666 -0.08238533918865898 0.037186576833055374
-0.018183419527366813 -0.0796759622541715 0.03722057075171625
-0.01810932753968542 -0.07689518057555345 0.037311375233472555
-0.01804150853107691 -0.07428072910899108 0.037312137164438486
-0.0179765279849353 -0.07174479138592188 0.03727603000331736
-0.017913030675811834 -0.06925272905040164 0.03722405110891247
-0.017848802407950316 -0.06674852660943337 0.037191194497899316
-0.017787372345796585 -0.06432104933473415 0.037121187205058026
-0.017726142393770936 -0.061904669719557215 0.03705520974573806
-0.01766731068697207 -0.059554422780046634 0.03695783766675509
-0.01760810395627561 -0.05720061771734747 0.03687345892692401
-0.017559058268528428 -0.055106203500327244 0.036631271739685
-0.017550702712622816 -0.0540299176450485 0.035732577049649605
-0.017575956741059443 -0.05378975245808981 0.03428584452218941
-0.01761110705461928 -0.053792551572908465 0.03267389381781449
-0.01764705616383569 -0.05381164801672633 0.031044657843194545
-0.01768414334972409 -0.05385530507595154 0.029392393153101326
-0.017720557415722787 -0.05387869873524076 0.02774691190456602
-0.017756344582300854 -0.05388306612671423 0.026107564448346887
-0.017793335610761022 -0.053913456764480616 0.024443908293481198
-0.01782857815988857 -0.05389733980053013 0.02280517579417296
-0.017864466270075024 -0.053893526359547084 0.021151440102563535
-0.017900273497450794 -0.05388418974583281 0.019494839035198053
-0.01793650776145372 -0.0538817140663041 0.01782679057580344
-0.01797402652841505 -0.05390688009318256 0.01613265646217621
-0.018011474115615392 -0.05392660907964503 0.01443531373002982
-0.018050282607294233 -0.05397558244684958 0.012710284398612548
-0.018087588136746286 -0.05398440550928851 0.011006472612701323
-0.0181252217072251 -0.053997448861977604 0.009292615661203596
-0.018162896044729742 -0.05400775153348747 0.0075736191086533955
-0.0182007273250534 -0.054018097123522846 0.0058474616028751925
-0.018239302217705086 -0.054042520622332724 0.004103909711029974
-0.020863127558302268 -0.13389130717947417 0.04717052187231058
-0.020548368552705587 -0.12514924620973966 0.050183341439957674
-0.020243032847866507 -0.11666869937529634 0.053105716141223946
-0.01994663848659429 -0.10843649389642446 0.05594251304773595
-0.01968150686815176 -0.10100034395422247 0.0583939877850741
-0.019695639210231958 -0.10044360179412654 0.05712744519350621
-0.019709791862327117 -0.09988605952321888 0.05585908241554838
-0.01972396486825077 -0.09932771541546037 0.05458889552461427
-0.019738158271942658 -0.09876856773984616 0.05331688058281364
-0.01975230833291865 -0.0982070607624077 0.05204390343243981
-0.019766542572508844 -0.09764630143036196 0.05076822527904706
-0.020691490577290722 -0.1191885400097038 0.03697246989569736
-0.02070521862515428 -0.11857108962681429 0.035650830035399206
-0.02071896490114865 -0.11795281939213209 0.03432743529906357
-0.0207327294416032 -0.11733372767167627 0.03300228218917334
-0.020746512282943365 -0.11671381282710824 0.031675367198918114
-0.020760383922517965 -0.11609476722361983 0.030345698992180203
-0.020774203569133544 -0.11547320021502344 0.02901524450725218
-0.02078804162668254 -0.11485080513698503 0.027683017552482314
-0.020801968875367376 -0.11422927139054045 0.026348011189493425
-0.020815843959732547 -0.11360521420580211 0.025012223437444026
-0.020829737565962732 -0.11298032396657293 0.023674652541027463
-0.02084364973116969 -0.11235459900366374 0.02233529492738129
-0.01973612151361824 -0.0851265321642955 0.03714589651634537
-0.01965513612209539 -0.0823030863974315 0.037236805647287485
-0.019579574686105362 -0.07961523786727498 0.03725786564224187
-0.019502042355938245 -0.07688784892401312 0.03731590393301942
-0.0194297493964297 -0.0742908975304582 0.03730582050430731
-0.01935958340198337 -0.0717505488759223 0.037272433061018795
-0.019290409037922954 -0.06923989211108156 0.03723211678593891
-0.019221727253614408 -0.06674711333749828 0.03719208759652615
-0.019156472071727645 -0.06434066333668831 0.03710872319953168
-0.019088977331852053 -0.061888007665881484 0.037065858008064834
-0.019025684008360324 -0.05953928029628258 0.03696756954108882
-0.01896198603570928 -0.05718697089029173 0.03688227908077801
-0.018911333949088126 -0.055142777110471386 0.03660750072101032
-0.018902275736097998 -0.0540650333362081 0.0357096251965105
-0.018931351526191145 -0.05386816469966543 0.034234305774608176
-0.018969219315253236 -0.053871121163458546 0.032621962038849206
-0.019008361164831098 -0.05389988567732168 0.03098600924995376
-0.01904825804678946 -0.05394237629068971 0.029334196339858065
-0.01908766753438302 -0.053970044886995916 0.027685517034063523
-0.019126462916163607 -0.05398006348623058 0.026042008027469976
-0.019166016842361765 -0.05400381608360949 0.024382498449755374
-0.019204649308558443 -0.05400296758061762 0.022732990391478414
-0.01924319567266989 -0.053996616166910594 0.021080598326005784
-0.019282079432520024 -0.05399437203996338 0.019418704010634225
-0.019320693451321817 -0.053982456192029404 0.017756793618611655
-0.01936081052278965 -0.054000922349608405 0.01606695379601014
-0.019400848395581892 -0.05401392059355947 0.014373977096650892
-0.019442597078381516 -0.054061702620213536 0.012649451512363907
-0.01948278811672996 -0.05407070544950349 0.010945177507176218
-0.019523394916910446 -0.05408532612837469 0.009229857483590453
-0.019563858468945778 -0.05409301740890965 0.007512391931895457
-0.019604804267356057 -0.054107745750794245 0.005782734726679006
-0.019646363522204963 -0.05413236431177121 0.004038687216912862
-0.02228342755125507 -0.13227433093357788 0.04802832979339822
-0.021948349970607947 -0.12358522163049834 0.051018059331956134
-0.021623128951021975 -0.1151519154362049 0.053920089652642555
-0.021307405186910613 -0.10696488257161502 0.056737373534020696
-0.02110988014952777 -0.10151795731584745 0.058112736082530037
-0.02112505435525046 -0.10096099141780707 0.05684463590946892
-0.021140250391636015 -0.10040322423020154 0.055574711359868134
-0.02115546830582885 -0.09984465402259624 0.05430295849388411
-0.021170639756374954 -0.0992837210364147 0.05303024027188219
-0.021185901469522574 -0.09872354026527941 0.05175482365612183
-0.021201185202514506 -0.0981625512564665 0.050477566848967426
-0.022200395496345234 -0.1198894463013157 0.03657551973275097
-0.022215145213303714 -0.1192715992796215 0.03525177038314814
-0.022229914542337238 -0.11865293073300687 0.0339262609001717
-0.022244703522587488 -0.11803343902185359 0.0325989877709284
-0.022259512193300985 -0.11741312250219071 0.03126994747316286
-0.022274340593828233 -0.11679197952565312 0.02993913647524188
-0.022289264569917224 -0.11617170621195466 0.028605555455223974
-0.02230413264971147 -0.1155489043719175 0.02727118721889682
-0.02231902057820575 -0.11492527109935824 0.02593503761785737
-0.022334004506092454 -0.11430249953851923 0.024596091639268236
-0.022348932353189653 -0.1136771973987557 0.023256363345986464
-0.021246963077123593 -0.08827568077415238 0.03687171314503929
-0.021145776782272488 -0.08512502177860626 0.03714681365849315
-0.021057045037536623 -0.08225823354750489 0.037264195699771796
-0.020975564830200057 -0.07955897096766651 0.03729242289842788
-0.02089464615174468 -0.07687905122631783 0.037321338181912356
-0.020817655229736942 -0.0742923503032929 0.03730491810117981
-0.020742936447851648 -0.07176206417210257 0.03726523890336403
-0.020667057455523514 -0.06921279416461429 0.03724914282301539
-0.02059613208731738 -0.06677821013947205 0.037172438125878005
-0.020524791907210377 -0.06434066345660877 0.03710872319934222
-0.02045241227200744 -0.061886619327275794 0.03706674532708709
-0.02038396438041472 -0.05952413884869212 0.03697730074948746
-0.020316162046129727 -0.05718151246759229 0.036885806989091774
-0.020263647450956535 -0.055175292125800524 0.03658636759464895
-0.02025531794216699 -0.054127174831764435 0.03566900903555825
-0.02028767262315434 -0.053956073933082604 0.034176524840973554
-0.02032826159995711 -0.05395920687043504 0.03256374042696031
-0.02037002628292503 -0.05398408405936167 0.030930045432405684
-0.020412916597104043 -0.0540294822195071 0.029275976324356856
-0.02045477484421936 -0.054049151526842365 0.02763234850060292
-0.020496292289216594 -0.054057965802378205 0.02598935715629208
-0.020539201567973342 -0.0540928428593051 0.02432199422811876
-0.02058035186342213 -0.054086683019157644 0.02267577977095203
-0.020622121603292992 -0.054090126328165955 0.02101633954694454
-0.020663865776520778 -0.05408944893145862 0.019353006701771647
-0.02070577929315001 -0.05408876878668312 0.01768292622156986
-0.02074792887028724 -0.05408946970354361 0.016005090150992995
-0.02079156954407568 -0.0541179083555296 0.014300925326481806
-0.02083486428583349 -0.054135348410695394 0.012597430194387138
-0.020878140173657612 -0.05414868309635246 0.010889793374133871
-0.02092193016163192 -0.054169051632067255 0.009170064321120663
-0.020965166458815417 -0.054174120749392984 0.007454153766030036
-0.021008985907070087 -0.05418762004313338 0.005725064991826345
-0.02105346233782861 -0.054211007860531235 0.0039815955343691645
-0.023694869467810742 -0.13066743938756398 0.0488807877685834
-0.02333966231983828 -0.12202910862673677 0.051848554826295246
-0.02299487199957441 -0.11364431185715085 0.05472953415482856
-0.022660046926616974 -0.10550205804625551 0.05752748801192259
-0.02254123901833137 -0.10203511485128303 0.057831732059056284
-0.022557459416073653 -0.1014779262058707 0.05656207524240092
-0.02257370317454546 -0.1009199350936274 0.055290589857328765
-0.022589970344249522 -0.10036113977972527 0.05401727195071837
-0.02260626097583414 -0.09980153852432927 0.052742117558046864
-0.022622575120094208 -0.09924112958259113 0.05146512270334219
-0.022638912827970942 -0.09867991120461306 0.05018628339915204
-0.023713518082061954 -0.12059231175490093 0.036177460021104724
-0.0237292951318504 -0.11997406828845414 0.03485159454365955
-0.023745093189072423 -0.11935500161952173 0.03352396365195803
-0.023760912295713893 -0.11873511010284943 0.03219456381762564
-0.023776752493872042 -0.11811439208878305 0.030863391502886417
-0.02379261382575705 -0.1174928459232798 0.029530443160516617
-0.02380857742082942 -0.11687217248827197 0.028194716656440688
-0.0238244812556149 -0.11624896405338458 0.026858200357256334
-0.023840406351651633 -0.11562492247418577 0.02551989731875548
-0.023856352751603496 -0.11500004607886377 0.024179803955599155
-0.023872402020714594 -0.1143760317714107 0.022836897121984667
-0.022657551346762443 -0.0881534768417121 0.03694548760794736
-0.022553967527369396 -0.08509330345868643 0.037166072280854834
-0.022461281529961224 -0.08226720357344963 0.03725871811143522
-0.022373077000356192 -0.07954120540032372 0.037303333969708474
-0.022287054559148756 -0.07686732144561614 0.03732858352375246
-0.022206557427137997 -0.07431414130012015 0.03729138136913018
-0.022128180573648883 -0.07181101029338499 0.0372346596690567
-0.022044792170883076 -0.06921136816128565 0.037250038873512914
-0.02196913890693619 -0.06677679668102215 0.03717333134236489
-0.021893043178078282 -0.06433926252793182 0.03710961352148423
-0.0218159067841765 -0.061886619446787194 0.03706674532688836
-0.021742287058592456 -0.05951175118386143 0.03698526215195641
-0.02167050600467079 -0.05718014797210058 0.0368866889523527
-0.021615626954338968 -0.05519697152323061 0.03657227710111216
-0.021608277374626082 -0.05417987387330464 0.03563456454714781
-0.021644137562777152 -0.054035899114292296 0.03412405739599894
-0.021687919295479138 -0.054048684090982846 0.032504599071426166
-0.021732081188248088 -0.05406559727219501 0.03087586635858164
-0.021778526412307254 -0.05412479409078541 0.029212271598994255
-0.021822649698187375 -0.05413374546641336 0.027575491880822367
-0.021866883733646446 -0.05414136571174266 0.02593299068937821
-0.021912465057696638 -0.05417231277702017 0.02426798503035582
-0.021957202254818335 -0.054182789426515554 0.022610101225750856
-0.022001637764806337 -0.05418367651521805 0.02095205326275651
-0.022045627761787687 -0.05417215813887172 0.01929585536638906
-0.02209042225661631 -0.05417302720544004 0.01762438237509456
-0.02213680106299578 -0.054201588873921513 0.015926758024337517
-0.022182952661714498 -0.05422194561463162 0.014227838784402813
-0.02222795413275713 -0.05421597035103609 0.012540481111989132
-0.02227455796643518 -0.054237834464920864 0.010826473019901917
-0.02232100127137555 -0.05425280921617076 0.009110248248197783
-0.022367066113412097 -0.05425665330602919 0.007394889316295283
-0.022413680796124342 -0.054267523530726725 0.0056673741778188735
-0.022461211852038598 -0.05429248993822927 0.003922443204184112
-0.02548417484563691 -0.13792315588040693 0.0466911577592507
-0.02509753591896021 -0.1290705384908789 0.04972794569180261
-0.024722453635739525 -0.12048252597094944 0.05267396398626589
-0.024358337600221762 -0.11214580554318448 0.05553409426212952
-0.02400463625873289 -0.10404794185734695 0.05831289886161145
-0.023975733968267653 -0.10255494493289419 0.05754927587394598
-0.023993005110141567 -0.10199753318835164 0.056278053932404926
-0.024010301152729608 -0.10143931779409082 0.05500499920344509
-0.024027622149921418 -0.10088029701085743 0.05373010772057041
-0.02404496815576271 -0.10032046909438452 0.05245337550582568
-0.02406233922445491 -0.09975983229535468 0.05117479856976581
-0.025214002736655552 -0.12191324696430006 0.037105472266397654
-0.02523079033502479 -0.1212954314488085 0.03577925632357398
-0.0252476861248682 -0.12067850488542442 0.034450297827342435
-0.02526451862111806 -0.1200590402900843 0.03312053883369026
-0.025281373576531138 -0.11943874915933683 0.03178900557726183
-0.02529825103608727 -0.11881762983783672 0.03045569450465957
-0.02531515104488644 -0.11819568066581454 0.029120602052991273
-0.02533207364814972 -0.11757289997907294 0.027783724649832198
-0.025349105404231714 -0.11695099245116652 0.026444052088961723
-0.025366073448427184 -0.11632654273412446 0.02510358877560598
-0.02538306422370917 -0.11570125647878193 0.023761329722848168
-0.025400164637665267 -0.1150768353730734 0.02241624889393673
-0.024069202105859125 -0.08806644523099993 0.03699802857642037
-0.023963127084328604 -0.08508424195930647 0.03717157426488843
-0.023865648850167728 -0.08227766902035943 0.037252327324794554
-0.023771242589746232 -0.0795382447072962 0.03730515239990828
-0.02367961841786127 -0.07685999068233873 0.03733311167462766
-0.023594692527793063 -0.07431849984606054 0.03728867386772522
-0.023510299210481367 -0.07179373415282819 0.03724545309125482
-0.023425916370334525 -0.06927555277313246 0.037209710995784684
-0.023343530953982086 -0.06680224257952927 0.037157252582650624
-0.023262524381650034 -0.06436168047886875 0.03709536769455546
-0.023179545971735663 -0.061889396491181026 0.0370649706827223
-0.023100821081286187 -0.05950486950045719 0.03698968496064098
-0.023024627441096113 -0.057174689718644534 0.03689021675127968
-0.022968450483182638 -0.05523220504558146 0.03654937707537309
-0.022962059947074502 -0.05424204802962146 0.03559392703887215
-0.02300081326668527 -0.054110338696663984 0.03407512979931698
-0.023047704803381332 -0.05413005883316102 0.03245081318165488
-0.02309493154634343 -0.05415257821509434 0.030818053064370854
-0.023144443498296776 -0.054214697659737354 0.029152181689320544
-0.023190909331494244 -0.054215641757289545 0.02752044838625678
-0.02323828914361627 -0.054230269493153294 0.0258729043831305
-0.023286081960956027 -0.0542490697803556 0.024215819581227205
-0.023334145074797783 -0.05426932134587459 0.022550965836705628
-0.023381302910509688 -0.05426900719044486 0.020893415310995922
-0.02342761716966766 -0.05424938165174492 0.019242494603268934
-0.023473744337671302 -0.05422276877891069 0.017589821316540133
-0.02352303304499955 -0.05425143814802713 0.015891930845581992
-0.02357350176756509 -0.05429827111567248 0.014174219872976235
-0.023621107178334155 -0.05428827738922304 0.012489405452650815
-0.023670791020120825 -0.05431308423872061 0.010773026379597428
-0.02372053279979858 -0.05433520214331555 0.009051406756175662
-0.023769266960173095 -0.05433501812745778 0.007338617611631459
-0.023818812832544667 -0.054346053651856685 0.005610674944474037
-0.02386910261858389 -0.05436697426943532 0.0038683709314628056
-0.026898338041920256 -0.1362839250822726 0.04755554977323184
-0.02649150849163013 -0.12748353535882762 0.05056985283850274
-0.02609680195939173 -0.11894538637810337 0.053494333395777305
-0.025713600449946042 -0.11065631439916279 0.05633381405208887
-0.025395006909227108 -0.10363272182314515 0.058537171441383096
-0.025413306877695833 -0.10307589040077964 0.057266213629734775
-0.025431633239492026 -0.10251825588240199 0.05599342276558977
-0.025449986051755764 -0.10195981652934338 0.05471879488047904
-0.02546836537179266 -0.10140057059792146 0.053442325994464634
-0.025486771257073524 -0.1008405163394045 0.052164012116108605
-0.02550520376523556 -0.10027965200000477 0.05088384924242473
-0.026734571239656654 -0.12262044501754987 0.03670730634590874
-0.02675239618258077 -0.12200223514459152 0.035378966234057396
-0.026770244910401936 -0.12138320035701744 0.03404885363798121
-0.02678811747075868 -0.12076333900263081 0.032716965007609344
-0.0268061052806632 -0.12014436448231125 0.031382308271134696
-0.02682402577172015 -0.11952284404666769 0.03004685166817339
-0.026841970239237654 -0.11890049205690378 0.028709608310595047
-0.026859938731366637 -0.11827730684305926 0.027370574610152687
-0.026878023156557462 -0.11765499788163569 0.026028737507927724
-0.026896039966069003 -0.11703014020182145 0.02468610705014085
-0.026914080945667596 -0.1164044442569212 0.023341675413712015
-0.026932146144022763 -0.11577790835895818 0.02199543897171119
-0.025483964408533358 -0.08804660051457619 0.03701000888600381
-0.02537247765713219 -0.0850797114030114 0.03717432517689062
-0.025268942620254135 -0.08226720381972058 0.03725871811093606
-0.025168584780353224 -0.07952048073194512 0.03731606249343361
-0.025071818159844786 -0.07684679579968412 0.03734126198259263
-0.024981187574713844 -0.07429235066839496 0.03730491810048747
-0.024890658400438883 -0.07174623132061198 0.03727513077526157
-0.024802894856551388 -0.06925700883635155 0.03722136244704438
-0.02471660249652363 -0.06680082897007217 0.03715814589456007
-0.024630599932875172 -0.06435607593047976 0.037098929284854754
-0.024543508562870717 -0.06189772759331713 0.03705964661771177
-0.024459617141906906 -0.059503493284775166 0.036990569505692295
-0.02437795960927871 -0.057155586600711294 0.036902563359085205
-0.02432088984828727 -0.0552566008397023 0.03653352105406982
-0.02431615243025472 -0.05430288768979796 0.03555416176924825
-0.02435847929379984 -0.05419428280172345 0.03401995506670824
-0.024407920987533305 -0.05421010688470951 0.032397904189804594
-0.024458096234807034 -0.05423551416047773 0.03076292834705513
-0.02451000584647056 -0.05428828265665964 0.02910299883073819
-0.024558991461162624 -0.05428527775214331 0.02747364519799922
-0.0246097133763011 -0.054309629567915296 0.025819268273317153
-0.024659794647395653 -0.054318996944068 0.024168295822026176
-0.02471101187505599 -0.054344893109797676 0.022499320561848835
-0.02476096097821325 -0.054344731655378675 0.02084137861125218
-0.024809781803618456 -0.054321113639328955 0.01919292844141085
-0.024859659902352768 -0.054312608529350825 0.017527399482643313
-0.024909817856368383 -0.054305454347054694 0.01585419243907349
-0.024963902469701746 -0.0543635158612939 0.014128385240471997
-0.025014800642710604 -0.05436199955858184 0.012437330182779371
-0.025068143952132943 -0.05439951405520416 0.010711639028593622
-0.025120190640129592 -0.0544106398480908 0.008997532392815477
-0.025171970473506184 -0.054413411041432824 0.007282325734453421
-0.025224692354938297 -0.05442882125537024 0.005550916217891111
-0.02527771679559828 -0.05444570226040235 0.0038112179476715857
-0.02830372591447945 -0.13465674313051124 0.04841358824232367
-0.02787686776450313 -0.12590633825458886 0.05140655787518211
-0.02746278438177525 -0.11741760362580478 0.05430970907160926
-0.02706064613703498 -0.10917415284502546 0.05712959852614219
-0.026834522789548503 -0.10415343270074812 0.05825592029787874
-0.026853880793971826 -0.10359638068203836 0.05698339871708008
-0.02687326674760245 -0.10303852438827837 0.055709039861847165
-0.026892767831957178 -0.10248143490041578 0.05443197490834789
-0.026912209991912187 -0.10192196414557902 0.05315392477853509
-0.02693168028359497 -0.10136168386769312 0.05187402538117214
-0.026951178768107226 -0.10080059230848248 0.050592272699672425
-0.028259405044279696 -0.12332962681112236 0.03630802354198387
-0.028278273091343554 -0.1227110227982372 0.0349775525529763
-0.028297166350540123 -0.12209159218556198 0.0336453037430961
-0.028316084872436725 -0.12147133331518467 0.03231127354658747
-0.028335028707736767 -0.12085024452476989 0.03097545838814475
-0.028353997907278647 -0.1202283241475175 0.029637854682896037
-0.028373089498153325 -0.11960728844696633 0.028297457063982734
-0.02839210970930224 -0.11898369889662097 0.02695626021334696
-0.028411155438290755 -0.11835927272802593 0.0256132639902949
-0.02843032410425818 -0.11773572324691017 0.024267447176212154
-0.028449421154075064 -0.11710961778924578 0.022920836029512615
-0.028468543876571627 -0.1164826706412242 0.02157241459722642
-0.02689730019875047 -0.08800386358328244 0.03703580920210947
-0.02678162814238698 -0.08507216058832973 0.037178909912051084
-0.026672258965304844 -0.08225823404003735 0.037264195698773483
-0.026566414772035835 -0.07951307954979953 0.037320608118258936
-0.026464022378931754 -0.07683506766433912 0.03734850630811559
-0.026364760576234207 -0.07421827734468533 0.03735093334098433
-0.026270230463341347 -0.07169010437924467 0.03731019641030303
-0.026179760436092017 -0.06923846642011999 0.03723301294291875
-0.026087779648611205 -0.06676690223930076 0.03717958370132596
-0.025997338482973684 -0.06432805481485648 0.03711673589878961
-0.025905905244663942 -0.061878289238829265 0.037072069125166085
-0.02581712002569271 -0.05948009702177609 0.0370056059332865
-0.025730775539548452 -0.05712966355013105 0.0369193177558127
-0.025673876798173855 -0.0552877771631633 0.0365132580133668
-0.02567117746463906 -0.05437321236735082 0.03550819700733737
-0.02571642785422178 -0.05427419504432668 0.03396743039807576
-0.02576895537134285 -0.05429561428526214 0.032341386751881196
-0.025821858550074652 -0.054319841961143145 0.03070687850932291
-0.025876269883808437 -0.05436598257735342 0.02905106562836668
-0.025927914333591227 -0.0543617663474652 0.027422236286827273
-0.025981798154421917 -0.05439175651291983 0.025763762150430802
-0.026034191702845086 -0.054393061844576984 0.024117959977626946
-0.02608835465097871 -0.054420490998497495 0.02244765743348165
-0.026140603045586797 -0.054412217376633376 0.02079500345978419
-0.026192069418255297 -0.0543873486827256 0.01914716062522792
-0.02624407071898259 -0.05436791292841536 0.01748897329494642
-0.026296278915470338 -0.054348399845668305 0.015824188592506616
-0.02635379776885078 -0.05441350375667292 0.014093268611665266
-0.026409132116133098 -0.05443852997751736 0.012383271241040661
-0.026465627420249622 -0.054479003881020394 0.010655180859013957
-0.026520924490797945 -0.05449588780742032 0.008936651956400699
-0.0265753470761258 -0.05449463332949783 0.007224002155473308
-0.02663127494399927 -0.05451442747934082 0.005489107986613284
-0.026687181323576007 -0.054530085126740124 0.0037499597720963007
-0.02970023312875307 -0.13303797243902105 0.04926719132236762
-0.029253693323543585 -0.12433885657151678 0.05223810886877983
-0.028820477058185905 -0.11589909253818537 0.05512013647201225
-0.028399627616297538 -0.10770086438181359 0.0579206189662238
-0.02827895270163519 -0.10470682517436086 0.05795701686642479
-0.02829900928824743 -0.10414322870582027 0.05668626199168658
-0.028319094344874195 -0.10357883222094999 0.05541370330022416
-0.028339299840199242 -0.10301521029944655 0.05413847020392454
-0.028359442149707675 -0.10244920794659984 0.05286228757989314
-0.028379613112013924 -0.10188240044535163 0.05158428956326727
-0.02840018199807055 -0.10132108267348017 0.050300947995895184
-0.029788522122437468 -0.12404080070353052 0.03590761914862162
-0.029808439069527144 -0.1234218027747771 0.03457501054289169
-0.02982838266775452 -0.12280197655660641 0.03324061875561962
-0.029848352970649045 -0.12218132038539176 0.03190444020525729
-0.029868350031882922 -0.12155983259303682 0.030566471300665643
-0.029888373905273036 -0.12093751150698429 0.029226708441068283
-0.029908424644779903 -0.12031435545017566 0.027885148016033867
-0.02992860481022777 -0.11969208454372249 0.0265407765303059
-0.029948709582195226 -0.11906725251135697 0.02519560481556582
-0.029968944165540544 -0.11844330028631656 0.023847604159610736
-0.02998910318867205 -0.11781678549910657 0.02249880654329156
-0.030009289350466865 -0.11718942727956205 0.02114819313650279
-0.028311388531499334 -0.08797791999261034 0.03705147139577497
-0.02819055127323556 -0.0850615898075705 0.03718532829288562
-0.028075430999775275 -0.08224776971366454 0.03727058595102645
-0.02796446850693656 -0.07951011921688839 0.03732242632728178
-0.027856333191313542 -0.0768262719859717 0.03735393930969161
-0.027752203614960665 -0.07421537311439441 0.03735273755620988
-0.02765234945249019 -0.07168147079747433 0.03731559035493054
-0.02755590482886511 -0.06920994252951723 0.03725093491759601
-0.02745900883973874 -0.0667372205627767 0.03719833912965581
-0.02736347738851205 -0.06429303332613795 0.037138991029704305
-0.02726750216662737 -0.06184774661636855 0.03709158801547896
-0.02717346531356895 -0.059440191374725115 0.03703125264070262
-0.027083683968812694 -0.05710783599969549 0.0369334251908785
-0.027026889059971748 -0.05531624638613919 0.03649475445836914
-0.02702571888981934 -0.05442867664459189 0.035471945136187566
-0.02707546014430747 -0.054363623009671624 0.033908651231946196
-0.02713069067140091 -0.05438387126371508 0.032283051935460993
-0.027186316148336827 -0.05440692413338882 0.0306489979313867
-0.027243444195348587 -0.05445052962630886 0.0289945559240245
-0.027297742536676876 -0.054445114723852106 0.0273662168265707
-0.027354483989878636 -0.05447528386515205 0.025707309550279556
-0.02740931227490283 -0.05447126867534774 0.024064809198072357
-0.0274661736494225 -0.05449611502552815 0.022395976442341203
