# .PCD v0.7 - Point Cloud Data file format
VERSION 0.7
FIELDS x y z
SIZE 4 4 4
TYPE F F F
COUNT 1 1 1
WIDTH 764
HEIGHT 1
VIEWPOINT 0 0 0 1 0 0 0
POINTS 764
DATA ascii
-0.009721292446082719 -0.06874206974023321 0.06898468231477745
-0.009712521484820269 -0.06887648392485511 0.06756547947206076
-0.009703716155895936 -0.06901142479043557 0.06614071570495778
-0.009695966656827815 -0.06914708742866113 0.06470964556960696
-0.009687094103807858 -0.06928309174150306 0.06327365605362889
-0.009656294775411689 -0.06941576219352923 0.06184647630397844
-0.00961660511896284 -0.0695473879286577 0.06041965080232836
-0.009577863126474684 -0.06967970874702539 0.05898666974806244
-0.008963180023910833 -0.0697101357369185 0.05793522392014111
-0.007267022336639506 -0.06954797059908713 0.0576134205020305
-0.005578737802078404 -0.06938655819251036 0.05729311081729904
-0.0038670838820793474 -0.06922031331354724 0.05699559810888877
-0.0019319821448001706 -0.06901333724220068 0.05685868065596378
-9.476513141593035e-06 -0.06880778535211977 0.05672184828960136
0.0015937470635999373 -0.06865887119111273 0.056371920376964646
0.0030834348081956175 -0.06852982977563962 0.05594901960534321
0.004564415025368251 -0.0684018361244853 0.05552551479343043
0.006038839978035504 -0.06827450686644031 0.05510285895949679
0.007233225215034 -0.06819747752276642 0.054486764895488426
0.00824654448744272 -0.06815305914298737 0.053744672247528213
0.009596583632624445 -0.06804709977921894 0.053246282936611156
0.011062173090197691 -0.06791960464553692 0.05283589532192107
0.012200270079568254 -0.06785150661372528 0.052193276888354456
0.013316968162076948 -0.06778705055352073 0.05153799039336787
0.014543773429533668 -0.06770209693485905 0.050966311314533386
0.015829320069191244 -0.06760597533470507 0.05044167487019002
0.01703879704950334 -0.06752348851367246 0.04986479315919451
0.01817122350200584 -0.06745490310060016 0.04923404068748399
0.019125098872841917 -0.0674191112047944 0.048472379230567186
0.019865720031862377 -0.06742276170093983 0.047551481738454526
0.020607402622902338 -0.06742623003856098 0.04663122842344841
0.02135112004062778 -0.06742933359069841 0.04571237329099209
0.022207258582407963 -0.06741144646120167 0.04487953618838003
0.02312040580204322 -0.06738281031981953 0.04409141558479851
0.02402889387034851 -0.06735492715920754 0.04330095580208243
0.024937598452351717 -0.06732688504896553 0.042511903886206015
0.025652399808636928 -0.06733525882028052 0.04157227417061671
0.026030470262316696 -0.06740724984552297 0.040367193573486115
0.026408383727438423 -0.06747957781479663 0.03915876867055934
0.026768748611805615 -0.06755554281813167 0.037933138815323175
0.028625551480532918 -0.06734745913225529 0.0379011428504486
0.029669786271419085 -0.06729322896542735 0.03722504057639048
0.02963322122003298 -0.06744503830434964 0.035677554303783054
-0.039326765414978426 -0.062403643233566716 0.1590188955042417
-0.03653130903994323 -0.06209591685445775 0.1589701700477415
-0.03376328742442808 -0.061791210518622526 0.15892192278544537
-0.03102125811464418 -0.06148932545247442 0.1588745551487453
-0.028306919983234702 -0.06119052883769236 0.15882724152913322
-0.025618833986434997 -0.060894622079879335 0.15878038551034684
-0.022955615551553177 -0.06060141335459314 0.15873438337156012
-0.020318915342596444 -0.06031116337610296 0.15868842104461353
-0.017707351651209013 -0.06002368044472403 0.1586428968913738
-0.015119594623658472 -0.05973877932062053 0.15859820215913376
-0.012590896247835881 -0.05946177184005139 0.15853968281738587
-0.010699864154421646 -0.059279815590668354 0.1582271151214267
-0.009400472100031532 -0.059186462403882055 0.15767443503323958
-0.008832014315064918 -0.059203218488067845 0.15681822259018144
-0.00885794841751436 -0.05930999237793341 0.15571008505592632
-0.008883976234070223 -0.05941715210026902 0.15459794321461182
-0.0089091447615956 -0.059524554935609104 0.1534821838269128
-0.008935359743774962 -0.05963249209777701 0.15236197145302957
-0.008961669971057684 -0.05974082142063797 0.15123768908831664
-0.008987117057094374 -0.05984939864580114 0.15010973349496362
-0.009013617525168438 -0.05995851819465101 0.14897724786211222
-0.009039252267926012 -0.060067888901206595 0.14784105119298843
-0.009065945059861136 -0.060177807354340154 0.14670027219602144
-0.00909273572137026 -0.060288128825329926 0.14555531051368914
-0.009118656759596389 -0.06039870643556426 0.14440658000751166
-0.009145642934048903 -0.06050984007115536 0.14325318730298772
-0.009171756870509806 -0.06062123323261266 0.14209598653066186
-0.009198940718534832 -0.06073318803442123 0.1409340693512669
-0.00922622515815541 -0.06084555711575818 0.13976785259299865
-0.009252633415764655 -0.06095819090614213 0.13859776777339153
-0.009280118837284357 -0.06107139491036074 0.13742288372935052
-0.009306725431250495 -0.06118486714791079 0.13624409087470585
-0.009334414076500597 -0.06129891541514678 0.1350604425777199
-0.009362206137494 -0.06141338964710719 0.13387237341198563
-0.009389115380602275 -0.061528137507171864 0.132680333129693
-0.009417114098523083 -0.061643470278602404 0.13148335150391616
-0.009444227322021825 -0.06175908034690796 0.13028235643402422
-0.009472435023759385 -0.061875281352528455 0.12907636169976164
-0.009500749072355874 -0.06199192045169194 0.12786582020187
-0.009528173589661015 -0.062108842464629443 0.12665120052884501
-0.009556700186087952 -0.06222636461900721 0.12543149206188
-0.009585334943044477 -0.06234433236662908 0.12420715898727616
-0.009613076103837104 -0.06246258878352615 0.12297868149456445
-0.009641927054180988 -0.06258145474664831 0.12174502406829676
-0.00966988168197136 -0.06270061329421152 0.12050717720845402
-0.009698951297292147 -0.06282038777065067 0.11926408852079717
-0.009728132186219984 -0.06294062072369251 0.11801624149817769
-0.009756412640924306 -0.06306115225697775 0.11676413617974846
-0.009785815981452672 -0.06318230947086802 0.1155066944166381
-0.009815332522707942 -0.06330393313126598 0.11424441159370796
-0.009843944489953571 -0.06342586151773785 0.11297779997875254
-0.009873687357407068 -0.06354842555257044 0.1117057551360669
-0.00990252287439991 -0.06367129849535133 0.1104293335810291
-0.009932494695771732 -0.06379481385316825 0.1091474130530295
-0.009962583027265937 -0.06391880935499093 0.10786050928675603
-0.009991759821587065 -0.06404312017085169 0.10656915547959131
-0.010022081133890692 -0.06416808374324016 0.10527220216688835
-0.010052521005907145 -0.06429353593717833 0.1039701776216091
-0.010082045125900108 -0.06441931001382896 0.10266362793894276
-0.010112722100648397 -0.06454574742134325 0.10135137588100829
-0.010142480496805106 -0.06467251118247519 0.10003454762230463
-0.010173397370659254 -0.06479994545507042 0.0987119470881524
-0.010204436325674138 -0.06492788292619134 0.0973841240135723
-0.010234552440361033 -0.06505615360181266 0.09605164657530221
-0.010265835581011462 -0.06518510576630757 0.09471328994397762
-0.010297242984778687 -0.0653145701555797 0.0933696170821558
-0.010327723258425792 -0.0654443747766374 0.09202120977845912
-0.010359379237135757 -0.06557487211525383 0.09066681383946815
-0.010391161713328878 -0.06570589092207833 0.0893070057255411
-0.010422012741612974 -0.0658372571699124 0.08794238111729852
-0.010454048287937112 -0.06596932762263091 0.08657165583193963
-0.0104851494911537 -0.06610175042530397 0.0851960582341626
-0.010517441158642171 -0.0662348852367605 0.08381428379512548
-0.010549863165217332 -0.0663685574212624 0.08242693208946256
-0.01058134646439518 -0.06650258948101605 0.08103462259171085
-0.01061402927087135 -0.06663734548499006 0.07963601970467038
-0.010048264836630239 -0.0666711198617581 0.07860146899713588
-0.010011264960955724 -0.06679488799277947 0.07723703817520358
-0.009974127456783943 -0.06691911650425969 0.07586753207835792
-0.00993685155477636 -0.0670438079697013 0.07449292233607649
-0.009899436479855361 -0.06716896498182458 0.07311318036598571
-0.009861881451136978 -0.06729459015274497 0.07172827737188806
-0.009824185681892805 -0.06742068611415758 0.07033818434174854
-0.009786348379479948 -0.06754725551751839 0.0689428720456784
-0.009748368745292613 -0.06767430103423129 0.06754231103388159
-0.009557940082112026 -0.06777553107549815 0.06623546319092483
-0.009633823523900631 -0.0679232308611103 0.06475026288556435
-0.009624830168665166 -0.06805680680804238 0.06331458092214498
-0.0095950107068693 -0.06818729837145256 0.06188698302003792
-0.009555211068111025 -0.06831657448403045 0.06046045741718509
-0.009516358354974885 -0.0684465331949464 0.05902777848035656
-0.009191536952533774 -0.06852704910857313 0.05778174219494142
-0.007452400383329949 -0.06836028484796637 0.05748813112787121
-0.005720624328292956 -0.06819414020624698 0.05719668199689909
-0.003981105245362548 -0.06802596409102786 0.05691767647801632
-0.0020611056240915637 -0.06782531965718933 0.056769948808931825
-0.0002371439517870333 -0.0676408118733111 0.05656453183233845
0.0011431395763483176 -0.06753401799473688 0.05605883192131139
0.002534800010185634 -0.06742477361139988 0.05556571508565056
0.003921965359600654 -0.06731588208909156 0.05507419102483874
0.005145847742436538 -0.067235598741213 0.05447207316945557
0.006327525066699313 -0.06716251171050337 0.05384348432762137
0.007446905245116542 -0.06710025492055534 0.0531736032736399
0.008753924409362901 -0.06700414980860195 0.05264119059166644
0.009957225747026566 -0.06692625543581729 0.052038115113838546
0.01112318522588146 -0.06685475239774655 0.051411360321760025
0.01224516208204629 -0.06679087659117716 0.05075565604515714
0.013460745441458699 -0.06670983910231677 0.05017147361998903
0.014700464176416073 -0.06662409936059356 0.04960869056142386
0.015781199986185046 -0.06656682039451865 0.04893176154247386
0.016879985073256942 -0.06650602411543663 0.04827084429448425
0.017992625959061204 -0.06644245177164458 0.047623028907168796
0.018826484199506888 -0.06642946330857047 0.0467678340032151
0.01956628831697632 -0.06643361185142746 0.04584191394316406
0.020309139576299096 -0.06643721970145589 0.044918130454653205
0.021204363025912776 -0.06641287433038744 0.04411095679266519
0.022115578384715784 -0.06638548459088464 0.04331720148993845
0.023069973383348152 -0.06635001964301036 0.04255813156580035
0.02413812867936982 -0.06629339039914353 0.04188926429897444
0.02520349352207757 -0.06623703705432932 0.041220779323365875
0.026080709046231887 -0.06621534684092074 0.04040674192689836
0.02645862316984071 -0.06628638588911746 0.03919852969519605
0.026778412244689187 -0.06636855751248055 0.03794082789112302
0.028635135136436063 -0.06616413549114648 0.03790880910833394
0.029730882786381696 -0.06610121477299877 0.03727417486933965
0.029695418594449408 -0.06625012977213147 0.0357278411025333
-0.039308453639616325 -0.06128663514307173 0.15902593559006917
-0.03651320816504955 -0.06098443002036316 0.15897717752099383
-0.03374539420248823 -0.06068519062769172 0.1589288979456408
-0.031003569451791613 -0.060388721761446655 0.15888149825641623
-0.028289432669500847 -0.06009528581338038 0.15883415291092084
-0.0256015449638331 -0.05980468775570635 0.1587872654537194
-0.022939527375490376 -0.05951688661765193 0.15874082927425437
-0.020302014050592232 -0.05923169621305116 0.15869523892452997
-0.017690639829910204 -0.05894937051124976 0.15864968417263217
-0.015104041554105274 -0.058669723432061116 0.1586045616306703
-0.012571668147854265 -0.058397116055690895 0.1585475980645478
-0.010669340826879092 -0.05821673384950319 0.15823976462959385
-0.009362504476635947 -0.05812393714662813 0.15769027518724732
-0.008777975755322798 -0.05813799954587543 0.15684091834633676
-0.00880285914520279 -0.05824269664627867 0.15573337635011117
-0.008828783776428484 -0.058347913187158706 0.15462143320877014
-0.008854802243859372 -0.05845351056740397 0.15350546530368375
-0.008879960022983246 -0.058559348153935785 0.15238586260246556
-0.008906165899048468 -0.05866571292347984 0.15126178282859612
-0.008931508512547592 -0.05877232104480692 0.150134031025022
-0.008957903841483594 -0.05887946159921864 0.14900175062777382
-0.00898439558230818 -0.05898699349644533 0.14786533445020053
-0.00901002017727609 -0.059094773558487475 0.14672518933689838
-0.009036704500433757 -0.059203094068012996 0.14558043693675984
-0.009063486827776801 -0.0593118124089795 0.14443148017589352
-0.009089398098361567 -0.05942078384317458 0.14327873628712912
-0.009116376206847021 -0.05953030390823652 0.14212130469844053
-0.00914248063515366 -0.059640080417132174 0.14096004646184765
-0.009169656692051942 -0.05975041110735875 0.13979404594673428
-0.009196933483565373 -0.05986115076490929 0.1386237233693823
-0.00922333263771663 -0.05997215199450982 0.13744951372658212
-0.009250810696260658 -0.06008371588065673 0.13627047842029807
-0.00927740846303643 -0.06019554482587168 0.13508751500994529
-0.009305090037482533 -0.060307942177005296 0.13389966933119027
-0.009332875179596578 -0.060420760050867384 0.1327073794542365
-0.009359776026203415 -0.06053384832169058 0.1315110987227245
-0.009387768128309215 -0.060647513778866374 0.13030984922764502
-0.009414873249353362 -0.060761453263206935 0.12910456624701502
-0.009443074645798188 -0.0608759758913476 0.12789425577681962
-0.009471382550455099 -0.06099093103708558 0.12667937432720347
-0.00949879942353582 -0.0611061657680156 0.12546039419475302
-0.009527320198086331 -0.06122199274253481 0.12423629682122511
-0.009555949300448396 -0.06133825965191195 0.12300755007213823
-0.00958368329258602 -0.061454811841878454 0.12177463791732121
-0.009612528922351482 -0.06157196557397095 0.1205365167423599
-0.009640476706228918 -0.061689408461057665 0.11929418481849893
-0.009669541343167831 -0.061807459201023957 0.11804658154398837
-0.009698717431338433 -0.06192596261826461 0.11679419421094298
-0.009726991547927999 -0.06204476112407274 0.11553752676302159
-0.009756390442558327 -0.062164177124961556 0.11427549267760623
-0.009785902722047268 -0.06228405368626265 0.11300859121315335
-0.009814508876011596 -0.06240423141841795 0.11173733861888799
-0.009844247849682353 -0.06252503650185348 0.11046062191494149
-0.009873077911845607 -0.06264614689491672 0.10917950580653044
-0.00990304621639726 -0.06276789133043276 0.10789285937289486
-0.009933131226554648 -0.06289010987547933 0.10660120235019305
-0.009962303124092298 -0.06301264007043347 0.10530507204961215
-0.009992621505931498 -0.06313581453429153 0.104003310168674
-0.010023058650113159 -0.06325947149385379 0.10269644906101993
-0.0100525784522848 -0.06338344660478423 0.10138503901766183
-0.010083253104492207 -0.06350807644176062 0.10006789378066397
-0.010113007578335609 -0.0636330288554134 0.0987461481610035
-0.010143922544807449 -0.06375864309637846 0.0974185969398908
-0.010174959807539685 -0.06388475425372929 0.09608579406935192
-0.01020507261539938 -0.06401119476900843 0.09474831206314016
-0.010236354494222055 -0.06413830796811291 0.09340491675768092
-0.010267760859118513 -0.06426592701358529 0.09205617541701283
-0.010298238464428844 -0.06439388237313996 0.09070267425430048
-0.01032989385058014 -0.06452252152201993 0.08934314954687192
-0.010361675965307127 -0.06465167566250973 0.08797818214313854
-0.01039252498760096 -0.06478117325363898 0.08660837223796228
-0.010424560635204139 -0.06491136599588973 0.08523242591916586
-0.01045566028504602 -0.06504190704841849 0.08385158085216712
-0.010487952527814592 -0.06517315097097257 0.08246452264244278
-0.010520375354981848 -0.06530492562195458 0.08107185540174916
-0.010551857804807996 -0.06543705603319896 0.07967420327338273
-0.009988292787982911 -0.06547057356621439 0.07863851261945368
-0.009951187253015303 -0.06559209442745224 0.07727435911677852
-0.009913943717668183 -0.06571406724075447 0.07590513214780659
-0.00987656141064236 -0.06583649453212165 0.074530803356477
-0.009839039554880302 -0.06595937884641358 0.07315134417502156
-0.009801377367518016 -0.06608272274752658 0.07176672582198165
-0.009763574059816538 -0.06620652881856949 0.07037691930021545
-0.009725628837123246 -0.06633079966204665 0.06898189539486321
-0.00968754089880186 -0.06645553790003794 0.06758162467130946
-0.009649309438182097 -0.06658074617438413 0.06617607747310877
-0.0096109336425092 -0.06670642714687455 0.06476522391988798
-0.009572412692871513 -0.06683258349943319 0.06334903390523838
-0.009533745764159385 -0.0669592179343123 0.06192747709456303
-0.009493836213737172 -0.06708614588575626 0.06050125127277156
-0.009453775070778825 -0.06721355596057932 0.059069608072002344
-0.009223396313417898 -0.06730881882644384 0.0577603290952744
-0.007544063967437953 -0.06715532643145754 0.057426179492868545
-0.005838761578962959 -0.06699674153399768 0.05711639364231519
-0.00409627046339861 -0.06683109654626729 0.056838973142511795
-0.002359167015205277 -0.0666657137825855 0.05656512519429896
-0.0009845201356717403 -0.06656248800678863 0.0560481006105924
0.0003869345413071712 -0.0664593976027717 0.05553340996700179
0.001750989112826451 -0.06635717574807623 0.05501810443347921
0.0029641497512470916 -0.06628085259576515 0.05440132126863523
0.004168260250782374 -0.06620579922443268 0.053781531557026085
0.00536964687661301 -0.06613091563478539 0.05316314390016402
0.00644720461413284 -0.06607745311531049 0.05245965880554376
0.0074394347641275616 -0.06603877403358314 0.05169728871545798
0.008603269157946292 -0.06596970032840957 0.051060548376340276
0.009755458549492668 -0.0659023975599728 0.050418450484451593
0.01088388891593306 -0.06583901993637525 0.04976203343469621
0.012136035543702017 -0.0657534463461435 0.04919926480113429
0.013237394574438954 -0.06569430565350497 0.04852908949907431
0.014357920373017696 -0.06563150669984616 0.047875807360285294
0.015478311704993586 -0.06556846987219606 0.04722526920748571
0.01659655290660772 -0.06550555401781434 0.04657597949507253
0.01771265016136564 -0.0654427587887968 0.04592793463269046
0.01850924924578945 -0.06543705610275163 0.045040526198931674
0.019275996276311214 -0.06543669971963112 0.044130623689393855
0.020190938734135022 -0.06540962581559366 0.0433343085916309
0.02119372804448283 -0.06536656750691164 0.04260692078456313
0.022265807083105382 -0.06531078288700973 0.04193518709238503
0.023337034576630056 -0.06525491619711435 0.04126535965827349
0.024405457976706013 -0.06519932190258616 0.04059591531383944
0.0254720624277171 -0.06514382225517397 0.039927610672192526
0.02650981419113363 -0.06509335378076243 0.03923904382834481
0.02678807535332156 -0.06518163660075134 0.037948516549791145
0.02864471827402648 -0.06498087584759187 0.037916474951605106
0.02979291231259995 -0.06490943738851626 0.037324059497203854
0.02975663769874498 -0.06505581790257886 0.03577733696640639
-0.03929014345208742 -0.060169723908568604 0.1590329750654434
-0.036495108851962776 -0.0598730390882944 0.15898418438961684
-0.033727502516863184 -0.05957926569884548 0.15893587250694788
-0.030986922679063167 -0.05928836109374236 0.15888803240410115
-0.028271946842635953 -0.059000135911790735 0.15884106370506423
-0.025584257404132393 -0.058714845654780384 0.15879414481494936
-0.02292243508555697 -0.05843230111578317 0.15874767748609028
-0.020285114174978414 -0.05815231951250904 0.15870205623308298
-0.017673929402450272 -0.057875150178986215 0.1586564708878016
-0.015087517749144796 -0.057600610436838416 0.15861131802476744
-0.012553403184013434 -0.05733270307898496 0.15855511683672716
-0.010638822231629042 -0.057153816926510934 0.15825241217659955
-0.009324544199417695 -0.05706161747206521 0.15770611227641798
-0.008724899752943105 -0.05707321242351282 0.1568632098362184
-0.00874873477613275 -0.057175839506354895 0.15575625969109003
-0.008773606862205574 -0.05727897539515708 0.15464491658762572
-0.008799521814872535 -0.05738262360084205 0.15352914860134745
-0.008825530725502129 -0.05748664759626402 0.1524093352565012
-0.008850677543340513 -0.05759090884930007 0.15128586974659272
-0.008876874104910393 -0.057695690069352205 0.15015790291687978
-0.008902205990923118 -0.05780071165777152 0.14902624643005927
-0.008928592253753254 -0.05790625840077838 0.14789003675522186
-0.008955075057921869 -0.058012191315312565 0.14674966994760621
-0.00898068929037188 -0.05811836935822518 0.14560555617997611
-0.009007364934679296 -0.05822508047495443 0.14445680999853328
-0.009033169393676821 -0.0583320399559598 0.14330427794382924
-0.009060040004618686 -0.05843953788170993 0.14214705970615793
-0.00908700983609212 -0.058547432746745356 0.140985568405758
-0.009113104539753725 -0.05865558092836875 0.13982023174655692
-0.009140272593849252 -0.05876427575523736 0.1386501267617004
-0.009167541525285205 -0.058873374175403455 0.13747567707579206
-0.009193931358473129 -0.0589827309843705 0.13629732118579443
-0.00922140184146153 -0.05909264281398496 0.13511411301274923
-0.00924799056288328 -0.05920281648144551 0.1339269573050711
-0.00927566485335235 -0.059313550851393386 0.13273489231911198
-0.009303442863134836 -0.05942470023804893 0.13153835964271354
-0.009330335094130449 -0.05953611674247934 0.13033781623269525
-0.009358320366409378 -0.059648102626971754 0.12913227645011022
-0.009386411116226512 -0.059760510590446285 0.12792219294305107
-0.009413612041865915 -0.05987319108120711 0.12670803403624942
-0.009441913587771522 -0.0599864498176061 0.12548878970996533
-0.009469322596025842 -0.06009998476069586 0.12426542604517493
-0.009497837333379722 -0.060214103965464234 0.12303691649437387
-0.00952646056559292 -0.06032865737895015 0.12180373262466043
-0.00955418716763834 -0.06044349263325042 0.12056636220928912
-0.009583027260791854 -0.06055892133979161 0.11932375348381555
-0.009610967978786078 -0.060674635719994284 0.11807691253883423
-0.009640027420852071 -0.060790949790117205 0.11682477051318138
-0.009669198491565667 -0.06090771066796225 0.11556781852148923
-0.009697466047325298 -0.06102476308958991 0.11430656443597048
-0.009726860278943261 -0.061142424732007206 0.11303991330706589
-0.00975534821901608 -0.06126038191231155 0.11176891258884877
-0.009784968196642874 -0.061378954783223895 0.11049244964195662
-0.009814703058850904 -0.06149798755304674 0.10921103578247357
-0.009843527442342404 -0.061617321978949334 0.10792519965850067
-0.009873492012042795 -0.061737281982841875 0.10663380163368594
-0.009903573482678618 -0.061857709987377704 0.10533736547042341
-0.009932740259000039 -0.0619784459211438 0.10403643261933004
-0.009963055491886808 -0.062099817542376305 0.10272983588325144
-0.009992453203236995 -0.0622215013624153 0.10141869185599295
-0.010023004949016034 -0.062343827734553985 0.10010181464827117
-0.01005367705980198 -0.0624666360371292 0.09877974932617703
-0.01008342738605561 -0.06258976308060829 0.09745305925773656
-0.010114340226039353 -0.06271354317009445 0.09612053002077034
-0.01014537557730305 -0.06283781381491219 0.09478271981070152
-0.010175484852649463 -0.06296240991082848 0.09344020550563972
-0.010206765250280747 -0.06308766978629231 0.09209174354698474
-0.010238170356886234 -0.06321342904902372 0.09073790552730054
-0.010268645067854187 -0.06333952064641166 0.08937928211230278
-0.010300299641900323 -0.06346628700352679 0.0880145999876902
-0.010331020923628587 -0.06359339038227751 0.08664507716394182
-0.010362927965648916 -0.06372117597978552 0.08526942013992089
-0.010394963494901543 -0.0638494761602368 0.0838882234490177
-0.010426061364992911 -0.06397812054702652 0.08250210137095634
-0.010458353963383904 -0.06410745856003297 0.08110972958041995
-0.010490777391518213 -0.06423732057117525 0.07971171675513739
-0.009927268600357364 -0.06427021847837883 0.07867620612850729
-0.009890055587363611 -0.06438949278607797 0.07731233478862715
-0.009852704195835449 -0.06450921062147842 0.07594339182239224
-0.00981521365248067 -0.06462937446310915 0.07456934888845129
-0.009777583178234961 -0.06474998680800105 0.07319017743388859
-0.009739811988213443 -0.06487105017186083 0.07180584869224266
-0.009701899291642335 -0.06499256708924367 0.07041633368151473
-0.009663844291819268 -0.06511454011373266 0.06902160320213652
-0.00962564618604439 -0.06523697181811544 0.0676216278349332
-0.009587304165568633 -0.06535986479456601 0.06621637793905172
-0.009548817415544197 -0.06548322165482875 0.06480582364986426
-0.00951018511495133 -0.06560704503040106 0.06338993487686223
-0.009472499938332102 -0.0657315207026638 0.06196795853346909
-0.00943138508426028 -0.06585591812859362 0.060542760493169534
-0.009392309169396929 -0.06598115633962248 0.05911069082417769
-0.009201423785969776 -0.06608132021816472 0.057775097122853336
-0.007521144036630234 -0.0659304512169636 0.05744167012856105
-0.005849603454539609 -0.06578045294153001 0.05710902529451872
-0.004461592712964257 -0.06567790725670253 0.05658931373956755
-0.003195984182834455 -0.06559573586859986 0.055990076153494994
-0.001839494117807039 -0.06549776486416538 0.05545732013393845
-0.0004891761806857797 -0.06540044865262795 0.05492467584542049
0.0008476147575615656 -0.06530504801170503 0.05438696059316234
0.0020583683584355916 -0.06523083932673383 0.05376500578198079
0.0032663734290179214 -0.06515679910281308 0.05314446286962271
0.0043034404781662206 -0.065111844627225 0.05240586252098195
0.005292199629861938 -0.06507502821972068 0.05163480244996432
0.006278802707844977 -0.06503843271151977 0.05086386809515575
0.007264296759825484 -0.06500187833979472 0.050093800336271754
0.008369384405720437 -0.06494444208413161 0.04941222118707178
0.009543394803280147 -0.06487479614535581 0.04878357790300836
0.010684207990645622 -0.0648106400373942 0.04813376392963936
0.011813598714769336 -0.06474820988651112 0.047478468584942035
0.012941830372311447 -0.06468572254405362 0.046825187267952484
0.01406788645693291 -0.06462335569615349 0.0461731656754959
0.015190766710664105 -0.06456128566199612 0.04552164526277058
0.016310489485050705 -0.06449951107807675 0.04487061924360741
0.017429070034657712 -0.0644376786049885 0.0442215948983094
0.018253885029837325 -0.06442747268635778 0.04335152603522008
0.019306843480488667 -0.06437684285900522 0.04265677303830112
0.020383855159680886 -0.0643217328796048 0.04198291810345961
0.02145902445820258 -0.06426671717361486 0.04131021589267303
0.022532356099490836 -0.0642117954993404 0.040638663450621615
0.021159566727737222 -0.0645932784050927 0.038054373609236525
0.023050965950831837 -0.06439248039409044 0.03802170508191011
0.02493064221327368 -0.06419292693641288 0.037989239035240985
0.026797737937741706 -0.06399478007770477 0.03795620479135864
0.028654300893345974 -0.06379768019639984 0.03792414038029568
0.029853966260364295 -0.06371825050958839 0.03737315955728088
0.02981879164133122 -0.06386174696521037 0.03582758865036728
-0.039271834852185716 -0.05905290951746024 0.15904001393044362
-0.03647701110048113 -0.05876174404583992 0.1589911906536886
-0.03370961236735315 -0.058473435719853875 0.1589428464694445
-0.03096923694979703 -0.058187942689977804 0.15889497436028843
-0.028255490951847706 -0.057905223920026595 0.1588475674451826
-0.025566971307146913 -0.05762509576539676 0.15880102359411064
-0.022905344234858238 -0.05734780693911917 0.15875452512128121
-0.020268215715580906 -0.057073033263106004 0.15870887297034286
-0.017657220368654858 -0.056801019436724144 0.15866325703695297
-0.015070995315747626 -0.05653158618271926 0.1586180738580481
-0.012535139906733883 -0.05626838838775828 0.1585626349146336
-0.010609261854193697 -0.05609120065209504 0.15826466261801264
-0.009287540000067152 -0.05599963874604863 0.15772155048835293
-0.00867278553166373 -0.056008849219207256 0.1568850973858501
-0.008693676203227862 -0.056109141107917364 0.1557795380058166
-0.0087193964114608 -0.05621047504425488 0.15466798863815087
-0.008744256980050658 -0.056312038722630825 0.15355282521814312
-0.008770162044905994 -0.0564141075228065 0.1524332130198417
-0.008796161189122964 -0.05651654700597689 0.15130953472885356
-0.00882129683083649 -0.056619220755656605 0.15018218678365564
-0.008847483867580608 -0.05672240718346053 0.14905031310948316
-0.008872804810495571 -0.05682583095314525 0.1479147320283426
-0.008899181796175604 -0.05692977252506752 0.14677457299992616
-0.008925655452313885 -0.05703409503812259 0.145630235340543
-0.008951259105511478 -0.05713865959906948 0.1444821325709456
-0.008977925858904223 -0.0572437497848491 0.14332937209116867
-0.00900371998704691 -0.05734908521780431 0.1421728073147973
-0.009030581970633778 -0.05745495158114333 0.14101153069297162
-0.009057543312037564 -0.057561209525778013 0.1398459587105671
-0.00908362807251012 -0.05766771761401488 0.13867652252652307
-0.009110787910090179 -0.05777476473356841 0.13750229179251958
-0.009138048767426576 -0.05788221000990909 0.1363236935618653
-0.0091644290600712 -0.057989910445010756 0.13514116985275415
-0.009191891752858838 -0.058098158185451144 0.13395376705898632
-0.00921847120866326 -0.05820666449500635 0.13276239716170543
-0.009246137999893711 -0.0583157237231406 0.13156609079088102
-0.009273908661805219 -0.05842519239724734 0.13036529307316466
-0.00930079205595169 -0.05853492486133223 0.1291604646004488
-0.009328770282281018 -0.05864521881707764 0.12795061195562982
-0.009356854143139415 -0.058755929198446105 0.12673619139375386
-0.009384046677136548 -0.05886690871899206 0.1255176749450884
-0.009412341647345557 -0.05897845849035565 0.12429404465622113
-0.00943974256799468 -0.05909028103939448 0.12306627422387498
-0.009468251050667675 -0.059202679783270075 0.12183332906107827
-0.00949686819500939 -0.05931550694122632 0.1205956844590299
-0.009524587183325328 -0.05942861244852236 0.11935383201770805
-0.009553421521646233 -0.05954230323149298 0.11810671177118715
-0.009581354949561582 -0.05965627615428338 0.11685533767785533
-0.009610408978050933 -0.0597708405161603 0.11559863256483474
-0.009639574812398188 -0.059885845745207285 0.11433709139269099
-0.009667835582357287 -0.06000113891950065 0.11307122598642724
-0.009697224931613069 -0.0601170329505908 0.1117999329159324
-0.009725706430337877 -0.06023321887714314 0.1105242677654388
-0.00975532188832312 -0.06035001205371073 0.10924310930013004
-0.009785052419123696 -0.060467259037899034 0.10795697280876673
-0.00981387089779645 -0.06058480396871866 0.10666639102342537
-0.00984383151232393 -0.060702965920206596 0.10537021553628997
-0.009873909222965438 -0.06082158968820265 0.1040689741609303
-0.009903070651302304 -0.06094051760751084 0.1027632125132219
-0.009933382514435096 -0.06106007253802909 0.1014517544440377
-0.009962775258232304 -0.06117993584297903 0.10013572511990224
-0.009993324034077045 -0.06130043294324745 0.09881392957668264
-0.010023993382223928 -0.061421405630957084 0.097486917066744
-0.010053739333223233 -0.06154269316423764 0.09615525526328564
-0.010084649825251757 -0.06166462486401427 0.09481772048098072
-0.010115683043481372 -0.06178704067824932 0.09347487518524833
-0.010145788558218016 -0.061909777975747746 0.09212730064609184
-0.010177067252899241 -0.06203317004820342 0.0907737438485959
-0.010208470879392306 -0.06215705496720644 0.08941478074109313
-0.010238942467559242 -0.06228126817894404 0.08805100647008038
-0.01027059600753677 -0.06240614701833579 0.08668113806673786
-0.010301314602352118 -0.06253135878716329 0.0853064027723415
-0.010333221067286125 -0.0626572435563421 0.08392549729625581
-0.01036525625610013 -0.06278363619683396 0.08253902067534716
-0.010396352117565344 -0.06291036887465039 0.08114759182320344
-0.010428644849454383 -0.06303778582866047 0.07974987641807263
-0.009115419893257704 -0.06294970348836001 0.0791776700198254
-0.009605025780328347 -0.06315124979060388 0.0774893984806379
-0.009792557637831267 -0.06330490256321834 0.07598096866276946
-0.009754960824557457 -0.06342280500642754 0.07460720646262917
-0.009717223705313083 -0.06354114744476229 0.07322831757759704
-0.0096793454932243 -0.06365993234582526 0.07184427325593931
-0.00964132539552881 -0.06377916219570662 0.0704550445305196
-0.009603162613505578 -0.06389883949915505 0.06906060221678734
-0.009564856342435535 -0.06401896677975596 0.06766091691072346
-0.009526405771530855 -0.06413954658010643 0.06625595898678294
-0.009487810083883552 -0.06426058146199559 0.06484569859580047
-0.009449068456414023 -0.06438207400658714 0.06343010566287266
-0.009411273220441219 -0.06450420649717409 0.06200842734266948
-0.009370048938233733 -0.06462626214228082 0.0605835286205853
-0.009330862517429483 -0.06474914267191333 0.0591517607103752
-0.009178355281402983 -0.06485377748802713 0.057790601771212535
-0.007498226795731366 -0.0647057197548069 0.05745715894625514
-0.006220759857939351 -0.06462391750628035 0.05685678024265528
-0.005066587530558608 -0.06456229640733606 0.05617586329923835
-0.003915691989528236 -0.06450097237662485 0.055495503025805804
-0.0027401430376641778 -0.06443528193773532 0.05483497862496972
-0.0013842604357497401 -0.06433914188191212 0.05430275864469486
-6.642798603717637e-05 -0.06424899223113313 0.053748363267428545
0.0011493175367021102 -0.06417563131097913 0.05312639350686049
0.002145090929024651 -0.0641390136398063 0.05235241895320131
0.0031386770086150872 -0.06410261518401786 0.05157858021623535
0.004130087744088018 -0.06406643526850336 0.05080487064193834
0.005120379994018653 -0.06403029617029547 0.050032033947974286
0.006109555650116727 -0.06399419782035876 0.049260068658035394
-0.006601766454613689 -0.06628889226313998 0.038543819464950946
-0.004534149618296179 -0.06607345412458648 0.038508074950882376
-0.0024799287074002696 -0.06585941179264349 0.03847256202262367
-0.0004400610493128232 -0.06564693785146133 0.03843647626885777
0.0015877648682663947 -0.06543564554720657 0.03840142229378918
0.003602579078355317 -0.06522570901695822 0.03836659324530134
0.005604506416440058 -0.06501711525329923 0.03833198696542728
0.0075936701261867245 -0.06480985141467459 0.03829760132371679
0.009570191884739454 -0.06460390482275495 0.038263434216804226
0.018012670262730512 -0.06327618709770835 0.04316766164682473
0.01929294878088611 -0.06318709289125576 0.04264612469136708
0.02056962704990345 -0.06309824922508803 0.042126054340945684
0.021842720234756474 -0.06300965504387918 0.04160744441792319
0.02311126544902392 -0.06292148027131801 0.041089527123795044
0.024376265258095442 -0.06283355193483016 0.04057305733551281
0.025636766108331044 -0.06274603902371916 0.04005726666426851
0.026518505546320237 -0.0627247935398522 0.03924592243151348
0.02680739999799403 -0.06280798793810118 0.037963892615860806
0.02866388299443856 -0.06261454853237901 0.03793180539444074
0.029915952576860638 -0.06252730650249423 0.03742300943555038
0.029879968004372814 -0.06266826572606443 0.035877049957784346
-0.03925460467880004 -0.05793633969937223 0.1590466381870795
-0.03645891491040221 -0.05765054488059021 0.1589981963132875
-0.03369172375376439 -0.05736770067848992 0.1589498198332062
-0.030951552731487253 -0.05708761829800729 0.1589019157233991
-0.02823800801071752 -0.05681025748412086 0.1588544770988184
-0.025549686672691585 -0.05653543807585291 0.15880790179127693
-0.022888254823212384 -0.05626340407612555 0.15876137217989997
-0.020252312576704845 -0.05599397545540169 0.15871528820126865
-0.017640512728349655 -0.05572697827325621 0.15867004262015705
-0.0150544742537429 -0.05546265065865512 0.15862482913058215
-0.012516878315780133 -0.055204171968397914 0.15857015229836402
-0.010578752572429795 -0.05502861066625586 0.15827730630531403
-0.009249594225290703 -0.05493772747701042 0.15773738152708136
-0.008621632329597118 -0.05494490204157987 0.15690658131521845
-0.00863958199165532 -0.055042875843561934 0.1558024085964519
-0.008664250296676335 -0.05514213650082205 0.15469145890871844
-0.008689960173991262 -0.05524189012463637 0.1535760871110709
-0.008714809009469415 -0.05534187050960211 0.1524570840362015
-0.008740703975314734 -0.05544234874909074 0.15133360812847543
-0.008766693141565807 -0.05554319250712352 0.15020604525346753
-0.0087918173903343 -0.055644267497642334 0.14907479511384839
-0.00881799468995681 -0.05574584780377608 0.14793899467272004
-0.00884330447215792 -0.05584766238173857 0.1467994689512454
-0.008869671967665527 -0.05594998733500323 0.14565534035693808
-0.00889613626240593 -0.056052687939275585 0.14450701148650244
-0.008921729117590205 -0.05615562746639553 0.14335489922863975
-0.008948386765986693 -0.056259085093293006 0.14219810379342146
-0.00897417034375425 -0.05636278480503226 0.1410374855088651
-0.009001023485216253 -0.05646700785571365 0.13987212954246306
-0.009027976121453396 -0.05657161706786012 0.1387024557637945
-0.009054050718114381 -0.056676473204350146 0.13752889880754693
-0.009081202123408738 -0.05678186067959976 0.1363505208983636
-0.00910747282670682 -0.056887498369870254 0.13516821883396615
-0.009134825220981635 -0.056993672825731395 0.13398103928946242
-0.009162279906832937 -0.057100244349300666 0.13278941997027738
-0.00918884987463553 -0.05720707112518721 0.1315938138391516
-0.00921650894926701 -0.05731444295444724 0.1303932438522484
-0.009244272045654645 -0.05742221859353006 0.12918815869635944
-0.009271146379563833 -0.05753025464561015 0.12797902262050165
-0.009299117341682428 -0.05763884421799453 0.1267648343808317
-0.009326196828381206 -0.05774769771339255 0.12554655166348921
-0.009354378013052278 -0.05785711047438745 0.12432315681990183
-0.0093826661884579 -0.05796693862429541 0.1230951173201546
-0.009410058796518517 -0.05807703607174646 0.12186291672131133
-0.00943856080485117 -0.058187701561381824 0.12062551234633384
-0.00946717164140859 -0.05829878960121164 0.11938338323321576
-0.009494882790129 -0.05841015244658813 0.11813702483212657
-0.009523711153181014 -0.05852209230348598 0.11688536892381515
-0.009551637064572682 -0.05863431071322277 0.11562943738326487
-0.009580685458558447 -0.05874711222241796 0.1143681446731786
-0.009609845835389985 -0.05886034858644288 0.11310198962365128
-0.009638099592299276 -0.058973869242777296 0.11183148803688978
-0.009667483837578372 -0.05908798230126677 0.11055552794820722
-0.009695958667189641 -0.05920238355753372 0.10927517312279039
-0.00972556938348862 -0.05931738353131189 0.10798929367544599
-0.009755295360650507 -0.059432831146976985 0.10669840889215149
-0.009784107706021616 -0.05954857294324152 0.10540305561436547
-0.009814064142751877 -0.05966492310900606 0.10410207660648638
-0.00984413787060573 -0.05978172883104622 0.10279600375839773
-0.0098732937218316 -0.05989883486853819 0.10148538687725042
-0.009903601992064193 -0.06001655914514665 0.10016904080420347
-0.009932989538769976 -0.060134587912941725 0.09884809933269659
-0.009963535121221723 -0.060253241622082794 0.09752135836502387
-0.009994201483143061 -0.06037236449671576 0.09618937136598307
-0.010023942828811416 -0.06049179826128883 0.0948527103410364
-0.01005485074902257 -0.060611867213575484 0.09351014228147975
-0.010085881610260139 -0.060732413758715756 0.09216223394951784
-0.010115983133846818 -0.06085327775751808 0.09080957103480741
-0.010147259901400196 -0.060974787425280196 0.08945089100433348
-0.010178661823523838 -0.06109678331630739 0.08808677418965205
-0.010209130057962534 -0.061219103394870265 0.08671782024647803
-0.010240782339458354 -0.06134207986541274 0.08534273648808763
-0.010271498016204916 -0.06146538510888038 0.0839627594458979
-0.010303403679509882 -0.061589354029194986 0.0825765759752895
-0.01033543830332223 -0.06171382402346817 0.08118478964519238
-0.010366531924759559 -0.061838629820154076 0.07978802403269689
-0.009039747433847334 -0.0617500547645555 0.07922441149472051
-0.009126977348418719 -0.06188427691295627 0.07778636749308715
-0.009215658027581286 -0.062019253132079954 0.07634138936326129
-0.009303653085880326 -0.062154649392965326 0.07489076852573764
-0.009392033194551286 -0.06229063812330102 0.07343380003482666
-0.009618897613250244 -0.06244918737038074 0.07188268599037695
-0.009580770182413378 -0.06256613155637845 0.07049374343981507
-0.009542499686551686 -0.062683514550346 0.06909958918027909
-0.009504085318918054 -0.06280133882672456 0.06770019382290304
-0.009465526266693891 -0.06291960687859581 0.06629552775743569
-0.009426821710918687 -0.06303832121785555 0.06488556115016098
-0.0093879708264471 -0.06315748437539412 0.0634702639417754
-0.009348972781877019 -0.06327709890127398 0.0620496058452612
-0.00930873196153581 -0.06339699045909435 0.06062428400677622
-0.009269435105837498 -0.06351751477617583 0.05919281773663637
-0.009156387799686083 -0.0636265573327712 0.05780536640748846
-0.0079888059737801 -0.06356460799745726 0.0571255967181995
-0.006831123280207907 -0.0635040216752475 0.05644196548613911
-0.005674559934818635 -0.06344337357345751 0.05576037799103556
-0.0045212847563430025 -0.06338301802924723 0.05507934815572674
-0.003370201781479676 -0.06332277721190287 0.05439961285622241
-0.0022223774885124503 -0.06326282695149363 0.05372042306188718
-0.0010275787005115666 -0.06319490321598596 0.053076853887600306
-0.011774727659771889 -0.06509573992644593 0.04404719385228095
-0.011809465724405332 -0.06523442730971839 0.042495294005855055
-0.012615064998096837 -0.06550130534299556 0.04038936254552805
-0.0128737261374256 -0.06567854174737459 0.03866145642272606
-0.010765233957200193 -0.06546299240777372 0.038624975042923115
-0.008670536158000453 -0.06524885325587003 0.038588732335058884
-0.0065906131101071685 -0.06503629666982208 0.03855191630598698
-0.004523091516080435 -0.06482493548347916 0.038516146497919235
-0.002470061207156038 -0.06461512741893512 0.03847980381252325
0.011099115274152194 -0.06247013638882162 0.04695125027592989
0.012739804122875398 -0.062323959022052955 0.0466753007235024
0.014373841535353427 -0.06217829398569857 0.04640139217603473
0.016000258536325418 -0.06203330826520223 0.04612876101410318
0.01761910830901442 -0.06188899711958512 0.04585739832277608
0.018391089722488707 -0.061887817017394355 0.04495094427483942
0.019133305146001534 -0.061891694672640746 0.04402185830276967
0.020398220823269753 -0.0618064983905983 0.04349316136725434
0.021659658878079024 -0.0617215363380101 0.04296591797391075
0.02292154139048158 -0.06163613868417371 0.042443149267230584
0.024183825494572764 -0.0615503100109253 0.041924853694743136
0.025443566400498052 -0.06146455375366545 0.041408757042226185
0.026073946957009486 -0.06148684402673454 0.04040141875874953
0.026565817712673467 -0.06153313962603515 0.0392833667207419
0.026817061534121167 -0.061621260176701775 0.03797158002333162
0.028673464577342545 -0.061431480850339525 0.037939469994070996
0.029976964001893813 -0.06133694607386924 0.03747207529851593
0.029942078560601437 -0.061475031505408326 0.03592726656372053
-0.03923629916017424 -0.056819716103511476 0.15905367586746239
-0.0364408202815244 -0.05653944158013799 0.15900520136849156
-0.03367383667589707 -0.056262060562527846 0.15895679259831086
-0.030933870023940102 -0.055987387905783684 0.15890885649350917
-0.02822052655589896 -0.05571538413578094 0.15886138616503023
-0.025532403500580503 -0.055445872574448114 0.1588147794065222
-0.022871166850437608 -0.05517909251526983 0.15876821866201937
-0.020235416865920397 -0.05491486740894595 0.15872210382975446
-0.017623806481360582 -0.05465302667737695 0.1586768276374845
-0.015037954562959976 -0.05439380385359932 0.1586315838424394
-0.012498618410919038 -0.054140053807293725 0.15857766898801445
-0.01054920121537184 -0.05396631608615868 0.1582895530084932
-0.009211655790355378 -0.053876021612748584 0.15775320950361615
-0.008569545578281934 -0.05388110242899594 0.15692845732768834
-0.008584554092502805 -0.05397677427845537 0.15582567394256658
-0.008609119705739576 -0.05407409869862091 0.1547149225723128
-0.00863472623912892 -0.05417190641955817 0.15359975048967445
-0.008660425573146002 -0.05427006860539567 0.15248053691259644
-0.008685262457911236 -0.05436845452905059 0.15135767471445127
-0.008711147111595985 -0.05446733096704721 0.15023031546848245
-0.008737126086360125 -0.05456656770082529 0.14909884823897626
-0.008762238723358629 -0.05466603258965597 0.14796367601215502
-0.008788406071578048 -0.05476599535724571 0.14682392874656255
-0.008813704473436768 -0.0548661892825472 0.1456804382026515
-0.008840062263745674 -0.05496688608088684 0.14453231969266536
-0.008866516981702321 -0.05506795317974778 0.14337997911316555
-0.008892098818065908 -0.055169256031341034 0.14222383674090025
-0.008918747145359118 -0.05527106938082451 0.1410629855518553
-0.008944519951165963 -0.05537312160705801 0.13989829283018568
-0.008971364033682983 -0.05547568950293628 0.13872883641490744
-0.00899830774759186 -0.05557863807794886 0.13755503958051632
-0.009024371957730148 -0.0556818303112364 0.13637734045832628
-0.009051514712890452 -0.05578554611130193 0.1351947938000387
-0.009077775292880674 -0.055889508820997594 0.1340083035849546
-0.009105119316074162 -0.05599400045481253 0.1328169089169937
-0.00913256577615218 -0.05609888353787643 0.1316210510156535
-0.00915912603142588 -0.05620401850782845 0.13042118645315756
-0.009186777169972293 -0.056309690583820494 0.1292163304640776
-0.009214532481042315 -0.05641576076736282 0.12800693531683313
-0.00924139752915426 -0.056522087937157406 0.12679346893977259
-0.009269361006651933 -0.05662896057209341 0.12557492221336045
-0.009296431499009494 -0.05673609366170405 0.12435226038495789
-0.00932460550728581 -0.05684377788876442 0.12312445782546866
-0.009352886666591509 -0.05695187165912138 0.12189198570273871
-0.00938027073486436 -0.05706023119516537 0.12065533137328369
-0.009408766046991479 -0.05716915053403825 0.11941344401902143
-0.00943636151397037 -0.05727833925160617 0.11816732885417269
-0.009465073434641813 -0.05738809365318827 0.11691591798301221
-0.009493895599761215 -0.057498269476034466 0.11565970210044249
-0.009521813765912601 -0.05760872021095992 0.1143991886406415
-0.009550856302214417 -0.05771974561598933 0.11313328364877706
-0.009580010998112731 -0.05783119979092229 0.11186248984824643
-0.00960825751242006 -0.0579429345501703 0.11058732704304997
-0.009637636429830676 -0.058055253165326434 0.10930667467948035
-0.009666104360239625 -0.05816785622464399 0.1080216047548653
-0.009695710110504352 -0.05828104937608278 0.10673097867827974
-0.009725431309477062 -0.05839468392839506 0.10543531975764459
-0.009754237290715506 -0.05850860883800281 0.10413516896938838
-0.009784189324690717 -0.05862313337109311 0.10282936019336988
-0.009814258844620116 -0.05873810712327068 0.10151842942110942
-0.009843408887216798 -0.05885337729638562 0.10020293067725031
-0.009873713339044687 -0.058969256839658694 0.09888166973503007
-0.009903095456714583 -0.0590854369312771 0.09755578906942586
-0.009933637619930047 -0.05920223301202933 0.09622407538996694
-0.009964300769638612 -0.059319491756469146 0.09488708640024299
-0.009994037277461232 -0.059437057374174394 0.0935453984652683
-0.010024942399583625 -0.05955524910046249 0.09219776919225128
-0.010055970677445292 -0.05967391181634068 0.09084476966718297
-0.01008606797686662 -0.05979288789374313 0.08948699002734498
-0.010117342590667933 -0.059912500431593546 0.08812315815933647
-0.010147683317862977 -0.060032430748751565 0.08675449096222212
-0.010179207228996845 -0.060153004558497855 0.08537969615973365
-0.010210858025114344 -0.060274063682646074 0.08399936775321148
-0.010241570550113988 -0.06039544735809022 0.08261411946739358
-0.010273475184754577 -0.06051748528061843 0.08122262823867066
-0.010305509016494518 -0.060640017393025644 0.07982550219685003
-0.008977952165643621 -0.06055300807939743 0.07926258128594818
-0.009065034002298467 -0.060684607493361804 0.07782484738988682
-0.009153565559377075 -0.06081694615238495 0.07638018192003859
-0.009241411122796694 -0.06094969655355157 0.07492987589738534
-0.009329641021308399 -0.061083027754007584 0.07347322460794783
-0.00939346172603428 -0.0612130756271248 0.07202594343583324
-0.00944891097153816 -0.06134232742988932 0.07057801046455003
-0.009481855502263326 -0.061468565093203996 0.06913856409819946
-0.009443333106755158 -0.06158408778393436 0.06773945857711844
-0.009404665642272825 -0.06170004551395354 0.06633508425671986
-0.009365852287815557 -0.06181644074532667 0.06492541131871976
-0.009326892216167337 -0.0619332759587311 0.06351040971940924
-0.00928778459385482 -0.06205055365363529 0.06209004918750921
-0.0092463397153984 -0.06216792945030041 0.06066575408934688
-0.009206930525659074 -0.06228609836263288 0.05923459472386933
