# .PCD v0.7 - Point Cloud Data file format
VERSION 0.7
FIELDS x y z
SIZE 4 4 4
TYPE F F F
COUNT 1 1 1
WIDTH 766
HEIGHT 1
VIEWPOINT 0 0 0 1 0 0 0
POINTS 766
DATA ascii
-0.03978628439700634 0.06470957544849865 0.021651477844263134
-0.03966512737636024 0.0664073653445062 0.021696103187521687
-0.03954480827266712 0.06809403201194986 0.021739682666462812
-0.03942521690778644 0.06977049703435256 0.02178299855891397
-0.03949119325568874 0.06997155404215821 0.020417270291097023
-0.03958237455027983 0.06997569496970013 0.0188560062364041
-0.03967397787669407 0.06997985506361015 0.017287515884568283
-0.03976610958202901 0.0699832204105737 0.015710954031762148
-0.03985856629137842 0.06998741735686487 0.014127853783455102
-0.03995155830573227 0.069990816041538 0.012536568004846316
-0.04004467064923679 0.06999668978915158 0.010940278724922814
-0.0401377966126348 0.07000587740688952 0.00933980766171466
-0.04023135672425202 0.07001510785693299 0.007731875288569723
-0.04032524768786277 0.07002520682584101 0.006117260704679772
-0.04038381915657939 0.07031224937466696 0.004775449255848052
-0.04477047258480267 -0.029967397733396572 0.07063710480231433
-0.044657215622244444 -0.028125282256482587 0.0703211895029075
-0.04460529194515906 -0.026850796374458863 0.06966395973289424
-0.04458872719009229 -0.025902442800860903 0.06880863921496849
-0.044574069438286394 -0.024972135918165883 0.0679431803300834
-0.04456308246527061 -0.02407588624696111 0.06705739487724816
-0.04457369062936658 -0.023376922034608838 0.0660483667364889
-0.04458872747999682 -0.0227178783622749 0.06501342264783372
-0.04463275892404596 -0.022321619767133594 0.0638105057421976
-0.044656201900259096 -0.02173717680149445 0.06272497270677668
-0.04467294386133968 -0.02109127893852708 0.06167739990220861
-0.044699350582120136 -0.020532038579284706 0.060572720603355446
-0.04475684210217557 -0.02025193992355584 0.059284875847486096
-0.04481614167221578 -0.019986047087754533 0.057983957427129584
-0.044873294095697014 -0.01969876678761895 0.0566931810304967
-0.04492853900308523 -0.019392360353267246 0.05541126508198796
-0.04500979416315426 -0.019316484715634075 0.053972460512494824
-0.04510013568995307 -0.019318767502964684 0.05247601872974095
-0.04519681398579396 -0.019374241748127907 0.05093781318448348
-0.045300038786277995 -0.01948443159309271 0.04935617984247709
-0.04540491579274768 -0.01960558617191177 0.047760196400148
-0.04549724685366887 -0.01961196837281648 0.04623562500254719
-0.04560687470670841 -0.019767815033233715 0.04460214853690947
-0.0457208859934282 -0.019958382133804742 0.04293730983618377
-0.04590127931809472 -0.02072877955290886 0.04086191594965022
-0.046254397284757366 -0.023008950764564495 0.03771953870654332
-0.04864599793207885 -0.04313437342546378 0.02201690815135704
-0.04859474787457463 -0.041817733819512426 0.021298263282715446
-0.048562490287745154 -0.040668627210426245 0.020464107818658872
-0.048520245179421655 -0.039433713148035565 0.019693427932637786
-0.04855424536264192 -0.038862799094973866 0.018448827625291098
-0.048592496265640314 -0.03832752926968963 0.01717616831472607
-0.04865276969704277 -0.03798145967004635 0.01576353842486239
-0.048756379364812835 -0.03800746267115601 0.014075188587483356
-0.04900703539536048 -0.03929694181132187 0.011452444931605188
-0.050006384156339824 -0.047015982075467255 0.004068047794044516
-0.04429914085044771 0.018674832088775184 0.020489080590577025
-0.04415327281977556 0.020662921186784478 0.020540361603234303
-0.04400823913216827 0.02263896882921912 0.020592147635274005
-0.043864399789201876 0.024600078082600396 0.020641917107975916
-0.043721376118957316 0.02654940034538189 0.020692198163766495
-0.04357928210077416 0.028486052038028398 0.02074215239319943
-0.043438108699925176 0.030410156298163182 0.020791782972502282
-0.043297846998375265 0.03232183467296634 0.020841093036882752
-0.04315848819290476 0.03422120714475957 0.02089008568118006
-0.04302002359326674 0.036108392156116165 0.02093876396051836
-0.04288256153379582 0.03798256593043392 0.02098631187057237
-0.04274574280456159 0.039846666016311316 0.021035189450028635
-0.04260979435233289 0.0416989089285667 0.021083756128705278
-0.042474937301956416 0.04353757392303209 0.021130393175910644
-0.04234070322920208 0.04536645502245418 0.021178352269764056
-0.04220731492786599 0.04718381285273393 0.021226009186641803
-0.04207476442959699 0.0489897559792038 0.02127336677347369
-0.04194326756082454 0.05078261968083114 0.021318827457860345
-0.04181259007043844 0.05256431175709314 0.02136400486921497
-0.04168261386114485 0.05433580735042243 0.02140969663162612
-0.041553223665637656 0.056098050903398144 0.021456689993887723
-0.04142485248483732 0.057847674856252584 0.02150181286780084
-0.04129738045108975 0.059585672584392346 0.021545870526310684
-0.04117058275700263 0.061313848905681645 0.02159044261468357
-0.04104466841557903 0.06303061043721869 0.021633959607780917
-0.04091941545439741 0.06473773107150971 0.021677990961629867
-0.040795030426546745 0.06643364328552936 0.02172097715329424
-0.04067118897395492 0.06812090495238804 0.02176525235532778
-0.040583878277374606 0.0695215526461464 0.021544894878064547
-0.04071393161298492 0.06924387727645503 0.019717659675927812
-0.04080751986046357 0.06925122825018043 0.01815585949605414
-0.04090143299696254 0.06925942901309845 0.01658765524373368
-0.040995886240233835 0.06926684983242631 0.015011417749871525
-0.04109077673302242 0.06927430500485027 0.013427883427722831
-0.04118610751859126 0.06928179476946733 0.011837001491258825
-0.04128188166850986 0.06928931936760352 0.010238720682063995
-0.0413779934290732 0.06929770436491128 0.008633812048391476
-0.041474663128067656 0.06930530127121537 0.0070205839774202805
-0.041571785575705976 0.06931293375745101 0.005399800417567213
-0.04616138936894315 -0.03048744503510059 0.06887870408230129
-0.04598817869754548 -0.028136901245306323 0.0688740787329234
-0.04594569927139856 -0.026958913344638014 0.06815607714807376
-0.04593590752512154 -0.02607351138516434 0.06725899382111428
-0.04592990401349134 -0.025222121098319783 0.06634127956020963
-0.045925598133610544 -0.024385999193903385 0.06541435165229281
-0.04592181485382464 -0.02355465383677996 0.06448467836151822
-0.04593682154257292 -0.02288947392963875 0.06344965234746874
-0.045967125703414026 -0.02235868006805225 0.062327789898090236
-0.04600545493099583 -0.021897466428837387 0.06115927798738502
-0.04605184930215256 -0.02150576680427041 0.05994339063597126
-0.04612424843391113 -0.021340434245858297 0.058577406730931814
-0.04619172747189985 -0.02112953805779305 0.05723656156236401
-0.04621668669329842 -0.020545011083930476 0.05613696136175428
-0.04630551663230473 -0.020516231157444997 0.05466842435028202
-0.04637645430345718 -0.020328749864625406 0.053299641223782335
-0.046431867415848656 -0.020004051326520833 0.05201798696040155
-0.04648594264292226 -0.019665837900410932 0.05074182764848845
-0.046561859878780386 -0.019514574394359274 0.04933580764487694
-0.046644484802076266 -0.01941854596581144 0.04788731258303858
-0.046737535683668514 -0.019409419067942857 0.0463740462360977
-0.046849416409882785 -0.019558865699332628 0.0447457356422194
-0.0469503771307093 -0.019610778086273595 0.043177501602973345
-0.04706136227427486 -0.01974497505970596 0.04154547717407675
-0.04724497658388611 -0.020495639728388804 0.039475466954436655
-0.04740777426768638 -0.0210624920154876 0.03752250087385833
-0.04986541468218517 -0.04114414769472713 0.021774066467724895
-0.04982284387437678 -0.039916475735000734 0.020998329231282475
-0.0497849448900454 -0.03872986019498792 0.020196090325680427
-0.04977819976836988 -0.03780793971147661 0.019206295497771253
-0.04980335034431737 -0.03715534927601177 0.0180224909230709
-0.049854188976952686 -0.03671816214435636 0.01668063717286067
-0.04993287807527938 -0.03651320805400565 0.01516587710590983
-0.05006370139297294 -0.03674264557210177 0.01332705082446789
-0.05157483496627654 -0.04851693664530998 0.002960491658618891
-0.045525697672929584 0.018706640190668533 0.020515350133104127
-0.04537580388003996 0.02069445156765526 0.020566540190758154
-0.04522664084115579 0.022671232421935195 0.02061907722466738
-0.04507845527203008 0.024635059373542212 0.02067126998172769
-0.04493161224664495 0.026583087259156868 0.020720614747226085
-0.044785722798187586 0.02851846493938387 0.020769639074976476
-0.04464065439535753 0.03044228886971162 0.020819176097533587
-0.044496522760692575 0.03235368985360054 0.020868393238417382
-0.04435331884973113 0.034252787834134324 0.020917293586072916
-0.04421103373406979 0.0361397012152902 0.020965880189315667
-0.04406965859950818 0.0380145468865441 0.02101415605796242
-0.04392918474422787 0.03987744024701528 0.021062124163458984
-0.04378960357700834 0.04172849522913319 0.021109787439480387
-0.04365078874901658 0.0435687409195889 0.021157959484055466
-0.043512968361036734 0.04539644737761134 0.021205019067730757
-0.0433760155266835 0.047212648764606346 0.02125178241999237
-0.04323992208002552 0.04901745337315072 0.021298252329150447
-0.04310445008777609 0.05081273976546974 0.02134603165921406
-0.0429700527569872 0.052595055297555704 0.021391917675059657
-0.04283660441932176 0.05436542014909451 0.021436723602447028
-0.042703982394193145 0.05612482289585985 0.021481252091278324
-0.042571954805348346 0.057875077580947565 0.0215270851001782
-0.04244074107879816 0.05961454310980702 0.021572635578949007
-0.04231044445084766 0.06134247700902057 0.021617121529889816
-0.0421810554806626 0.06305899868918385 0.021660553075828648
-0.042052346071752546 0.06476588171406689 0.021704499389085807
-0.04192452847846372 0.06646155882504279 0.021747401218245477
-0.04179737746197888 0.06814777330705157 0.02179081768081359
-0.041838051179014075 0.0685682011662268 0.020633058445822472
-0.04193344626647057 0.0685797077254986 0.01907910684080638
-0.04202927736947783 0.06859126687710321 0.017518052699416642
-0.042125657257571524 0.06860205964809485 0.015949051269940562
-0.04222236991224587 0.06861372322130588 0.014373639247172054
-0.04231952765725258 0.06862544047266089 0.01279097687358205
-0.042417133572266216 0.06863721177356802 0.011201013982455765
-0.04251530257893814 0.06864821070741334 0.009602879945264486
-0.04261381470599349 0.0686600893509991 0.007998157527856375
-0.04271278441788627 0.068672023170532 0.006385981239705851
-0.04278468104974341 0.06888617335823555 0.004969932122797838
-0.04750748258647229 -0.028935640811906638 0.06548100755116837
-0.04742524564881793 -0.027420307720677495 0.0649679526380707
-0.047389779196078875 -0.026311741846983205 0.06420438476231466
-0.0473799068217663 -0.025425014490318032 0.06330282897733486
-0.04737828442046807 -0.024609602046587353 0.06235656508933407
-0.047380853462779204 -0.023830235833598057 0.06138736570044495
-0.04738342278371163 -0.02305078509754116 0.060418061200790574
-0.04740222741183195 -0.02241010850056324 0.05935890585834791
-0.04744015251544817 -0.02193201028352587 0.05819291070486676
-0.0475257061880194 -0.021858386254211826 0.05676017992713861
-0.04749837708855947 -0.02082210659901018 0.05595483199870216
-0.04759669126284076 -0.020852880858846068 0.05444591029215068
-0.04769609836880818 -0.020889584496175673 0.05292687295730858
-0.04777721588598863 -0.020768349970256172 0.05150714305359433
-0.04785598875247243 -0.02062459492214419 0.05009743451616844
-0.04794581925587996 -0.020571254844514164 0.048621641132725935
-0.048004875975774935 -0.020256351623277713 0.04731792388003675
-0.04806936641164216 -0.019985006050880827 0.04598069311412173
-0.04813737977056189 -0.01974095485942473 0.04462060662094919
-0.04820838531837488 -0.01951958761970901 0.04324051358191072
-0.04832133389174868 -0.019645334798118974 0.04161470870123113
-0.04845177475649443 -0.01991273043187597 0.039882717404126244
-0.04865310998578219 -0.020764086518530178 0.037732132111306105
-0.04876113631241326 -0.02083581130384704 0.036119328553733177
-0.05108124499858006 -0.03918777320173217 0.02151589585338981
-0.0510401019396825 -0.03798433904463577 0.020728510400310873
-0.051006388996631465 -0.036843458802394424 0.019898864878016842
-0.051021123241494236 -0.03610169917028261 0.018783234085506806
-0.05105893813251161 -0.035548651683718346 0.017529650619676596
-0.051124973682008565 -0.03522519495019033 0.016106025528247636
-0.05123810131372623 -0.03528396266844719 0.0143975827457834
-0.05143907684374932 -0.036054605066955125 0.012156461560994314
-0.04690671363802367 0.016739805149136477 0.02049187752720455
-0.04675177705217955 0.018740494332837587 0.02054330944510968
-0.046597860633447424 0.02072801014448944 0.020594402713680737
-0.04644495433908078 0.022702482265623214 0.02064516066665889
-0.04629279010175499 0.02466603708871573 0.020697263456965376
-0.04614161965903833 0.026616767806643793 0.020749025960405842
-0.045991815516579895 0.02855185385493436 0.020797953430375327
-0.045842854359958274 0.030475389034111122 0.020847394095991623
-0.04569498078337017 0.032385539247737516 0.020895688480867203
-0.045547933163826604 0.03428436280533398 0.020944496564551385
-0.04540182891565097 0.03617100462365691 0.020992991524047544
-0.0452566589896935 0.038045581554232266 0.02104117636295222
-0.045112414452171644 0.03990820895884689 0.021089054046573796
-0.04496908648283879 0.041759000733203544 0.02113662750253137
-0.04482666637318554 0.043598069330143374 0.021183899621357305
-0.04468502525720255 0.04542643440507088 0.021231681128735913
-0.044544276424319865 0.04724328150209672 0.021279161631370336
-0.04440464899349443 0.04904693265544502 0.02132473887002273
-0.0442656581322113 0.05084108308604507 0.021371631107960087
-0.04412765195201855 0.05262315866325573 0.02141743341011998
-0.04399038705940956 0.05439502761233894 0.021463745703736714
-0.0438542051527179 0.05615418069471356 0.02150818654062253
-0.04371886380695705 0.05790247568752033 0.021552353073480635
-0.043584126434263154 0.059641710655304325 0.02159782185224024
-0.043450217006457674 0.061370258234275776 0.021643011230739806
-0.04331724093239054 0.06308738190462226 0.02168714182577286
-0.04318507630225087 0.06479402737749146 0.021731003127875292
-0.043053827357833314 0.06648946944201406 0.021773820623656792
-0.04293569513597179 0.06808425856499911 0.021730383516537333
-0.04305025508800301 0.06797216354296798 0.02006297616536623
-0.043148600608543516 0.06798233035288875 0.018504770050200514
-0.04324739648588545 0.06799254372013169 0.01693942839157009
-0.043346645820628533 0.06800280396523017 0.015366902062954102
-0.043445669601090586 0.06801805729883759 0.013791971148163773
-0.043545146849719524 0.06803338048348129 0.01220982801579884
-0.043644965954494214 0.06804960200219096 0.010621239971735974
-0.04374535900592043 0.06806506819991154 0.0090245290686643
-0.043846214974535266 0.06808060571314223 0.007420455654670033
-0.043947537069538085 0.06809621503627927 0.005808968688736482
-0.04401709612271322 0.06834232756788111 0.004422125731392057
-0.04898982048573459 -0.02847470792423279 0.06137577903682895
-0.04889675564876449 -0.02688709219528501 0.060909291787529574
-0.048855818226972735 -0.02573867783819711 0.06016774146844428
-0.04885609846120235 -0.024935788700324202 0.059206603863284024
-0.04886170242280036 -0.02417725678463767 0.05821678077848513
-0.0488667470948807 -0.023413888400412086 0.05722976095973903
-0.04888034474477818 -0.022721349921122902 0.0561961392199441
-0.048908966489870705 -0.022152826961669758 0.05508017573612628
-0.048932281493651905 -0.0215394854886386 0.053992087796194965
-0.049029854955843756 -0.02153810518198973 0.052495822653908286
-0.049107571637475846 -0.0213699912966675 0.05110501648162835
-0.04920385689427971 -0.021351918620432397 0.04960859076520213
-0.04929310423758653 -0.021272948017764637 0.04814739583053573
-0.049409883145306775 -0.02141639196505829 0.04652953831164852
-0.04950361913839499 -0.021367751132395696 0.04503573228016161
-0.04956698052659976 -0.021068393853963474 0.04370840938103193
-0.049611430114400994 -0.020613082696296525 0.04248491707603119
-0.04971028339785066 -0.02059803484532796 0.04095275943677318
-0.04993404027395711 -0.02159181928255538 0.03870961977631021
-0.04985689709437629 -0.02014500128453378 0.03816704225781431
-0.05006564501866843 -0.021007871031564374 0.03599779027424094
-0.052340943861305306 -0.038506891438410906 0.021999497408212554
-0.05229211318580336 -0.03725176680311093 0.021251682906132996
-0.05225074279282621 -0.0360580874997069 0.020462820189139364
-0.05223344442939223 -0.03505844649854423 0.019536470224182367
-0.05226292279821272 -0.034433009723609964 0.01833955789447722
-0.05231956958384382 -0.03402316400947614 0.016983413728656693
-0.05239598805770863 -0.03376872769066436 0.01550961840626841
-0.05252244629363425 -0.03390899592235347 0.013739709276858303
-0.05292177724554341 -0.03620670513389962 0.010361099557594788
-0.048296380507584016 0.014762347204435922 0.0204699591017784
-0.04813647687024445 0.01677498632349622 0.020520779035387626
-0.04797762858425692 0.018774342183756787 0.02057126356132505
-0.04781969103481274 0.020761562505529463 0.020622260075844945
-0.04766278990397714 0.022735742279876237 0.020672921940643962
-0.04750691502332649 0.02469700944912656 0.0207232524390088
-0.047351924768347785 0.026646480638850834 0.0207740902193857
-0.04719781179691818 0.028584254726267966 0.020825429910493187
-0.04704482862025173 0.030508482984194396 0.020875606796724788
-0.046893092074855314 0.03241834772770247 0.02092380566652735
-0.046742331193944164 0.034315932059911736 0.020971694617953507
-0.046592409196200314 0.03620230238274602 0.021020097966038875
-0.04644331926139896 0.03807755083036368 0.021069010381180253
-0.04629530620387928 0.03993990428833111 0.02111679493602936
-0.04614835855781437 0.04178950078446203 0.021163462767962382
-0.04600221663109806 0.04362830894928704 0.021210645693651053
-0.04585699738366583 0.045455507644982185 0.021257530725873497
-0.04571256946989656 0.04727210720303643 0.021304925738297675
-0.04556904846052084 0.049077299810287967 0.021352023143700327
-0.045426546944705354 0.05087030707356205 0.02139802596480639
-0.04528493390047278 0.052652135255834065 0.021443741966402197
-0.04514420104445265 0.054422888581562856 0.02148917382255383
-0.045004102468937775 0.05618439645368506 0.0215359081267521
-0.0448652251445197 0.057932437089530775 0.021579985043808703
-0.044727202302236126 0.05966972240957741 0.021623790765024353
-0.04459002608010806 0.061396351372087266 0.021667327785636348
-0.044453456767151095 0.06311409091366432 0.021712162222777165
-0.04431760619905271 0.06482216806310426 0.02175750217924205
-0.044182927117333126 0.06651737513774503 0.021800235370760312
-0.04411029816586066 0.06776466829819883 0.02142629356644965
-0.044255680892856475 0.06745502359388694 0.019568355855634767
-0.044356253657369275 0.06746895246313217 0.01801119293314296
-0.04445728457416607 0.0674829447845009 0.01644693646233819
-0.04455866025916892 0.06749782609627242 0.014876339411575124
-0.044660616388711875 0.06751194848050696 0.013297755625304886
-0.04476304016665227 0.06752613564086674 0.011711931252360086
-0.04486581668404574 0.0675412187012091 0.010119635962215323
-0.04496918491817466 0.06755553863406338 0.008519186275547541
-0.045073030561072674 0.06756992470401207 0.006911344871907754
-0.045177237148290146 0.06758521369668896 0.005296898500403602
-0.050411051212677645 -0.02658630598898032 0.05665978888161999
-0.050358467297179625 -0.02534979629302525 0.055971513602257994
-0.0503716756734816 -0.02464744930442997 0.054937223490933884
-0.05042719726107445 -0.024286448744780365 0.053677788154347594
-0.050395061337603596 -0.023217047901642918 0.05288327553395861
-0.05043971390065025 -0.022766445495612464 0.05167938530886068
-0.05052005451129541 -0.022600945867270628 0.05028226783384576
-0.0506024096112684 -0.022449006020944184 0.04887122396636867
-0.050677684905763576 -0.022237803402038514 0.04749529008099862
-0.05077677813993916 -0.02221426650782843 0.04598728755997816
-0.050888407374595795 -0.02228739005500724 0.04440725582468602
-0.05102479965564183 -0.022553757722778067 0.04268768840003545
-0.051179904388041125 -0.02296417911250659 0.04086032783848359
-0.051413278843856075 -0.02398923555156285 0.03859650574784301
-0.0539519928075224 -0.04321989951605143 0.02359913223309612
-0.053787935404035515 -0.04105942407843627 0.02347456941842918
-0.053695389700582616 -0.03946689416141236 0.022958833450826832
-0.05360299750339001 -0.03787854397298712 0.02244578607656278
-0.0535412511078541 -0.03653330748396605 0.021764776553412912
-0.05349814598084722 -0.035335831200413226 0.02098145421570119
-0.05345723582542527 -0.03415686981492083 0.02018741526356327
-0.05345854406252925 -0.0333080164567941 0.019156253807833368
-0.05351206996447994 -0.03286494859808631 0.017828820035802884
-0.05357473458490986 -0.032491038287668084 0.016447318643963482
-0.05368945185424615 -0.032517986097801654 0.01476613722498682
-0.05388495479428842 -0.03316520598321787 0.012617636672185628
-0.04952997607097032 0.014797832391906518 0.020498955935288055
-0.04936600388862007 0.01681016074022834 0.020549674992146272
-0.049202975280321005 0.018810234553318483 0.02060090619034105
-0.04904115753089992 0.02079612510867146 0.02065095620430618
-0.048880400659559495 0.022768996154415855 0.020700678089968894
-0.048720558444995746 0.02472997415065592 0.020750913193507636
-0.04856175821395162 0.026678168873447372 0.02080082082304069
-0.04840385574812502 0.028614686506771958 0.02085123657413268
-0.04824684362619915 0.030539624549952904 0.020902155088720453
-0.048090979176131456 0.03245115006855637 0.02095191759090964
-0.047936250028253836 0.03434940836390771 0.02100053565785992
-0.047782643990274196 0.03623454265489817 0.021048020699375947
-0.04762988942410858 0.03810857416470437 0.021096020818801686
-0.047478108417572884 0.0399706617997449 0.021143715016135933
-0.04732729169296534 0.041820919381202915 0.021191106206714327
-0.047177430090095125 0.04365945928860554 0.02123819726894899
-0.047028641116808705 0.04548548418264309 0.02128418346019023
-0.04688066194248812 0.047300927955172656 0.021330685422036755
-0.046733486133968126 0.04910587561168761 0.021377697927983053
-0.04658723151362656 0.05089952591949537 0.02142441617781804
-0.04644201287461298 0.05268110676624632 0.021470045908461632
-0.04629769675528418 0.05445161526180525 0.021515392054667293
-0.046154152877745006 0.05621201739364634 0.021561249092257095
-0.04601161749045858 0.057960681348250054 0.02160603338017769
-0.04586995976253231 0.05969857793270006 0.021650541909458643
-0.045729291268566556 0.06142496479451065 0.021693993019498647
-0.0455894829084319 0.06314079546359064 0.021737178442582494
-0.045450290414530664 0.06484782140105966 0.021781658994815767
-0.04531194529150119 0.06654445536979153 0.021825868759902334
-0.045356279476542284 0.06696366810224441 0.020664142211885173
-0.04545844792506372 0.06698222520787717 0.019116146197127537
-0.04556107769709529 0.06700086610494993 0.01756116048075218
-0.04566429124030426 0.0670187656773088 0.015998339647259607
-0.045767853624393846 0.06703757404551408 0.01442922583349715
-0.045871886816061684 0.0670564679190423 0.012852978631522016
-0.04597651498640103 0.06707461669877218 0.011268733420894905
-0.04608150002914681 0.06709368149381051 0.009678066675760877
-0.046186965625300495 0.06711283355523717 0.008080118890193944
-0.046292915081923396 0.06713207348360051 0.006474839957698708
-0.0463742348709324 0.0673223890005904 0.005033524109906151
-0.05214254930329182 -0.02786933934037472 0.0513228246738594
-0.05200555164013104 -0.02597444485389183 0.051060728959381185
-0.05202352466167236 -0.025300181262451593 0.04999529452871265
-0.05207933504417466 -0.02492173912201806 0.04873108988047831
-0.05216213625410298 -0.024752546548717114 0.047322984151649594
-0.05221763572880863 -0.02436775569537708 0.046055743548096606
-0.052285001600100724 -0.024073617550956772 0.04472363704073612
-0.05235483665038681 -0.023796553673433585 0.04337590121081708
-0.05246908230349375 -0.02386169285408568 0.04178889394030327
-0.05266390650629323 -0.02454685238319304 0.03976671301113155
-0.05557926723063016 -0.04623765831046445 0.02313798996448757
-0.055297207824849474 -0.043192268289354185 0.02361843690952209
-0.055091431532953865 -0.040742494472702895 0.023697213926523797
-0.05496566326945115 -0.0389133427735478 0.023349847328820172
-0.05487541133040448 -0.03736021364417158 0.022813934233382682
-0.05479333143287761 -0.03587238965367323 0.022236776478364084
-0.05474242794500627 -0.03462499412901887 0.021491888383848856
-0.05470097142747476 -0.03345112056471289 0.020696971464468028
-0.05466257993671365 -0.032301834858330825 0.019886697654400654
-0.05470180678303169 -0.03174227742204622 0.018648281844238945
-0.05475548002093146 -0.031290800204533786 0.01732817712117063
-0.05483744662765735 -0.031051281315896906 0.01584842057469743
-0.05496735060808544 -0.03117041257952563 0.014097605995626705
-0.055272809687302575 -0.03260557047418494 0.011357211852519589
-0.05093292744492679 0.012804725856172816 0.020474424827032767
-0.05076347777504178 0.014832267354903839 0.020527094577139193
-0.050595294761202246 0.016845328401279613 0.020578565399079818
-0.050428222473245944 0.018845094650879635 0.02062969629372935
-0.050262390972908785 0.020830681117317174 0.020679646857586276
-0.05009764656144858 0.022803251305546057 0.020729269976274944
-0.04993383939247415 0.02476393144258171 0.020779406830112312
-0.04977123823907537 0.02671084146699443 0.020828381779684657
-0.04960941783738535 0.028647075892995366 0.02087870331468472
-0.049448782774815445 0.03056978769196994 0.02092786927391782
-0.04928904900668956 0.03248105272692703 0.020977544467216447
-0.04913020914111103 0.03438096584367317 0.0210277235668363
-0.04897265751650262 0.036266776933498834 0.02107593824180337
-0.0488162461718779 0.038139591919232996 0.021123026398364886
-0.04866069857188922 0.04000141379678285 0.021170630269862434
-0.04850613909511888 0.04185140836609741 0.02121793173547948
-0.04835255835573205 0.04368968797061629 0.0212649336676638
-0.04819994708638926 0.04551636353545341 0.021311638902597574
-0.04804842501471587 0.04733064417716354 0.021357245464408703
-0.04789772454096913 0.0491344465230068 0.021403368318626492
-0.04774783916375176 0.05092785443382197 0.021450002253685208
-0.047598888927833545 0.0527100731958296 0.02149634523751226
-0.047450990802164326 0.05448033691980925 0.02154160570309016
-0.04730388400580332 0.05624049660195618 0.021587377477334746
-0.04715781065264367 0.057988920699581614 0.02163207719069632
-0.047012636665914306 0.059726579836367644 0.0216765016900225
-0.04686823113951287 0.06145441447359512 0.02172143756947098
-0.04672495377092521 0.06316999846993232 0.021764535151232334
-0.04658254973863983 0.06487512525459438 0.021807370034861995
-0.04644317838095431 0.06655512200785246 0.021835965557530868
-0.04655095510966175 0.06655053754086204 0.02027104869982621
-0.046655952030146414 0.0665681871307422 0.01872013805219941
-0.04676154573540782 0.0665850904843498 0.01716142117242525
-0.0468674958713985 0.06660289838835465 0.01559643285384299
-0.04697392721149743 0.06662078717238346 0.014024336674409943
-0.047080348085420304 0.06664208349805761 0.012448332048354827
-0.04718700365454874 0.06666514322985367 0.010866806209684554
-0.047294143554824426 0.0666883076777921 0.0092780985403223
-0.04740177109283274 0.06671157755678148 0.007682160009071071
-0.047509889605326316 0.0667349535882572 0.006078941137398097
-0.047579799647925226 0.06701548589766171 0.0047259791063336
-0.05400523187454645 -0.028282353040877728 0.04341002928244686
-0.05398584841361071 -0.027308503078766977 0.0425251469309772
-0.05402924240911097 -0.026811439156518957 0.04131554398482307
-0.05411017610436935 -0.02659722646944046 0.039909073980244014
-0.057965385375075944 -0.05489443652224696 0.01879676879259029
-0.0580831763114667 -0.05489539092988366 0.0171224761187328
-0.05665466473816156 -0.04325806321522069 0.02357246927763229
-0.05641708032137845 -0.040606998592249144 0.023792400453949647
-0.05624691867355311 -0.0384684442900744 0.023664111720615666
-0.05614486689187817 -0.03684444300027323 0.023180264354241975
-0.05604917600712942 -0.035271036620342366 0.02266623771908627
-0.055981634797057846 -0.03391020871219641 0.02200515775848816
-0.05593590200596786 -0.03271353630077389 0.021229512777657833
-0.0558926271596853 -0.03153649445043766 0.02044230134700792
-0.05589279748065255 -0.03068234772456041 0.019421947303998544
-0.055939994676340594 -0.030175557513586748 0.018146657220242224
-0.056004871530694236 -0.02979764200922358 0.016773482647523486
-0.05611190475019842 -0.029727836274014097 0.015167876591939466
-0.05627382782417989 -0.030057675425443076 0.013257808147397965
-0.052170447194653226 0.012838407072889746 0.02050180160509335
-0.051996896131795936 0.014865652680763564 0.02055437550727446
-0.05182449591733979 0.016879455257469367 0.02060660078229476
-0.051653380538289294 0.018878923067199904 0.020657634359383337
-0.05148339142753228 0.02086523053335565 0.02070833203725375
-0.0513146609977917 0.022837499942883477 0.020757856425687116
-0.05114689038266323 0.02479788229846569 0.020807895066220494
-0.05098035486046121 0.02674449787644273 0.020856772631229203
-0.05081475959288546 0.02867945935959465 0.020906165035296687
-0.05065023662222893 0.030601891177796103 0.02095523760327317
-0.050486775566764626 0.032511914640321715 0.021003993431735923
-0.0503242281676405 0.03441060553943315 0.021053259241072708
-0.05016258696138538 0.03629805741187353 0.02110302971727057
-0.05000225331190889 0.03817154377445642 0.021150845249096273
-0.04984294134031464 0.040033091909664864 0.02119835609072962
-0.04968477583706618 0.04188189190260838 0.021244752470520933
-0.04952747729060505 0.043719911267861844 0.021291665303709018
-0.04937117159448326 0.04554632926631147 0.02133828202837179
-0.04921584937813739 0.0473612553921442 0.021384605439197735
-0.04906150138855456 0.04916479776598259 0.02143063829581271
-0.048908248841246366 0.050956178115967976 0.021475583965167522
-0.04875569165438463 0.05273815700079676 0.021521843212904124
-0.04860408323797334 0.05450905355689162 0.021567814769024363
-0.04845341476868265 0.05626897084716126 0.021613501308988314
-0.04830380468298213 0.05801715514480449 0.021658116476544365
-0.04815511565942953 0.059754576890154176 0.021702456974397544
-0.04800721362372003 0.061482176368494734 0.021747309256100522
-0.04786034215684914 0.06319836199653461 0.02179110545712243
-0.04771449068329056 0.06490325159978522 0.021833855582378436
-0.04760136194968876 0.06638601053299964 0.021675890051506164
-0.04773931722083371 0.0661989797582247 0.01993654166867309
-0.04784624111829851 0.06622163742528309 0.018388679408525843
-0.0479537703701011 0.06624356899647782 0.016833072059652676
-0.04806178403131939 0.06626559936751092 0.015270456842223779
-0.04817028538267316 0.06628772920751497 0.013700786294625567
-0.0482792777345739 0.06630995919168325 0.012124012525693562
-0.04838876442746298 0.06633229000132929 0.010540087209832683
-0.04849874883215188 0.06635472232396239 0.008948961582085968
-0.04860923435016844 0.06637725685335649 0.007350586433128303
-0.04872022441410774 0.06639989428962073 0.005744912104192312
-0.05951546499883301 -0.0561485254745861 0.01793020317685362
-0.0596394033026592 -0.05617155642217614 0.016235778538487733
-0.05804300987543463 -0.04354780197495406 0.023370042982299055
-0.05775537236789174 -0.0405705338215282 0.02381801719635146
-0.05754133194923393 -0.038140545362894684 0.023895730776124002
-0.057404194467113416 -0.03627868320311445 0.02358209965265934
-0.057315230267522776 -0.034772076170201116 0.023022574463932577
-0.057229156228071995 -0.03328915329058302 0.022451121998986356
-0.05717325093492557 -0.03202781436981028 0.02172460910713131
-0.05713221886497732 -0.03087589697357379 0.020921866259989985
-0.057091592633090625 -0.02972814037661975 0.02011844375736177
-0.05712231754364906 -0.029096373577971235 0.018938673688310315
-0.0571749912011717 -0.02862171313297257 0.017641202097639974
-0.057251654153748846 -0.02831783561614637 0.016213978791941364
-0.05738035090782989 -0.028384739489415056 0.01450573078761841
-0.05765151554451134 -0.029467136178618625 0.012028396034282296
-0.05358658251842718 0.010831557501820022 0.020476343858189805
-0.05340774179288931 0.01287208216172181 0.02052917340228444
-0.05323009082970103 0.014899031952776587 0.02058165149048874
-0.05305361779563849 0.016912541888889354 0.020633781618338676
-0.05287831101388167 0.018912745199439918 0.020685567235168345
-0.05270415896143875 0.02089977335866927 0.020737011744871303
-0.05253144403460415 0.022871742068285794 0.02078643743975589
-0.052359857407348526 0.024830828443484165 0.020835540249910245
-0.052189243081588246 0.026778147928247675 0.020885158119786085
-0.05201973703747693 0.028712817956865755 0.020934453680289178
-0.05185147161760109 0.030633988815780333 0.02098260094732357
-0.051684149062056955 0.03254373530069554 0.02103126404906941
-0.05151790292006288 0.03444119607212903 0.021079614092947285
-0.051352582471145526 0.03632743695689905 0.021128474833076727
-0.05118831965286197 0.038201610694869326 0.021177022988553784
-0.05102496576699265 0.04006476417209742 0.021226076791073467
-0.05086306427195041 0.041913293488783754 0.021272380942642
-0.050702186950642575 0.04375012918178123 0.02131839217835718
-0.05054218814411168 0.045576289676563964 0.02136492042349014
-0.05038319596541645 0.04739096093582551 0.021411155937410775
-0.05022520094459234 0.04919425104584069 0.02145710147402019
-0.05006819373008963 0.050986266741345876 0.021502759752785705
-0.049912297689562055 0.052766236030675484 0.02154733685287613
-0.049757237674902186 0.0545360252130882 0.02159243123348953
-0.04960287618239725 0.056296577494840405 0.021638829161970186
-0.04944959963336312 0.05804538468519704 0.021684151238900717
-0.04929739679448996 0.05978256909531987 0.021728407763751956
-0.04914599946079433 0.061509933470264844 0.02177317647594762
-0.048995656971185755 0.06322588648861716 0.021816889777323545
-0.04884623150254298 0.06493137297228802 0.021860336447296957
-0.048769264647281645 0.06616161814549493 0.021463487373501178
-0.04892484332852899 0.0658821570285244 0.019635085030256016
-0.04903376445886743 0.06590909308251364 0.01808974531911245
-0.04914330020057377 0.06593531990898044 0.01653671205089724
-0.04925332641825629 0.06596166417329591 0.014976724655083595
-0.049363716709177594 0.0659889596800467 0.013410545553145359
-0.04947473322971268 0.06601554300225554 0.011836515006164339
-0.04958611934110249 0.06604308278745902 0.010256209875340816
-0.04969813959490527 0.06606990841843441 0.008667945714527392
-0.04981066712577725 0.06609685552781253 0.007072489193600318
-0.04992370538729869 0.06612392494263114 0.005469791346429387
-0.05911251332267936 -0.04067082749247092 0.023747560539152
-0.05886832383068761 -0.03806058458083472 0.02395221300208339
-0.05868215739733485 -0.03587166558680904 0.023871187104963387
-0.05857398412722923 -0.034243789548055514 0.023399854732704173
-0.058480259548256065 -0.03272179183042023 0.022858529966469865
-0.058404395448221104 -0.03132924422927014 0.02222898193753381
-0.058363613425257435 -0.03018729153844424 0.02142176372341592
-0.05831722670675923 -0.029006931480711817 0.02064486965281931
-0.05829883414263957 -0.028025305216580865 0.01972473411125164
-0.058346254237594465 -0.027507280437768566 0.018463543439648622
-0.05841007438918227 -0.027103022921725672 0.01711526790926854
-0.058513724182621275 -0.026975982132445953 0.015556590049154218
-0.05864814337967526 -0.027061060861935216 0.013832943002920817
-0.054827465032084875 0.010867648222873838 0.020505523417399307
-0.0546448113010748 0.01290575112434128 0.02055654021996528
-0.05446306192958647 0.014932405172589591 0.02060892252812757
-0.05428251755316248 0.016945622541057026 0.02066095754239633
-0.054103166227753706 0.018945536415652497 0.02071264870518913
-0.05392499616664582 0.02093227822787419 0.020763999413576317
-0.05374799573787605 0.022905977683610246 0.02081501302003147
-0.053572452044391344 0.024864766621934875 0.020864017848356675
-0.053397902967167066 0.026811791624210546 0.020913538246874752
-0.05322448762433536 0.028746170273809657 0.020962736999459775
-0.05305234141289501 0.030667052998003652 0.021010788270856895
-0.05288130517213238 0.03257555018397512 0.021058529715376417
-0.05271122367005963 0.03447273693984387 0.02110678769004115
-0.052542232723745315 0.03635775901055405 0.021154736236388916
-0.052374321877808924 0.03823073302142055 0.02120237832097588
-0.052207197248708724 0.04009363671646787 0.021251347085738337
-0.052041135805834964 0.041944689294513504 0.021300004328877298
-0.05187640741233987 0.043782172609658054 0.021346733662004513
-0.051712857682620954 0.0456071524177481 0.02139236109617204
-0.0515503359530798 0.0474206612221566 0.02143770173666021
-0.051388695192262704 0.04922369912933994 0.021483559983404066
-0.05122806494255838 0.05101546519012945 0.021529131543265023
-0.05106843575754885 0.05279606477553167 0.021574419096236752
-0.05090993312929103 0.054564732116378634 0.02161863141559761
-0.05075227736838027 0.05632331698352799 0.02166336143861508
-0.05059546187627923 0.05807189887147168 0.021708604017364297
-0.050439480122489826 0.05981055645312394 0.021754354059253134
-0.05028472023168047 0.06153684486843025 0.021798255575949332
-0.05013077638806123 0.0632534062435034 0.021842669659826563
-0.04997790217929294 0.06495866248848059 0.02188603398639305
-0.04994284570907729 0.06591137075411574 0.021226611162694198
-0.05010177215314504 0.06563419801440973 0.019399152196881098
-0.05021353203618904 0.06565977376090992 0.01785128303359773
-0.05032579162993942 0.06568546386408003 0.0162964929002109
-0.05043842195741205 0.06571210162441415 0.014735539858461266
-0.050551690484819736 0.0657380245553672 0.013166773731575043
-0.05066546888687839 0.06576406417769015 0.011590945854026646
-0.050779760614131385 0.06579022128108125 0.010008008435884064
-0.050894569148326456 0.06581649666238731 0.008417913255026777
-0.05100895056032755 0.06584878232315977 0.006826454443265462
-0.05111732216166086 0.06592169114673652 0.005268179434519571
-0.06052688950863011 -0.04116778502674745 0.02339844579427436
-0.06020476547738458 -0.03805026937446909 0.023959499468718393
-0.05998123798223536 -0.03563013310504276 0.024042737476914378
-0.059829194576748235 -0.03371430093249167 0.023777993414635545
-0.05973340133091323 -0.032193816129625685 0.02323765601822103
-0.05963918067509479 -0.030686976844044367 0.022692703766879208
-0.05958387426825195 -0.02945221665921588 0.0219553959672088
-0.05954489619347773 -0.028331837592245 0.021137635216958606
-0.05949876592809554 -0.027163264714940627 0.02035738834988482
-0.059528490262520085 -0.026517869392349513 0.019193631152100654
-0.05957466680552891 -0.025984576755460398 0.017945061152562503
-0.059657096409563716 -0.025698340761344363 0.01650964365466756
-0.059783532470411516 -0.025710616943626974 0.014845770636816469
-0.060003205577596336 -0.02635540013898069 0.012697920102691662
-0.05606826680783889 0.010902670755982835 0.020533839342993576
-0.05588133812230312 0.012941517693274063 0.020585612009210108
-0.05569565171733196 0.014966814971794695 0.02063704060730348
-0.055511195250117155 0.016978697215593253 0.020688128555799323
-0.05532780084311629 0.01897832172610847 0.020739725297788725
-0.05514561422101048 0.020964777262175105 0.020790982237762268
-0.05496462349175232 0.0229381934876679 0.020841902721465466
-0.05478481691890472 0.024898698369776706 0.020892490050865353
-0.0546063345818838 0.026845428966131846 0.020941913014014102
-0.05442916209774471 0.028778535632849545 0.020990183364559323
-0.05425298587616944 0.030700110976042472 0.021038970305302718
-0.05407794646991556 0.032609286937221094 0.02108744243759514
-0.05390418069860289 0.0345052276252068 0.021134779586621355
-0.05373152805618336 0.0363890230769604 0.021181813497736457
-0.05355983197469068 0.038261728809504736 0.02122936477547388
-0.05338908471215147 0.04012343553786618 0.02127742808861738
-0.05321942266619404 0.04197330983644115 0.021325185926149792
-0.05305083552364245 0.04381146415276427 0.021372641191108765
-0.052883313101587524 0.04563800951403402 0.021419796749863496
-0.05271712804500045 0.04745125602300254 0.021465047040671592
-0.0525518437198945 0.049254034148604076 0.021510815383913362
-0.05238759259034643 0.05104554307287851 0.021556297628232968
-0.05222436499875273 0.05282588813259198 0.021601496447886392
-0.052062151407498786 0.05459517335577202 0.021646414483908083
-0.05190107940505086 0.05635263914224942 0.02169026318975187
-0.05174100099188458 0.05809926381961156 0.02173384141021928
-0.05158163634732352 0.059836843186894306 0.021778723759477148
-0.05142311589333998 0.06156459253281771 0.021824114000971118
-0.05126583413256167 0.06328008754052544 0.02186766409683749
-0.05110937869638056 0.0649859473226429 0.021911727116592505
-0.051160980617521605 0.0653956382517375 0.020738435101636254
-0.051273989806867586 0.06542644084711674 0.019201471408909654
-0.051387499352140584 0.06545737982321548 0.017657702704009348
-0.05150164749098324 0.06548762431354338 0.01610628399895947
-0.05161616836960603 0.06551883701483363 0.014548763115384666
-0.05173133580184942 0.06554935351553803 0.012983488601559567
-0.051846881590265806 0.0655808436079462 0.011412030936217621
-0.05196308202989435 0.06561163578746948 0.00983271418160453
-0.052079666548645036 0.06564340700276089 0.008247131812428976
-0.052196913956770015 0.06567447859572367 0.00665358302541208
-0.05229340143495732 0.06583481990498341 0.005181575386118686
-0.06155546664964761 -0.038137965857607925 0.023897553117107173
-0.06129807190050742 -0.035520321680754696 0.024120731962106012
-0.061083822498523004 -0.03320386422431654 0.024142526021832367
-0.06098243908678041 -0.031660888343298554 0.02362033803686142
-0.060885264814443125 -0.03014930938157162 0.023080903687384635
-0.060806239520622085 -0.0287633528479585 0.022455480999813704
-0.06076469096110207 -0.02763287730121089 0.021647821378909637
-0.060723933020017586 -0.02650889497742448 0.02083763238095865
-0.06070815864505797 -0.025554195559828685 0.019904727343103834
-0.060748161081992866 -0.02497454542145844 0.018694419691743458
-0.05980652107201808 -0.0178145839107946 0.02239051326798147
-0.059764194346000256 -0.016695776449296762 0.021606865097108074
-0.059777348438155735 -0.01594844656977218 0.02054540177784908
-0.059830734977135355 -0.015468709597502905 0.01928034774125781
-0.059899566076427734 -0.015090130343394292 0.017935271527412033
-0.05999290081182545 -0.014872144423362876 0.016463356262924334
-0.0601221166594115 -0.014889025172252213 0.0148053591032003
-0.06029147432476618 -0.015167407883848405 0.012937689319067636
-0.06055122933826556 -0.016036815865943188 0.01060039300182597
-0.05750083511360796 0.00888760581115311 0.02051185135027811
-0.057308671652799036 0.010938747687504802 0.020563007753285734
-0.05711762597994679 0.01297727735017723 0.020614678180217783
-0.05692801107581328 0.015001218338181188 0.02066515342988079
-0.05673949076201343 0.017012799218042662 0.02071614352154144
-0.05655221491955875 0.019011101132406782 0.02076679701428774
-0.056366013183536935 0.020997270463141038 0.020817960218732057
-0.0561810335866759 0.022970403528205563 0.02086878761223787
-0.05599726413602792 0.02493062825350062 0.020919282490145075
-0.05581469299505058 0.026878070896587947 0.02096944810481771
-0.05563346248074935 0.028811875579040913 0.021018456193125923
-0.05545355807614424 0.0307321907260108 0.02106631839976003
-0.05527466143150642 0.032641089921144284 0.021114697906037927
-0.055096915339781644 0.03453771225375801 0.02116276626503999
-0.05492045881470996 0.036421228644972714 0.02120970617442597
-0.05474512894196568 0.03829271902520481 0.021256346378380753
-0.054570618619674674 0.040154160152113594 0.021304319375940683
-0.054397364564134854 0.04200284858727449 0.021351175400609046
-0.05422506084072877 0.043840750637960224 0.02139854424663662
-0.05405384521641604 0.04566704632577262 0.021445613957988774
-0.05388370741660913 0.047481845246049814 0.02149238735930653
-0.053714780856280925 0.049284363654769014 0.02153806583101464
-0.05354705282898925 0.051074731097785764 0.021582660003956144
-0.053380227247636185 0.05285482917806705 0.021627772730085093
-0.05321443792745612 0.05462386992232826 0.021672605231898512
-0.0530496752430153 0.056381956037935554 0.021717160112292522
-0.05288606885279181 0.05812833403367118 0.021760651483102134
-0.05272346849256695 0.05986397339850319 0.021803875421563756
-0.05256158998410625 0.06159065415167847 0.021848401182926303
-0.05240070247524903 0.06330676438536936 0.021892654363148467
-0.05224079689360514 0.0650124008704277 0.021936637457653452
-0.052325940161879816 0.0652252849803272 0.020577184150617767
-0.052441584751262836 0.06525572763800724 0.019039037936209813
-0.05255787908404249 0.06528547424675368 0.017493283079604904
-0.05267441424230129 0.0653170184305415 0.01594225837908414
-0.05279091266325605 0.06535204052479082 0.014387565974067873
-0.052907788258451126 0.06538805405199788 0.012826793697656491
-0.053025182511645653 0.06542422739630355 0.011259095193040747
-0.05314323940478648 0.06545972192186106 0.009683600025755967
-0.0532616820123327 0.06549621633369318 0.00810190400244254
-0.05338065375540515 0.06553287378233513 0.006513141843108083
-0.0534692717457661 0.06575296558750421 0.005099972837138478
-0.0629854544290797 -0.03875286483651169 0.02346320511894545
-0.06263235799052927 -0.03553181100436137 0.024112571665047045
-0.06239295821825829 -0.033078662930165315 0.024231939626620957
-0.06222865183676211 -0.03113183691142357 0.024000236543409992
-0.06213582193653387 -0.02966422955627185 0.023431134949365995
-0.06203989456725404 -0.028178631292158196 0.022879963317060326
-0.06196837696434954 -0.026857111265016498 0.022214069697960193
-0.061928570938714254 -0.025746864724062624 0.02139688879269175
-0.06091885693697972 -0.018248940672587644 0.025295283988402417
-0.06088670537599091 -0.017204451672941545 0.024459177004059862
-0.06087208588432604 -0.01627584598163928 0.023538331222644537
-0.06087930462369239 -0.015490592206373 0.022510748551754667
-0.060906389939993796 -0.014834914955669132 0.02138507302932785
-0.06095773747103844 -0.014336652528427363 0.02013860984895499
-0.06102349446080867 -0.013930718041644086 0.018819025939064093
-0.06110702693358738 -0.013638369985789489 0.01740887198986707
-0.061213954302803304 -0.01349527920021426 0.0158792327292388
-0.06134653723712161 -0.01351509853923899 0.014217644538233098
-0.06157574366208529 -0.014154534003392616 0.012066343427762694
-0.061920168679475314 -0.015529309379442913 0.009326888715818327
-0.05874530686464915 0.00892292598201161 0.020540256189241324
-0.05854883600626011 0.01097481762437652 0.020592170508362095
-0.058353674943270054 0.013013030097054457 0.02064373873461689
-0.05815997534502554 0.01503665750783445 0.02069411265978277
-0.05796739379365542 0.017047927972505095 0.020745001966518406
-0.05777624595851638 0.019044898716399306 0.02079470961627189
-0.05758619311320791 0.02102975783234251 0.02084493335778942
-0.05739722608105156 0.023002607806769604 0.02089566769363943
-0.05720949517090727 0.024962552444049824 0.020946070152268736
-0.0570229882932355 0.026909717961159263 0.020996143979509108
-0.056837693515635564 0.028844228934516547 0.02104589237900273
-0.056653755362481385 0.030765236483266734 0.02109449001594821
-0.056471159187784246 0.03267288713278588 0.021141948427578827
-0.056289581954977436 0.034569235658365116 0.021189924817036132
-0.05610916866678847 0.036453428229108076 0.021237593668584853
-0.05592990816731257 0.03832558135457087 0.021284957929846304
-0.055751940808508635 0.04018487926082953 0.021331205844624834
-0.05557495202542085 0.04203330506862274 0.021377972331346917
-0.055399083416120765 0.04387003206655404 0.02142444282974504
-0.05522432437967299 0.04569517096809067 0.021470620140953522
-0.05505036928569739 0.04751063000309824 0.021518114871018623
-0.05487765331466398 0.04931379584280288 0.021564510058643793
-0.05470616345968906 0.051104798243658156 0.02160981639146925
