# .PCD v0.7 - Point Cloud Data file format
VERSION 0.7
FIELDS x y z
SIZE 4 4 4
TYPE F F F
COUNT 1 1 1
WIDTH 757
HEIGHT 1
VIEWPOINT 0 0 0 1 0 0 0
POINTS 757
DATA ascii
-0.012517198955378617 -0.03869832368785455 0.040497689707402806
-0.013016996096756994 -0.038727373042300284 0.03935974148436355
-0.013484764110180125 -0.03875990426331728 0.03819496221936253
-0.013899037140671922 -0.03879819566122468 0.03698640086443716
-0.014182986591150137 -0.03885037626685172 0.035673859860005985
-0.014389745867420034 -0.038910925941815395 0.03429707100370011
-0.014488260301310119 -0.03898318296803727 0.03283072247417862
-0.014470804248446933 -0.039068041083290386 0.03126733642695212
-0.014364485557565143 -0.039162701273858895 0.029626860891420137
-0.014019341225965543 -0.039283191136528076 0.02778880065872319
-0.013465838449521927 -0.03942642631320461 0.025774427248602794
-0.012733264363760766 -0.039589422115854575 0.023604557812992533
-0.011649310564888937 -0.03979076812520152 0.021137498484018913
-0.010073125507576108 -0.04004583658745917 0.018254129974417832
-0.006063087204323525 -0.04056391040566435 0.013361350666840466
0.018858987605290367 -0.04129454852450044 0.05278332564508653
0.015151171801516483 -0.04099561026569616 0.05377619244570436
0.01228113630249178 -0.04078190108445572 0.05422458772511718
0.009851005291347303 -0.04061280587884106 0.054389595413728176
0.0077895645089857135 -0.04048121814798611 0.05431499441574367
0.005968963243087266 -0.04037409552268286 0.054084523769471204
0.004335392609115307 -0.04028599045184031 0.05373267338306037
0.002808977673185886 -0.04020869472646318 0.0533128449565487
0.00140183081546702 -0.04014353914346863 0.052815382089443697
0.00010254103718448926 -0.04008940391036286 0.052246957249958925
-0.001141290093511882 -0.04004086248483265 0.051643360936982075
-0.002349379831691145 -0.03999587759190325 0.05101797576329242
-0.0035147981918031146 -0.039955200712864965 0.05036545652283453
-0.004651661649665351 -0.03991736914462315 0.04969545912119483
-0.005745676710582348 -0.03988391150549323 0.04899734535461947
-0.006826421796914395 -0.03985172152662481 0.04829209771552584
-0.00785050817437144 -0.03982541289374306 0.04754790348195631
-0.008819530620343408 -0.03980485252433899 0.04676527126056773
-0.009739142377321541 -0.03978947362547012 0.045947724413454905
-0.010602565937229302 -0.03978003247867468 0.04508964912027047
-0.011432780258788855 -0.0397741066066668 0.044207514151568816
-0.012209562576338318 -0.03977388716494018 0.04328575364470716
-0.012833155813435304 -0.039790132482054555 0.04224849578366391
-0.013393987959703924 -0.039813206056465114 0.04116242195949926
-0.013877956620727439 -0.03984467314005693 0.040016003047745774
-0.014344337101935778 -0.039878175250758076 0.03885370488333956
-0.014764610047648286 -0.0399168165978567 0.03765332011161737
-0.015087814287477908 -0.03996616536110395 0.03637478131449906
-0.015310785238813573 -0.04002663412454662 0.0350143908992222
-0.015404624450642446 -0.04010144614955399 0.0335482381034749
-0.015419940993282366 -0.040185160631018554 0.03201450410291834
-0.015310026497089568 -0.04028295147100103 0.030375190785099593
-0.015022300279643963 -0.04040068151645309 0.028586826440614665
-0.014526806308194307 -0.04054177471249401 0.0266231277126881
-0.013857003188945172 -0.040702692570885386 0.024508277324143457
-0.012871324339946644 -0.0408992052567798 0.022125500973720902
-0.011438643799460801 -0.04114606288542557 0.01936404764367028
-0.009042600092615427 -0.04150089307480958 0.01579606209350276
0.024777897016096284 -0.043086278994637815 0.050342436632677234
0.017155818359382236 -0.042365589312179465 0.05392169469962188
0.01376460911082289 -0.04209081607108492 0.054708119649089504
0.011088350800059654 -0.04189093231381287 0.05503074223895499
0.008790390166955486 -0.04173053471005779 0.055110409912976444
0.006804508965290945 -0.041602795370083226 0.054988176460358085
0.005035525516178141 -0.04149773392557065 0.0547259691057686
0.003394973023301995 -0.04140600865958698 0.054382496117752144
0.001893331914201546 -0.041328826081326174 0.05394904858102556
0.0004995216277450254 -0.04126293098830048 0.05344578174886844
-0.0008029305307131751 -0.04120661649632214 0.052883055083223274
-0.0020490648667436107 -0.041156155936235415 0.052284588715551084
-0.0032406564127178683 -0.041111393101245126 0.05165101188040433
-0.004413958749719282 -0.04106843054285534 0.05100759946679051
-0.005537898296294641 -0.041030656902248 0.050331843315281344
-0.006632766963893588 -0.0409958940629611 0.049637831121881026
-0.0076916289945273 -0.040964917655932506 0.048920200356682264
-0.008710728691872838 -0.04093816192621622 0.04817579696979479
-0.009649319702394243 -0.040920118740199456 0.04737425611432727
-0.010552214378992952 -0.0409059209218227 0.04654769135664405
-0.01142686438650592 -0.0408947724031386 0.045701209481869565
-0.012256139440944946 -0.04088858140757362 0.04482169707606892
-0.013036287995039308 -0.040887793598181406 0.043905794524441044
-0.013664929625611444 -0.040903780840310974 0.04287570439584765
-0.014210756412050829 -0.040929025582760376 0.04178164999508316
-0.014700392615181135 -0.040960625364213764 0.040642899538903154
-0.015176574492721862 -0.04099385769186782 0.03949149862642587
-0.015562191578831819 -0.04103734447901856 0.03826785237118163
-0.015900910386519362 -0.04108626389113175 0.03700464322378394
-0.01612055007137586 -0.04114874570849098 0.035645048440183014
-0.016239103998757165 -0.04122285410391363 0.03420163786658942
-0.016252044113149455 -0.04130917334056233 0.03266954201775868
-0.016185302883573283 -0.04140485459148423 0.031067911171767326
-0.01591313009606815 -0.041524181685247435 0.029295634201187526
-0.015483800955729932 -0.0416618344692508 0.027388656842389503
-0.014830936581822884 -0.04182547146301265 0.02529152214044722
-0.0139214801535405 -0.04201902368070628 0.022974555689455722
-0.012676259515763066 -0.042251717218694126 0.02037000381388926
-0.010677029088875412 -0.04257162548306164 0.01713163710272636
-0.00535482473423432 -0.04327367084273779 0.011139086329491787
0.020574215903691073 -0.04389631795362227 0.05313648579141905
0.015735411553348677 -0.043456839293957494 0.054871070198694916
0.012632331467241742 -0.043205137502263624 0.055469138494411485
0.010032035729384048 -0.043007438064197955 0.05574466201792927
0.007881143453350947 -0.04285821456870341 0.0557283515201506
0.005920021462452518 -0.042729237104736764 0.055592630807534626
0.004154032757190673 -0.04262121883744203 0.055331718587423584
0.0025556009928394685 -0.042531245329226024 0.054962495765236374
0.0010523794748624749 -0.042451430050665304 0.054533354230530906
-0.00034341653165681496 -0.04238318787720326 0.05403470175082986
-0.0016408064478587447 -0.04232558860061272 0.05347166666898312
-0.0028894938128574132 -0.04227317008148 0.05287824520618378
-0.004078593910755601 -0.04222717705410262 0.05224616349936556
-0.005249478571249522 -0.042183029369330556 0.051604292852868716
-0.006371211315965353 -0.042144199944938635 0.05093022438704348
-0.007457789724009178 -0.04210915219354558 0.050233503696964
-0.008479700813546764 -0.04208122541637817 0.04949230608154537
-0.00949409403034196 -0.04205402955887866 0.04874759220673225
-0.010433449669062012 -0.04203518668709924 0.047949731597686784
-0.011322941984156953 -0.042021902792676306 0.047116412311677736
-0.01217315916347711 -0.04201301305125106 0.0462548976564191
-0.012998623336193449 -0.04200689632383034 0.045375551262748226
-0.013794437614230881 -0.042004127071499794 0.04447440381867568
-0.0143866323734676 -0.042024558904948696 0.043419912655672244
-0.01494499459263493 -0.04204894148330003 0.04233830820697587
-0.015485803117606778 -0.04207543612900545 0.04124157358941788
-0.015952507375090796 -0.042110543720715835 0.04008614282639672
-0.01635733646675991 -0.04215291291813038 0.03888050721028541
-0.016661890093793985 -0.042207013769581796 0.0375941333614393
-0.016911577611322504 -0.0422676783631822 0.03626111308403329
-0.016988727667647252 -0.04234856262799493 0.034788595244735376
-0.01703063100942348 -0.042433877932288123 0.03328245155370513
-0.016959722462342564 -0.04253266491044177 0.03168081040946208
-0.016732243720687934 -0.04265010512059071 0.029947379442778144
-0.016304532609770495 -0.042791413320096165 0.028045185058565014
-0.015705879063373063 -0.042953318173878756 0.025995157695249682
-0.014897163680910264 -0.04314053706693925 0.023763399296523102
-0.013721402621659662 -0.04337167039698042 0.021219514806913642
-0.011929811477065566 -0.043676283990771454 0.01815534926978346
-0.008614858345613596 -0.04416190009743665 0.013817212288332659
0.018761158643103737 -0.04494767100827014 0.05434156557226766
0.01454909280456046 -0.044565483686766647 0.055663985263172566
0.011639924535887303 -0.04432810373143357 0.05613614837601627
0.009157372900551575 -0.04413778323454902 0.05633581054053599
0.007038275890760337 -0.04398768359639059 0.05630118057575145
0.0051401798371500385 -0.04386195115037397 0.05612557068402879
0.0033786157223594238 -0.04375116947704188 0.055864574316669746
0.0017508351953706702 -0.0436551176189008 0.0555185827706397
0.0002830465351718048 -0.043576864819713866 0.055067897638675534
-0.001127738048675886 -0.043504787492556325 0.054582669148187934
-0.0024087928998475783 -0.043447225069993725 0.05401118059234217
-0.0036644856305456663 -0.04339232853516499 0.05342567866249831
-0.004850322624041448 -0.04334521401397311 0.05279428981449824
-0.006014906445705237 -0.04330034724168778 0.05215092949563699
-0.007131597616445107 -0.0432608079814529 0.05147623862022338
-0.0082143231542528 -0.04322502299938728 0.050779726465977615
-0.009225463812204682 -0.043197362957470856 0.05003369745048697
-0.010205637154813485 -0.04317317463058932 0.04926696286237492
-0.011150027917726568 -0.0431530383746578 0.048475630659761404
-0.012033513999242018 -0.04313990071756165 0.047640744374434774
-0.012868760906905252 -0.04313232948786996 0.046770975848866525
-0.013678398283902882 -0.043127717073278574 0.04588262785147679
-0.014435314332769733 -0.04312925443685972 0.04495505888911988
-0.01502982054212465 -0.04314984199785387 0.04390491609378361
-0.01562086100215071 -0.043170923183727984 0.042850712215577125
-0.0161641235926559 -0.043197718881633006 0.04175861896262156
-0.01663455908638889 -0.04323322098417221 0.04060884021868322
-0.017014144062888814 -0.04327961586598509 0.03938657391364686
-0.017312947421826763 -0.0433357795246283 0.038098472531399696
-0.017560099607024038 -0.04339831488270301 0.03676619217690269
-0.017693897482645937 -0.04347460531943554 0.03534074513398866
-0.01776445122134651 -0.043558762820277895 0.03386012041470221
-0.017682206662983757 -0.043661540304703636 0.03225260640734118
-0.01744801074449298 -0.04378295579185602 0.030516894755222068
-0.017079715689707786 -0.043920986454447246 0.028665277584758175
-0.01653970215686751 -0.04408026416981547 0.02666572471807671
-0.01572094895833709 -0.044273826262974554 0.024429432627480485
-0.014606450344875621 -0.04450394883876507 0.021938897412014602
-0.013018310734811467 -0.04479240488805947 0.019044817340608478
-0.010299420235226509 -0.04521929506903446 0.015201084193854963
0.017375528170541 -0.0460369005142329 0.0552625487659657
0.013608471389240206 -0.0456950466343247 0.05629268045233615
0.010776473957786303 -0.04545976399447454 0.056716484979555226
0.008356727948213294 -0.045271221311029085 0.05687693343395883
0.006264216243069887 -0.04511984710255546 0.056827246444987656
0.004420607822550271 -0.044996769150023624 0.056617322609223475
0.0026941009525588977 -0.04488682095913422 0.056334963282165196
0.001079211360265564 -0.044789442812375575 0.05598266969927884
-0.00039963304848605885 -0.04470756553836003 0.055542233069400704
-0.0018078345013985975 -0.044633626252799416 0.0550578195489666
-0.0031297077588289257 -0.04456951370684912 0.0545176265107169
-0.0043831585358306 -0.04451318309567125 0.0539333299479961
-0.0055732400188001074 -0.04446408692366823 0.05330774751137107
-0.006720377660781596 -0.04441985861326163 0.052654747594570506
-0.007819917662239217 -0.04438107865195435 0.051970503892690145
-0.008875461969045706 -0.04434735376079479 0.0512570736124246
-0.009883374875011619 -0.04431914705883334 0.05051131215056709
-0.0108329016746882 -0.04429777279492343 0.04972481674887075
-0.011791680708775065 -0.04427520647989182 0.04894654168953211
-0.012676489840964866 -0.044261386873782047 0.04811519712832363
-0.013505118986256226 -0.04425423800937772 0.047243100208018085
-0.014294119984783138 -0.044251815190413935 0.04634192406523191
-0.015010506430655934 -0.0442581150761991 0.045386450747071594
-0.015688875715246242 -0.044269022963734875 0.044401884229152755
-0.01625606673327845 -0.04429340333466393 0.043332289578105865
-0.01677970494606723 -0.04432315704161622 0.04222784184814443
-0.017208699234130764 -0.04436451419016357 0.04104883846670537
-0.017553162056702654 -0.044416319285562174 0.03980188436497173
-0.017858250916417906 -0.04447313893537091 0.03852088988237179
-0.01812693111117758 -0.04453464312864528 0.03720764943482957
-0.018311840896348297 -0.04460665440227058 0.03582459651302311
-0.01838246113435249 -0.044692980529222874 0.03434662252616011
-0.018334151630210627 -0.04479428309803681 0.032768575507796105
-0.018109282220343748 -0.04491775198134697 0.031043049521583543
-0.017762062189645544 -0.0450568426746007 0.02921110730658294
-0.01721631976024207 -0.045221072212363156 0.02720986586195634
-0.016468991976494096 -0.04541098236745055 0.025034228072039533
-0.015419820252827676 -0.04563918678096136 0.022600019007997074
-0.013933808749385768 -0.04592273023328832 0.019792917302159152
-0.01165534357328446 -0.04630631440472127 0.01631497868781845
0.01639389845070377 -0.04716522489882438 0.05591500589093962
0.012869895455293934 -0.04684265827812677 0.05678633191395627
0.010145159112474988 -0.04661355816451248 0.05714080007341671
0.007767947534966069 -0.04642482230103915 0.05727486582568453
0.005678372466126791 -0.04626956562532817 0.05722539717752323
0.0037885987905587615 -0.0461375141004126 0.0570492344289113
0.0020728484131202207 -0.046025727525777924 0.05676187932872934
0.00047887319559514196 -0.045928071824885466 0.05639749877535405
-0.0010187193862088995 -0.04584158587042026 0.0559723830133706
-0.002456144392567139 -0.045761983063866786 0.05551076222111889
-0.0037758869972731035 -0.04569623558211296 0.054971570320823615
-0.005041978420860627 -0.045636697295534226 0.05439870266357727
-0.006217885425383651 -0.0455878263146629 0.05376561192045004
-0.007361395209356969 -0.04554268252124502 0.05311253557486573
-0.008451319002272695 -0.045503862960512696 0.05242389727745994
-0.009471872192319153 -0.04547332820534517 0.051687686233891306
-0.010498194061411725 -0.045441963751959843 0.05095764403023362
-0.01143162911828588 -0.04542182372661137 0.05016184080860503
-0.012391602460235351 -0.0453983495817547 0.049386826176256504
-0.01327681664409286 -0.04538395418249681 0.04855817909824367
-0.014102997708327791 -0.04537675990646691 0.04768667610917787
-0.014871572821761436 -0.04537663588851382 0.046772673706290735
-0.015575870761544375 -0.04538445042757371 0.04581047181762854
-0.016204191225077713 -0.04540170155215684 0.04479046381777019
-0.01679091053728482 -0.045424184913523534 0.04373777815586305
-0.0172931162287584 -0.04545726719771713 0.04261918626133915
-0.017679935566486782 -0.04550486072091959 0.04140997531013385
-0.018006474706988518 -0.045560179211008384 0.04015115931226876
-0.018300740399278537 -0.045619768586207386 0.03886366273645586
-0.01852858608967073 -0.04568793615797911 0.0375204646261853
-0.018727998193643347 -0.04575996503250345 0.03615044881232182
-0.01886872966535097 -0.045839687377600066 0.034729416818108705
-0.01889917189719381 -0.045933662804447925 0.033215749753398804
-0.018716634033884516 -0.04605496477425297 0.03152630195756928
-0.018371871257776617 -0.046197338825888445 0.029698912130165345
-0.01784353973459435 -0.04636363056843485 0.027714281048031864
-0.017131935799014508 -0.04655395672727718 0.025570220513820074
-0.016112812062475113 -0.046784315502159855 0.023163295134538964
-0.01471015023722455 -0.047064680470221505 0.020427305392528072
-0.012686459205464573 -0.047425790097548846 0.017162042819755363
-0.006457049276307747 -0.0483282279414297 0.010398741093421815
0.022469882643842587 -0.0490448158980565 0.05337712402637501
0.01557408109735603 -0.04830705894939305 0.05645991163549846
0.012286580553299009 -0.04800452467062831 0.05717620957002345
0.009654555378803498 -0.04778053455442569 0.05747054135995178
0.007270292183140625 -0.0475858522391212 0.05761121054767482
0.005180709379209003 -0.04742638674196633 0.057563618611991885
0.0032754686043991454 -0.047288844094079865 0.057399905038384436
0.0015781372700282015 -0.047176248109973985 0.057101837899507735
-5.5068259892765425e-05 -0.047071077733707965 0.05676644823366461
-0.0015737660216603166 -0.046979583279568735 0.05635803726640787
-0.003012327285225991 -0.04689760638812009 0.05589934022839288
-0.0043740940040361 -0.04682479197868977 0.05539181342324262
-0.005641555548342669 -0.046763366030987435 0.0548222278824676
-0.006806707125160294 -0.04671439241432695 0.054183827108005456
-0.007964285026048346 -0.046666160281288935 0.05354309432031212
-0.009027386737267162 -0.04662950916969821 0.05283755699540099
-0.010047005441523482 -0.04659813972221342 0.05210293672167349
-0.011042888635375281 -0.04656961236385136 0.051353068503670773
-0.011989922319920354 -0.04654709534941625 0.05056935104403737
-0.012953218009396805 -0.04652244068248468 0.04979899761894391
-0.013835905784519098 -0.04650783812915111 0.04897073174039862
-0.014634610944236681 -0.04650377644108504 0.048081088573581565
-0.01537297923080011 -0.046507330381856525 0.04714669668598237
-0.01605837241333724 -0.046517614481573974 0.046172346198025294
-0.016718062934208466 -0.04653120662434987 0.045177954691859146
-0.017313206509880386 -0.04655307232981539 0.044133753671536324
-0.01777113626400917 -0.04659253338911305 0.042983553926206064
-0.018110004441891592 -0.0466473805826809 0.04173956304659715
-0.01842468892691812 -0.04670555734992364 0.040473391108651835
-0.01872916175292627 -0.04676529119701784 0.03919553776587131
-0.01899239902856026 -0.04683058309403486 0.03788168941113962
-0.019209312079657592 -0.046902124493131615 0.03652731889837246
-0.019330638313961368 -0.046986319686229634 0.035093034825070146
-0.01934088469021883 -0.04708525553767432 0.03356533470908302
-0.01920811682112389 -0.04720316994962522 0.03191736072924539
-0.018913902983106246 -0.047342581490194754 0.030132499795499423
-0.018406608185730644 -0.04751035683465213 0.028167105079738575
-0.01770045938948417 -0.04770482132011449 0.026029873861681763
-0.01670943995834745 -0.04793740418159693 0.023648244949955655
-0.015379232928479702 -0.04821547613878451 0.02097404686835186
-0.013539252398455714 -0.04856175319525009 0.017862614611316108
-0.009522985117016047 -0.049196187632322856 0.012930815295568443
0.021162263069649356 -0.05014016158887316 0.05424141675473859
0.014995222585479251 -0.04947374911010611 0.0568446599298843
0.011832720176639722 -0.04917888195433047 0.05747956204606769
0.009213508367234724 -0.0489506342314239 0.057766974915254676
0.006919640490899992 -0.04876215337089821 0.057848201560651014
0.004787808668830107 -0.04859321685293086 0.057830641514355685
0.0029145185779011484 -0.04845605969012108 0.05764657648589505
0.0011611810863317862 -0.0483334389720695 0.05738836435088451
-0.0005083841461878125 -0.048220882036281554 0.057079686040868216
-0.0020369976842886106 -0.04812567301761558 0.05667989717767252
-0.003502219507166615 -0.04803810054769713 0.056241604159724345
-0.004880154185182173 -0.04796124207166995 0.05574732296781704
-0.006151458451853775 -0.04789762162758728 0.05518240963211052
-0.007349474038344017 -0.04784307431975906 0.05456933152552623
-0.00847511951005403 -0.047797538745587745 0.05390791098908798
-0.009550662589803027 -0.04775822294295023 0.05321330819342185
-0.010573589685134444 -0.04772548742568331 0.05248313446597075
-0.011531246651806437 -0.04770099777253189 0.051707595096603165
-0.012497018593612463 -0.04767536269441102 0.05093949153880645
-0.01342648328728313 -0.04765430270810731 0.05014632851576745
-0.014315934732833102 -0.04763832514097976 0.04932494575855473
-0.015112556828138335 -0.04763429996575941 0.048435684360872144
-0.015848001847208137 -0.047638195288701175 0.047501038735080714
-0.016518624601948584 -0.047650534679118166 0.04651753356673399
-0.01717861958535577 -0.047664310388558354 0.04552524273311437
-0.017755290496845766 -0.047689022641143115 0.04446891695805294
-0.018202080655434993 -0.047730831608683376 0.043312038487546556
-0.018568958580396755 -0.047783294004997715 0.04209128730357353
-0.01890176088888673 -0.047840455003593574 0.0408409724772027
-0.019192482952539613 -0.047903398352478796 0.03955444783289125
-0.01941810555603274 -0.04797519806820834 0.03821323632573853
-0.019598444851752994 -0.04805329043675699 0.03683201092070143
-0.019755360962625645 -0.04813481907109551 0.035427379729594644
-0.01975947021792257 -0.04823698658644133 0.033896616042707606
-0.019628908102369724 -0.048357512059956184 0.03225217229507926
-0.019363525733017917 -0.04849653337013771 0.0304921667103773
-0.01885743689339181 -0.048668320706028285 0.02852966503599308
-0.018167270379398304 -0.04886550125933353 0.026407292209714384
-0.017199325591977788 -0.04910081585177139 0.024046432747153734
-0.015877895614715032 -0.04938469512843883 0.021381529495796858
-0.014169977901081043 -0.049721903493772354 0.018380757226652278
-0.010877863548263589 -0.05027459194842438 0.014049773062804138
0.020363712285107027 -0.05129212671793743 0.054769232068863694
0.014578764814898226 -0.05065753280019555 0.05712146577039151
0.011474152481529554 -0.05036257818650643 0.05771922253139539
0.008876517962286001 -0.05013129261324375 0.057993470642969946
0.006594599051382766 -0.04993954467742262 0.05806788366033855
0.004486118119949534 -0.04976929990814452 0.05803567623139688
0.002561719092341319 -0.049622058262541235 0.05788767789438748
0.0008002668604243923 -0.04949523381171134 0.057636379553546446
-0.000876374717430628 -0.04937885430200448 0.057333964708553564
-0.002450956252311176 -0.04927521673894254 0.056967521445873526
-0.003912795547018011 -0.04918578478714302 0.056528453722171634
-0.005315507030900779 -0.04910367517577151 0.0560531602924611
-0.006600229844167527 -0.049036600590158526 0.05549940972008849
-0.007806569602292979 -0.04897948334513217 0.05489398720156563
-0.008937565304269424 -0.048931987184882036 0.05423817047511986
-0.010019546043508576 -0.04889072037831023 0.053550001581064766
-0.011025649904098378 -0.048859249539393204 0.052809525309642835
-0.012014278781844245 -0.048829948783197935 0.05205825532859992
-0.012957363840887193 -0.048806533469468935 0.05127550745221521
-0.013850282229159683 -0.048789651136247156 0.050457355910830615
-0.01470347299305963 -0.04877795999052373 0.04961091077134444
-0.015498224457093646 -0.04877397565411692 0.04872181741720383
-0.01624191864161073 -0.04877676462364121 0.04779488007922211
-0.01695180531385132 -0.04878407057718473 0.04684241743218226
-0.017595217606762137 -0.048800284323134144 0.045839383263893085
-0.018168463856970518 -0.04882595595924006 0.04478216182862854
-0.01865884623893499 -0.04886284797834033 0.04366020508471474
-0.019061545320882 -0.048911678971003555 0.0424687862533768
-0.019411383925818038 -0.04896783493443593 0.04123363427310289
-0.01969142858644185 -0.04903364763523118 0.039940954237201176
-0.019921469695754424 -0.049106502004681966 0.03860526420568511
-0.020052545207338124 -0.04919307872814015 0.03718757273817186
-0.020196061414366306 -0.04927833448005107 0.03577430248241825
-0.020189097013239676 -0.04938443567223683 0.03423663577175623
-0.02006578057774172 -0.04950686093397509 0.032599779206315516
-0.019749616208362963 -0.049656171530250225 0.030801012226220115
-0.01925656402282394 -0.04983035438585841 0.02885064618055594
-0.018590147333414964 -0.050029086414740624 0.026749189733239698
-0.017667400502935637 -0.050263940520143345 0.024426892399209144
-0.016312082086916924 -0.05055944988771203 0.021736325331494
-0.014644750864876044 -0.050899350880868124 0.018770784432033505
-0.011531888719446715 -0.05144089277825619 0.014589914914932556
0.02013514524647747 -0.0525133821314063 0.054920307223541576
0.014296744653115145 -0.051856274384515386 0.05730891533535798
0.011149451134632005 -0.05154847038128688 0.05793624733158015
0.008613475706786555 -0.05131953828083783 0.05817026483712001
0.006325410304083234 -0.051122237252187425 0.058249817229507006
0.004225749193141504 -0.050948929396555 0.05821262797692711
0.002282076690163004 -0.05079548651260991 0.05807878411704087
0.00047602335039931276 -0.050659602504395475 0.05785919515370325
-0.001184771795728068 -0.050542395233859276 0.057547064728814046
-0.0027668448533077483 -0.05043515342400912 0.0571870053138574
-0.004263269314620732 -0.050338858450851384 0.0567733127424947
-0.005679602794294025 -0.05025283711054175 0.05630893919751595
-0.006990358020138532 -0.05018055356556383 0.05577498581122009
-0.008217517449819134 -0.05011915265015712 0.055185866103436676
-0.009340759811255428 -0.05007142426364629 0.05452611516466771
-0.010423267358758037 -0.05002896919492073 0.05383990367980751
-0.011440172233823986 -0.04999516591005575 0.05310881351781599
-0.012433506182948528 -0.049964401060701824 0.0523625961137959
-0.013355204225635575 -0.049943187225866104 0.05156589971989589
-0.014253045447983836 -0.04992511529271507 0.05075294512165657
-0.015045154811616002 -0.04992131234274784 0.049863038253044945
-0.015839141177273586 -0.04991723839626134 0.04897474904997762
-0.016595123720257177 -0.04991832471879512 0.04805835261083741
-0.017348154867621923 -0.04991981848894642 0.04713967807089364
-0.01800490833640278 -0.049934489332389066 0.04614831527185104
-0.018620388277137412 -0.04995487981453829 0.0451247855797397
-0.019189800437442617 -0.04998168462446331 0.044064921471466234
-0.019604332153509207 -0.05002992400055089 0.04288475656366558
-0.01990372272025115 -0.05009425144901365 0.041612978653564114
-0.020193966605170033 -0.05016011561247116 0.040330243469233584
-0.020423442073577103 -0.05023467797555263 0.038996208159655266
-0.020582056297058726 -0.05031939522222303 0.03760218136623422
-0.020659588892756375 -0.05041575419017148 0.03613919484451433
-0.020638663778533906 -0.05052625210956271 0.03459243660026784
-0.020460570976055026 -0.0506591829790576 0.03291390261458593
-0.02011981415448505 -0.050815460645280204 0.03109714482449727
-0.019624524044034974 -0.05099409457612845 0.02914656249406178
-0.018950092521621165 -0.05119868970745882 0.02704020669995688
-0.018038134264887762 -0.05143764233771421 0.024728231425880987
-0.01675247071567071 -0.05173040855256036 0.022096189264559196
-0.015083847110705428 -0.052078648003965916 0.019131503122258198
-0.011995363606548626 -0.05262980522939702 0.01497268639677235
0.02040760833301164 -0.05380003550807803 0.05474021825188158
0.014149713680184584 -0.053071300866037764 0.05740664200758655
0.0109502408180282 -0.05274914255896452 0.058069396083714364
0.008386885214562989 -0.05251103290779614 0.05832255931695052
0.0061020926221919125 -0.05230941310729225 0.058400748437934136
0.003993649129539256 -0.05213073544662901 0.058370367657677835
0.002039053629018961 -0.05197210179459838 0.058244864864706924
0.0002495901516773591 -0.05183515981603114 0.05801479687743483
-0.0014275600993230997 -0.051712883450389796 0.057714829588003835
-0.003052992387553133 -0.05159713359894923 0.05738582466799713
-0.0045643456208163125 -0.05149643550708818 0.05698366015274964
-0.0059955479926638855 -0.05140625522009543 0.056530892114911246
-0.007322204225842621 -0.051329990184090936 0.05600939308005465
-0.008545832554475441 -0.05126751797962495 0.05541905445760775
-0.00969831290204276 -0.0512145500057581 0.054781464659613144
-0.010777454877869908 -0.051171445961101146 0.05409423680828146
-0.011808310795351384 -0.05113481581716024 0.053374612300023716
-0.012778278529866016 -0.051106439177017016 0.0526128857811658
-0.01371303199206042 -0.05108281602435176 0.05182708591545254
-0.014586842354687657 -0.051067542089338946 0.050997919736063435
-0.015383205605199568 -0.051062961690816935 0.05011248639644683
-0.016161479531305367 -0.05106087996390195 0.04921389709219692
-0.01695958731865571 -0.0510560232591626 0.04833022340986348
-0.017730742511377462 -0.051054913286077475 0.04742661733010045
-0.0184691721901849 -0.051058382118294394 0.04649839877190248
-0.019163200095848487 -0.05106809735400013 0.04553631505939376
-0.019776510786596868 -0.0510892060282674 0.04451213762164796
-0.020288686951336177 -0.051124657827009236 0.04340921895016436
-0.020641710588892692 -0.05118273808068025 0.04218159431819002
-0.020880961766417017 -0.05125716736513811 0.04086242174981142
-0.021015075588655285 -0.05134682487764152 0.03945698161234834
-0.021092186253913514 -0.051444965863168525 0.03800161451437978
-0.021155693087162752 -0.05154546257070034 0.03652973184562475
-0.021154787732767577 -0.05165558283395863 0.035000912814942775
-0.020934385238576048 -0.05179757368253917 0.03329090304738813
-0.02050831250303775 -0.05196965780205397 0.03140791647136476
-0.019971582958009992 -0.052158378788275755 0.029425669974420088
-0.019257616924885368 -0.05237342994688019 0.027288841275336206
-0.018321309548092635 -0.0526214896813183 0.024958401356370008
-0.01706815399856554 -0.05291643759270139 0.022354150120875826
-0.015379124521096965 -0.053275826629284866 0.019374074270932462
-0.012135775639421309 -0.053862504295544227 0.01508864892977363
0.014191230484239536 -0.05431119377864901 0.057379047147667006
0.01086950734586073 -0.05396480598280089 0.058123356949084215
0.008255648424869033 -0.05371420367464311 0.05841076530664119
0.005984032987580046 -0.05350967141885386 0.05848054007452791
0.0038637516536935146 -0.05332517413375684 0.05845864848816201
0.0018899807974554483 -0.05316016689801677 0.058346740494148064
0.0001026575723603318 -0.05302029478617578 0.058115766888648224
-0.0016186305049538663 -0.05288901302526848 0.05784685777561149
-0.003251163134935675 -0.052769530934268866 0.0575235165062577
-0.00480486225500848 -0.05266053904963485 0.05715169745785953
-0.006269763622222424 -0.05256349169865375 0.05672352982325407
-0.007632970691138774 -0.052480265032075535 0.05622891018503673
-0.008837865909122555 -0.052418875363549694 0.05562647341691668
-0.01000133986643642 -0.052363048445243275 0.05499787387073857
-0.011084413015461592 -0.052318301593924615 0.0543146557085295
-0.012120252054328484 -0.05228002828576892 0.053599836211402185
-0.013111351366588642 -0.05224791627537364 0.0528546821150615
-0.014031076969821088 -0.052225773466443644 0.052059233796504845
-0.014876044559010426 -0.052214141822229526 0.051210166156167136
-0.015669761505739233 -0.05220974584375335 0.05032393638777133
-0.016494200712609597 -0.05220095610555062 0.04946074832202596
-0.017331269129339133 -0.05219032731208274 0.04860747861805981
-0.018172948268982525 -0.052178994702021295 0.04775826994506377
-0.018975733902516223 -0.05217318864736262 0.04688037745880719
-0.0197024249336068 -0.05217828658021479 0.04594512509125004
-0.02028451532308162 -0.052204216477630114 0.044899360777689246
-0.02084356834761114 -0.05223357809768503 0.04383445805455605
-0.02125966036821275 -0.0522837251380169 0.04265772128369194
-0.02155650134130549 -0.05235135560124125 0.04138572600245555
-0.02170731448294505 -0.05244046702194686 0.03999610811090071
-0.02175696459188009 -0.052544670912071156 0.03852213776690572
-0.02177020586177031 -0.05265462537361637 0.03701348098309454
-0.02169722113673167 -0.0527776438598973 0.035430211129324374
-0.0214338445456404 -0.05292905790899793 0.033688308507343
-0.0209189935078668 -0.05311801046419772 0.031736432699769224
-0.020282765959805604 -0.05332561793666651 0.029675925766921574
-0.01952412318455088 -0.05355215380407192 0.027504312535517605
-0.018558143716574604 -0.0538102785372103 0.0251509044007035
-0.0172628631463132 -0.054118242994776314 0.022513256862370268
-0.015505229285898203 -0.05449610029337703 0.019477669658099273
-0.01221019345199531 -0.055104061907617144 0.01515010860577104
0.014396698043976641 -0.05557427126687612 0.05724247959007134
0.01087282450811905 -0.05519174363983348 0.05812113981483713
0.008228318503551102 -0.054931143940074624 0.058429134109807046
0.005929901156523143 -0.054718184992971784 0.058517125545980986
0.0037950808023044513 -0.05452742977104806 0.05850531852352031
0.0018378325718619304 -0.054360986639628635 0.05838237833137738
1.0749885816063731e-05 -0.05421229339811468 0.05817892456398549
-0.0017581379173089995 -0.05407125096867172 0.057943256329590964
-0.0034105925516924596 -0.053946182120043235 0.05763429032003198
-0.0049891894172410245 -0.05383112167584643 0.05728047790460139
-0.006454067771076322 -0.05373181848918441 0.05685300431356838
-0.007848051929869426 -0.05364224610234796 0.056380837809586304
-0.009087672366926258 -0.05357442312056195 0.055803900394629236
-0.010250104542311678 -0.05351740357716408 0.05517553122004337
-0.011356503094337 -0.0534682107453069 0.054510036734830625
-0.01240246484716967 -0.05342752772425825 0.05380359594890266
-0.013375571424181054 -0.05339720108490261 0.05304649433816622
-0.014286520280452575 -0.05337574657534585 0.05224568737206392
-0.015145823545569426 -0.053361694524494026 0.05140815781480762
-0.016009653690791714 -0.05334692611961726 0.05057474329645911
-0.01687499223270561 -0.05333187655239354 0.04974326371427029
-0.017772528738203397 -0.05331206459656168 0.04893663522784747
-0.018590373567701324 -0.053303826002399544 0.04807133731130908
-0.019404022986373448 -0.0532961678395216 0.0472033337697263
-0.020101368113652485 -0.05330556023505914 0.04624758143732882
-0.02069775956705927 -0.053329851305019986 0.045214353516683625
-0.021194541636283648 -0.05336893693865412 0.04410343006901252
-0.02163118702682887 -0.05341707639874795 0.042943980566387374
-0.021950794926149098 -0.05348275543696364 0.041691164081006316
-0.02222991835205823 -0.053554722363393044 0.04040312019359221
-0.02235337740323523 -0.05365015048067085 0.03898913062555437
-0.02235798052709881 -0.053763702675332814 0.03747618167725164
-0.02220934716798717 -0.053900630966838746 0.03583552326600742
-0.021894197178915276 -0.05406307343867523 0.03405459790746124
-0.021267840763589285 -0.054272901489312596 0.032015486231322055
-0.02053615162612965 -0.05449946748254268 0.02987970049230354
-0.019735631224442884 -0.0547373797162194 0.02767531753911945
-0.01871314421873299 -0.05500983469274402 0.025276891578693728
-0.01732977873685898 -0.05533807712173933 0.0225679369926573
-0.015481265618272455 -0.0557382821629306 0.019457983443787408
-0.01201770899553728 -0.05638568095425102 0.01499114085437836
0.014852177973161296 -0.05687436388965365 0.05693973699877286
0.011139485835353291 -0.056456421166836836 0.057942907966361645
0.008331098824387706 -0.05616658694340094 0.058360054090848545
0.005949386880455543 -0.05593694684835054 0.058503955949040454
0.0037832804548875165 -0.05573745003985683 0.05851333826726968
0.001809103873108897 -0.055564860497881584 0.05840201138079215
-4.627408887486473e-05 -0.05540876083013696 0.05821811064096544
-0.0017969301067357057 -0.055267210520067986 0.057970061435522635
-0.003483489492512648 -0.05513439665799992 0.05768494014558734
-0.005079216554526644 -0.05501426426427739 0.05734337549830437
-0.006596033952807168 -0.054905151852892346 0.05695273619229041
-0.007965730105892188 -0.054817096537448484 0.05646396252027691
-0.009260811537034008 -0.05473960858261776 0.055926873835532076
-0.01045394548182571 -0.05467676425758567 0.05532110591173317
-0.011574696348217894 -0.05462430615665982 0.0546667158098319
-0.012628931965441792 -0.054581433753004706 0.05396710689433876
-0.013601315793996094 -0.054550471051792074 0.05321037489220942
-0.014532612998151229 -0.0545254599022464 0.052425315748397316
-0.015440130429072663 -0.05450387109526554 0.05162415057524222
-0.0163658145191104 -0.05447949335429037 0.05083755485928604
-0.017239134421099422 -0.054462810872954674 0.050013426697838925
-0.01811686236324589 -0.054445401130166604 0.049193490118660144
-0.018989100062502817 -0.054428739518265 0.0483703806466384
-0.019753603057054592 -0.05442814991508184 0.04746693864375495
-0.020407122877237338 -0.05444422121609336 0.04647938755212311
-0.020999226271216698 -0.05446960074687017 0.045444144552474364
-0.02150758144681164 -0.054507714438922265 0.044343331369653516
-0.021947071321865796 -0.05455639422664657 0.043187367708642066
-0.022282474646046158 -0.05462104016710571 0.04194809855885179
-0.0225431480709965 -0.05469729938682255 0.04064706840714505
-0.022700458204525986 -0.05478959983329938 0.03926089584000131
-0.022734334618921603 -0.05490110233326515 0.037772450485363485
-0.022621359459661983 -0.05503550586593728 0.036161602340466836
-0.022280067764325007 -0.055205424168852796 0.03436162407617782
-0.021634952404037566 -0.05542266540648651 0.03230914999980744
-0.020769114550896695 -0.055674762634634944 0.030067051089941066
-0.01987414174786184 -0.05593243240189085 0.027787303790650364
-0.018774292341504184 -0.05622283705460029 0.025326593865589997
-0.01729992711402195 -0.05657242982243597 0.022543543714309278
-0.01539371958196506 -0.05699048221159958 0.019386064150805238
-0.01133656342146011 -0.0577445178264181 0.014428600988694584
0.015443041846539551 -0.058197060566456016 0.056547009133790016
0.011499663630793744 -0.05773644501785295 0.05770217131764327
0.008520399564454384 -0.057415358545500964 0.058232822548796304
0.006038179889239159 -0.05716601410138986 0.05844394441747658
0.0038551664646614414 -0.056959717469002746 0.0584644831482482
0.0018197436321522042 -0.05677436189353202 0.05839474022253838
-3.78271637294092e-05 -0.05661454777311723 0.05821230603227606
-0.001793785087893962 -0.05646913747157095 0.057967888251578725
-0.003479324706996245 -0.05633358865596363 0.057682046393702724
-0.0050812856394755745 -0.05620991880265543 0.05734482106758915
-0.0066279101840646115 -0.05609399160024324 0.05697512938756494
-0.008052662190865423 -0.05599579061302543 0.056525369016004134
-0.009365635526149885 -0.05591391422777953 0.056001325888309694
-0.010601869330231162 -0.0558432088720576 0.055426746950655637
-0.011755319879086013 -0.055784651511920635 0.054796417013863286
-0.012812921230049734 -0.05574028445544142 0.054099948513182394
-0.013785719687029574 -0.05570852893383387 0.05334424406548194
-0.014748423730498506 -0.05567816823452345 0.05258284065124447
-0.01573098098678327 -0.05564467395800422 0.05183760672715437
-0.016693507463804713 -0.055614081561924406 0.051079359931811896
-0.01758771356611527 -0.05559375548227373 0.05027204320762235
-0.018457587333814696 -0.0555770540552943 0.04944765314180899
-0.019264933645573357 -0.05556983492505069 0.048577254771515255
-0.019998400666479954 -0.05557389545752543 0.04765153109740755
-0.020678036782813103 -0.05558623108039795 0.04668477928227627
-0.02126198608364105 -0.055613328488648174 0.04564443151162595
-0.021777008930889796 -0.0556511584540631 0.04454980991227009
-0.022202709262852727 -0.05570293767943106 0.04338433536067876
-0.022582227616821993 -0.055762080624326714 0.04218030109765286
-0.02281959450857718 -0.055843512623873506 0.04086236922476677
-0.022971365180362358 -0.05593858916375994 0.039473016741271405
-0.02299888788221066 -0.05605341524420417 0.03798070882956578
-0.022859048106938007 -0.05619484428086648 0.0363497163741483
-0.0225325692071342 -0.05636606103043517 0.034562532239464705
-0.021951585151287756 -0.05657789125335429 0.03256243416608945
-0.02100979578122303 -0.05684728906990856 0.030260608808993783
-0.01991860447401711 -0.057141357777791564 0.0278232520631142
-0.0187141635222704 -0.05745455548159213 0.02527772008682372
-0.01712174543799272 -0.05783042679759915 0.02239794241003068
-0.015048340167595209 -0.05828411106706266 0.019102334077580108
-0.009220800200085921 -0.05933568087604777 0.012681248875333173
0.016186361119091608 -0.05954616980627113 0.0560529491581126
0.011934970216221252 -0.05902994054266671 0.05741121987680631
0.008845811495367617 -0.058685695226753445 0.05801410886728764
0.006275521025252251 -0.058417927629009915 0.05828353533493308
0.003989353605320378 -0.05819180298738805 0.05837328697880351
0.0019027539468797205 -0.05799483381359124 0.05833801138755029
2.5536652177193808e-05 -0.057828678647856596 0.058168763305180726
-0.0017445063540491579 -0.057678063157892014 0.05793383702373084
-0.003409550963237473 -0.057542752148276706 0.05763356660964092
-0.005045073377566878 -0.05741137484315477 0.05731952131681095
-0.006579579591318052 -0.05729483673372581 0.05694117692962325
-0.0080547071662192 -0.057186878530930144 0.056526813531804776
-0.00940225917153581 -0.05709797501725525 0.056027338117019765
-0.010688947595541565 -0.05701802734164562 0.05548893461352489
-0.011867238436023275 -0.056954384891389175 0.05487678290815429
-0.012930457949581697 -0.05690817459847239 0.05418481089974325
-0.01391889704388527 -0.056873296146564986 0.05344092501059439
-0.01491709946393549 -0.056836765966640036 0.052705960702936705
-0.01594185823176275 -0.056795975515786745 0.051992370209794636
-0.01692749856675152 -0.05676108079049259 0.05125202228702752
-0.017851675995985195 -0.056735590192681325 0.05046788120683432
-0.01870704818885821 -0.05672070568014106 0.04963373790386594
-0.019468584880804773 -0.0567203988667444 0.04872999241353693
-0.020203618819927938 -0.0567242342947833 0.047806278206939945
-0.020894672554542693 -0.05673497625037701 0.04684902037530558
-0.021489141981478388 -0.05676092717387445 0.045817579618299575
-0.022009862200135177 -0.0567985905172646 0.0447282594265867
-0.02242963929592523 -0.05685232795792559 0.04355918372480788
-0.022758320306032198 -0.05692068572056258 0.04231671065313808
-0.023004635246348604 -0.057002374560607055 0.041006481851010634
-0.02314194510004519 -0.0571017062315566 0.03960658128382333
-0.023162931890053695 -0.05721995704089023 0.038109845522211194
-0.02302750849946744 -0.057363635813909956 0.036483041058845866
-0.022696752831287526 -0.05753912101254276 0.03469316844495901
-0.022156403484174136 -0.05774889935526081 0.03272627458100208
-0.021227136579853645 -0.05802195039029812 0.030435395971179224
-0.01984988476173588 -0.05836817581284683 0.027767691930969007
-0.0184999845186542 -0.058711489406449324 0.02510363156533757
-0.01679996115071042 -0.05911280137369578 0.02213499611292108
-0.014517007363153311 -0.05961014800517789 0.018665842818289813
0.017410879277696856 -0.06097317001191359 0.05523905204283941
0.012480456178526 -0.060342957300578 0.05704662643392738
0.00927284349970553 -0.05997359801728757 0.05772709498451867
0.0065663601875980415 -0.059679520279003424 0.058086969143402556
0.0042537059386473786 -0.05944470883485986 0.05819362803335759
0.002128552767632075 -0.05923778831447054 0.05818370159984487
0.00015127027011768712 -0.05905282023533379 0.058082360923405574
-0.0016165318687401675 -0.05889945222851016 0.057845407634053325
-0.0033418354967806874 -0.05875203782864397 0.05758651694576139
-0.004937430271824084 -0.05862413581077716 0.05724431630047838
-0.006497286203540065 -0.058501265217505136 0.056883365456007196
-0.007978005313729164 -0.05839021345914321 0.05647263339821368
-0.009382930919720145 -0.05829053151570817 0.056013610075982434
-0.01068793529136014 -0.05820606116217294 0.05548821166812706
-0.011922668580319928 -0.05813225151816735 0.05491658589739029
-0.012964599925157638 -0.058088402261130184 0.054209461660295444
-0.013993954703581946 -0.05804635027831101 0.05349541359370441
-0.01504275719394288 -0.058001059039671406 0.05279768098716958
-0.016087937610419045 -0.05795615221273504 0.052099578331680774
-0.017114674303631283 -0.05791397808692165 0.05139013951952853
-0.018067900010404203 -0.05788328761830333 0.05062830130293
-0.01889515030629829 -0.05787249106147762 0.04977405225402781
-0.019637628956911957 -0.05787515071086376 0.04885677481951156
-0.020357625365450716 -0.057881409671579884 0.04792240861435426
-0.02103666846651775 -0.05789424477243826 0.04695667371252815
-0.021663232079561 -0.05791554480983114 0.04595027866402379
-0.022167210443540974 -0.05795662291581339 0.04484884488242047
-0.02259671973138344 -0.05800986015020206 0.043687918297408534
-0.022915679721636883 -0.058081153027798094 0.042438608546970735
-0.02311419933251252 -0.058172215101558775 0.041091812078231205
-0.023255575280380025 -0.05827291995203801 0.039695554025074076
-0.023272865704853873 -0.05839419512017942 0.03819638625868704
-0.02317416719602866 -0.05853485525309144 0.03659911121743681
-0.0228123827923718 -0.0587190034757538 0.034785171891925204
-0.02224978708918046 -0.058936746030553905 0.03280097496731349
-0.021308196918486955 -0.05921747035127562 0.030500585326536267
-0.019639521727360554 -0.05961869286668411 0.027597612668405658
-0.018166997739718693 -0.059989395030275984 0.024832973960994653
-0.016372103368664515 -0.060414818388223684 0.021785371771631312
-0.013744474655556338 -0.060979596008934496 0.018031205220981783
0.01920829117860806 -0.062496794316872696 0.054044371220159204
0.013290322422853607 -0.0617005315050226 0.056505325753991864
0.009801056930569874 -0.06127994964514011 0.05737207572089659
0.006989285060305439 -0.06096357801337696 0.05780113166931172
0.004565804981322197 -0.06070674929467385 0.057981519503139844
0.0024186451875713444 -0.06049225074845104 0.05798545388718357
0.00040404362107870906 -0.06029773104627454 0.05790865861586003
-0.001432811841979409 -0.06013043226229682 0.05771845850197621
-0.0031760911791799407 -0.05997722982985327 0.05747135544956111
-0.004804862253624476 -0.059841521647531315 0.05715169745689258
-0.0063397998506193876 -0.059720136854525666 0.05677273058748877
-0.007835768211921779 -0.059604447136914145 0.05637216092033537
-0.009267937359290601 -0.05949844017722038 0.05593193500615917
-0.010606933134631069 -0.059406861245969035 0.05543036330841994
-0.011884373157399264 -0.05932474535233494 0.05488908691961131
-0.012952550535197505 -0.059275809866100725 0.05420076191103673
-0.013996956374850877 -0.059230487887782145 0.05349759267596016
-0.015081633868365973 -0.05917850131005215 0.05282605790936851
-0.01620908529998466 -0.0591194054123794 0.05218848900742873
-0.01724231930964998 -0.05907528070106 0.05148432894422522
-0.018183312040800592 -0.059045900801639274 0.05071392735633823
-0.01900339324884487 -0.059036007635367115 0.04985479583283342
-0.01976332721005053 -0.059035848097001825 0.048951048025214494
-0.02046741002923025 -0.05904478367009986 0.04800519300309103
-0.021134531817772195 -0.0590597887491539 0.04703086821719937
-0.02175119136118392 -0.059083109637067636 0.04601732505472894
-0.02222972072121432 -0.059129166522535324 0.04489675028107237
-0.022663118054212006 -0.05918283005621199 0.04373907784632458
-0.022985030577228394 -0.059255068889022995 0.042492330932756284
-0.023201216111120193 -0.059345051542324466 0.041159582109001
-0.023322152720803735 -0.05945115930953087 0.03974768434258741
-0.023379790390059885 -0.05956820326567006 0.038280558185423086
-0.023228272765660474 -0.059720463413018975 0.036641932012896394
-0.02281633464142685 -0.059916693134382845 0.03478831626498863
-0.022162365584065924 -0.06015410963329902 0.03273104384606862
-0.02118709338069885 -0.060446221057055265 0.03040319291869581
-0.019299189236978653 -0.06089237735475668 0.02732245263773586
-0.017701227870541902 -0.061291813044842484 0.024454387888089568
-0.01573051552595578 -0.061755649086520634 0.021261097734090184
-0.01184353582934411 -0.06254438975546776 0.016469579108024823
0.014413962821270943 -0.06311297654387345 0.055754303821757556
0.010490970474721972 -0.06261532681881436 0.05690837566312451
0.0075353322468940664 -0.06226991051855317 0.05743208090256513
0.004996033296274127 -0.06198961735811358 0.05768912804060783
0.0027733213421123337 -0.06175887298682598 0.05774306997247114
0.0007027242587677729 -0.061551595687584344 0.057703409463651045
-0.0011900302227851323 -0.0613720633088583 0.05755069826165615
-0.0029193712440634956 -0.06121812089917566 0.057292982807527926
-0.004545672057489569 -0.06108018131483011 0.05697061383988744
