# .PCD v0.7 - Point Cloud Data file format
VERSION 0.7
FIELDS x y z
SIZE 4 4 4
TYPE F F F
COUNT 1 1 1
WIDTH 754
HEIGHT 1
VIEWPOINT 0 0 0 1 0 0 0
POINTS 754
DATA ascii
0.00978933577581037 -0.00976630072062233 0.036899478383654816
0.009904732310651199 -0.009783851319876493 0.03545136777495428
0.010004854147539433 -0.009801877406956707 0.03398595391279424
0.010105345600936066 -0.00981997004034579 0.03251513023075053
0.010179972901505019 -0.009838821918386998 0.031018433848902682
0.010241219701122961 -0.009858107753499492 0.029505278095859733
0.010304813634272603 -0.009877413518495796 0.027987836879361183
0.010364436463030369 -0.009896907138377752 0.026461100226280287
0.010412666664797232 -0.009916787337811334 0.024919073050055474
0.01046850494408258 -0.009936549825682388 0.023376769000719555
0.010540481533040824 -0.009955965841275347 0.021841104790433608
0.010614865638063409 -0.009975400944156604 0.020301146076195264
0.010692734794032821 -0.009994826332447027 0.018757759474775593
0.011697547145499476 -0.009989399015705617 0.01796555427869878
0.012774241864350333 -0.009982010212581004 0.017234156498791453
0.013849344974869171 -0.00997463233184767 0.016503839897003603
0.015124288806015518 -0.00996181113083396 0.015941840925343786
0.016468994512854995 -0.009947040913022474 0.015442245310255787
0.01774017283052659 -0.009934205794690325 0.014885773174588612
0.01900704159762512 -0.009921431919207165 0.014329863667300935
0.02027168489894049 -0.009908662762276726 0.013776254009987166
0.02153205366497629 -0.009895954449226502 0.013223195044341995
0.02304264532024869 -0.00987632504379127 0.012888762825810307
0.024554332282978486 -0.009856578787092934 0.012561751108111141
0.026007739089486004 -0.009838351129741076 0.012190793964336366
0.027455780281674114 -0.00982019076434052 0.011821206301492748
0.028898485517554917 -0.009802097318940306 0.011452980549880143
0.03033489698866637 -0.009784097812137288 0.011085240574481015
0.031838654539286915 -0.009764145425323102 0.01078307147367863
0.03319487880687272 -0.009748214824124147 0.010356399897662572
0.03454668481267109 -0.009732336121102273 0.00993111831791399
0.03589409411207034 -0.009716509063061636 0.009507219953056534
0.036843209841807445 -0.009711784471222541 0.008728915604139686
0.03751889740022568 -0.009714726677644583 0.007703954094299914
0.03820170522285615 -0.009717481550150507 0.006684496095511527
0.038884900412458956 -0.009720237985535937 0.005664459743158379
0.03843258974072111 -0.009755152538862399 0.003596267486847826
-0.005608481565336831 -0.0075624769149117725 0.13914470507206558
-0.002294859641535363 -0.007511418224768516 0.13955316366645493
-0.0005547016906071178 -0.007490904713452634 0.13922999982097273
0.0008819471554324942 -0.007476255398747797 0.13876807848546813
0.0021531614379535213 -0.007464795768065085 0.13823109858257274
0.0032270396847097205 -0.007457169450598567 0.13760214984289773
0.004145530640492223 -0.00745257207881265 0.13689988648451767
0.004955168350640082 -0.007450103106214294 0.1361457063356033
0.005682489261322032 -0.007449250238769959 0.13535170497583413
0.006306888637315489 -0.007450429788456714 0.1345069090422759
0.006826078360937182 -0.007453698183811656 0.133609229651589
0.00725135431429047 -0.007458842629944247 0.13266336535661472
0.007630494243072161 -0.007464923310661675 0.13169258317783086
0.007920455472312349 -0.0074728028632503225 0.13067455970278996
0.008204611933724848 -0.007480827152986673 0.1296511018419658
0.008131369774624253 -0.007496027175596037 0.12844117965287571
0.00840193066159678 -0.007504396053474618 0.12740451633258662
0.008667578830145406 -0.007512894369744265 0.12636266115851014
0.006966723490620552 -0.007560962537483976 0.12428740115458967
0.007330373061880335 -0.0075676228637269706 0.1232856112326966
0.006788984319973934 -0.007592571993554399 0.12180159064248744
0.005396555826952976 -0.007634820048532411 0.11985546516435411
0.005546381658164012 -0.007645986035194058 0.11872397585597272
0.002856440055103382 -0.007714821917046602 0.11605509306158374
-0.000278497206863515 -0.007792962119139338 0.11312248092908489
-0.010930134986095574 -0.008024503995881912 0.10605623192315478
-0.0412842741478065 -0.008691565450212298 0.08530215390366983
-0.03820809456841734 -0.008644813327309975 0.08562605178699176
-0.034805369375911666 -0.008591170384957228 0.08614886793854304
-0.03239792285887405 -0.008557827647621342 0.0861253395497435
-0.03081308068316102 -0.008541336632716069 0.08564398369703005
-0.029557491249484258 -0.008531591492009338 0.08497930580483512
-0.02833456498996867 -0.008522485987024386 0.08429896621731639
-0.027814140302502177 -0.008527927933213842 0.08321431866910381
-0.02731709376678504 -0.00853387686301491 0.08211426483773662
-0.027540441592714016 -0.008554859354275308 0.08058974094598845
-0.02730695273627992 -0.00856638497892713 0.0793278535081604
-0.027321429515852647 -0.008583141566198736 0.07791505626405193
-0.027839681552019324 -0.008610520372727411 0.07619610760228046
-0.028705463743647353 -0.008645302066528106 0.07425954789723896
-0.03031265307869052 -0.008695816009254969 0.07186393241357908
-0.030950130862713365 -0.008726085041946056 0.07004041216550871
-0.03229601797902176 -0.0087714329344992 0.06777427277475778
-0.03393484957500237 -0.008823156008027253 0.06531317675283177
-0.03616122029045021 -0.008887537501056456 0.062471980656298554
-0.038137993040774754 -0.008946867868307234 0.059764401296287184
-0.04054050457538633 -0.00901549197010737 0.05677104656017423
-0.04464058181797381 -0.009120588135834787 0.05268815253567949
-0.047714455550265544 -0.009204168377501293 0.049218500842374224
-0.04899893659730403 -0.009249765570252477 0.04685790463681189
-0.04896743596470926 -0.009267311150495386 0.04532297897311438
-0.04869727610276542 -0.009279796022057082 0.04393552415211077
-0.04816568047660724 -0.009286699609875248 0.042712823365139596
-0.047694808653991894 -0.00929494098770194 0.04144831996468645
-0.04734222974056451 -0.009305772941471627 0.04010370617997627
-0.047375604413417205 -0.009325010076174589 0.038501734307048285
-0.04784617595894469 -0.009353815110269928 0.036604244346445824
-0.04932108544108488 -0.009404582159688124 0.034029383111725264
-0.04899951134122088 -0.009416396060479672 0.032637917553140605
-0.049254145733570565 -0.009440841641005357 0.030855130645232653
-0.04950608974863052 -0.009465326593436369 0.02906577737169047
-0.04989233116403724 -0.009492854993449887 0.027176737898889247
-0.050426550156743244 -0.009523745843760166 0.02517709111853944
-0.051109380722116404 -0.009558033496282457 0.023064660916575497
-0.05191992297927428 -0.009595277521510667 0.02085212716664081
-0.05342275611909675 -0.009647976411945576 0.018145675797729743
-0.06255897819599388 -0.009869975276338342 0.010087849881324829
-0.06275029724886655 -0.00989433858685488 0.008236627828295484
0.006373287395540217 -0.008428793529686712 0.0509317151674486
0.011775976217056006 -0.008324997427865074 0.05335126649376409
0.013835797638742375 -0.008295889659288595 0.05338059847148008
0.015335625206585601 -0.00827927101072241 0.05301145165898369
0.015671254755039443 -0.008288852285815121 0.05179377345519298
0.01600367862271379 -0.008298545830185482 0.05057033428554408
0.01315579846112852 -0.008380338221789048 0.046983933656329746
0.00926342533152641 -0.008486186870115597 0.042589288737460096
0.009629294220081686 -0.008495592504560293 0.041350562315914385
0.009964852053552076 -0.008505728617068133 0.040085618335225004
0.010227511636011377 -0.008517572832984864 0.03876177718923546
0.01038178251916938 -0.0085319485127071 0.037351067063034094
0.010516797276041712 -0.008546826584142351 0.035920430099731226
0.010629348888158252 -0.008562283967170932 0.03446712373560723
0.010722468833812449 -0.008578254489851346 0.0329931824784267
0.010814890874256078 -0.008594308851556523 0.03151291791551736
0.010878323403419765 -0.008611102231095414 0.030004132033143893
0.010947252600705837 -0.008627839668432396 0.02849356972777528
0.011013295775607224 -0.008644715601784843 0.026974627245679117
0.011058528982804405 -0.00866214832563566 0.025432967191029165
0.011106055981461804 -0.008679602235082897 0.023886765469395665
0.011166464279129318 -0.008696829849769029 0.02234452498790801
0.011219697309320764 -0.008714299793965251 0.020790154636695868
0.01128906442302502 -0.008731466133257279 0.019242466853542084
0.011366147404806848 -0.008748525057811502 0.017694750705863793
0.011854162468690088 -0.008755963880210365 0.01647830891945634
0.013123095864014778 -0.008744972914210456 0.015904050229682443
0.014485673356527728 -0.008731715419011762 0.015411622254776824
0.01583575184152486 -0.008718696894739184 0.014913695626166013
0.017178686391750797 -0.008705791476030712 0.014414630088888658
0.018454441609338013 -0.008694431666253562 0.013863719539412844
0.0197217145410003 -0.008683224727289626 0.013309871397933881
0.02124628240835258 -0.008665805369192247 0.012979574845123965
0.022787156409408205 -0.00864791776156615 0.012669807012134382
0.02433281590785158 -0.008629835979997625 0.01237090734650198
0.025808656892429727 -0.00861335763342405 0.012018372898054297
0.027257871750743567 -0.00859744960327481 0.011648897967326988
0.028701743360925014 -0.008581600225955837 0.011280785288829531
0.0304059647421 -0.008559360496336644 0.01114776885965646
0.03205924921729142 -0.00853826059879312 0.010978180483568745
0.03342400731795403 -0.008524101230220824 0.01056012194064393
0.0347832774563227 -0.008510012425349944 0.010142581609364099
0.03613227992742696 -0.00849611172596556 0.009721224403461237
0.03724864393315164 -0.008487859039825166 0.009095099015406616
0.03792845270231571 -0.008490309592220942 0.00807579812249326
0.03861439240870179 -0.008492620061873343 0.007061145683078418
0.039330299285299464 -0.008494200392631357 0.006073091683282905
0.039045082976212675 -0.008520586528182638 0.004161138954946353
-0.007227364343556086 -0.006497514740706997 0.13954152234786385
-0.003250242526851632 -0.00644278908098377 0.14025060579344426
-0.0010628857308628836 -0.006417773121237904 0.14013456260793647
0.0005273569271142531 -0.006402662659861147 0.13974387831138815
0.0017319953763800244 -0.006393964212808428 0.139174318539575
0.002850950228287852 -0.006386673894318828 0.13856667032215947
0.00377446850439378 -0.006382646436584391 0.13786706330488327
0.004649868800156276 -0.006379415706171813 0.13714547385527096
0.005399468532037155 -0.006378298138399237 0.13636340785002365
0.006086452192049285 -0.006378236062929687 0.13555087328801618
0.006644301943137143 -0.0063803628415219455 0.13467429838000597
0.007136631626750434 -0.006383610076758285 0.1337642475020811
0.007551705983203982 -0.006388183556910197 0.1328142166110917
0.007960973092293155 -0.006392872723586752 0.1318595880464616
0.00825468689236214 -0.006399552241843325 0.13084449856905708
0.008542609122031197 -0.006406355322087324 0.1298240086041187
0.008393976972237871 -0.006420665387473508 0.12857634099824464
0.008577418022980787 -0.006429326305293447 0.12749538880183658
0.008968965117612138 -0.006434439318522965 0.12651967728680394
0.009106707306164696 -0.006443945207614234 0.1254090561931932
0.0075301326594412465 -0.006483084919869207 0.12339094760351213
0.00771604174628121 -0.006491883015477082 0.12229339582944368
0.007041892459975385 -0.0065156183147077685 0.12073357930413314
0.005850949153630991 -0.006548414441788486 0.11888750061710701
0.005751431066070456 -0.006562348257997262 0.11761876289968598
0.0032851621927180163 -0.006617578851583236 0.11505884075192019
0.00015028364363345315 -0.00668468953686218 0.11211287956828192
-0.010997582862546096 -0.006892215357823639 0.10473580713590738
-0.04646540815277611 -0.0075267251221686335 0.08382891270865153
-0.03934216899535037 -0.007415814036144408 0.08638277568086605
-0.034640424883300436 -0.00734708130755083 0.0876229202080537
-0.03234112745704226 -0.007320430135746578 0.08753628342407063
-0.03033448073617684 -0.007298845613091685 0.08729394655511613
-0.028634472366376285 -0.007282604002316294 0.08688507296472597
-0.027402763597546564 -0.007274601113738803 0.08621399784963621
-0.02645298155578918 -0.007271574307802094 0.08538345968438629
-0.025724989876918847 -0.007272482085331937 0.08442548898178737
-0.025241490017779478 -0.00727775166689183 0.08332460350508383
-0.025053191502071415 -0.007288313772840164 0.08204856810981526
-0.025769207802725347 -0.007315098593211282 0.08023501716031403
-0.02584693664300458 -0.007330542564145562 0.07878995148838785
-0.02604765100241102 -0.007348255205786633 0.07726557105604467
-0.027114822632374413 -0.007381630616945963 0.07521430985769148
-0.028149861782229724 -0.007414555545602292 0.07316960754663893
-0.028926159742917512 -0.007442933092357852 0.07126931557857202
-0.030339904275059115 -0.007482960195963405 0.06896879934076217
-0.03193447141489103 -0.007526422588881487 0.06654173997907847
-0.034518333276373436 -0.007588032831873994 0.06348676149892385
-0.035850256076830456 -0.007627087366968772 0.06118556898888322
-0.03830615958160888 -0.007686800700929682 0.05816696393208709
-0.04262359050086445 -0.007780776509183725 0.05395545236268423
-0.04653675560809184 -0.007867716663026231 0.04996266978331326
-0.04901592314377129 -0.007928682222673991 0.04684711021856697
-0.049239877400138354 -0.007948419200454705 0.04514887032324644
-0.048933192854274166 -0.007958457466880599 0.04378390473247484
-0.04835561160434598 -0.00796353449762888 0.042590069003067554
-0.047736701495562806 -0.007967867178678362 0.04142109161838914
-0.04723880594419072 -0.007974459949825399 0.04017130491240184
-0.04691941313371373 -0.007984393906649003 0.03880157992549943
-0.04700969605847699 -0.008001990674844727 0.037157129535429434
-0.047754027976532276 -0.008031852529193714 0.03507095488500089
-0.04891439878399528 -0.008069606517640906 0.03269480532370761
-0.048601284617073304 -0.008079928513910758 0.0312939272741769
-0.04892190053878892 -0.00810217916809755 0.029460606758440144
-0.049221513514248805 -0.008124124672831145 0.027632638514672347
-0.04955904852980603 -0.008146872924875708 0.0257699374028591
-0.050060442351760326 -0.008172805375488292 0.023785476677854245
-0.05086358322249035 -0.00820454876928396 0.021582049852080565
-0.05166615839527411 -0.00823641031661032 0.01936618474202212
-0.00028689606173254445 -0.007337354489080504 0.04765044515084621
0.008778521655677884 -0.007178544239580194 0.052658853254153315
0.010944461579772746 -0.007151694597104005 0.052750906735034186
0.013050014417666789 -0.007125897243928767 0.052810154168779266
0.013587469165284138 -0.007130258213596557 0.05173543490313259
0.013943769497570146 -0.007138140861544591 0.05052596651527558
0.012519253242969985 -0.007180569535256929 0.04799917202739462
0.009541203010975052 -0.007253345824960433 0.044302206786080045
0.009933214693859216 -0.007260839412309979 0.04308891660130365
0.010325003855437054 -0.007268368651719846 0.0418723418627715
0.010599768788250585 -0.007278216411744682 0.04056438460340156
0.01078110436492491 -0.007289935205711641 0.039181480150403514
0.010964061137892223 -0.007301671460157244 0.0377949051554996
0.011112330731510855 -0.0073141393415282795 0.03637682333067943
0.01123824763429665 -0.00732710039646073 0.034936276928955345
0.011360448979803706 -0.007340189678477043 0.03348739145730828
0.011458073630951804 -0.00735382087691862 0.03201383872538088
0.01153935699678632 -0.007367834108548525 0.030521723140430168
0.011604216463452832 -0.007382233455797513 0.029010736685216754
0.011667234324101217 -0.007396730937071882 0.02749217412705851
0.011718953143993627 -0.007411515960038442 0.025958447773392013
0.011769827413237455 -0.007426381245960291 0.024417736429156456
0.011824067224106949 -0.0074412429141264644 0.022873374395481927
0.011877468922913137 -0.00745618539130505 0.021321965329135772
0.011922624440274365 -0.007471358347246 0.01975743575718547
0.011993394841518623 -0.0074860800771790305 0.0182073064687564
0.012066567535871153 -0.007500817013189292 0.01665280022599419
0.012478911846619867 -0.007508744910451606 0.015372035922591176
0.01384483697117217 -0.007497341759186605 0.014879559623710348
0.015198216670115172 -0.007486144212252036 0.014381563114096274
0.01654546977607335 -0.007475022692613488 0.013883298235394304
0.017888725824297735 -0.007463934168524461 0.013386511618964758
0.0194409382813599 -0.007448516181195987 0.013071769173908399
0.020987777803601226 -0.007433140682702701 0.012759199485991135
0.022531304583845613 -0.007417765561766967 0.0124505401779606
0.024079608450965684 -0.0074022239899728046 0.012152760658646844
0.02561035968924824 -0.007386976371479659 0.011846631699097998
0.02708677336490589 -0.0073727866201189615 0.011499931787327
0.028804116301996863 -0.0073535320846021945 0.011370385482373901
0.03052237498046756 -0.0073341726596124574 0.011250191297827061
0.03226488769574537 -0.007314220976809341 0.011160061208386751
0.03364310459514008 -0.007301793494184599 0.010754925043537311
0.03500116236837453 -0.007289732494976212 0.010337324184402308
0.03635570351386752 -0.007277691070122336 0.009921965332353566
0.03769333455304935 -0.007265951159756566 0.009496738472050792
0.03840870391866058 -0.007267280585613726 0.008511828484984385
0.03912433510948704 -0.0072686104980405316 0.007526558020851726
0.039839276542519286 -0.007269961058611022 0.006540053718392225
0.03946813696826085 -0.007294377553027884 0.004551300210166365
-0.004611159195578474 -0.005378296557539236 0.14076064706074434
-0.0019577784124494846 -0.005351026306493144 0.14085670931948527
6.075625346824154e-06 -0.005333259651033768 0.14063903189547663
0.0012025270635678265 -0.00532613403639784 0.14006452213309248
0.0022576480517727537 -0.005320957827982187 0.13942552919566573
0.0032275445231865763 -0.0053169560930588855 0.13874777727659632
0.004150832848482 -0.005313593597640048 0.1380491947122466
0.00494428921679535 -0.005312043110756113 0.13728884182105536
0.005702427669712573 -0.005310984131739184 0.13651185402637234
0.006304599166691904 -0.005312120613876937 0.1356584276239276
0.006875008256155002 -0.005313709921175992 0.13478875082239608
0.007340639454207265 -0.005316787867996046 0.13386608141715234
0.007791276316660101 -0.005320089627531247 0.13293454051496095
0.008201371319194961 -0.005323979304524237 0.13198107138615928
0.008559096665479438 -0.00532862843566484 0.1309992747170221
0.008589276238338994 -0.005337964142666355 0.1298478817612305
0.008877824935408007 -0.005343644025795929 0.12882537279269038
0.009125788021552728 -0.0053499255272342556 0.12777935076604774
0.00909562289628768 -0.005360217133163365 0.12658566341441807
0.009389587843763203 -0.0053658917760158464 0.12555732571654918
0.00945729288162206 -0.005374842833375681 0.124407169433468
0.00787490532859042 -0.005407612551939391 0.12237767316931605
0.007997314651882581 -0.005415884295790521 0.12124348695423587
0.006454855478677746 -0.005448274561034894 0.11921174282620864
0.006348307237617978 -0.005459971696154704 0.11794115328466304
0.005937172831147586 -0.005476135793701445 0.11649984458370893
0.0036819344429447343 -0.005519191050842947 0.11404330884282848
0.0006763028123981663 -0.0055733459398928905 0.11115487753254422
-0.011729859408303567 -0.0057649902614700195 0.10304238200422017
-0.035462713158651404 -0.006123082583861459 0.08854137376475776
-0.0323574904808947 -0.00608910194179226 0.08890070655541019
-0.030130586703180084 -0.006067892676242621 0.08878086028554424
-0.028366659701160812 -0.006053415678873959 0.08840839964374145
-0.0268842186169847 -0.006043033604155324 0.08788214119740412
-0.02570370289641366 -0.006037071679177424 0.0871875857318154
-0.02465945203000275 -0.006033103593734138 0.08641720127584573
-0.02381868379399088 -0.006032137371810482 0.08553065656869571
-0.023387724346488892 -0.006037255204781993 0.08440558260489459
-0.023393318448316658 -0.0060488900720472505 0.08302212035067416
-0.023476748372007417 -0.0060617302398350125 0.08158741041110937
-0.023783381681441118 -0.006077954544399014 0.08001436865192374
-0.024391713945568938 -0.006098757557924297 0.07825381546092583
-0.025539862628865206 -0.006127737123080185 0.07615965943399
-0.02603145441076893 -0.006146962396021253 0.07444848814465743
-0.027100333104300933 -0.0061749539353538625 0.07237791073880545
-0.02849215567253721 -0.006207925836193093 0.07009715133202865
-0.030157440185415607 -0.006245159217797615 0.06763313122897291
-0.03237326295312776 -0.006290875098010962 0.06481173165905202
-0.033871946679048026 -0.006325887578370088 0.0624145168296526
-0.03636683669872509 -0.006376182749580966 0.059378564875318784
-0.03943866792971523 -0.006435463617279418 0.05595657739936777
-0.04537060698889939 -0.006538631430891003 0.05069953963601975
-0.049282656314171 -0.00661131438278279 0.04667760964311807
-0.0495809128186277 -0.006628908455772863 0.044930925442076664
-0.04928229781792842 -0.0066374078886736855 0.04355954130070172
-0.04862310852791352 -0.006640393897258283 0.042417183101742695
-0.04794104585357678 -0.0066430391607689545 0.0412882775447842
-0.047291166209920854 -0.006646191996039811 0.04013708176727543
-0.04681467825147634 -0.006652040739877545 0.038870420118057025
-0.04653241571534161 -0.006660924575137976 0.037472595851553714
-0.04663244717232029 -0.0066757838154487634 0.03581643291215708
-0.048201570259356286 -0.006713574316800462 0.033171247659422975
-0.048456324365264425 -0.0067310123994284475 0.031391356985056185
-0.048298017405305926 -0.006742063915414041 0.029882263630643113
-0.04858348828574893 -0.006760110696300677 0.02806625276833724
-0.04884101178733752 -0.006777791685712001 0.026260640130737978
-0.04931775869707594 -0.006798991680425045 0.02429583848658362
-0.04988399730168519 -0.006821687768953148 0.022258936224425374
-0.050678238855299484 -0.006848076137519035 0.020052605211790475
-0.05136245540943468 -0.0068728310411647585 0.01791031722115982
0.00416362973603851 -0.006043468272793473 0.050828824932712735
0.007779740462348694 -0.005998085275869103 0.05194165365830833
0.010102076137188498 -0.005973238383816304 0.05214269817394396
0.011290781543881134 -0.005966484312523294 0.05153302792955866
0.011666316776340724 -0.005972781104973162 0.05033314438620007
0.011884180916306775 -0.005981645181606 0.049014427886850176
0.009755624015491515 -0.006028441938382929 0.04595988623682512
0.010199341562559694 -0.006033803472689594 0.04479049043012018
0.010625318318513988 -0.006039475081194321 0.04360518973878719
0.01091823620277138 -0.006047332825507675 0.04231726383832379
0.011153164142064298 -0.00605616788261897 0.04098167873646197
0.011355759833724222 -0.006065567672255362 0.039617151699738784
0.011534191831150509 -0.0060754021659645266 0.038229483570737965
0.011712169058317734 -0.006085285553145453 0.03683651564435858
0.01184515841300704 -0.006095949523664438 0.035403898404143375
0.011973428589828972 -0.006106736288371895 0.03396223386274888
0.01209592113532737 -0.006117664085352352 0.03251060435713177
0.012181399526332626 -0.006129250090267971 0.031024444192926715
0.012270328899214089 -0.006140828276608441 0.02953510546902799
0.012339759495660796 -0.006152779526301993 0.028024431027942276
0.012397956021954315 -0.0061649687574248085 0.026498710908366252
0.012448000692018457 -0.006177346120509449 0.02496022786443136
0.012495097132728117 -0.006189825898680564 0.02341302187174249
0.012542384251785388 -0.006202356203449455 0.021859551740823935
0.012594078598714864 -0.006214866618498724 0.02030320569595173
0.012649149331273313 -0.006227374347214305 0.01874315679367522
0.012723481064557951 -0.00623961171302915 0.017192456371792453
0.012790688647910442 -0.006252022515658959 0.015629524022927055
0.013201768044025064 -0.006258667796125742 0.014345643396177332
0.014559517832893276 -0.006249286117594042 0.013848459323202056
0.015909008740633668 -0.006240003818475378 0.01334924399034676
0.017552619027984495 -0.006225670624058239 0.013102989699374512
0.019180419756264167 -0.006211544416574694 0.012850845794187549
0.020727875492751846 -0.006198730740777303 0.012537632581417102
0.0222761105713013 -0.006185847207776952 0.012231837094221876
0.023825028270937187 -0.006172895016742949 0.011933431323919552
0.025427973680453242 -0.006158954932848962 0.011688670863943706
0.02719485464453858 -0.0061421232023104195 0.01159403235570794
0.02891139528860498 -0.006126087486383586 0.011464279609695982
0.030641665010464503 -0.0061097422421975 0.011355147493201878
0.03238326523906232 -0.0060931270757957805 0.011264762398273676
0.03386192742268984 -0.006081016867616254 0.01094948412860719
0.035250668408132735 -0.006070421901370098 0.010560329293900328
0.03680840782034589 -0.006056822742267023 0.0103287096893116
0.03819510940693849 -0.006046161233793101 0.009949935752713357
0.03891810371333898 -0.006047115215097508 0.008974323465875844
0.03963181924342385 -0.006048236946482184 0.007989726484278481
0.04034674852854081 -0.006049342342572771 0.007005634739925437
0.03988919800486501 -0.006071197949502198 0.004939623463589393
-0.006250412766272584 -0.004313139232920835 0.14114576703898857
-0.0032853601284242306 -0.004287921195327784 0.14137845580113728
-0.0010996783159534784 -0.004271279321008323 0.1412591170060019
0.00046651376604306405 -0.004261478670889215 0.14085632403559378
0.0016079725337407313 -0.004256382670611687 0.14025707150402858
0.002631037691980753 -0.004252591944330256 0.13960397298732727
0.003589554731546485 -0.004249510489248515 0.1389218706370088
0.004439977512713411 -0.0042476307223525 0.1381891185000742
0.005180414060030836 -0.004246980421285601 0.13740382276847835
0.005891301297996143 -0.004246660505014756 0.1366043997345062
0.006484975292108397 -0.004247661694354541 0.1357473595672435
0.007030483778119323 -0.004249210855032242 0.1348658815822263
0.0075051480078132116 -0.0042515677445572955 0.13394819860983673
0.007970297068484955 -0.004254041152117293 0.1330244534662952
0.008355685176363037 -0.0042574299364979504 0.13205905267151236
0.008523470639859698 -0.004263308316593182 0.13098116078146657
0.0089484977726223 -0.0042662744274533405 0.1300316461076138
0.009298341548654332 -0.004270110463705218 0.12904180856335032
0.009474330695615818 -0.004275950702292715 0.12795983631886085
0.00947874462107029 -0.004283780083493486 0.1267852620437925
0.009539120974883797 -0.0042909954154100715 0.12563570228591447
0.009807146911082587 -0.004295847313864686 0.12459165295380209
0.007792238730622125 -0.004327043328788983 0.12233381843010022
0.008392970526713561 -0.004328136377133129 0.12145464800857739
0.008355461307383405 -0.0043366208812409685 0.12023219352687525
0.006325711309374427 -0.004368239383307486 0.11792894855887132
0.006691865975129274 -0.00437214074096666 0.11690991673671744
0.00624448635709568 -0.004385525871760563 0.11544402072339921
0.003965303901580786 -0.004420322497102907 0.11296338672253842
0.0011385110929461595 -0.004461647656857303 0.11016033610158005
-0.03329230414949069 -0.004873060911329569 0.08974902785998315
-0.030447827334843525 -0.00484888636501803 0.08996956840860343
-0.028797960341034268 -0.004838656527379894 0.08953115449858631
-0.027084790391535496 -0.004827642805520001 0.0891343717651413
-0.025613659792452836 -0.004819441942432064 0.08860594129903504
-0.024315729183141233 -0.004813256530282396 0.08798291599113117
-0.023281522739516114 -0.004810169774357571 0.08721140220601534
-0.022645879029600913 -0.004811798770220957 0.08621058190858902
-0.02191611971861518 -0.004812315511599994 0.08526371363545182
-0.021609643166869807 -0.004817874177273357 0.08406828533497163
-0.021731427226872213 -0.004828563148147128 0.08261702973851101
-0.022129735999589506 -0.0048425983554514496 0.08099556478819339
-0.022630697845777092 -0.00485791690945677 0.07930476984372331
-0.023650815489664467 -0.00487952370021467 0.07729353579191159
-0.024257423526842847 -0.004896242835618144 0.07551946897124612
-0.025376817580854527 -0.004919203248275581 0.07342438521095332
-0.02670837833233597 -0.004944813241249707 0.07118643843041694
-0.028659238828658007 -0.004978011272331204 0.068553274794389
-0.03015778721882295 -0.005005858609525037 0.06618018993598174
-0.0320462193563818 -0.005038547419523125 0.06354867898524835
-0.03452292516012029 -0.005078519068034025 0.06053055713979777
-0.03752582323189374 -0.005125059779652521 0.057158440656821075
-0.04316250684004613 -0.005203943062881574 0.05209480127305993
-0.04970303631337858 -0.005294194662353434 0.04641047132032866
-0.04988567598214222 -0.005306862747024898 0.0447361610045548
-0.04958592604205031 -0.005313655727203413 0.04336440494505067
-0.048905388604061295 -0.005315789175373201 0.04223474270302707
-0.048179692776311234 -0.005317374207478069 0.041133168442337276
-0.047470596731155 -0.005319170640940107 0.04001980434931984
-0.04687096690725001 -0.005322329478435218 0.038833422683969276
-0.04638315558940198 -0.005326888048490823 0.03757125179402371
-0.04613409273955882 -0.005334432484080874 0.036147672781780715
-0.04624910034861196 -0.005346541589397931 0.03447624499403468
-0.047937129469357354 -0.005378330418142242 0.03174031477153211
-0.04800669067106478 -0.005390008097208831 0.030079159351903306
-0.04797131523312803 -0.0054004179307597456 0.028482297384551103
-0.04826829639722696 -0.005415042654232768 0.02665203097135055
-0.04858700488904799 -0.005429999858993907 0.024798002271727848
-0.049083842804891586 -0.005447263219061785 0.02281183685636262
-0.04960955273702161 -0.0054649613735983475 0.02079514344254757
-0.0504691614562382 -0.005486957880780107 0.01853441837354075
-0.05103332777648556 -0.005505296841836329 0.016467851378595688
-0.002352227928244799 -0.004907861577042753 0.04767862231915221
0.004354286897436277 -0.00483234156159842 0.0509649843202975
0.006777685532273592 -0.00481128214505915 0.05122210327463639
0.008812841338952715 -0.004795110934090693 0.051211861051288
0.009225463814736379 -0.004799706995242031 0.05003369745232489
0.009645036569451204 -0.004804232633756336 0.048857768417850556
0.009818946446312038 -0.00481194451220084 0.047498745722678315
0.010393168425328558 -0.0048145162221908495 0.04643033112968942
0.0108366934694471 -0.004818790803538686 0.04526335212600713
0.011174280957523153 -0.004824457672318471 0.044014687180942424
0.011452073609079072 -0.004830925636020713 0.04271763983687715
0.01168949873363212 -0.0048379466155931364 0.041386108005475986
0.011911153703001665 -0.004845202950044307 0.04003822018452147
0.012115967091940238 -0.004852710141718226 0.03867293798189064
0.012297703287144246 -0.00486055153103032 0.03728524586441717
0.012462479178762809 -0.004868648867210876 0.03587954071809324
0.012595761254561688 -0.0048771951293757 0.03444432157769545
0.012725371214946823 -0.00488582608384309 0.03300082994289133
0.012834705626333709 -0.004894761807465191 0.031535984651822724
0.012918478762240004 -0.0049040742858241695 0.03004533397874487
0.013007772663160777 -0.0049133531981002425 0.02855311699141111
0.013071353680746856 -0.004923013961684269 0.02703451413105107
0.013129965129646148 -0.004932782404312579 0.025505751962992207
0.013185671786296038 -0.004942631625312121 0.023968387384038614
0.013235313874290888 -0.004952604465544298 0.022419787808695857
0.013278857146395373 -0.004962702184570491 0.02085980593639708
0.013327838081154508 -0.004972770414656379 0.019297747868268655
0.013382287746053101 -0.004982808545368318 0.017733667747470094
0.013461241259997758 -0.00499255922701451 0.016183315445338575
0.01354684976242132 -0.005002262236025119 0.01463215192037881
0.013917539309603155 -0.005008139479893135 0.013312618071435744
0.015573140486941084 -0.00499657018911882 0.013067417049382024
0.017230500691185924 -0.004984926254602102 0.012831267704502325
0.018879118022902264 -0.004973350616471753 0.012595337679263241
0.02046862924328674 -0.00496253308345543 0.012316624969639034
0.022019532046238022 -0.004952197483864541 0.012011947473407558
0.02365747795189249 -0.004940619529248814 0.011789081123502132
0.02550357057391539 -0.00492612232356613 0.011754143805126238
0.027302870305436766 -0.0049122069497609415 0.011688075793379216
0.029017616888893705 -0.004899399889301169 0.011557248277439813
0.030760874329522514 -0.0048861402672981885 0.011460032675826681
0.03250156290656081 -0.004872857113815513 0.011369392940527578
0.034218264187273806 -0.004859848691557058 0.011266309185985812
0.03577944182691983 -0.004848953644554518 0.011032939793712393
0.037351817133170706 -0.004837852872989223 0.010816950398195857
0.038695428184005454 -0.004829910958786031 0.010401817921526113
0.03942030139597741 -0.004830631873492166 0.009430279495034055
0.04013875573373743 -0.00483144649899211 0.008452395126649692
0.04082906735961572 -0.004832662270709039 0.007448138957423356
0.0403234968559365 -0.0048508109727093155 0.0053401552823634235
-0.008490475705985434 -0.003247686766435914 0.141260031922901
-0.00485852863806252 -0.003223287871678588 0.14179026238843875
-0.002515370453101573 -0.003209530871373618 0.14173726307684895
-0.0006945435941031475 -0.0032000807907159455 0.14144910571106448
0.0006427372072826398 -0.003194636722608829 0.1409394882335637
0.0018920144506549552 -0.0031899096839986115 0.14039196533425927
0.002891882576805449 -0.0031872568672136454 0.13972863137436153
0.003754630998985431 -0.003185746270453978 0.13900125702297017
0.004559557944836035 -0.0031847167871220062 0.13824698623578752
0.005317176324945105 -0.003184082399610142 0.13747041912732008
0.006003069369514391 -0.003184051460417003 0.13665916468723896
0.0065892765072274595 -0.003184863815676256 0.135798783832674
0.007133758181251559 -0.003186032786830597 0.1349171155841062
0.007629347839411271 -0.0031876211746101383 0.13401019503056472
0.007995857518119154 -0.00319031342378517 0.13303729117053126
0.00825434542912834 -0.0031939361141261496 0.13200784143299013
0.008748075240594344 -0.003195563556811913 0.1310953602520057
0.009167530915417055 -0.0031978322818134496 0.13014369529865763
0.009484529117005924 -0.003200987335292448 0.1291376374761069
0.009709982947671725 -0.0032049399178136 0.12808186392164514
0.009898541915745462 -0.0032092243999791055 0.127003967899431
0.009824094730405297 -0.0032157909864222087 0.12578506895234845
0.009964871663971198 -0.0032205238815135114 0.12467482369132823
0.010231735226440941 -0.0032241838219231934 0.12362797453754246
0.008553409422339509 -0.003244712105581117 0.12154027405007678
0.00881880869339774 -0.003248443362631284 0.12048096850039641
0.008677995626089341 -0.003255721408486595 0.11919948654076973
0.006714460099902231 -0.0032789086847591384 0.11692219354281391
0.007140559358497778 -0.0032813219842794616 0.1159338215707465
0.00628083454354228 -0.0032949901801724944 0.11423661781372704
0.004302055732553101 -0.0033185153504688603 0.11191020532763976
0.001970275204043137 -0.0033452279993024295 0.10936975288681733
-0.02925476707145025 -0.0036261712440098636 0.0906373388511229
-0.026124566672746374 -0.003605434236463252 0.09103632643235315
-0.024245229711609362 -0.0035956623338569854 0.09074252469865077
-0.022912456938191328 -0.0035906880146271535 0.09014473734900202
-0.021658647504891104 -0.003586394599504849 0.08950546461001202
-0.020722300758840906 -0.003584903643497267 0.08868646808319461
-0.020485025288560388 -0.0035896259860070333 0.08746332171571364
-0.02051049191950255 -0.003596708199463127 0.08608337185681475
-0.02027769484556291 -0.003601511192556964 0.08484950247081421
-0.020093076647470343 -0.0036067636681504827 0.08358354379600338
-0.020441601800453013 -0.003616815637283401 0.08199722480029631
-0.020941861206902446 -0.0036282691210042226 0.08031264834504082
-0.021700419950679117 -0.0036420912034102033 0.07846423574129821
-0.022930163931280834 -0.003660215069055682 0.07632073437853543
-0.023696228000507746 -0.0036742202963447124 0.07444479615014457
-0.025038863286932778 -0.0036934985867554926 0.07220594975536612
-0.02718117691545835 -0.0037201040209306918 0.06946104940865083
-0.028272840719698655 -0.0037372662364401625 0.06734448643372959
-0.03028861494675439 -0.003762908794189207 0.06464052242822016
-0.0327492877522938 -0.003792710000075712 0.061638645315954366
-0.035791613485234464 -0.0038279442165030154 0.058248065432737806
-0.04069838975115614 -0.0038803911581343055 0.0536518357423022
-0.050180719171302235 -0.0039750291694699265 0.04610691882560597
-0.05023958164289488 -0.003983400862270834 0.0445099911612003
-0.04986100503643037 -0.00398777585842969 0.04318761666183124
-0.049189353636501065 -0.003989462977436808 0.042051213300433044
-0.048443560707614186 -0.003990471074749723 0.04096166688882902
-0.04772231335517374 -0.003991710639278409 0.039855280078207156
-0.0470071678782053 -0.0039930117946831 0.03874390044584958
-0.04640933407322334 -0.003995409599666691 0.037553948693295536
-0.04596517726436561 -0.003999249642777965 0.03625994536591398
-0.045727057206663424 -0.004005029686366979 0.03482516965865878
-0.04599366932240312 -0.004015557169529705 0.03304654015304409
-0.047671951970530924 -0.004039366647221794 0.030305395430260562
-0.047556188038385905 -0.004046412240450212 0.02876442583446731
-0.04763579755799402 -0.004055326014242135 0.027084277522863798
-0.0479335744867444 -0.004066334374378515 0.02524703049511068
-0.04825980494366977 -0.004077656356388482 0.023381240710287687
-0.04875218982350582 -0.004090598438114281 0.021390851321624993
-0.049495514134420215 -0.004105975386235956 0.01921465852672316
-0.05021720243134553 -0.00412120920284989 0.0170411830900718
-0.05075534891089539 -0.004134755729363285 0.01498496556703477
0.0006213620954552135 -0.0036524939982151587 0.0497906377390091
0.0031937622355397988 -0.0036353636305629855 0.05013618604132192
0.00574318717278538 -0.0036183832084007075 0.05047925608219567
0.00663484443000345 -0.0036172648048066612 0.049639331067879044
0.007084118070961876 -0.003620402079027641 0.04847917395667589
0.009304987086133587 -0.0036064560299394364 0.04860955897413932
0.010245928082784739 -0.003604829377064173 0.047812108907456186
0.01088832891204583 -0.003606088913140266 0.04679571073074951
0.011382871144392737 -0.0036087894655355774 0.045668570183471924
0.011668398653830347 -0.003613535139817348 0.04438327316181473
0.011954678107847005 -0.0036182933119628113 0.043094591275075256
0.012224288477555356 -0.003623234289223387 0.04178937236435093
0.0124505282998289 -0.0036286206816806567 0.04044714375530517
0.012677441791396182 -0.003634023113078244 0.03910091842211483
0.012881393717075473 -0.003639674095128068 0.037732563070097924
0.013046880597905208 -0.0036457279730574064 0.036329818853377105
0.013219100702545394 -0.003651740979232264 0.03492718919359272
0.013355783737427795 -0.0036581311504474976 0.03349180509423333
0.01347848160415449 -0.003664687165245122 0.03204006299904799
0.013584028978818774 -0.0036714415397151143 0.030569260179332758
0.013670272885036416 -0.0036784169854059295 0.02907743984182959
0.013755806853197716 -0.0036854293495376667 0.027579113909187436
0.013812544727790255 -0.0036927597814533086 0.026051768147162924
0.013873677093860837 -0.0037000776520234985 0.024521686608277526
0.01392774431350452 -0.0037074979904671936 0.022979620285098368
0.013971569002154738 -0.0037150534450015806 0.021422854511416012
0.014025004642926664 -0.0037225446044466715 0.01986743810216679
0.014080756074883405 -0.003730044805969113 0.018307461267984493
0.014143043803956812 -0.0037375113459766547 0.01674639788483212
0.014219279999007073 -0.003744868740721697 0.015190445751787796
0.014317982328285683 -0.0037520295982728055 0.01364685649313907
0.015247181538850574 -0.0037507519325879527 0.01279390500348171
0.01690676881725256 -0.003742003499155743 0.012558184615029222
0.01855863230924154 -0.0037332957812873167 0.01232356127876294
0.02020179480574613 -0.0037246390794787067 0.012089148422137763
0.021877285655876155 -0.003715611603840457 0.011890041305184118
0.02373264105867362 -0.0037046896286803297 0.01185383665240658
0.025578128188762483 -0.0036938212655276722 0.011818716648110017
0.02741082040734022 -0.0036830371822441257 0.011782062152353001
0.029130717472412915 -0.003673375938622574 0.011656237659469992
0.03088000301952276 -0.0036633658944198364 0.011564846917743898
0.03290863905866248 -0.003650398526453997 0.011729438911286694
0.0347499571981405 -0.0036393305017105404 0.011739046454261493
0.036307570249201226 -0.0036311840811354464 0.01150497380440818
0.0378992465354448 -0.0036226434665536447 0.011308803064542294
0.03919524606044217 -0.0036171749675456624 0.010853247682647005
0.03991819440805827 -0.0036177240700681736 0.00988232722162119
0.040642307420555246 -0.0036182633511275203 0.008911974540946
0.04124585423438043 -0.0036200821124812 0.00783052077210411
0.04075669772428114 -0.003633509345606863 0.005739674487317548
-0.006880011170592115 -0.00215621839811019 0.14200100169866073
-0.004008601269755385 -0.0021441499851650027 0.1421838111222323
-0.0019846032392208945 -0.002136741553387573 0.14198459514395723
-0.00046422352849689874 -0.0021321066610676936 0.14155711474769955
0.0008039000026566767 -0.002128860178720861 0.1410155449404671
0.0020755809530926816 -0.0021255822031201674 0.14047914256811575
0.0030240183328439363 -0.002124099304116571 0.1397917793645105
0.003841261587867628 -0.0021233457311228615 0.13904291830761
0.0046432193096124785 -0.002122675191345101 0.13828747190439034
0.005384144527677992 -0.0021223452350258415 0.1375030292808809
0.0060122277493172005 -0.002122649409912923 0.13666365217843565
0.006611227295287736 -0.0021231187319658493 0.13580960636384326
0.0071538581046756144 -0.0021239082798415773 0.13492708707252213
0.007544425955776646 -0.002125561521725824 0.13396780485370954
0.007941080859448668 -0.0021271862690578026 0.133009779661418
0.008510783994243598 -0.00212783375483538 0.1321374306305436
0.008984258229851272 -0.002129031346373324 0.13121544671610869
0.00929882772289331 -0.0021311394742124677 0.13021086185106442
0.009614020795276845 -0.0021332517810488004 0.12920428557108765
0.009907044666229159 -0.0021354987428388946 0.1281839082216946
0.010108543196092001 -0.0021382787906103246 0.12711337429696126
0.010297781387916427 -0.0021411395341064316 0.12603334794504797
0.01017374329278703 -0.0021458138250959103 0.12478496497922847
0.010395806357300086 -0.0021485098709289187 0.1237150144887866
0.010640430023708958 -0.0021510856047904587 0.12265411438116222
0.008758517750733219 -0.002165977830436995 0.12044859780377079
0.009248042554847236 -0.0021671757564448025 0.11950738566219182
0.009032792254151267 -0.0021724721328240425 0.11818188891100825
0.007417946993515501 -0.0021859336549336656 0.11608544392569162
0.007518367923917912 -0.0021894444535156972 0.11491709508650597
0.004628739506710666 -0.002210435200812338 0.11209090575964703
0.00414209112624514 -0.00221744118752859 0.11057818981343018
0.0038772374736124604 -0.002223173053963375 0.1091817276095651
-0.023882662024010237 -0.0023904522621216694 0.09229856176846818
-0.022200948640171636 -0.002385075925411846 0.09190028006031323
-0.020754405337803983 -0.0023810660048433087 0.09137411605821735
-0.019775117965801225 -0.0023798014905994525 0.09058475597009216
-0.018944580583316994 -0.002379412679501696 0.08971109759555784
-0.018461907758013707 -0.002381085469596914 0.088636209920441
-0.018225829962912 -0.0023842299251426425 0.08741561781619092
-0.01861459911289398 -0.002391106380332817 0.08582494488410006
-0.018834681344266746 -0.002397003013953518 0.08432591039672971
-0.01889890689166801 -0.0024019908570649053 0.0829125879282959
-0.019376846257499136 -0.002409475123045844 0.08124663147013172
-0.020214688466318798 -0.0024191474230028077 0.07935602704146069
-0.021696014566104316 -0.002432725018179248 0.07706578922466387
-0.022093877886346924 -0.0024398299717037068 0.07541770208983667
-0.02337719575646352 -0.002452305515386745 0.07322066889208678
-0.025190729403604728 -0.0024680352005409614 0.0706835135734773
-0.026517768303610245 -0.002480879084817424 0.06842856211879272
-0.02859172405042376 -0.002498306518807561 0.06569464996024538
-0.03105030881287779 -0.0025181411608488436 0.06270009026856904
-0.0341602230584796 -0.0025420222422410203 0.059273087597219165
-0.038918359533881564 -0.0025760598790567166 0.05477660713286858
-0.050747692623596075 -0.002653487776146557 0.04574662495482862
-0.05068376782182682 -0.002658323134441714 0.0442261259122082
-0.05020105907743533 -0.0026606056532877762 0.04296907009397505
-0.04948423053878165 -0.0026614565291289585 0.04186063144868407
-0.04872090406026652 -0.0026620240821288426 0.040781406955004595
-0.04798351799611872 -0.0026627541488852715 0.03968455435307783
-0.04724703885863002 -0.0026634927347508313 0.03858623793524507
-0.04660708469678965 -0.002664832974357124 0.03742324215650855
-0.04597564877515664 -0.002666231509196476 0.03625298529564841
-0.04561049258245403 -0.00266929388915271 0.034903079450285424
-0.045365027067416575 -0.002673115416163844 0.033469058963445875
-0.04561259071437368 -0.0026800349620022465 0.031697232746264736
-0.04740072143596158 -0.002696634149600686 0.028870083936637536
-0.047090193845754635 -0.002700125528530069 0.027457140378065736
-0.0473154454469934 -0.00270700129646293 0.02567180011642345
-0.04761273274730993 -0.0027143589743872797 0.023828362644501666
-0.047982792083245684 -0.0027222061476657442 0.02192543975412181
-0.04845745137768648 -0.0027307472357144067 0.019939902619558525
-0.049253556472226845 -0.0027413616519613025 0.01771814869380972
-0.005293546293407003 -0.0024676100596238626 0.04709796491639273
-0.0006466297154906209 -0.002443070130786779 0.048890036702677386
0.0020303420270208483 -0.002430999202265371 0.049305319883794274
0.003808609589202372 -0.0024246248195394517 0.04909008468975917
0.004360921071864088 -0.00242607887242754 0.04799754147398422
0.008161978738200959 -0.002406681294667349 0.04926165373002889
0.009611162130168271 -0.00240233424755837 0.04883304273484579
0.010716935184053755 -0.0024001830893151306 0.0481577825212583
0.01131374893675069 -0.0024013109770757855 0.047109628749410715
0.011777414691786059 -0.0024033055104857723 0.04596128842735819
0.012173457258189968 -0.002405747041751727 0.04476002048836697
0.012460010983915137 -0.0024089105282680957 0.04347358898573961
0.012746297218593494 -0.002412089003807944 0.042182999060961845
0.013000611842656495 -0.002415489526219446 0.040864186248380674
0.01322493453766932 -0.0024191005455661677 0.03951824120940445
0.013450953593904802 -0.0024227156604944883 0.038169051180072966
0.01363867383629297 -0.0024265976379332305 0.03678579234544327
0.013810565524725316 -0.0024306002451840473 0.035385365247582234
0.013984053414171305 -0.002434609295403073 0.033981111363735717
0.014109725805629747 -0.0024389514999130866 0.03253432893120084
0.01423275374370725 -0.0024433297165321545 0.03107994125617536
0.014340733087678637 -0.0024478265319370675 0.02960806246342851
0.01442738730602161 -0.0024524844685349734 0.028113471233150167
0.014507118169755029 -0.002457208533130015 0.026607378571850526
0.014565356496420323 -0.002462096505730267 0.02507794056831275
0.014625907122437554 -0.0024669900339947828 0.023544087402836478
0.014675236980134121 -0.0024719799744134874 0.0219948084183596
0.014726854785303556 -0.002476976099107785 0.020440955527838756
0.014781819497895254 -0.0024819713107879448 0.018883386665013657
0.014835958452885434 -0.0024869937886767713 0.017318657513864744
0.01491551207771935 -0.0024918660784662475 0.01576850136800717
0.015003790286604202 -0.002496700426167615 0.014219280930289013
0.015126114176358507 -0.002501324424997516 0.01269231741952076
0.016573039518890498 -0.0024969429928852465 0.01227666822698531
0.01822822251585321 -0.0024911201701089485 0.012043369118833469
0.02001199026820072 -0.0024843917156129585 0.011927339919086677
0.02193972413118539 -0.0024766461402903183 0.011943551522598406
0.023803712362372886 -0.0024693045344197466 0.011915066956182885
0.025653661615699763 -0.0024620271362366004 0.011884134622218379
0.027486746026677333 -0.002454833884683549 0.011848166513428127
0.02925068379404322 -0.0024480871295026107 0.011761236163218614
0.03135669466441254 -0.0024389378867038913 0.01198425951589549
0.033453826915031404 -0.0024298094798747773 0.01221164031261912
0.035280031722835836 -0.002422527598267369 0.012210344699048636
0.03685324565688258 -0.002416979438115544 0.011992691072328032
