# .PCD v0.7 - Point Cloud Data file format
VERSION 0.7
FIELDS x y z
SIZE 4 4 4
TYPE F F F
COUNT 1 1 1
WIDTH 774
HEIGHT 1
VIEWPOINT 0 0 0 1 0 0 0
POINTS 774
DATA ascii
-0.11451329322486414 -0.08704677905150887 0.03295109258998663
-0.11415591001559777 -0.08715036946459163 0.03147628676366926
-0.11386831528777092 -0.08726661292678245 0.02995653457259151
-0.11369613518411797 -0.08740361068030793 0.028364182911120306
-0.11364485439903171 -0.08756244926791637 0.026694766516069834
-0.11374045923821624 -0.08774784498791771 0.024931500307838306
-0.11400092977752652 -0.08796313357125583 0.02306203653463612
-0.11442433784484596 -0.08820814635819431 0.021085785035858617
-0.11515097371362637 -0.08850798063481405 0.01891581747626575
-0.11626271799345989 -0.0888775308950225 0.016498902828837814
-0.11824982526926509 -0.08940464315900687 0.013529828671242417
-0.1337896471548764 -0.0923557156438736 0.002168711819921121
-0.004625729584313176 -0.07237368242863396 0.05056300040747125
-0.002529608302594799 -0.07212905070764163 0.050541931621932934
-0.0004101850219394576 -0.07187905149998608 0.05054744048278814
0.0017189670239082244 -0.07162620152608519 0.05057022016810242
0.0038342420013993683 -0.07137492659687221 0.05059358995964591
0.005939929675782829 -0.07112442729615928 0.05062053191375687
0.008030888689596283 -0.07087568016374324 0.050647285416829335
0.010100120632805243 -0.07063002151811727 0.05066866010525961
0.012148981990996122 -0.07038721307290226 0.05068545212464903
0.014177782492495128 -0.07014721364020424 0.05069770939858759
0.016181851280393567 -0.06991093086954253 0.05070180813357761
0.018170492085103573 -0.06967661120368672 0.050704416023703014
0.020136070856697053 -0.06944572785388313 0.05069971413918506
0.022082851207613996 -0.06921748472379384 0.05069068208929445
0.024013994231531666 -0.06899129092319303 0.05067953562238858
0.025934462099853395 -0.0687662037602995 0.05066990617339412
0.027845272722085257 -0.06854203377895886 0.050662498962169455
0.02973149343454745 -0.06832167455268294 0.050645811488356174
0.031612123580682105 -0.06810146824385085 0.050634238243122964
0.03348066982658188 -0.06788267686026737 0.050622739361176894
0.03533724826606238 -0.06766528680830253 0.05061131412808417
0.037183783331274145 -0.06744893169824405 0.050601378933095964
0.039014958712704995 -0.06723465718981923 0.05058868179620679
0.04083453623382299 -0.06702173980199144 0.050576065077350796
0.04264527227310355 -0.06680964721537946 0.05056563379311668
0.0444384608839003 -0.06660009720963979 0.050550370100339415
0.04621523113420828 -0.06639288359932935 0.05053101613589822
0.047982700002440426 -0.06618661552015381 0.05051317325651994
0.04973836752592753 -0.06598179401983154 0.050494747498901094
0.05148320237356546 -0.06577823629234708 0.05047643543033242
0.05321394850308403 -0.06557659795751111 0.05045547904561004
0.05493328402879327 -0.06537635786375874 0.050433963554441796
0.056642976663014044 -0.06517717212930747 0.050413264215961984
0.05834310134731102 -0.06497903265261745 0.050393373749532955
0.06003292055668691 -0.06478209421808326 0.050373603851096904
0.06171494282264933 -0.06458586047731886 0.05035599068945057
0.06338680571598837 -0.06439081198346937 0.05033848391081497
0.0650438496413811 -0.064197897301586 0.05031703201501969
0.06668942331965799 -0.06400645296641097 0.05029436199546605
0.06832365350548142 -0.06381646301915664 0.05027048438075832
0.06994357399435219 -0.06362853995726298 0.050242732381248933
0.07155321543951487 -0.06344187655294857 0.05021447594633277
0.07306368823425452 -0.0632746270469341 0.050107830844427714
0.0740351886401146 -0.06321690247977632 0.04953452546965004
0.07412091306799728 -0.06334054933195583 0.04818039072036262
0.07388655449269887 -0.06353053018795068 0.04653605848283682
0.0736974288470747 -0.0637120469890445 0.04492352158311258
0.07350031455024009 -0.06389602940270749 0.04329553990242058
0.07342904577365766 -0.06405480382242525 0.041772822102377316
0.07340447010826401 -0.06420461302358108 0.040285233940242415
0.07335581331268415 -0.06436010560464316 0.03876879812244133
0.07336427096697012 -0.0645044065244854 0.03729761587152508
0.07328110237520186 -0.06466849385223372 0.035735284462422134
0.07322633868309986 -0.064827385391918 0.034191710784912455
0.0732173862330075 -0.06497739478005446 0.03268347663024712
0.07316455194341465 -0.06513731599047844 0.03112717776470586
0.07312009213956688 -0.06529620690234517 0.029571330749103564
0.073079349996934 -0.06545504385202174 0.028011599585817448
0.0730699672369775 -0.06560797550889864 0.026474289149411523
0.07309532932704926 -0.06575424266159939 0.02496305210709926
0.07310892029345939 -0.06590369070555689 0.023433635584350576
0.07301930607233492 -0.06607583059054645 0.021797450509659755
0.0728893703819134 -0.06625738616673187 0.020113981160242878
0.07262751610786783 -0.06646803797481567 0.01829311560659419
0.07221525648164934 -0.06671195815613515 0.016314640969904426
0.07200838730270598 -0.06691283323172191 0.014527239946748483
0.07212971036488902 -0.06704387763533017 0.013055777321141271
0.07236161038406846 -0.0671516372064348 0.011688302184118093
0.07256347501076005 -0.06726641321976766 0.010285577631096887
0.07276521988142448 -0.06738175838875442 0.00887723287587544
0.07296522222814117 -0.06749803003240722 0.0074615838641567955
0.07313502846224335 -0.06762144370415547 0.006009605369573734
0.07333882522679186 -0.06773801071923119 0.004586443596806711
0.07344472252482537 -0.06787659963367075 0.003056973579824207
-0.14491481429814135 -0.08746582436827936 0.049669811880658665
-0.1512405248322084 -0.08867665373512074 0.04473700105719303
-0.1537212680218084 -0.08925258411192234 0.04176137347183695
-0.13821787896118265 -0.08683462196214627 0.04819007757445304
-0.13484037785587855 -0.08643153177824245 0.04831674304987965
-0.1322480556293647 -0.08615823725313403 0.04804225763277342
-0.1299780850237292 -0.08593792837519036 0.04760618564753799
-0.12802221173660955 -0.08576951547034253 0.0470099136037429
-0.12629593185372257 -0.08563907978426473 0.04629609632959181
-0.12474623374020044 -0.08553790376187545 0.045491347524273806
-0.12332993813031135 -0.08545886406950758 0.04461757822466916
-0.12202856635090908 -0.08539896059797705 0.043683667422964034
-0.12084610059588596 -0.085358975742737 0.04268630226792136
-0.11976123125654481 -0.08533540511042752 0.04163618208306602
-0.11879859895456157 -0.08533253153552185 0.04051855937605314
-0.11790181475090733 -0.08534086544458963 0.03936397469297198
-0.11708739065883256 -0.08536328886188616 0.03816242153828592
-0.11627926803892563 -0.08538687490690348 0.036956403161823914
-0.1156858512597988 -0.08544733766259702 0.03562643244245528
-0.1151184875927816 -0.08551250283958702 0.03427907584211559
-0.11465277953090541 -0.08559540024252657 0.032870226381965295
-0.11426182789074696 -0.08569149622213629 0.031414523288864515
-0.11398945935795168 -0.08580843316183279 0.0298854808972972
-0.11381742743772633 -0.08594317464818221 0.02829262883127237
-0.11373259857148071 -0.08609354707209149 0.026642703221053277
-0.1138030336526602 -0.08627145914214444 0.0248941566088689
-0.11407217303942857 -0.08648462792582577 0.02301927367887907
-0.11448392191064055 -0.086723479509943 0.021049814189683214
-0.11517834288009837 -0.08701262549897588 0.0188991996195379
-0.11627821155876072 -0.08737384332441454 0.016489441479368983
-0.11827068880072378 -0.0878929682804671 0.013517015010290234
-0.004624641225722537 -0.07114681009308141 0.05056376079082342
-0.002538239034568679 -0.07090811169539156 0.05053586849405267
-0.0004283617456264932 -0.07066411218533533 0.050534600932169216
0.0016818812230904867 -0.07041904644630288 0.05054387968990587
0.00379749132666396 -0.07017198244628099 0.05056734416154102
0.005898308169522859 -0.06992664602459311 0.05059064455938189
0.007983455079350776 -0.06968321074142807 0.050613037997089716
0.010057200438479519 -0.06944089365194102 0.050637501918539385
0.012109483084432326 -0.06920157881399272 0.05065662102180557
0.01413662575635416 -0.06896597238121055 0.050667504338672786
0.01614603157081468 -0.06873271050977624 0.05067537672083949
0.018137945078160522 -0.0685017619230869 0.0506802688724467
0.02010576204981518 -0.06827438352392018 0.05067710535306569
0.022057650734998324 -0.06804905781092405 0.050671781831897134
0.023989971483417194 -0.06782648526056047 0.05066142099280402
0.02591255123887748 -0.06760482285212832 0.05065329458737966
0.02781788296417237 -0.06738550047962834 0.05064162129722655
0.029704336729866887 -0.0671688427976001 0.0506249996664892
0.031583341451167535 -0.06695268935935537 0.05061206176787353
0.03345581519320484 -0.06673686809471503 0.05060348581064095
0.035310779246491064 -0.06652348154210305 0.05059069964086116
0.03715844411752767 -0.06631058761623117 0.050581538259592496
0.03898803896452402 -0.06610025889624117 0.05056749036536673
0.04080250466763058 -0.06589194555820824 0.05055071432042302
0.04261174635811954 -0.0656837492912372 0.05053895818315968
0.04440259134454094 -0.0654782180256772 0.050521676964678464
0.046183131455195536 -0.06527380087024574 0.05050520132415076
0.04794312414880719 -0.06507249412403149 0.0504811760378962
0.049699120901149585 -0.06487109667727672 0.05046284714095023
0.05144174305043864 -0.06467143715548401 0.05044255691006988
0.05317367126815764 -0.0644730028822473 0.050422391193990945
0.054887513015069445 -0.0642772499380156 0.050396162501491704
0.05659840836430369 -0.06408122363113493 0.05037626081413288
0.05829808135092385 -0.06388655039508095 0.05035579683637548
0.05998827062578255 -0.06369289628850001 0.05033613810879256
0.061669854723220174 -0.0635000944061352 0.05031795675309153
0.06333569839063724 -0.06330956339887947 0.05029514417886727
0.0649915752891132 -0.06312017234165035 0.05027246809258762
0.06663678888147784 -0.0629320673211051 0.05024925390759949
0.06826677033431683 -0.06274616765307811 0.05022147762741519
0.06988637723667984 -0.06256151748736152 0.05019319542570211
0.07148727737599608 -0.06237979353200223 0.05015706721397739
0.07295028295404027 -0.06222493380212005 0.050008574781743864
0.0739677337836393 -0.062158996504579726 0.0494751759574118
0.07396219517190133 -0.06229897436186253 0.04804000976539463
0.07373410335820285 -0.0624845407814395 0.046400511595075966
0.0735551619431079 -0.06266098803376055 0.044796365356642776
0.07336368901573237 -0.06284077205266332 0.043172785017207116
0.07328434901093894 -0.06299855951101722 0.041642133649425705
0.07324630062361787 -0.06314864251245006 0.04014162847839642
0.07321813077961214 -0.0632973868592293 0.038643138613071115
0.0732146495821524 -0.06344175065510069 0.03716034548201497
0.07313261549845046 -0.06360289368357146 0.03559834254175487
0.07308213945775371 -0.06375827960598161 0.034058028176561006
0.07308535484568479 -0.06390330545827742 0.03256043520920926
0.0730157155225673 -0.06406405131159519 0.03098775165919021
0.07297637124374878 -0.0642192601916962 0.02943599450707185
0.07291871694562424 -0.06437898452626635 0.027859549367497904
0.07292000909469704 -0.06452717975194944 0.026331603995892627
0.072947422981743 -0.06467061199358524 0.02482158651428118
0.07295354618457767 -0.06481915960716515 0.02328425413484675
0.0728642763024433 -0.06498838514174159 0.021647624963086143
0.07270192821875665 -0.06517374639312393 0.019931889696756522
0.07242008589645943 -0.06538512737567481 0.018090559821552
0.07201886912061978 -0.065622685352036 0.016121872783691815
0.07183956647063766 -0.06581442263592156 0.014360670277769771
0.07198490668488661 -0.06593823832807655 0.012912163429862566
0.07222235216739564 -0.06604306538084753 0.011549472102056979
0.07241028404050126 -0.06615893350306866 0.010132066177232113
0.07262241883373688 -0.06627018263056311 0.008733391815520963
0.07281901635015603 -0.06638528453096006 0.007313550636857291
0.07299921282183203 -0.06650445197343528 0.005871380524907266
0.07318494498556782 -0.06662299705932155 0.004429023482805938
0.07332892609359626 -0.06675110748609082 0.0029379007437810856
-0.13867731542563222 -0.08541269228479112 0.047949267704058274
-0.1352557925234773 -0.0850094704794 0.04809768837614836
-0.1325425440916984 -0.08472114277062523 0.047886031115230265
-0.13022002132827848 -0.0844960704003158 0.04747706453901418
-0.12825063408471937 -0.08432840628383684 0.046887271790455765
-0.12653529593066903 -0.08420209776786813 0.046166808747686194
-0.12497944075657952 -0.0841017206784798 0.04536463151517017
-0.12354689755264936 -0.08402142106823789 0.044498986426082576
-0.12222267207232151 -0.08395882014795583 0.04357693532665691
-0.12103286704046656 -0.08391836335471205 0.04258299509477759
-0.11995093288130454 -0.08389574718749826 0.041530628732040886
-0.11894565699569504 -0.0838858564483629 0.04043624918920269
-0.11803680888278101 -0.08389207321567609 0.039287970406386874
-0.11720366003833049 -0.0839110117710081 0.038096573696033864
-0.11638023330832209 -0.08393165605218667 0.036898886208779846
-0.11581368597328429 -0.08399563293306637 0.035553181187871874
-0.11526477515124933 -0.08406282858563513 0.03419475967596003
-0.11476711576826165 -0.0841389431854158 0.03280394074994286
-0.11436274402278895 -0.08423114657679605 0.031355676460885884
-0.1140567871467918 -0.0843404010598684 0.029845991660726323
-0.11389326518137954 -0.08447428798619346 0.028247889783201197
-0.11381699721014593 -0.08462355066895529 0.02659262500957571
-0.11386900753571355 -0.08479527873957671 0.02485478414569081
-0.11409083536369025 -0.08499670454725243 0.0230080718576936
-0.11448562452165312 -0.08522853878050059 0.021048786324967816
-0.11518005355227595 -0.08551270144206972 0.018898160943216336
-0.11631781059560853 -0.08587420781057223 0.01646525980659247
-0.11821331826545378 -0.08636768678257895 0.013552250013005362
-0.00461702288844229 -0.06991876682861069 0.05056908335352389
-0.0025490279930068804 -0.06968750802393467 0.0505282892024117
-0.00044333210620001173 -0.06944847666768221 0.050524026270548306
0.001661745910136514 -0.06920857907445188 0.05052957842742395
0.003764934779531659 -0.06896804109698705 0.05054409363432816
0.005863963509291081 -0.06872727261673589 0.050565982524691855
0.007950450707207235 -0.06848780264523074 0.05058920859468513
0.010028581486631272 -0.06824887344537695 0.05061672580931076
0.012082132758681918 -0.06801346294484731 0.05063665742982004
0.014107509347988656 -0.0677822535722353 0.05064613571371246
0.016116176468912224 -0.06755316056964931 0.05065334660027182
0.01810736532709989 -0.06732633898857886 0.05065758126017145
0.02007544817963358 -0.06710284351266887 0.05065449278998929
0.022026629937496933 -0.06688154540742118 0.05064851635325368
0.023963062188462003 -0.06666205901584346 0.05064112972936602
0.02589063768884059 -0.06644329941083117 0.05063668096266993
0.027799935659797548 -0.06622702757020073 0.05062794108111951
0.02968279568495069 -0.06601478383764067 0.05060849146363838
0.0315545546064811 -0.06580372227872497 0.0505898816596097
0.03342267018313755 -0.06559245116004969 0.05057781015022533
0.035280654424931335 -0.0653821890171521 0.05056723795776158
0.03712676487821803 -0.0651732705929845 0.05055673332877386
0.03895483213877632 -0.06496686937924896 0.050541349699171734
0.04077135711736285 -0.06476177136757236 0.05052606320061859
0.042573801172604286 -0.06455846631520719 0.05050876628626344
0.044367589346995195 -0.06435593480596254 0.05049367780210423
0.046149290034113055 -0.06415483534646671 0.05047798578987184
0.047909563383224274 -0.06395695971332514 0.050454042039385694
0.0496581580454577 -0.06376046420304309 0.050429551799843764
0.05140196620054871 -0.0635640366915751 0.05041005322420755
0.053134223608874875 -0.06336897697985044 0.050389984840887136
0.054842561775238996 -0.06317767502785769 0.050359038477819085
0.05655300221285592 -0.06298513507723523 0.05033856177431867
0.05825304886786414 -0.06279376512841697 0.0503182095009469
0.05994198403286488 -0.06260371192248339 0.05029729904393232
0.06162153200090731 -0.06241464925980984 0.050277194259919
0.06328457471931037 -0.06222796899178083 0.050251790585301825
0.06493928374663743 -0.0620420929762405 0.05022788951549112
0.06658413692475335 -0.06185732408343787 0.05020413080621594
0.0682153240104032 -0.06167441612323676 0.05017715489971153
0.06983534627754268 -0.06149289034264448 0.05014899854362059
0.07144509304553581 -0.06131258094173766 0.05012033958189738
0.07285660396922494 -0.06117056539550204 0.049926583827077375
0.07386535838110592 -0.06110752505127576 0.049385101935717435
0.07379722927023025 -0.06125753389320886 0.04789410264727273
0.07360287507083607 -0.06143327566857075 0.04628383430042965
0.07343880361180483 -0.06160378023141997 0.044692365860524774
0.07325921965623183 -0.06177814550171016 0.04307892171207883
0.07314337059935139 -0.061940557112958004 0.041514803568477254
0.07308951492948007 -0.06209128293870403 0.03999927938958281
0.07308110028839654 -0.062233567171985776 0.038518074206492336
0.07306410717155626 -0.062378223617002564 0.03702223009586547
0.07297386487365626 -0.06253831286803238 0.03545193488646525
0.07294092807717273 -0.06268754690490543 0.033927115505985594
0.07287027015367942 -0.06284510625904897 0.03235999555100022
0.07286830500009683 -0.06298943643793775 0.03084966129835598
0.07281914669410039 -0.0631440357400336 0.029287942412187462
0.07275870594672251 -0.06330164834816442 0.027708087964516626
0.0727762288494857 -0.06344404464607924 0.026194797110657975
0.07279066231430553 -0.06358773245884639 0.024671652171006808
0.07279801620486193 -0.06373354051043822 0.02313472282632656
0.07268998098303109 -0.06390378673168512 0.021479180595824376
0.07251266118499605 -0.06408912579765044 0.019748025455185725
0.07221799562970083 -0.06429960630639753 0.01789321849718689
0.07181658856579554 -0.06453320568235928 0.015923320007916797
0.07167460757051775 -0.06471397811834737 0.014197911043311473
0.07183591754784391 -0.06483241247904503 0.012764398471619753
0.07207891534073685 -0.06493434577799768 0.011406476256702935
0.0722545065920252 -0.06505087005877586 0.009975962834100904
0.07247786128223388 -0.06515792411082369 0.008587781458824273
0.07267348592446599 -0.06527131804326872 0.007166201303971054
0.0728461760520201 -0.06539008609743018 0.005715629068952344
0.07303743477321228 -0.06550549632195588 0.004278119934302382
0.07319344856108584 -0.06562892360788249 0.0027985899390791658
-0.13936709373469602 -0.08402517332475533 0.04758772603712558
-0.13556557707781514 -0.08356799659175468 0.047934334118895694
-0.13277065318679115 -0.08327163376372212 0.04776501893952784
-0.13043952776452084 -0.08304918697675125 0.04735991422365121
-0.12852085116988932 -0.08289274775557226 0.04674219004350477
-0.12675764094891073 -0.08276096491312487 0.04604671366021962
-0.12515276992323154 -0.08265444380920269 0.045270450900022186
-0.12371444218980221 -0.08257466308431227 0.04440740515411307
-0.12238454084951567 -0.08251228495217447 0.04348792922322581
-0.12119427679156436 -0.08247251246123981 0.04249371361200799
-0.12010178002593985 -0.08244861179959938 0.04144669470338408
-0.11910971991342889 -0.0824411109620104 0.04034442116463627
-0.11816343197821089 -0.08244111096415208 0.0392166791739475
-0.11730480780027597 -0.08245555824509807 0.03803928981010024
-0.11650818128280183 -0.08248029707391102 0.036825997999950955
-0.11586584789948823 -0.08253065444354042 0.035523291602862106
-0.11533206263521911 -0.08259919461090913 0.03415597700204015
-0.11483944374205746 -0.08267483214749705 0.032762009114209345
-0.11443340968894222 -0.08276516430316835 0.03131446946834693
-0.11413592061127886 -0.08287393607925446 0.029799578134400317
-0.11393372144497549 -0.08299903973205665 0.028224023372696194
-0.11386427297555257 -0.08314683789525468 0.02656457377776389
-0.11389777086551439 -0.083312464664301 0.024837618517550564
-0.11408065573941639 -0.08350382430885253 0.023014182046823983
-0.1144600865700357 -0.08372900308058101 0.021064203563066874
-0.11514926323867775 -0.08400728640027201 0.01891685603283494
-0.11625238948186895 -0.08435658932106983 0.016505210070312415
-0.1180690807099204 -0.08482804672083591 0.013640835741496937
-0.0046257295834578604 -0.06869366467787388 0.050563000408068826
-0.0025608965447387333 -0.06846702763285675 0.05051995149164501
-0.00045295652661181407 -0.06823179481472955 0.05051722783782836
0.001647967891941493 -0.06799685001857932 0.05051979248294236
0.003742877168278813 -0.06776201627473442 0.05052834100894682
0.005840022622365826 -0.06752581705831376 0.05054879117733602
0.007922598749529941 -0.06729125876937765 0.05056909927388481
0.009998935798817443 -0.06705685407122634 0.050595204334609456
0.01205477839912139 -0.06682517184444572 0.05061669089346971
0.01408039683569079 -0.06659798533028495 0.050626237754467285
0.016088307322906337 -0.06637305852878775 0.05063278191927917
0.01807974050092337 -0.0661501824763229 0.05063708595449612
0.020050997821150662 -0.06593004180371836 0.05063625410023692
0.022000451992107484 -0.06571294985446222 0.05062888299504098
0.023944800012432488 -0.0654958802375435 0.05062735892543441
0.02586967438516563 -0.06528145922955961 0.05062078776146134
0.027778207548818323 -0.06506912977560522 0.05061137896975254
0.02966218874925791 -0.06486041220700867 0.050592699125064644
0.031535979945791215 -0.06465268765008592 0.05057556998392754
0.03340057001765584 -0.06444578012772327 0.05056069033813643
0.0352560029608458 -0.06423968670999476 0.05054803901123278
0.037095985202590165 -0.06403557761090706 0.05053263275877257
0.038922516641394955 -0.06383309450992997 0.050515910693456845
0.04073931372135786 -0.06363155691643649 0.05050070308121685
0.0425411438923024 -0.06343194572516209 0.050482781824034595
0.0443282034493615 -0.06323423667266694 0.05046217182449436
0.04611370582281382 -0.06303596976614058 0.05044936869013361
0.04787513510095309 -0.0628413632234589 0.050426206650542815
0.049629136597309664 -0.06264731293763372 0.050405962648180036
0.05136133318338865 -0.06245652993650405 0.05037684992055075
0.053093087278390794 -0.062265003886919114 0.05035619124006768
0.05479926375460864 -0.06207748380806713 0.05032327980355511
0.056512538818186575 -0.061887802282731885 0.05030496652173688
0.05821455666584169 -0.0616994319826144 0.0502860811524638
0.05990055846781622 -0.06151328745091467 0.05026253886595461
0.06157480621969913 -0.061328570169458516 0.05023777886181391
0.06323663142500008 -0.06114541735717957 0.05021113399625471
0.06488935304875776 -0.06096320333054412 0.05018532356008937
0.06653539860463525 -0.06078146809266005 0.050162361719238546
0.06817165939371866 -0.060600813163228975 0.05013953637289825
0.06979667538539452 -0.06042152735965779 0.050115506465690685
0.0714121046108614 -0.060243299250964256 0.05009161832264314
0.07276439297200987 -0.06011526429756305 0.04984587770384902
0.07373330777434117 -0.06006110624051564 0.04926891846855497
0.07363513285772244 -0.060214388291995935 0.04775073350148357
0.07344021120202293 -0.060387228201706035 0.04613920709747932
0.0733185258028261 -0.06054652625688939 0.04458486318849536
0.07311699738889238 -0.060722185123167384 0.042951138291761726
0.07300226379556835 -0.06088159116841843 0.041387357525173585
0.07294107890204804 -0.0610311778467777 0.039864511141954995
0.07294317330914729 -0.06116895891049783 0.03839219159702356
0.07291341838600107 -0.061313662493383186 0.036883980417765194
0.07280715745660937 -0.0614741852841104 0.035298189084955134
0.07275973957803616 -0.06162375270069023 0.03375914129454499
0.07279511573071917 -0.061757521674503144 0.03228995836373877
0.07270504906747799 -0.061916932718817486 0.030696727367549304
0.07265310184784496 -0.06206945227005473 0.029131584595371574
0.07261352861093157 -0.06222019333631335 0.027570667642720537
0.0726157012022779 -0.06236324256627307 0.026042055074530057
0.07262502067281357 -0.06250551390550226 0.024513223585941712
0.07262405058921106 -0.0626505213033334 0.022967466930110647
0.07252186722587078 -0.06281667840971983 0.02131671028079596
0.07232076294726703 -0.06300366806377955 0.019561605119653658
0.07201403518221128 -0.06321299838248366 0.017694050939682626
0.07163180809695108 -0.06343868898222627 0.015741944813301767
0.07152243169461736 -0.0636097201977892 0.014047764376192762
0.07168840737636983 -0.06372519477438454 0.01261810032693006
0.07192885391957471 -0.06382593430458586 0.011256876183458386
0.07210426064896241 -0.06394052492186364 0.009825402568584662
0.07232340963722389 -0.06404664089381462 0.00843220495044783
0.07251234899229808 -0.06415950232682341 0.007003050407203615
0.07268565086031842 -0.06427613918349398 0.005552256355612295
0.07290528989356959 -0.06438371182995496 0.004142935183794494
0.07305621803374973 -0.06450609761789285 0.00265747653939874
-0.13994000763401604 -0.08261523017279498 0.047287437896070206
-0.1359218440256449 -0.08213209649782754 0.04774646896606133
-0.13306398201055836 -0.08183115081909463 0.04760940761177318
-0.13064177911895192 -0.08159829449842848 0.047251972924253316
-0.12872023262360688 -0.0814442518471338 0.04663514052220319
-0.12694048833873894 -0.08131224508678898 0.0459479524041857
-0.12532793530320463 -0.08120645341194085 0.045175272554927925
-0.12387011862026465 -0.08112503059353605 0.04432231114119989
-0.12254651337798705 -0.08106482258651224 0.04339886607051646
-0.12134048426629385 -0.0810232765039315 0.042412841049804806
-0.12023066495831336 -0.08099705880786039 0.041374980839436415
-0.11924003180082032 -0.0809899611030312 0.040271484005149016
-0.11830194648609627 -0.08099132595216761 0.039138692848116885
-0.11743298703538418 -0.08100388470566712 0.037966696956419854
-0.11659576241498193 -0.08102163741109093 0.036776105597372655
-0.11596515396862755 -0.08107302752140029 0.035466387699737034
-0.11540778278012176 -0.08113653503697303 0.03411233397193009
-0.11491179273719088 -0.08121029558188726 0.03272006529150273
-0.11450409543752288 -0.08129876541327187 0.03127325076522086
-0.11418981313317039 -0.08140286757284791 0.029767968978908377
-0.11397587039176393 -0.08152382781871394 0.02819915839563225
-0.11389466928999425 -0.08166706849236297 0.026546538024026345
-0.11392992205752472 -0.0818300362189955 0.024818431051769063
-0.11409592533062418 -0.0820152037862466 0.02300501667021354
-0.11444136040494401 -0.08223074687554745 0.021075508531853193
-0.11514926323808061 -0.08250715628588254 0.018916856033197538
-0.11618526458242368 -0.08283908286906458 0.01654620077318686
-0.1179318714489882 -0.0832904472619835 0.013725104934014187
-0.12289422026518959 -0.08427927107002242 0.008898614963073037
-0.004670357536016467 -0.06747475922875686 0.0505318210224695
-0.002569528677598021 -0.06724590755443237 0.05051388737963647
-0.0004636508937376771 -0.06701523877818147 0.050509673623415796
0.0016384286808216464 -0.06678429096960957 0.050513017184122544
0.0037323726421775727 -0.06655382349443058 0.050520839114812144
0.005822325230684711 -0.0663231106314391 0.050536083126517695
0.007909187072469515 -0.06609199218144893 0.05055941594319746
0.009980532656773067 -0.06586265942930501 0.050581844457165626
0.012031473354957523 -0.0656359883519798 0.050599680039663475
0.014060310923861952 -0.06541229657128533 0.05061149663971615
0.016068398197881417 -0.06519136230621546 0.050618090948666206
0.018057045550374018 -0.06497296948915561 0.05062024820334349
0.020031435162401634 -0.0647562095344171 0.050621661379074756
0.02198493734401169 -0.06454227785964696 0.05061724706872678
0.023923652013956076 -0.06433009946965587 0.05061141203388686
0.02584775557248492 -0.06411965373265288 0.05060417014691021
0.02775553190319019 -0.06391126030060247 0.05059409460625819
0.029639705714275266 -0.06370624370301908 0.05057546901837123
0.03151554555127861 -0.06350186697109371 0.050559825393385216
0.03338399305982159 -0.06329796369225225 0.050547849058583005
0.035240479875508435 -0.06309536568128099 0.05053594938911865
0.03707516055096438 -0.06289587123752491 0.05051632699972797
0.03889558242288266 -0.06269812510004676 0.05049470787146165
0.04070904500413319 -0.06250080568872758 0.05047674749664538
0.04250583167583355 -0.062305693631134626 0.05045468490516786
0.044300190125833416 -0.062110190573221015 0.05043976311485765
0.04607637771883055 -0.0619171868633898 0.050419349138323244
0.047842421679793634 -0.06172522038115161 0.05039975773301675
0.04959840249704606 -0.06153428298368119 0.05038098142227204
0.05132915831563939 -0.06134718555459495 0.05035055820069673
0.05305110085419151 -0.06116091109849453 0.05032169928508462
0.05476511687446467 -0.060975300255048305 0.05029507881084405
0.0564737175650058 -0.06078988987567305 0.0502727346781951
0.05817605533841319 -0.06060483940156045 0.05025394518726323
0.059863185119579165 -0.060421823674316366 0.05023117890176787
0.061534514468003565 -0.06024096707447491 0.05020379087076565
0.06319986516128523 -0.060060439355941235 0.05017995568662542
0.06485526436416156 -0.0598809904011018 0.05015626293226233
0.06650080101029093 -0.05970261056935029 0.050132711334820834
0.06813578296753814 -0.059525437785840726 0.050108627632533265
0.06976341077938986 -0.05934887370513842 0.05008669666289778
0.07137757434931247 -0.05917408254503219 0.0500615546774944
0.07269043215592752 -0.05905585211002698 0.04978114474447226
0.07357302602492183 -0.059019155942468184 0.04912789609973245
0.07348506135458643 -0.05916781742410074 0.0476180000073918
0.07329496758606069 -0.05933671022059448 0.04601006853661588
0.0731636359137785 -0.059495078261589916 0.04444642470940818
0.07295847721764526 -0.059668365856897734 0.042808711581443115
0.07286257267559504 -0.059821362516391634 0.04126119011121504
0.07279327483965009 -0.05996990717412934 0.0397303166689133
0.0728004680120587 -0.06010430469071503 0.0382619479327288
0.07273146468708497 -0.060254108517150406 0.03671704669265996
0.07264105093433071 -0.060408760899454614 0.03514499745823463
0.07259946136455553 -0.06055459423685075 0.033610552357339785
0.07262353331213967 -0.060688256087240565 0.03213005892592147
0.07255262653514655 -0.06084114267230871 0.030553941885643587
0.07249003194301384 -0.06099309852663458 0.0289780281623791
0.07246031399193742 -0.06113928130381304 0.027425639480223085
0.07245025524492882 -0.06128225913718532 0.025884633266921364
0.07245920205506207 -0.06142213907893325 0.024354625731252466
0.0724482983428707 -0.06156660223019192 0.022798493312171098
0.0723647434379307 -0.06172617176341425 0.021164861010657177
0.07211260534771446 -0.0619200587615884 0.01935938955993116
0.07180658852800526 -0.062125605835440766 0.01749147909823401
0.07142983199631919 -0.0623462684848862 0.015543690881006933
0.07136767506845204 -0.062504870045363 0.013895071372155343
0.07154725034767251 -0.0626156215784567 0.012478103124012097
0.07176889946609927 -0.06271841674866743 0.01109741349297877
0.07194329584988496 -0.06283124125591075 0.009664101022640481
0.07215822039493097 -0.06293639449103237 0.008265812643421078
0.07233229640583344 -0.06305033617605059 0.006820747439461872
0.07251353340050054 -0.0631633629434845 0.005377085741420429
0.07273872487825983 -0.06326796592025685 0.003972538494199873
0.07291968381964903 -0.0633821093566351 0.0025170791548047022
-0.1404655331033271 -0.08119464578107269 0.04701198801355916
-0.13624485654722573 -0.0806889786102851 0.04757613939408201
-0.1332415464321517 -0.08037095460249807 0.04751520945200405
-0.13095244035497178 -0.08016314207899508 0.04708617340423099
-0.1289076193875015 -0.07999272780084651 0.0465345310472538
-0.12713382814894525 -0.07986410766661776 0.04584352388313717
-0.12550837878795007 -0.0797582733156068 0.04507722628423372
-0.12403616478516244 -0.07967612153846607 0.044231548946447374
-0.12270517655236679 -0.0796158948235697 0.04331162261841698
-0.12149017971316578 -0.07957373659353696 0.042330039165967615
-0.1203647074664993 -0.07954556650552876 0.041300397208765105
-0.11934162042630769 -0.07953349971657296 0.04021462360716399
-0.11841348939734686 -0.07953644904058026 0.03907589204873724
-0.11754604163374083 -0.07954905315529533 0.03790266976894707
-0.11671876468215925 -0.07956810098981028 0.03670603481295498
-0.11604934260806299 -0.07961240233281752 0.03541814631606144
-0.11545322591255897 -0.07966858823490257 0.03408614178754105
-0.11498584603699563 -0.0797456028442909 0.032677133410111414
-0.11457648499442241 -0.07983221985657878 0.031231038527037347
-0.11424708674142764 -0.07993202170477262 0.029734376741517188
-0.11402645856656257 -0.08004972363285219 0.028169314855000294
-0.11392675832342658 -0.08018739056888802 0.026527497889875518
-0.11395023021700035 -0.08034550059735177 0.024806311373130108
-0.11412137673444406 -0.08052814092329749 0.02298973979095076
-0.11440901853147467 -0.08073039347614877 0.021095033291368637
-0.11510992559780919 -0.0810006295283314 0.01894074084060343
-0.11608547118343682 -0.08131665897872176 0.01660714092506055
-0.11784159749302114 -0.08176133911358438 0.013780548082115096
-0.12187247727191508 -0.08257980596229536 0.009529726662646731
-0.004682332637252762 -0.06624999170018116 0.050523454600134854
-0.0025781611969672436 -0.0660247327998241 0.05050782299610301
-0.0004689983008639431 -0.06579769737535728 0.050505896358290336
0.0016320689417024803 -0.06557112454233524 0.05050850012999636
0.003727120161041264 -0.0653446588696354 0.05051708801199717
0.0058181608973438825 -0.06511795479499982 0.0505330928237277
0.007898869745217696 -0.0648921043774666 0.050551966756109346
0.009967240369349262 -0.06466746069089875 0.05057219483698111
0.012016272835563557 -0.06444524713784137 0.050588584853086316
0.0140452450547362 -0.06422560451347291 0.05060043975031525
0.016054460524892233 -0.06400849589384316 0.05060780632068573
0.018037308516218764 -0.063795092573848 0.050605604978240404
0.020010892101095523 -0.06358242207962835 0.0506063373288369
0.02196457234458643 -0.06337235633608657 0.05060197339759759
0.023903462964244726 -0.06316401227153133 0.050596188248687834
0.02582774039378094 -0.06295736962511034 0.05058899576088305
0.027732853362548493 -0.06275324299980668 0.05057680803605852
0.029620967666184606 -0.0625512649573641 0.050561108921165554
0.031499753709929135 -0.06235008859517995 0.05054765786496612
0.033369256666475944 -0.06214971097254776 0.05053643356555626
0.03522312890480578 -0.06195126783380094 0.050522436181238306
0.03705795568668341 -0.061755381048369126 0.05050285554405115
0.038885705486312205 -0.06155992599812276 0.05048693267175186
0.04069479904947271 -0.061366981190235585 0.050465472814301304
0.04248905580700246 -0.06117587657803518 0.0504413368270068
0.044276550279426674 -0.06098517031749219 0.05042085288260861
0.04605293491412599 -0.06079564935606417 0.05040049625228532
0.04781745187728925 -0.06060745836873819 0.050379569558754556
0.04956851668872719 -0.06042089306473431 0.050356689703215496
0.051302058847826904 -0.0602367031437659 0.050328413848108544
0.053025063904117375 -0.06005363279645848 0.05030030986393286
0.05474095991279326 -0.05987106411473856 0.05027512822393415
0.0564497594201645 -0.05968899807980726 0.05025284312105033
0.0581498364454196 -0.059507735814781186 0.050232061021466545
0.05983636847831586 -0.05932816787099811 0.05020867706692311
0.06150952850897329 -0.05915027355400314 0.050182714037018794
0.06317748155694003 -0.05897255842763011 0.0501609740747786
0.06483544200293734 -0.058795907981423486 0.05013936435524147
0.06648113991608923 -0.05862074962853727 0.05011586163725651
0.06811784168823593 -0.05844648701362969 0.05009317062070673
0.06974484141521659 -0.05827325739312349 0.050070614111980216
0.07135608499067198 -0.05810219627758586 0.05004284504647327
0.07261643606913926 -0.057995934706076856 0.049716380915003855
0.07341409967963874 -0.057975840220876054 0.04898806627031449
0.07333789573801075 -0.05811965806753534 0.0474878366779784
0.07311283845399336 -0.058292118354540574 0.04584813443816571
0.07299399960470604 -0.058445328751151854 0.04429480608039138
0.07284217735119264 -0.05860546019062114 0.042704218839232255
0.07272352842898283 -0.05876003163692938 0.04113560694584112
0.07264377989555193 -0.05890791844628439 0.0395945870081707
0.07264831129556149 -0.05904044294969693 0.03812307818712046
0.07257266408341984 -0.059188855449360415 0.03657135481348034
0.07247476643127704 -0.05934219492772705 0.034991641688865815
0.07244293270850188 -0.05948358070620123 0.03346543951798314
0.07245411531852936 -0.05961735511025865 0.03197217653821127
0.07238274270913325 -0.05976762604950301 0.03039479911590831
0.07232757961028935 -0.059915460985397476 0.028825053272436563
0.07229350154544689 -0.06005990072720399 0.027267740039849553
0.07228304707211192 -0.06020042998364991 0.025725534711516618
0.07229638479743161 -0.060336988898072014 0.024198898538994373
0.07227075372598146 -0.06048176508965953 0.022627796454030402
0.07222024073616135 -0.060632067698632545 0.021025209147088775
0.07191459711895265 -0.06083295738679294 0.01916703364837763
0.07159644792827968 -0.061037235428171306 0.017286276616601093
0.0712340694024961 -0.06125115776448151 0.015351535948318173
0.07120951875145348 -0.06139956068781266 0.013739024010899215
0.07140677761073883 -0.06150488144052579 0.01233878459033061
0.07159820841629438 -0.06161185126527041 0.010927247214695957
0.07177157911478504 -0.06172290753117559 0.009492025047055375
0.07196921747422685 -0.06182966552883901 0.008075433224191186
0.07214795415255926 -0.0619406960276495 0.006634101190652331
0.07231997935668338 -0.062053594865766455 0.005180098284304546
0.07256952738603256 -0.06215151199641738 0.0037994487699883894
-0.14099211583765237 -0.07977120342291376 0.04673598397422607
-0.13660561446038288 -0.07924975836967428 0.04738590608474946
-0.13364283451785575 -0.07894391846779256 0.04730232559345049
-0.13109393310962425 -0.07870029899322531 0.04701065889489414
-0.12910382843029689 -0.07854147230645715 0.04642918481913344
-0.12732213002865733 -0.07841407517039214 0.04574181649660358
-0.12569411149205945 -0.07830985924105947 0.044976306048684245
-0.12420403327656526 -0.07822652717821944 0.044139790653090316
-0.12286393934488604 -0.07816605733803968 0.04322432438971019
-0.12163826145171142 -0.07812307241027032 0.04224812988168625
-0.12049712330747075 -0.07809303741641418 0.041226718684603536
-0.11945680389272106 -0.078078555107495 0.04015015401019745
-0.11852508195548794 -0.07808092457464784 0.03901306329720555
-0.11764732791909982 -0.07809172062679041 0.03784530743185188
-0.1168266521214491 -0.07811147722860574 0.03664457450272374
-0.11614198292936434 -0.07815260299593514 0.03536506198884459
-0.11553235039493537 -0.07820565585332959 0.034040536589991066
-0.11506497275984212 -0.07828126827650067 0.03263126024728025
-0.11464889561960767 -0.07836524747610447 0.031188814003387078
-0.11431279918928261 -0.07846216621909485 0.029695834938144483
-0.114078743834157 -0.0785755859532543 0.028138470146446992
-0.11396391922445043 -0.07870832411064403 0.026505448346309413
-0.11400100787899325 -0.07886567815506065 0.02477600784187567
-0.11414343672584049 -0.07904038619571896 0.02297649856357148
-0.11442774226050006 -0.07923836867595249 0.021083729793233308
-0.11508427396166399 -0.07949652393479352 0.018956315856917205
-0.11604934892776897 -0.07980501872336072 0.016629199455672428
-0.1176975737631828 -0.08022416509279781 0.01386900248624462
-0.12127234046473012 -0.08095421056679498 0.009900420039408164
-0.006955843490155711 -0.06527167265825062 0.05043154393255683
-0.004691042266383172 -0.06502460072110557 0.05051736960475606
-0.002584635840096272 -0.06480314065861693 0.050503274530296294
-0.0004711373053227774 -0.06457958170248518 0.050504385422849185
0.0016267689971160015 -0.06435773878574418 0.05050473580317194
0.0037239686026191987 -0.0641351054876655 0.050514837300502546
0.00581816089756626 -0.06391206674320289 0.050533092823887404
0.007895774436518566 -0.06369092427850186 0.05054973192018408
0.009961105148071636 -0.06347095894181433 0.050567740934263694
0.012009178833666201 -0.06325302607279759 0.05058340678827217
0.014035200458487607 -0.06303795749160987 0.05059306798909324
0.016040521793097673 -0.06282553962258135 0.0505975209114114
0.01802349132215081 -0.06261607233073589 0.05059535377831653
0.01999230351813286 -0.062408165366451794 0.0505924712173102
0.021949054612462326 -0.062201467395356924 0.05059033515827399
0.023889040824567165 -0.0619967980199915 0.05058531306834496
0.025809629489564834 -0.061794625436424194 0.05057526508897947
0.02771584255691384 -0.061594094813414546 0.050563841660029196
0.029607849850149248 -0.06139518702748574 0.05055105594699866
0.03148674759866327 -0.06119772151852984 0.05053763672652217
0.03335544016949954 -0.0610012007592365 0.05052573066687621
0.03521034287117203 -0.06080625745320409 0.05051247821788174
0.03704708857490113 -0.06061366676185024 0.05049434656587393
0.038875827982757294 -0.060421661558374175 0.050479157025707544
0.04068767562751868 -0.06023180893807277 0.05045983512124047
0.042489938788750015 -0.0600428342869229 0.0504420393902838
0.044276550279489235 -0.05985581531160165 0.05042085288265863
0.046052066599507835 -0.059669957756924005 0.0503997979469098
0.047811424126220525 -0.05948616770716822 0.050374696100545846
0.04955570684506605 -0.05930426576253458 0.050346277633377734
0.0512876604544209 -0.05912377481139726 0.05031664818900061
0.05301162387054342 -0.05894392903981061 0.05028926884193957
0.054727630411913475 -0.05876472668567459 0.050264119746569025
0.056434060798340624 -0.05858646243028223 0.050239809138863
0.05813180850126065 -0.05840898178109944 0.05021701360817393
0.05982011380228963 -0.05823242675608542 0.05019503777362744
0.06149743713445055 -0.05805708143293083 0.050172514392879564
0.0631638899827659 -0.057882933601797595 0.050149448228387516
0.06482354740058122 -0.05770925210344027 0.05012922419828564
0.06646855553389475 -0.057537467555061686 0.05010507673221337
0.06810301908928823 -0.057366844800906515 0.050080400456251006
0.06972859141554122 -0.05719708971126843 0.05005654031576673
0.07134303643410816 -0.057028617202597595 0.05003148436871874
0.07255690845979607 -0.056932852035190336 0.04966428037688758
0.0732557715921387 -0.056931312330433234 0.048848762812302104
0.07318829928799697 -0.05707092353550111 0.047355523353335705
0.07305999625281961 -0.05722238992507264 0.04580115154141512
0.07289028419973803 -0.05738219780338936 0.04420210666011304
0.07271191041682862 -0.057544330753623245 0.04258717700929482
0.072584359459677 -0.05769774874362274 0.04100991113236396
0.07246854039835648 -0.05784967453181774 0.03943548331642699
0.07249989246333471 -0.057974811349609995 0.03798761991784849
0.07241603972850663 -0.05812207381185069 0.03642765953735455
0.07231846847417189 -0.05827257911951928 0.03484749600467735
0.07224391362640314 -0.05841944409863077 0.033280935128706446
0.07230179514003798 -0.058542028264955366 0.03183022778197725
0.0721945526063878 -0.05869635577240026 0.030218507500099412
0.07216100795580338 -0.05883744282592167 0.028668199381296944
0.07211700724722508 -0.058981162699169566 0.027100676061683315
0.07210930873180332 -0.05911864274292534 0.02556022270256486
0.07211271285527987 -0.05925464234180494 0.024023224803518373
0.0720858280564593 -0.05939705808696139 0.0224500032247561
0.07202602834900113 -0.059546437473948645 0.02083751631184838
0.07171232053757798 -0.05974524118027342 0.018970531228051146
0.07138037586581025 -0.059948480607446876 0.017075282056348673
0.07104454423863499 -0.060153420022250985 0.015165503497514665
0.071055263249162 -0.06029234400071251 0.01358682544843487
0.07125316828070011 -0.06039565923513631 0.012186437401203842
0.0714257017356415 -0.06050438761549276 0.010755270887529533
0.0715955967834237 -0.06061414283263454 0.009315674551356068
0.07177916843172238 -0.06072174921019096 0.007884000064309893
0.07194623240306203 -0.06083309420624569 0.006429858228562901
0.07214172912146244 -0.0609393951761307 0.004998686106733874
0.07241078822998415 -0.06103174857838702 0.00363705796631697
-0.1416880329537683 -0.07837002763511101 0.046371224701715674
-0.13696687399115937 -0.07780853695824554 0.0471954082645738
-0.13393362967600453 -0.07749800432294292 0.047148058378646995
-0.1313754032340857 -0.07725766184429562 0.046860438635249746
-0.1293175721339962 -0.07709171972944322 0.046314424089207884
-0.12751057096658158 -0.07696297184626923 0.04564003400063743
-0.1258713718994542 -0.07685908667559709 0.044879989343698634
-0.12437029831480984 -0.07677571323524453 0.044048908820372434
-0.12301084098428461 -0.07671349603211083 0.043143548203362525
-0.12177620882032814 -0.0766700039555094 0.042171826278400215
-0.12063300681218114 -0.07664026101559758 0.041151110690790194
-0.11959746707815866 -0.0766268196102987 0.040071423102406856
-0.11863841612498438 -0.07662501055213464 0.03894925398506183
-0.11776216860519695 -0.07663586619656348 0.037780268713877296
-0.11693289932599804 -0.07665396577287109 0.036584048586122575
-0.11623971362433905 -0.0766930382695302 0.03530906079931623
-0.11561486862645781 -0.07674277741545761 0.03399297532782508
-0.1151458089867145 -0.07681672803399149 0.032584396011475
-0.1147145886000151 -0.07689680700068635 0.031150506713569115
-0.11437347225010819 -0.07699113948141867 0.029660248846670234
-0.11413441443355277 -0.07710166141661785 0.028105628325177767
-0.11400446472825526 -0.07722956147883751 0.02648139053748555
-0.1140196289546262 -0.07738054546092016 0.024764894995689235
-0.11417568177388338 -0.07755408781206605 0.02295714388634973
-0.114434551238354 -0.07774436924807049 0.02107961921951318
-0.11506204468050768 -0.07799310872286243 0.018969812906956984
-0.11600807275179004 -0.07829278784003166 0.016654405295522146
-0.11759871386369392 -0.07869496134744855 0.013929718824527204
-0.1208108544949511 -0.07935408824402446 0.010185471365068144
-0.006863528445520961 -0.0640249721770697 0.05049568573129731
-0.004691042266120882 -0.06379772146217362 0.0505173696049393
-0.0025781611964559303 -0.06357937232567223 0.050507822996462226
-0.0004711373050782508 -0.06336109902881298 0.05050438542302188
0.0016278289981011551 -0.06314326633484024 0.050505488677108135
0.003725019128217877 -0.06292483487709301 0.050515587542041385
0.005820243076061937 -0.06270583255132725 0.050534587983773804
0.00789371086907259 -0.06248955247869389 0.05054824200912483
0.009954969724988827 -0.06227441783701009 0.05056328688504452
0.01200107107069548 -0.062060928941022594 0.050577488757410693
0.014025155315334381 -0.061850245805769054 0.050585695826496135
0.01602956918957299 -0.06164199173871224 0.050589438970275624
0.018012634221485024 -0.06143646441295587 0.050587298719599716
0.019980562379636913 -0.06123263313835285 0.05058371294153613
0.021936445472946653 -0.06102998597421009 0.05058087835220376
0.023873655932051374 -0.06082965288150457 0.05057371191314847
0.02579437677728541 -0.06063127790743298 0.050563701337912714
0.027702610804132166 -0.060434192590986376 0.050553755842474235
0.029594731060241464 -0.06023902327006478 0.05054100222649449
0.03147374052492369 -0.06004526916500331 0.05052761484649737
0.03334254378714241 -0.05985244209877739 0.0505157405316094
0.03519755589740542 -0.05966116288216577 0.05050251952233498
0.037037126456025415 -0.05947172507062396 0.05048654619961179
0.038861459692588585 -0.05928410524699874 0.050467846198230526
0.040674318412202926 -0.0590976654966252 0.05044926381427822
0.04247316135388601 -0.05891285301223251 0.050428690066075255
0.04426691828495466 -0.05872813015126441 0.05041314795723156
0.04603990972423544 -0.05854622159373393 0.05039002129317849
0.0478002291561731 -0.05836573634849802 0.05036564492738821
0.04954375010298773 -0.058187403638870344 0.050336558979751256
0.051274954951608775 -0.058010453617813304 0.05030626587684489
0.053000703037138 -0.05783369322604952 0.05028029734933498
0.05471596621065872 -0.05765800675531596 0.05025448659551168
0.05642166608337279 -0.05748323900711053 0.050229518267732975
0.058119515573942404 -0.057309093851837696 0.05020675305065819
0.05980954738604327 -0.05713556958972766 0.050186171497237975
0.061486151031000635 -0.056963664259948046 0.05016299403283353
0.06315269605430412 -0.056792790259597235 0.05013995561934098
0.06481165190889338 -0.05662251497869438 0.05011908328317399
0.06645597015105204 -0.05645409934440833 0.05009429096960749
0.06809209628133184 -0.056286403699577735 0.05007099009208926
0.06971853104707598 -0.0561197013764732 0.05004782723401646
