# .PCD v0.7 - Point Cloud Data file format
VERSION 0.7
FIELDS x y z
SIZE 4 4 4
TYPE F F F
COUNT 1 1 1
WIDTH 771
HEIGHT 1
VIEWPOINT 0 0 0 1 0 0 0
POINTS 771
DATA ascii
0.08301257855478167 -0.027674053058874343 0.017634516740435313
0.04407198083314984 -0.026663762916350607 0.0616357925164826
0.04948725394078274 -0.026293163373326767 0.06440692958653643
0.052404937759564674 -0.02611830164946819 0.06528235406863647
0.05484232385640908 -0.025980721706564215 0.06580217265072258
0.0567507599704703 -0.025884520986719783 0.06592237503156606
0.05852061440028378 -0.02579892827512361 0.06594368254566407
0.06018459308494711 -0.025721405703336565 0.06589028932804925
0.061696364944991866 -0.02565570426809034 0.06572404237381674
0.06311064917889408 -0.025597521645821308 0.06548682151299545
0.0644960347614767 -0.02554140638931942 0.06523258072299809
0.06577820711731075 -0.025493343676021855 0.0649009041429171
0.06699651316032945 -0.025450216920955705 0.06452247667103506
0.06816721926839148 -0.025410745334645074 0.06410979366686848
0.06929406782741504 -0.025374649982847667 0.06366533824259207
0.07038221197163497 -0.025341535158682732 0.06319281890147804
0.07141261670138505 -0.025312966585016305 0.06267594735677628
0.0724017530171776 -0.025287633094395582 0.06212773126404941
0.07336503878707934 -0.025264297981877966 0.06156057986369351
0.07427749760662722 -0.025245016612973854 0.06095309758041434
0.07513819889108181 -0.025229891936292177 0.06030383088840935
0.07595947387334356 -0.025217938661701973 0.059622609424721695
0.07674757712034874 -0.025208662965532893 0.05891427133815519
0.07749985804617254 -0.025202301239221857 0.05817609131766177
0.07821587160674415 -0.02519890963160221 0.05740720211295414
0.07888053689767777 -0.025199757448847337 0.05659398140987554
0.07951461137353338 -0.025203149286184404 0.05575389274093906
0.08010807944109766 -0.025209935700064093 0.0548777005314236
0.08067714618810329 -0.02521878776434851 0.05397917138109298
0.08119432925344561 -0.025232016806866108 0.05303352489101587
0.08165038190628121 -0.025250427030363478 0.05203176300893064
0.0820773666278028 -0.02527136099755192 0.051001822970551
0.08245431119043528 -0.025296600853740445 0.04992433809095009
0.082789233247692 -0.02532549947090634 0.04880586134171333
0.08304005584967467 -0.02536163904911163 0.047607371459727876
0.08326037495534605 -0.025400527396891918 0.046376813011505647
0.08329521745732932 -0.025455344894826246 0.044970795257261664
0.08307042545096249 -0.025532512962361857 0.043317856870696836
0.07610691087826427 -0.02618495831940048 0.0353762546558794
0.0746039859235964 -0.02637344650237182 0.03247560224885493
0.07556784721055332 -0.026351376106261707 0.03187628418566302
0.0768445328795721 -0.026302330833242776 0.03157560384677316
0.07816761376634113 -0.026249064560959087 0.03132469918094599
0.07957934696663638 -0.026187901123662663 0.031164715716107128
0.08081584667242636 -0.026141612420433384 0.030843311765251347
0.08182986162019495 -0.026114398920664476 0.03031224287178047
0.08257641801227011 -0.026110302277605926 0.029524503585759698
0.08309499186702635 -0.026126045610883386 0.028514614950448103
0.0834932193488313 -0.026152370214222467 0.027384765007840595
0.08373160184038098 -0.02619280726580869 0.026094129772975927
0.08378431413505599 -0.02624972167124 0.024614620291967093
0.083716361595088 -0.026317514017916713 0.023008144417293985
0.08347469383960415 -0.02640093699027748 0.021219623306394597
0.08290629681911388 -0.026513619504182517 0.019092166753988504
0.08167416591181798 -0.02668561289584786 0.016279375991467282
0.04910544891914054 -0.02522645917938331 0.0641127508806747
0.05216429929813482 -0.02504825709424638 0.06509594436756638
0.05462996012292115 -0.02491430314323701 0.06563678044725169
0.056598467156525445 -0.024817577905660023 0.06580312934270471
0.058361657275088075 -0.02473608396954943 0.06581855028579003
0.06001820675828806 -0.02466238459141743 0.0657586061222421
0.06155478910515744 -0.024597549472222525 0.06561139453453912
0.06294187484682973 -0.024543899933065664 0.06535181379077476
0.06430039691660111 -0.024492214935705248 0.06507524724517283
0.06559993972612432 -0.024444849484373362 0.06475677432219024
0.06682153459013412 -0.02440329546799487 0.06438025096233929
0.06799621476437695 -0.02436519035318844 0.06397005719465149
0.06911251692058895 -0.02433144508688479 0.06351619370778577
0.0701901799805782 -0.024300554759356535 0.06303422482912807
0.07121842088240427 -0.024273377447034988 0.06251471378647627
0.07221436755515243 -0.024248601150942743 0.06197132593756005
0.07317990087076481 -0.024226094548375144 0.06140523069913906
0.07406774132026217 -0.024209577358523627 0.06077615826943139
0.074919509030838 -0.024195820519010106 0.06011837880580606
0.07573555451121139 -0.024184814658044 0.0594317180094831
0.0765162033172972 -0.024176552289422074 0.058715982343365614
0.07725881463227274 -0.024171260358983614 0.057968424359436166
0.0779482781756835 -0.024170155743324057 0.057175444851904345
0.07859887327076792 -0.02417213249727654 0.05634875200960804
0.07922180314920507 -0.024176319631211023 0.055497617271107635
0.0798157649978512 -0.024182835834345665 0.05462051045596594
0.08035977686147233 -0.02419337391207009 0.05369846825784175
0.08084749322598328 -0.0242084692444142 0.05272514710005166
0.0812965429218458 -0.02422673702289146 0.05171550653054974
0.08169828871526535 -0.024248893729518356 0.05066123022697522
0.08204624930819815 -0.02427548841749571 0.049555781289152334
0.08234334602596871 -0.02430631501131947 0.048401030785743315
0.08255314705618738 -0.024344354006032565 0.047162981610612775
0.08263897383505758 -0.024392632990599294 0.045806707515369915
0.08244221692496917 -0.024464131023732388 0.044184116098892834
0.07572483107366867 -0.025067877338136528 0.036507985223389605
0.07583612633883419 -0.025116058194625895 0.035123907731392956
0.07404445727369874 -0.025320405688070823 0.03195145029642599
0.07518181353679881 -0.02528510977778374 0.03151277165391714
0.07641384564818365 -0.025241857161655435 0.03116792879468322
0.07774271840737074 -0.025190414162519437 0.03092041130032669
0.07904413254342146 -0.025141004360298806 0.030652807822580896
0.08016500810880484 -0.025106331945750217 0.030217575542359765
0.08113818399074957 -0.0250837709788586 0.02964378429794151
0.08185875288023109 -0.025082143146221814 0.028827324829468648
0.0823571068860991 -0.025099057872438883 0.027794069613451433
0.08272854114963868 -0.025126671546760192 0.02663417887682923
0.0829287715442582 -0.02516877350230328 0.025302004920652654
0.08300096249141614 -0.025221837160856728 0.023837705107347174
0.08288850892433874 -0.02529070978110581 0.02218283689174466
0.08253656932684372 -0.025380135434128363 0.02027953618757311
0.08170251060082923 -0.025510802196840862 0.017879613422747964
0.04872108842036277 -0.024157431452319744 0.06381660319349014
0.051735723412531354 -0.023990237924186645 0.06476394963053855
0.054213386038433564 -0.02386130290448805 0.06531234602235864
0.056339485063751304 -0.023757386764429414 0.0656003456574103
0.05818654446859489 -0.023673363923356103 0.06568070015052618
0.05982149142872217 -0.023604473805535233 0.06560291961993875
0.06134140335051408 -0.023543708429623958 0.06544160960356987
0.06273926698813942 -0.023491634426890624 0.06518974160141272
0.06409051808228317 -0.02344276296404879 0.06490646105277653
0.06538668205462478 -0.023397738975208138 0.06458435473520185
0.06662560518776839 -0.023356746345739973 0.06422099604286718
0.06780055345227598 -0.023320309405462036 0.0638101723912664
0.06892466807313735 -0.023287483457670576 0.0633618753986302
0.06999185241659145 -0.023258745011292346 0.06287043141190202
0.0710156874828583 -0.023233109455917316 0.06234639178037232
0.07202074855785162 -0.023208763135380943 0.06180971765610588
0.07294667074295236 -0.023190229129471485 0.061209527375768846
0.0738413016045329 -0.02317395931748961 0.060585145699679044
0.07468787840891777 -0.023161227777893215 0.05992195277497908
0.07549353227023348 -0.023151521010836573 0.05922539387717235
0.07626970833163277 -0.02314399550186995 0.058504734387532176
0.07697392322206081 -0.023141878093241714 0.057722980886718456
0.0776449272197327 -0.02314226811389143 0.05691271872141096
0.07829247576772991 -0.02314444132366094 0.056081988151108375
0.07891451484567663 -0.02314856597144316 0.055228668355683186
0.07948779006215756 -0.02315642916770327 0.05433194483627768
0.08000814728212663 -0.023168373591907123 0.05338746302555414
0.08048015785006107 -0.02318407635100128 0.05239854299090335
0.08090905753288213 -0.023203160624091147 0.05136917735279328
0.08130002968225392 -0.023225250235031383 0.050303403689946846
0.08161155891343741 -0.02325356838250639 0.04916317392090985
0.08184871108481895 -0.023287765571666882 0.04795194113151657
0.08199234018475904 -0.023329365525915583 0.04665114677766219
0.08186995019806242 -0.02339181716794189 0.045101165494612516
0.0743574425972156 -0.02402988144156375 0.0367279384970326
0.0746501784840839 -0.02406182321121924 0.03551170829539313
0.07268466661271544 -0.024270521392227483 0.032187029683618584
0.07374053075040138 -0.024243342056556674 0.03166673979838375
0.07488098050480024 -0.024209392395360275 0.031229489172285407
0.07609157781340148 -0.024169762626538464 0.03086288014973454
0.07740102802219684 -0.024122147790560298 0.030595292941809737
0.07856273004084963 -0.024086001300014676 0.030192368547515114
0.07959948632659697 -0.024059594766352936 0.02967386549851636
0.08048041180289112 -0.024045450730302866 0.029008092987584444
0.08111045752339086 -0.02405122671086126 0.028100390214799487
0.08161633691346942 -0.024066944193619242 0.027070707079503764
0.0819584391800613 -0.024095843198359015 0.025878268928775705
0.08215033519529358 -0.024136927715096297 0.024533948731262967
0.08218927340705645 -0.02419050488835067 0.02303268531840652
0.08199528714682275 -0.02426310838090932 0.021292361229811596
0.08146419450813452 -0.024363289929804348 0.019204917904067587
0.08020189979533199 -0.02452316016623632 0.01636807374613164
0.04826256169229298 -0.02309099456477998 0.063463310827438
0.051375656183756 -0.02292466176943621 0.06448502487311475
0.05389474098107877 -0.02279877087709433 0.06506418025838645
0.05610435151542342 -0.022693827935899406 0.06541623544748987
0.05794235092785871 -0.022614289331864115 0.06548846913501594
0.059591157279364315 -0.022547600641345058 0.06542062615987304
0.06110090687136821 -0.022490341635058853 0.06525025344589963
0.06251915889186488 -0.022439243195714477 0.0650136704396615
0.06387101598515749 -0.022392583739751063 0.06472993575751634
0.0651692664332838 -0.022349492733902774 0.06440857343095685
0.06641557617187033 -0.022309875877143972 0.06405028070555802
0.06759086524136498 -0.022275103084875323 0.06363882549589045
0.06871221194894611 -0.022243997190140256 0.06318734214862776
0.06977355314900935 -0.022217012100314664 0.06269014390018929
0.07079230050712071 -0.022192937110844954 0.062160921877643605
0.07179455461615275 -0.02216993201255185 0.06162091999315489
0.07270634607766313 -0.02215328445492605 0.06100787102834032
0.073587653123308 -0.022138745015032383 0.06037118125419072
0.0744439934696271 -0.02212593193733806 0.059715134910371115
0.07523925794793557 -0.022117451438186105 0.05900862483683528
0.07596954230197617 -0.022113613350551644 0.05824748996527873
0.0766685673420559 -0.022112014540864203 0.05745990658922584
0.07733876226996711 -0.02211249416033869 0.056647555447761455
0.0779736968145534 -0.022115532230117408 0.055804444428608435
0.07858605473808 -0.022120224222755638 0.05494118917510926
0.07914444749600569 -0.02212886696217837 0.05402985815347233
0.07963666471237113 -0.022142378091521732 0.0530588984516846
0.08009729751719152 -0.022158260049905374 0.0520581353793817
0.08051399496642025 -0.022177434268154574 0.05101607579670353
0.08084076490686881 -0.022203302312178447 0.04989076490329458
0.08112148613738518 -0.022232678110239712 0.04872054582244667
0.08128800919505536 -0.022270615461106907 0.04744286788001334
0.08126947786434435 -0.022322414171568897 0.045991407865987655
0.08067428769191382 -0.022417203630231003 0.04400420293046031
0.07075390019680206 -0.02320540191494344 0.033404573979474994
0.07148310319907641 -0.023203993435440953 0.03257561148954069
0.07242664591292935 -0.023186577633116847 0.031946577513853325
0.07351883339299942 -0.023157960015996664 0.03145905945395128
0.07464020133520904 -0.023127022634368707 0.031002757020453908
0.07582585356704258 -0.02309111081763334 0.030611353895690085
0.07703397153846481 -0.02305334078623078 0.030246038743705184
0.07813183467810114 -0.0230237220159297 0.029780237020584577
0.07909968101388126 -0.023003806938611218 0.02919333729069229
0.07986156921533166 -0.022999424479444436 0.028410024442498627
0.08043130104612828 -0.02300963358361697 0.027440620850221753
0.08091437230645687 -0.02302649554488006 0.026385238019428825
0.08120865059208837 -0.02305785971524517 0.02514229801196749
0.08134658351662438 -0.02310134333814974 0.023740914782687306
0.08130160920950968 -0.023159070636225833 0.022152314670668916
0.08098585311481771 -0.023237903082760795 0.020286030595635607
0.08012448180101889 -0.02335918502838586 0.01786240244716414
0.0479893730087248 -0.022009370025923163 0.0632528204230885
0.05100567026473263 -0.021857368183019726 0.06419841663868925
0.0536295504320316 -0.021730610205184502 0.06485764570313918
0.055838915160682845 -0.02163071797108159 0.0652083980574647
0.05764963629532732 -0.021556811545529332 0.06525804194641549
0.059323876482987814 -0.021491651233295186 0.06520909199823682
0.06084424406978661 -0.02143645031514402 0.06504603420867011
0.06230502729167331 -0.021384985809087258 0.06484238005892806
0.06365979114575726 -0.021340384660497664 0.06456006709735473
0.06494379966838748 -0.02130032970474934 0.06422628274847081
0.06617597232884281 -0.021263580671257155 0.06385552642026027
0.06735635790462818 -0.021230155717121862 0.0634471976312711
0.06845215271802163 -0.021202287439928795 0.06297370282455944
0.06953216040361837 -0.021175364538627593 0.062490784104372865
0.07056556816200843 -0.021151479029072506 0.06197267443906945
0.07153263090888451 -0.021131990319906445 0.0614022997090205
0.07245063950972219 -0.02111575162882272 0.06079330773146696
0.07332984875686349 -0.021102085557986736 0.06015371112369988
0.07416617944147225 -0.021091287608833827 0.059479544700380194
0.07492807182417094 -0.021085536612149507 0.05874333844533075
0.07566508071480077 -0.021081467006040768 0.05798656421968085
0.07635742293409675 -0.02108044985041985 0.05719184528141241
0.07702164777516762 -0.021081365287237128 0.05637290899451097
0.07763951304249311 -0.021085485734843368 0.055513488557236035
0.0782178952109478 -0.021092356727651307 0.054618963745802496
0.0787680031167366 -0.02110121928187892 0.05369864715604589
0.07925179234947022 -0.021114731167782327 0.05271849102962467
0.07968486051675217 -0.021131837015442374 0.051691430651392645
0.08005116957239794 -0.021153680808582546 0.050602408745707816
0.08035809346517658 -0.02117977850181975 0.049457095767914905
0.08055640589576668 -0.021213611375904644 0.0482101718432153
0.08066492314057333 -0.02125390918527122 0.046877154709588365
0.08040364966455088 -0.021320442423580038 0.04520118746288082
0.07022240107611089 -0.022087757617227935 0.034415102090264604
0.07048989153421958 -0.022119067644722455 0.03316109217072649
0.07126707293473666 -0.022114365483728582 0.032375336563302604
0.07224444008510383 -0.02209540920072961 0.03177677801063189
0.07333827460168968 -0.022068066628147 0.03128991665311254
0.07445197655337038 -0.02203917952277889 0.03082551324190469
0.0755983871133949 -0.022007817951421 0.030396041270701002
0.0767276737407821 -0.02197754042735561 0.029954596427734625
0.07771889796560838 -0.021957052218779798 0.029385282113760403
0.07857987709518505 -0.021945857850820923 0.028693581807674617
0.07925773903714228 -0.0219478422269747 0.02782646435240721
0.07978414253805749 -0.02196080461236104 0.02681193604495874
0.08017713419228945 -0.021983511840426094 0.02566532434839569
0.08042462398926248 -0.022016911940317855 0.024372720044338214
0.08049652001144303 -0.02206327471321825 0.02290218655860421
0.08034509213231689 -0.022126180672561387 0.021203656877386734
0.07981706486434664 -0.02221697776391497 0.01912083566063061
0.07825764885712977 -0.022383955625875338 0.01599166399009333
0.047423029030388975 -0.02094424620982967 0.0628164554483619
0.05050246211565235 -0.020795970691626885 0.06380860829263885
0.053344239722482645 -0.020661961018915806 0.06463544125160159
0.055455376649114874 -0.0205732707182956 0.06490808635639311
0.05732744288097158 -0.020499249842167406 0.06500440883619646
0.059043393806780586 -0.020434759939425656 0.06498710946687164
0.06057846358557978 -0.02038142758416214 0.06483456029261869
0.06204344611990853 -0.020332306301301707 0.06463313332250892
0.06341470100204533 -0.020288923932837426 0.06436296369583533
0.06470248303970055 -0.02025066514932119 0.06403117739465602
0.06591747210826265 -0.020216882212531328 0.06364541282161229
0.06707003219511276 -0.020186941966641964 0.06321322634037863
0.06817790059661599 -0.02015973365073001 0.0627484040046209
0.06925463112450869 -0.02013440531176002 0.062261580114307824
0.07027790070465118 -0.020112404804117308 0.061733834841737945
0.07124460891126222 -0.020093953717037337 0.061161895922689447
0.07216970214532975 -0.02007810992357402 0.06055757328160766
0.0730319055119159 -0.020066267717949622 0.05990238195790176
0.07385350698754162 -0.020057007537647248 0.059214394054211805
0.07461625580972059 -0.02005153302479549 0.05847751507156934
0.0753562997503025 -0.020047513825925966 0.05772193673699705
0.07602414619311848 -0.020048191650801562 0.05690471622890464
0.07667872024571348 -0.020049741136177072 0.056075906393774966
0.0772735756461797 -0.02005521467166527 0.05519488650975857
0.07784368143079484 -0.020062339585656595 0.05429143943344378
0.07836852702326547 -0.020072478285093082 0.05334717192450311
0.07882251877604912 -0.020087341003714013 0.05233881214235586
0.07921759286209801 -0.020106169521542684 0.0512759750593495
0.07955823123495054 -0.02012869324940743 0.05016182715487827
0.07981130903220612 -0.02015713922504692 0.04896582259158189
0.07995382393291944 -0.020193080113507192 0.047665926740412756
0.07992992567592005 -0.020240296354748336 0.04620983477361412
0.07893981659576088 -0.020352395421041492 0.043865182516430345
0.07012195378049024 -0.020990107984353388 0.034322946551055555
0.07033871578784062 -0.021023278565356115 0.033021670441881756
0.07111709493338347 -0.021018753971082316 0.032236296631790506
0.07207303451413571 -0.02100221586320028 0.03161704337894028
0.07316220300120929 -0.020976582809803346 0.03112497733646452
0.0742580672661744 -0.020950377750266022 0.030642916591120062
0.07536980813259331 -0.020922972362548746 0.030179675562331754
0.07638138977900827 -0.02090226796047313 0.029625107281660568
0.07728483974137551 -0.020888855712175747 0.02897012545579869
0.07805675761812947 -0.0208843887872918 0.028190638644822796
0.07864077406644276 -0.020892798705390847 0.027230210394110055
0.07909746794696332 -0.02091000755902068 0.026144863177651467
0.07946002164739285 -0.020933788659124666 0.024965063313569125
0.07960278786385239 -0.020972873070153334 0.02356602933660229
0.0795786489070226 -0.021023704517807683 0.021996554924431755
0.07922660930028069 -0.021097546373748957 0.020094364131273412
0.07817857379888887 -0.021220184336598148 0.017487381962107418
0.0457167270796775 -0.019942800609129157 0.061501759016370006
0.050042004068676205 -0.01972872757345478 0.06345191615630236
0.052907941211561005 -0.01960039442431657 0.06429564513431157
0.055076633828028854 -0.019513002471491053 0.06461152969405426
0.05699252231030877 -0.019440312408100742 0.06474075681157826
0.05870569280386001 -0.01937942546880229 0.06471984260930108
0.06028131529105485 -0.019326514836000196 0.06459812790865815
0.06174993666403694 -0.019279798646940616 0.06439834618039575
0.06312306959425407 -0.019238624443330538 0.06412843144743491
0.0644024613425237 -0.019202922702311224 0.06378860878387149
0.06561677343017674 -0.019170997704572507 0.06340099956262346
0.06676702161622539 -0.019142812457322845 0.06296562099464725
0.06788325430014652 -0.01911656850525187 0.06250635131764959
0.06896212419977671 -0.019092481981049566 0.062020006488327395
0.06997603842588118 -0.01907224805492194 0.06148320981180461
0.07093488212604648 -0.019055288364479946 0.06090337576621291
0.0718513443424546 -0.019040847919055172 0.06029043935415207
0.0727138673122264 -0.019029652049165034 0.059634101750931645
0.07351250365015521 -0.0190223334798789 0.058925218419719816
0.07428066617146645 -0.019016859742326465 0.0581914246666318
0.07499551847672559 -0.0190146527400132 0.057412744619596834
0.07567825526383509 -0.01901442287389854 0.05660671963152841
0.07631054988663288 -0.01901731960075397 0.05575704148860128
0.07688898873824707 -0.019023575861863592 0.05486004733361871
0.07745006254427289 -0.01903094144103731 0.05394693112836002
0.0779325442287796 -0.019043245459619905 0.05296357662019069
0.07837135975580167 -0.01905833611756126 0.05193977627014107
0.0787429784804512 -0.019077707457456166 0.05085398736780855
0.07903563099767225 -0.019102127871160876 0.049694734160853404
0.0792167254364266 -0.01913368406299306 0.0484316029721476
0.07928887098126747 -0.01917225959054358 0.047065348877410096
0.07891856458944985 -0.01923900097018552 0.045291598387875664
0.07208652571266239 -0.019715769275772274 0.037610350107942614
0.07006497862276395 -0.019888986330939547 0.034270674597397244
0.07017629628818317 -0.01992713574514145 0.032871879169255325
0.07091083710368123 -0.01992567157976918 0.03204508142518092
0.07192191514044532 -0.01990650581976991 0.031476213665171004
0.07299063426231867 -0.019883555519496002 0.030964256183969974
0.07407093595269426 -0.019859755312751932 0.03046670248816241
0.07509584107634543 -0.01983941473755806 0.029920346922458374
0.07602039192963567 -0.01982546099214198 0.029281617873386956
0.07681790957181894 -0.019819665210515987 0.02852352829930621
0.07749102854360512 -0.01982191317252488 0.02764672930376738
0.07799898963875418 -0.019834911385840953 0.02660997014781391
0.07839383323263882 -0.01985534298182112 0.02546131432859111
0.07865795372024081 -0.019884410177736293 0.02418184327277395
0.07869089748784919 -0.019928751633220193 0.0226709439661113
0.0784865448141655 -0.01998887643531988 0.020919013634007166
0.07775564239316629 -0.02008392622028095 0.018635483518091245
0.049526651656552234 -0.01866152490293859 0.06305270030145121
0.052433360627744785 -0.018538096197148975 0.06392603433875477
0.05470027644244513 -0.01845009623312376 0.06431684083422251
0.0566601425252064 -0.018379012951068356 0.06447910491270864
0.05835046837091573 -0.0183228377977918 0.06443870717557654
0.05996534222394817 -0.018270689627548325 0.06434671719252805
0.06143774074787878 -0.018226393001054532 0.06414861117026971
0.06280659973568353 -0.01818778700744273 0.06387392392355856
0.06409018124002308 -0.018153868898674163 0.0635361292087207
0.0653038753999497 -0.018123791099722005 0.06314667045221367
0.06645494498920329 -0.01809716332341018 0.06271060732016687
0.06757347345064968 -0.018072284488295325 0.06225186555661533
0.06864386164556197 -0.01805006161078348 0.061757161978557684
0.0696462071578548 -0.0180316572112712 0.06120936316969061
0.070603322692677 -0.01801578076184502 0.060626632518010315
0.07152553921707239 -0.01800185179259915 0.06001705638083554
0.07238614675696925 -0.017991430087275762 0.059357654020820605
0.07317149754183822 -0.017985330925405486 0.05863604043543952
0.07391815640280441 -0.0179814557508307 0.05788238483140368
0.07463239706776781 -0.017979453506394235 0.05710154698953168
0.0752943410859408 -0.017980498100833586 0.05627596473450336
0.0759110085578738 -0.017984198681204138 0.05541100682077549
0.07648190237004904 -0.017990602104381425 0.054505619085195134
0.07701019728254094 -0.017999539665530792 0.05356194646178697
0.07747678871731789 -0.018012154540965598 0.052562584479394436
0.0778899792194655 -0.01802798084046459 0.05151401042359155
0.07822318652606758 -0.018048614198324785 0.05039183153057741
0.07846750750359133 -0.018074615355937445 0.049186953098203756
0.07857230669345389 -0.018109032386112448 0.047852607624696286
0.07850120805173155 -0.018154090766154825 0.04635394077280386
0.07765308390582099 -0.018245779946584183 0.04414264137865087
0.07199763676740384 -0.018625771893454962 0.03752922332300912
0.06989947480786207 -0.018793976369465677 0.03411883284586775
0.06995497602901468 -0.018833386752847205 0.032667766711399204
0.07073676793341249 -0.01882918528918172 0.03188370732168455
0.07172886708813547 -0.01881225521844098 0.031296310180352394
0.07277884946680907 -0.0187917415565025 0.03076586167087142
0.07384373476102041 -0.01877022895984176 0.030252756177215567
0.0747754657643892 -0.01875671976874199 0.029617089680378073
0.0755879336153219 -0.018750422132300607 0.028870133841709722
0.07631161781060353 -0.018749522815618806 0.02803928359708635
0.07689846042040688 -0.018757003974026885 0.027077016075416627
0.07732976925477808 -0.01877407196898663 0.025963214947974156
0.07764597576506893 -0.018798304869280667 0.024734805103262036
0.07776728608440692 -0.01883467622039793 0.023312105538028982
0.0776570881377594 -0.01888553547912033 0.021656186436595448
0.07716106981279408 -0.018960550439234215 0.019611213349451262
0.07529034065230561 -0.0191213374069118 0.016190438087095527
0.0486975826017792 -0.0176074516725259 0.062410465000625304
0.05177609471617267 -0.01748230873526357 0.06341414534718448
0.05418975806685988 -0.017391797536663832 0.06391710355315122
0.05625100007497691 -0.017319579975227664 0.06415702485908042
0.05797118528816436 -0.017265169528496677 0.06413853099374717
0.05960096853207919 -0.017215338368239057 0.06405679548606563
0.06105850703637694 -0.01717448166645105 0.06384525058840329
0.06246593127193539 -0.017136128458003295 0.0635999556930203
0.06374526226868676 -0.01710447243746013 0.06325726099186313
0.06496316972512733 -0.017075977572184195 0.06286973879135843
0.06612602128222361 -0.017050321755723408 0.062441827040333076
0.06723924064787806 -0.017027230988117103 0.0619772924533582
0.06828820300206656 -0.017007512267042543 0.061463433041373805
0.06929890672884731 -0.016989779651398692 0.060921012532537455
0.07025510976334781 -0.016974927644376168 0.060335989069415286
0.07117483958999343 -0.016961994579242055 0.05972278443935103
0.07202756879102706 -0.016952657145899285 0.05905517661083709
0.07280341885598607 -0.0169474786890679 0.05832390452398456
0.07354504299178255 -0.016944151351573043 0.05756430538353341
0.07424671711285558 -0.01694300146501997 0.05677101652514288
0.07489751710466647 -0.01694464420908624 0.055934087610341576
0.07549327632165526 -0.016949327776888585 0.05504921737574131
0.07604097172791907 -0.016956687026348886 0.0541217244442172
0.07654600680206758 -0.016966440674768317 0.05315567155694956
0.07700480505745005 -0.016978803168097644 0.052147314156970326
0.07737883983574634 -0.016995934345373814 0.05106192381853186
0.07767411508958916 -0.017017531627706976 0.04990364280952214
0.07784219761421735 -0.017046330396931833 0.048628059612157604
0.07783641498801569 -0.017084992070234697 0.04719142593449405
0.07756048909182955 -0.01713898536033879 0.04550429422078783
0.07606657749818868 -0.017261716301201158 0.0427022182407788
0.0718173637755471 -0.01754029889800017 0.03736469253465147
0.06963541539247808 -0.017703365185992297 0.033876571093994945
0.06976116311943176 -0.017736513957881297 0.032489022887910834
0.07054586008642949 -0.017732419799981837 0.03170672260572521
0.07150952627586105 -0.017718127572689406 0.031091904199463227
0.07253847664351926 -0.017700048161282452 0.030540686633522995
0.07353479933767237 -0.01768375005418908 0.02996184399643348
0.07437874053514926 -0.01767610388373077 0.029241561996461385
0.07510988585000727 -0.017674897198485723 0.028415271453139213
0.07575159398613912 -0.017678830707444703 0.027503646656317715
0.07626167541385837 -0.017690373137114884 0.026464791374755936
0.07659240090455188 -0.017712336352249863 0.025250599453699174
0.07681597164324239 -0.017740610012456224 0.023928494171410797
0.07678961367201664 -0.01778352944890181 0.022357407561966525
0.07648406010662084 -0.017842900966822686 0.020504775853176505
0.07509134273993345 -0.01796598051231993 0.017569085318338118
0.047811057050494876 -0.016550757365205046 0.06172372123562625
0.051146148484343845 -0.01642083342997656 0.06292353335030931
0.05352658077918443 -0.016337693135844603 0.0633978339273718
0.0557734513919701 -0.016260835393381575 0.0637810948978979
0.05752421263454732 -0.016208353684059425 0.06378478322421427
0.05918547296455906 -0.01616011379607029 0.06372619756790876
0.06065221097200185 -0.01612139501371815 0.06352024200725487
0.06205680131858993 -0.01608562454121293 0.06327093019959756
0.06337532482186276 -0.016054022737710123 0.06295816524846293
0.06462406832482565 -0.01602579681848005 0.06259411111350166
0.06576078085027215 -0.016003099871784783 0.062143370518582264
0.06686883814215261 -0.01598175313202911 0.06167300584651453
0.06789566406960723 -0.015964428919221268 0.061139245662426955
0.06890421493202653 -0.01594795715954189 0.060593314604211634
0.06987110177677047 -0.015933533489167345 0.06001546850252576
0.0707907358348725 -0.015921456319443993 0.05940048310503715
0.07162733652205422 -0.01591356960267522 0.058717561833552534
0.07241410898800227 -0.015908200284678528 0.057993764270956316
0.07314997192124906 -0.015905420479667958 0.0572275070153358
0.07383305983867788 -0.01590534327718424 0.05641650929916364
0.07446746654184178 -0.015907775530695088 0.055563584675537736
0.07504075748742628 -0.015913376401218628 0.05465729996140606
0.07556814993130717 -0.015921378964018035 0.0537100638869466
0.07607369093312738 -0.015930551207099585 0.05274228504262207
0.07649631561554099 -0.01594407726805883 0.05169992457032674
0.07681900539690012 -0.015962873532258573 0.05056676797862791
0.07704321791766933 -0.015986899239911756 0.04934270144012154
0.07713508688293513 -0.01601796302442177 0.04799605364464815
0.07703473653933124 -0.016059254854059606 0.046471136375877076
0.07647446847513989 -0.01612492527932628 0.04452341288244971
0.07462808027045864 -0.016258697344860826 0.041396175806522606
0.0717259769249195 -0.0164488590879811 0.0372812859720576
0.06951870687434125 -0.01660308572254903 0.033769496669016796
0.06958859500079884 -0.016637141798071065 0.03232987205836585
0.07033090878011644 -0.01663557924801186 0.03150744794785171
0.07129066680910023 -0.016622414809924185 0.03088794678945722
0.07227489592803699 -0.01660788221536267 0.030293771043645834
0.07316012176177211 -0.01659858627535478 0.029609025049632143
0.0739222988853131 -0.016595854155832493 0.028809508618019897
0.07458817207012508 -0.016598292004791324 0.02791886085719969
0.07513647775642107 -0.01660708260970435 0.026915316372658038
0.07553802348932787 -0.016623848387456577 0.02576905014604891
0.07579606435184172 -0.016648468505246414 0.02448099527154962
0.0758540339971997 -0.016684070251092784 0.02299401587260841
0.07563621072922111 -0.016734852961320476 0.02123110856741972
0.07449564798930414 -0.016836226866676893 0.018553007698194846
0.04369689344845373 -0.015636964548538686 0.058536699499146805
0.050472895432781884 -0.015357202177893804 0.06239919332358962
0.052939053511800616 -0.015275703384412934 0.06293779847389758
0.055186161569679204 -0.015204016375267379 0.06331877587587353
0.05700172680690685 -0.01515207974515117 0.06337127202918985
0.05868963200932498 -0.015105866785851374 0.06333167112683097
0.06020513304110647 -0.01506750272967499 0.06316261077051977
0.06163240851407564 -0.0150331006670906 0.06292963020244857
0.06297862753417027 -0.015002350120805615 0.0626374340784075
0.06420697984779139 -0.014977003956078976 0.06225509414605929
0.06536285803203445 -0.014954960198958712 0.061818207557784166
0.06644346164370168 -0.014936372437243595 0.06132355796388972
0.06749367945736845 -0.014919140702437278 0.060807257349822674
0.06850009908405819 -0.014903909403186949 0.060257792236507124
0.06946019810447834 -0.01489081141237693 0.0596724988701649
0.07038058928698593 -0.014879545993504436 0.0590563292718978
0.07120939418727851 -0.014872599642938035 0.058365007781288725
0.0720079469312348 -0.014867068911546657 0.05764933312440934
0.07272222098545766 -0.014865551391380868 0.056862849038797514
0.0733829260215767 -0.014866599170555907 0.05603074141647085
0.07398813898995477 -0.014870321786241847 0.05515062796751724
0.07455765080922427 -0.01487578258408539 0.05423889103376084
0.0750758867952897 -0.014883745895549805 0.053281476799065364
0.07554751793788206 -0.014894002156020505 0.052281760985012526
0.07593150405611021 -0.014908559106277976 0.05120298050565436
0.07620246143494092 -0.014928680644053935 0.050021454360639706
0.0763542357046817 -0.014954704264874084 0.04873011567615332
0.07639088842144659 -0.01498647119474702 0.04733089916761285
0.0761451457382098 -0.015032214007035874 0.045671859600330766
0.0754384194142168 -0.015100794982725098 0.04358766527890989
0.07387032265257182 -0.015212070267864225 0.04070819144008564
0.07152035572821286 -0.015362409150043431 0.037093620491783774
0.06940032174270766 -0.015502065017934798 0.033660884032184535
0.06936644213653781 -0.01553900481688748 0.03212499173103178
0.0700973796827038 -0.015538136409491922 0.03129095039876195
0.0710493283602226 -0.015526264752921735 0.03066304098256456
0.07195011670289914 -0.01551689069672453 0.029989526274418143
0.07274204843639842 -0.01551291605126052 0.02921534205435372
0.07341975064284606 -0.015514647330288697 0.028333812182198104
0.07398628581565303 -0.01552197018895492 0.0273461661617716
0.07442329917658719 -0.015535847438522994 0.026233193977080904
0.07471923508425515 -0.015556907729645452 0.024981841777376557
0.07480639070586953 -0.015588625307577245 0.02352454416515337
0.07461036745601057 -0.015634846202884103 0.021785850875148338
0.07369470788385363 -0.01571784962359619 0.019335229320443625
0.049114794269807194 -0.014318496765408795 0.06134148285583885
0.05219713721513586 -0.014216463898459734 0.06235687598923423
0.05446503927472174 -0.01414906979919373 0.06275110291184322
0.05648647284586428 -0.014092024710549171 0.06296348435361987
0.05819146688857468 -0.014048421162218811 0.06293529541384474
0.059721723443314445 -0.014012204045803996 0.062775916728249
0.0611474831967187 -0.013980370103191204 0.06253964948724583
0.06249514804348294 -0.013951798422124111 0.06224653918812989
0.06373008577300227 -0.013928020822530945 0.06186746612004462
0.06490942424070956 -0.013906570999473416 0.06144768375930976
0.06598980701796958 -0.013889363549266304 0.06095087952729916
0.06703973675412916 -0.013873418447698597 0.06043235824304316
0.06804883547511792 -0.013859200577152444 0.059883124835335644
0.06902372149993685 -0.013846429386938123 0.059308184237105877
0.06992589352063056 -0.013836815867462647 0.05867479420422561
0.07076904147481605 -0.01382977443316494 0.05799354951949931
0.07154386717382122 -0.013825734742308452 0.05725578695171335
0.0722456390316179 -0.013824927087645305 0.056456562584694725
0.07289600159575571 -0.013826407861102192 0.05561344372044347
0.07349978344201147 -0.013829976481323517 0.05472989333912315
0.07404593243434598 -0.01383614173816959 0.05379570209403017
0.07454219832885756 -0.013844573109424498 0.05281682289970063
0.07498873318927252 -0.013855278875043878 0.05179269403918796
0.07533530572848751 -0.013870538672329838 0.05067842109228421
0.07555711243227647 -0.013891503663348402 0.04945066359595568
0.07565084597416571 -0.013918361931473654 0.04810471994413995
0.07560228798319202 -0.01395179842991426 0.046626058806820025
0.07525340152592297 -0.013999045945866439 0.044870648034619764
0.07449469768202488 -0.01406518926804041 0.042735306657475325
0.07316985845317453 -0.014157498808123694 0.04007222499506602
0.07121023825274797 -0.014279295907522195 0.0368105837917424
0.06918079479936462 -0.014404850616927528 0.03345947867119703
0.06909928302891688 -0.014441365995590066 0.03187860442649837
0.06982528411504213 -0.01444081524556625 0.03103869907689416
0.07074415394224032 -0.014431348909097072 0.03037864577310445
0.07153210969543272 -0.014427903017956602 0.02959794813247213
0.07226444549158811 -0.014427023479974477 0.028765602387995748
0.07283676148643231 -0.014433585954822806 0.02778197289515294
0.07327415041070506 -0.014446471617965676 0.02666856941353224
0.07359416269377123 -0.01446490388222799 0.025440163199220767
0.07370045028306338 -0.01449343573756186 0.02400235071911805
0.07358009112812902 -0.01453274441813383 0.022339410467114018
0.07266840404332714 -0.014609486779613044 0.01989932249808929
0.046965508929821265 -0.013302149204131595 0.05966758575283737
0.051513418492966534 -0.013150010928865542 0.06182152236419719
0.053766220133543874 -0.013088459006866483 0.06220098716037148
0.05586633948370984 -0.013032726717399901 0.062472691926164
0.05760632079767131 -0.012991133366758952 0.06246971143511576
0.05919285911419131 -0.012955500568301973 0.0623528620636839
0.06062373902668772 -0.012925955547423306 0.06211845034853064
0.061933584725512913 -0.012901146432148571 0.06179251324537527
0.0632117069950941 -0.012877507673811722 0.06144611858600929
0.0644062586766454 -0.01285713905488089 0.06103652160151413
0.06551230152883142 -0.012840261531868754 0.06055860754535208
0.06657829361645762 -0.012824933918563946 0.06005126472857947
0.06759473355581641 -0.012811552243840488 0.059506100890570346
0.06853535783371573 -0.0128011982936098 0.05890056094640139
0.06943697626632106 -0.012792390297092499 0.05826454389729113
0.07028855330059364 -0.012785589580942872 0.05758823510458644
0.07104569715904885 -0.012782628227899271 0.05683333176048022
0.07172129906763841 -0.012783002218272289 0.05600956239303145
0.07237270278019148 -0.012784373702555528 0.05516497291370448
0.0729637560396742 -0.012788240377761804 0.054268087814682564
0.07349928230158315 -0.012794419436303507 0.05332225946496599
0.07398175531081186 -0.012802823790936536 0.05232887524842844
0.07436379781838942 -0.012815435382886074 0.05124572987465764
0.07468774952404089 -0.012830520491627105 0.05010867494072557
0.07485012936686503 -0.012852411403801603 0.048825359453764705
0.07489881494009981 -0.012879152613078128 0.04743607640465952
0.07474205176779092 -0.012914620594122834 0.045857191361384164
0.0743289898283967 -0.01296100925209518 0.04404008548839666
0.07355900358441275 -0.01302262689383007 0.04189019850332398
0.07240335667844255 -0.01310078873198547 0.03937630162139888
0.07076591601477011 -0.01319967088045243 0.03640506165919005
0.06884614175990272 -0.013310963713357736 0.0331524506809559
0.06874849523104304 -0.013345387617425087 0.03155509061949768
0.06952559149986415 -0.013342738529185503 0.03076086339223988
0.07034613574577447 -0.013338223918544338 0.030007728482260687
0.0710772717658939 -0.013337511364873045 0.029171867736320634
0.07169508172629407 -0.013341652028975684 0.028229455212560428
0.0721130476741027 -0.013354395591241647 0.027096928053706115
0.07238608760632814 -0.013373437251666202 0.025823577766863448
0.0725695030571808 -0.01339643435062115 0.02446012354894822
0.07236472637749258 -0.013436327806616183 0.022718144652951633
0.07139054868720257 -0.013509761379255632 0.020223369185577822
-0.013705873847209726 -0.013809463561783072 0.04421914407890065
-0.01153280444161403 -0.013761814557175385 0.04421714599693399
-0.009373559906332818 -0.013714454108222739 0.044215952612576714
-0.0072302360226924045 -0.013667457385180035 0.04421397916675124
-0.00609075227497996 -0.013655496585740974 0.0435055732675545
-0.006094356517111821 -0.0136836844935335 0.04197901438071494
-0.0060979756698645304 -0.01371198901395387 0.04044614016015924
-0.0061027223337650205 -0.01374045015606994 0.0389061037030195
-0.006106373907914797 -0.013768990246536918 0.03736047457076075
-0.00611004068286658 -0.013797649144194348 0.03580841126632972
-0.0061137227537353955 -0.013826427592448542 0.03424987352950115
-0.006118542074103617 -0.0138553662846908 0.03268398843909098
-0.006122257385789309 -0.013884386256782238 0.031112373423287765
-0.006125988293494422 -0.013913528048297538 0.02953416111523216
-0.0061297348956278475 -0.01394279242790652 0.027949309886591056
-0.006134628657454511 -0.013972220791131628 0.026356920019791508
-0.006138409347672846 -0.014001732850705668 0.024758658189382776
-0.0061422060427693825 -0.014031369844633152 0.023153630385582602
-0.006146018844589984 -0.014061132567929775 0.02154179355333835
-0.006150988892777209 -0.014091063136683247 0.0199222203714437
-0.006154836658991636 -0.014121079907078905 0.018296628189735986
0.05007793145040307 -0.012106373231058006 0.0606975320930348
0.05293477344403685 -0.012028051162286637 0.06154646599251129
0.05515729216299159 -0.011972558254205467 0.06191153028424323
0.056915447047830525 -0.011933821325783188 0.06192000298751471
0.058547417784324485 -0.011899545953092157 0.06183655391002951
0.060035277901151485 -0.011870419715088251 0.061645205330397856
0.0613470553589584 -0.011847653423917541 0.061318302163416105
0.06263962159513814 -0.011825498021341774 0.06098111734984424
0.06386151937815981 -0.011805860888922486 0.060591387432171684
0.06499357309169579 -0.011789469241032422 0.06013247080607653
0.06606114827906318 -0.011775401860983484 0.059624168260939636
0.06706973494168372 -0.011763469516678043 0.05907021405529539
0.06800926685397135 -0.011754061774301843 0.05846144773793388
0.06891275511160166 -0.011745960750968613 0.05782467009915959
0.06976756450328697 -0.011739648553492897 0.05714875650576712
0.07049556106271071 -0.0117380715642815 0.05636680859993032
0.07116852981301386 -0.011738558952522023 0.055538326210903655
0.07182635209513227 -0.011739619878209396 0.05469674649085904
0.07240613614251606 -0.01174363592686622 0.0537876796342
0.07291278910696852 -0.011750440789839466 0.05281430956548788
0.07335866817152398 -0.011759583764662011 0.05178638672352254
0.0737249581640077 -0.01177179655343089 0.050686596220030244
0.07398441075623896 -0.01178813906185984 0.04948984903272646
0.0740996588820465 -0.01181006750483673 0.04816159206567888
0.07407538530286234 -0.011837439980474155 0.0467039511568772
0.07386629645413023 -0.011872032476037424 0.04507445315670727
0.07342357347312539 -0.01191577263687895 0.04322658981818989
0.0726539595428276 -0.011972319663501237 0.04107277312748636
0.071535520934917 -0.01204260835139733 0.03858837496769424
0.07014441681171923 -0.012123780936589579 0.035837834406852176
0.06839642617817893 -0.012219182427788964 0.03273985836905341
0.06833597819009102 -0.012249329428040573 0.03117464706022932
0.06909577719376986 -0.01224761254531376 0.030362395942726716
0.06986334262625382 -0.012245584122417988 0.029557808560205068
0.07050247239891755 -0.012248580184576847 0.028633410571507534
0.07092232679317667 -0.012260203784960405 0.027501782677093245
0.0711422950338143 -0.012279751055687462 0.026178043990391364
0.07128797480813892 -0.012302320211736406 0.024778723577501216
0.07100530378355974 -0.01234193726603208 0.022964039137760517
0.0694946497350859 -0.012430423716404465 0.019958764649966432
-0.022551927595381605 -0.012730405752296574 0.044226469124504064
-0.02031748947532863 -0.012685865123507459 0.04422441744519806
-0.018098632364623668 -0.01264163508195272 0.04422238007243329
-0.01589404363846114 -0.012597676066658264 0.04422115604525945
-0.013705873847154104 -0.012554057783437397 0.04421914407893951
-0.011532804441560351 -0.012510740506521375 0.044217145996971685
-0.009373559906280915 -0.012467685552928114 0.04421595261261335
-0.0072302360226423334 -0.012424961259252984 0.044213979166786765
-0.005948182310035854 -0.012409539316234841 0.043607390786353395
-0.005951491041574053 -0.01243514589289247 0.04208160247708703
-0.0059559228356396154 -0.012460893903216612 0.04054870336405042
-0.005959261326549448 -0.012486713075055922 0.03901025012919779
-0.005962613680963569 -0.012512639464526324 0.03746540825750311
-0.00596597998541637 -0.012538673740871111 0.03591413787164055
-0.005970479003796658 -0.0125648527132877 0.03435557328869221
-0.005973875817900431 -0.012591104944646533 0.03279131867613372
-0.005977286855875397 -0.012617467105282535 0.031220513863035704
-0.005980712207250494 -0.012643939887125462 0.029643117620356374
-0.005985280093255663 -0.01267056073285006 0.028058237692194954
-0.005988736729995725 -0.012697257011236715 0.026467527097462362
-0.00599220796339478 -0.012724066022763486 0.024870099244278687
-0.005995693886106268 -0.012750988483016115 0.02326591149412255
-0.006000332337993741 -0.012778062484734705 0.021654044219365842
-0.006003850348305528 -0.012805214172523161 0.020036200704960982
-0.006007383341021855 -0.01283248149348524 0.01841146714442743
0.048001047623330406 -0.011074447240099393 0.05907132638950191
0.05200692803184964 -0.010965328096785493 0.060816059015801005
0.05418574046352881 -0.010916396504469189 0.06114261468305443
0.05618422186143501 -0.010873254896299835 0.06133818805801
0.05782356023676499 -0.010841901966277686 0.06125751823847375
0.05933092991900746 -0.010814823563731797 0.06107876320004002
0.06075201202241415 -0.010790517755151363 0.0608372075063951
0.062030671512989466 -0.010770886094607163 0.060486151841226465
0.06327006616705683 -0.010752489946154053 0.06010808095040848
0.06442382925271456 -0.010736899917363459 0.059664424783563375
0.06548620176124981 -0.010724328786207568 0.05914933534824801
0.06649409512284676 -0.010713546913402795 0.05859228171007275
0.06745512826035638 -0.01070430756237091 0.05799892398225914
0.06836366885536921 -0.010696812315634656 0.057363932002544415
0.06918033340208574 -0.010692414405275559 0.056653399402364524
0.06990134543325816 -0.01069126316937487 0.05586290537426386
0.070583214787038 -0.010691446304322793 0.05503934473558575
0.07122695786713495 -0.0106929377773725 0.05418306137445994
0.07180993933607643 -0.010696524248088516 0.053274036156894355
0.07227915882236113 -0.010704045315791619 0.05226553518527688
0.07270719532509728 -0.01071302152574209 0.05121918428715355
0.07302488099882692 -0.010725855782624727 0.05007386546481829
0.07321159353567058 -0.010743289003938157 0.048809893170588814
0.07330890363265902 -0.010763907245998992 0.047462194078524145
0.07320546027384156 -0.010791610507218928 0.04593048606815309
0.0729456077144034 -0.010824898408219515 0.044251554066106646
0.07247267458226059 -0.010865791499104568 0.0423722291408955
0.07171793994166908 -0.010916751099667882 0.0402273709822733
0.07071069280280501 -0.010976816015769083 0.03783949584527396
0.06937932370746724 -0.011048570656748876 0.03513955248279321
0.06762340120822075 -0.011135640497480519 0.032030645318683104
0.06770429721813503 -0.011158107223742053 0.030592079715281773
0.06850827485844191 -0.011155030475472259 0.029817740835109574
0.06919726282627597 -0.011156027384394711 0.028937081877135562
0.06958622593198927 -0.011167718740050634 0.02777509460389005
0.06981492028401226 -0.011185187251909421 0.02645898208432884
0.06983232833358227 -0.011210298914916306 0.024938070515831745
0.06943370282840661 -0.011250452217346923 0.023014384022006507
-0.03165127017348923 -0.011620635134188345 0.044233183815379606
-0.029352815330544735 -0.011579399999198154 0.04423107917653091
-0.02706941131915147 -0.011538422612538096 0.04422980271788296
-0.02480330389984725 -0.011497767845594042 0.04422772482916909
-0.022551927595324373 -0.0114573651770653 0.0442264691245432
-0.02031748947527312 -0.01141727861115514 0.04422441744523625
-0.01809863236456999 -0.011377471573755925 0.04422238007247037
-0.01589404363840924 -0.011337908459990963 0.04422115604529553
-0.013705873847103756 -0.011298652005092223 0.044219144078974704
-0.011532804441511724 -0.01125966645586785 0.044217145997005824
-0.009373559906234064 -0.011220916997633962 0.044215952612646436
-0.007230236022597092 -0.011182465133326389 0.044213979166818906
-0.00580571678134606 -0.011164494743224734 0.04370913372113816
-0.005808730434627152 -0.011187523766161443 0.04218411526996774
-0.005812865109712462 -0.011210679950977416 0.04065199210723203
-0.005815906061601539 -0.011233900098764536 0.03911431979110752
