# .PCD v0.7 - Point Cloud Data file format
VERSION 0.7
FIELDS x y z
SIZE 4 4 4
TYPE F F F
COUNT 1 1 1
WIDTH 768
HEIGHT 1
VIEWPOINT 0 0 0 1 0 0 0
POINTS 768
DATA ascii
-0.016329681382527602 0.08867669378867132 0.02182695214447483
-0.016364952884510658 0.08874219706650516 0.02034414707685228
-0.01639931007936415 0.08882712552249711 0.01887460572949423
-0.016433564589515955 0.08891683627992691 0.017403454648796557
-0.016466472940805416 0.08903351689304273 0.01595377507334239
-0.016499513355067823 0.0891506657518294 0.014498277856096475
-0.016531185339013238 0.0892949607605043 0.013064929040196127
-0.016562853573224536 0.08944203668496215 0.0116284154062683
-0.016593634966085836 0.08960750822452179 0.010205298607890045
-0.016623898443668017 0.08978475367885441 0.008788777012572524
-0.016657447265461332 0.08990678166005278 0.0073072169925825214
-0.01669793606726426 0.08990986161618042 0.005691017984170099
-0.01673857942713942 0.08991370520555209 0.004067753404026708
-0.020432408995119233 -0.018896384199743266 0.03748928590399131
-0.020386527330690615 -0.017174846495341622 0.037150743392805496
-0.020363189174482866 -0.015898630027614546 0.03650119730389623
-0.020346830955526397 -0.014760747595334356 0.03575589834739723
-0.02033795167086426 -0.013770093376416881 0.034906814925449836
-0.020337123399038582 -0.012936904243700198 0.033944786926329296
-0.020351096020228956 -0.012391357535810277 0.03277293046203872
-0.020374822278268447 -0.012033805856215662 0.031460941986083735
-0.020245653535496087 -0.008715939497432823 0.032329694742091464
-0.020187538662514427 -0.006780438425261159 0.032192917153571476
-0.02013004629892829 -0.004861601905563451 0.03205275668766383
-0.020072938110633803 -0.0029547720427923196 0.03191256106444745
-0.020016153034215986 -0.0010587308144807128 0.03177315865256508
-0.019959346404923507 0.0008331605035010736 0.03163950662571907
-0.018382288519307774 0.03176980528091189 0.05365394387369826
-0.018328693865153536 0.03353024665595922 0.05355702066099072
-0.01827541082022994 0.03528045249940154 0.05346066097763219
-0.01822243667478382 0.03702051181939692 0.05336485992317491
-0.01816972152410644 0.038751407416832195 0.05327030955491496
-0.018117357445031828 0.04047142957647892 0.05317560951970646
-0.01806529432000494 0.042181566187969366 0.05308145375745282
-0.018013529561933167 0.043881902230481384 0.05298783758942188
-0.017962060613292103 0.04557252171196052 0.05289475639034924
-0.017910884945703635 0.04725350768296832 0.05280220558768728
-0.017860000059522627 0.048924942250268943 0.05271018066084571
-0.01780854146334741 0.050602997330133626 0.052631686558707536
-0.017757378543297474 0.05227141046763045 0.05255364347597735
-0.017718042436875314 0.05371589994506215 0.05230087937139227
-0.017679461457276592 0.05514322438590469 0.052040377255375525
-0.01764015781977176 0.056580822122105634 0.05179461408220731
-0.017593719419021436 0.058147008435361025 0.05166199872637062
-0.01754752487888056 0.05970497028054561 0.05153007976953672
-0.017498418046177078 0.06131276322857798 0.051447511925150846
-0.01744288012495224 0.06303458831836567 0.051469166171157155
-0.017387693631068384 0.06474551821448493 0.05149068339546403
-0.01732310517008568 0.06662373685936052 0.05166387892443719
-0.017261423918559313 0.06844378375547472 0.05179785309899371
-0.01721330976414621 0.07001216749771905 0.05172518719357183
-0.017165505239975457 0.07157106737862423 0.051652262904371804
-0.017117965505186596 0.07312133250918335 0.05157974254289005
-0.017070688365852137 0.0746630344331119 0.051507622762360095
-0.01702363019583583 0.07619699109610656 0.051436557660924476
-0.016976871989399164 0.07772177234067729 0.051365227516517675
-0.016930369938468318 0.07923820037547491 0.05129428813997511
-0.016884121943848078 0.08074634365508165 0.051223736328952274
-0.016838085371604368 0.08224699436188354 0.051154219838806025
-0.016792339503283817 0.08373876496950194 0.05108443209009739
-0.016746841527911976 0.08522245179984023 0.051015022515134345
-0.016701589435967543 0.08669812038329294 0.05094598804828582
-0.0166565812395906 0.08816583554387641 0.05087732565696801
-0.016611814972291705 0.08962566140871886 0.05080903234119705
-0.016633871223126227 0.08990435839844696 0.04965337265405817
-0.0166716764716285 0.08990793485007037 0.04823756180233707
-0.016709653958229938 0.08991152759586818 0.046815300614104494
-0.016754949940082423 0.0897900888854623 0.04526879233812414
-0.01680481357254496 0.08959253350174945 0.04364245207047007
-0.01685351201078896 0.0894192833367784 0.04203065133796252
-0.016901594457960734 0.08926065240198655 0.04042442761947013
-0.01694851373001744 0.08912605493572762 0.03883299190653078
-0.01699482654313427 0.08900571934222257 0.037247203183697064
-0.017040146961037485 0.08890623387205565 0.035673619746711516
-0.017084707577411172 0.08882347364611126 0.03410847298512981
-0.01712862046171158 0.08875542175254025 0.032549982175540004
-0.01717162072611687 0.08870654022023089 0.03100271990822856
-0.017214032007675687 0.08867118502015336 0.029461328700348177
-0.017255418025152423 0.08865672783745288 0.02793331293773299
-0.017296489957296296 0.08865094143318913 0.02640669089215031
-0.017336124018982074 0.0886728686938979 0.02490072737861382
-0.017375940136938498 0.08869489667605862 0.023387846327605433
-0.017414160800609948 0.08874708484233168 0.0218985919343625
-0.01745246283493124 0.0888009721989349 0.020404274364148323
-0.017489402141526795 0.08888085582796201 0.018929856397132128
-0.017526190562775466 0.08896623904948198 0.017454517950771853
-0.017561942768262197 0.08907192229286087 0.01599367651802286
-0.017597176659466304 0.08918913286847246 0.014538449875344472
-0.01763188511154198 0.0893179269903111 0.01308903705270148
-0.017665614631185822 0.08946577722183885 0.011653464867524332
-0.017699339007458695 0.08961642283368648 0.010214753326653225
-0.017731618085858217 0.08979367915099323 0.008798292090446858
-0.017764060257777933 0.08997083850674326 0.007375856924836555
-0.01780518842315617 0.09000766151357126 0.005796355494863126
-0.017848557950963562 0.09001099366303311 0.004173080225908787
-0.021720608268250778 -0.0182819677061013 0.03636440217360448
-0.021679019878439825 -0.016693882903509927 0.03593326107328915
-0.021669216659186398 -0.01569379476245819 0.035085900900910294
-0.02166321264385504 -0.01476421020758506 0.0341890553833496
-0.021670544474120274 -0.014079452658442626 0.033115346904992515
-0.021684273323489593 -0.013511121087482869 0.031955591151884566
-0.021580945738356686 -0.010805600474705357 0.03236232575076581
-0.02152010638433669 -0.008881650570574051 0.03220741641813685
-0.021458121165560545 -0.006941477368950011 0.032073439858128105
-0.021396491999188288 -0.005012448813388637 0.03194023287944259
-0.021335767401954798 -0.003104451380893547 0.03180030223989505
-0.021275386510702026 -0.0012072533633119553 0.031661163618584565
-0.021215225220442366 0.0006814208510042552 0.031524466234235604
-0.021154499412160417 0.0025756979403968594 0.03140092937938771
-0.01954886484272234 0.03219094571458142 0.052530633775521085
-0.019490845664587083 0.033969151614538895 0.05245031099007291
-0.019433119014746474 0.03573774225527454 0.05237116744251746
-0.0193757838423787 0.03749498626115283 0.05229178932223294
-0.01931873574968655 0.03924278581471563 0.05221357835083146
-0.01926207255806676 0.040979436431448246 0.052135128301612876
-0.01920569112814246 0.04270680935447507 0.05205783354603993
-0.019149688172479504 0.044423226499570645 0.05198029536033899
-0.019093961787321662 0.046130528780015945 0.051903900840568395
-0.01903860759493706 0.04782706403225595 0.051827258686193645
-0.018983621943225365 0.04951293863662343 0.051750370457049555
-0.018928904747130233 0.051189948937610585 0.05167461245304161
-0.018874502072200133 0.05285731957747458 0.051599289915223945
-0.01882422708292683 0.054448527969587546 0.05146968255063872
-0.018783239972893814 0.0558741669722711 0.05121100672430745
-0.018737608183630683 0.057377427429291195 0.05102304441436334
-0.018688293972905775 0.058941095553390443 0.05089249540834451
-0.018639238654911235 0.060496554637961386 0.050762631766286426
-0.018582347436816783 0.06218359718313604 0.05075131525735027
-0.01852344617716929 0.06390096646730076 0.05077449182105459
-0.01846170441175215 0.06566271031807747 0.050844603339628314
-0.01839850412626521 0.06744480219180082 0.05094171902455913
-0.018347103404836806 0.06902017033153962 0.050870548706657026
-0.018295989085116385 0.07058676061547015 0.05079977494534682
-0.018245113962153156 0.07214540985350454 0.05073005930371455
-0.018194565559088917 0.07369465718634483 0.050660067106111095
-0.01814429647346823 0.07523534377792118 0.05059046166724113
-0.01809430439651568 0.07676754038940309 0.05052123979024331
-0.018044543206913632 0.07829205732565614 0.050453056545596175
-0.017995098562039884 0.07980747746012551 0.05038459070404411
-0.01794592414840976 0.08131461532531387 0.05031649905072927
-0.017897017756706685 0.08281353863417168 0.050248778526418514
-0.017848334311885723 0.08430503218567498 0.05018207783112272
-0.01779995766401816 0.08578772108732757 0.05011508891377997
-0.01775184255105871 0.08726239424339155 0.05004846215331349
-0.017703944659240415 0.08872981794924245 0.049982841549298884
-0.017668022426428474 0.08999500072295602 0.04973740439827573
-0.0177080811989436 0.09000017922326708 0.0483235253617329
-0.017748406856192025 0.09000398089905509 0.04690190854537246
-0.01778998177324382 0.08999025456454768 0.045457280437550485
-0.0178429323342071 0.08979272531489946 0.04383194742869034
-0.01789594032703472 0.08959825864162801 0.04220094637624061
-0.017946965574029534 0.08944023497944126 0.040596190125044285
-0.017998064557554344 0.08928486653928003 0.03898567833188876
-0.01804721868393361 0.08916502987592667 0.03740116585551745
-0.0180965979420926 0.0890452531105766 0.03580867062725657
-0.018143898791996533 0.08896289547342151 0.03424461859060057
-0.018191492114378788 0.08887938575929305 0.032671661750726055
-0.018237230919829473 0.08882939124594508 0.031123932832844203
-0.018283110297274707 0.0887805932826437 0.02956983807743324
-0.0183273667730254 0.08876132188516811 0.028037585498188744
-0.01837147449218252 0.0887477800476637 0.026503732176126893
-0.018414242711396942 0.08875897924682968 0.0249874651507494
-0.018456568422282445 0.0887804673239792 0.023474486558649588
-0.018498075578658787 0.08881817495023475 0.02197094317869608
-0.01853884435260592 0.08887073720017397 0.020475644330058884
-0.018579049624440163 0.08893530213882145 0.018985843329033303
-0.018618122837200237 0.08902078402735625 0.01751089629131275
-0.01865712641763138 0.08911031765974936 0.016033567538950744
-0.01869455263753507 0.08922758991590324 0.014578611379102324
-0.018732129313359908 0.08934533361454639 0.013117806197479265
-0.018768244776556392 0.08948877220273227 0.011677727670068139
-0.018804214125543735 0.08963722161065069 0.010236812102774717
-0.018839270296512636 0.08980260407981472 0.00880780658911312
-0.01887369004381309 0.08998051900033621 0.007386230118550385
-0.0189116058285924 0.0901068877971663 0.005903229324301318
-0.0189576547100707 0.09011046042696857 0.0042807653322669
-0.02301801398145545 -0.016982148613093107 0.03416076672928392
-0.023011750306440305 -0.016051538456404835 0.03325959505383652
-0.023015723760336924 -0.015298544423193616 0.03223033976486234
-0.022925015993570066 -0.012910048208680469 0.03239432719680202
-0.022860110674575364 -0.01097273738716903 0.032239663541409
-0.022795637913731136 -0.009047501899453969 0.032085034599368456
-0.022729688238267324 -0.007101521888269957 0.03195470034215375
-0.022664119058762536 -0.005166769188169051 0.03182511804691457
-0.022599576506231615 -0.003254246853269527 0.03168795631516341
-0.022535594244114467 -0.0013558908226291577 0.03154908193510958
-0.02247197324392933 0.0005317465535484844 0.03141099167890127
-0.02240775273091067 0.002425022827924783 0.031286078357830704
-0.022343771268631917 0.004309660637905888 0.031163526132217068
-0.020706918427996927 0.0327927614771682 0.051543908986325104
-0.02064543820820512 0.034569876088872464 0.05146648444187368
-0.020584268109109682 0.03633737658303171 0.05139022500349433
-0.02052351297977606 0.03809353403321175 0.05131371130858131
-0.020463062192757855 0.039840248210048834 0.051238350893414775
-0.020403019401661913 0.04157581706263486 0.05116273204226579
-0.020343327936210995 0.04330123066045927 0.05108755565612372
-0.020284037038675193 0.0450157060832333 0.05101212049023551
-0.020225038732743224 0.04672108167339589 0.050937819300056586
-0.02016638263824362 0.04841656547076684 0.05086394908342945
-0.020108065786362116 0.05010224329040963 0.05079050610149394
-0.020050085242526203 0.05177819995761235 0.05071748665851333
-0.01999248892960977 0.05344368148600137 0.05064419881686211
-0.01993517204166361 0.05510045303768285 0.05057201732428129
-0.01988682864308199 0.05660584255738055 0.050382426367702904
-0.01983446623155721 0.058173602792640056 0.050251891178112795
-0.019782229556816307 0.05973556841645322 0.05012408867139556
-0.01972794110903845 0.06132726066869365 0.05002895526553025
-0.01966519305608712 0.0630527208323689 0.050055167778769505
-0.019602891762392733 0.06476644624622918 0.05008053779681271
-0.01954287777226864 0.06643866894312717 0.050079455906802794
-0.01948810637106751 0.06802186546504518 0.050010475926543674
-0.01943349705486038 0.06959853603848493 0.049943893848071075
-0.01937857216009172 0.07117638474807536 0.04988638139074486
-0.01932400434142322 0.07274457722462707 0.0498285258383403
-0.019269695758563066 0.0743047192128295 0.049771660742793156
-0.019215691581004463 0.075856116441686 0.0497151143819628
-0.0191620359456952 0.0773980975608759 0.04965822198689246
-0.019108632690765574 0.07893223020902151 0.04960230681767969
-0.019055526271710147 0.08045783555668973 0.04954670244642867
-0.019002760136686725 0.08197425708315115 0.049490749291101144
-0.01895023975910668 0.08348302539202945 0.04943576047530779
-0.018898054308457722 0.08498276052540027 0.049380421138925434
-0.01884611032494915 0.08647496897547785 0.049326037734638895
-0.018794451110362907 0.08795899679404828 0.04927195247264882
-0.018743118999371502 0.08943421136682683 0.04921751423560561
-0.018743878482164873 0.0900916673913098 0.04840878420576089
-0.01878654954826937 0.09009567615338349 0.04698780635616556
-0.018829415341968588 0.09009970320938132 0.0455603439344795
-0.018879680875563153 0.0899919406916217 0.04402051852279332
-0.01893595860453272 0.08979466782287965 0.042387829742747074
-0.018991059356064474 0.08961959812579767 0.04076774275482875
-0.019045374709572526 0.08946056976984412 0.03915460488434824
-0.019098470980948756 0.08932416786072367 0.037554961770688844
-0.019150791479810265 0.08920346035816884 0.03596236177515122
-0.0192020396881046 0.0891029028652689 0.03438133600017512
-0.01925238458054625 0.08901980009477495 0.03280948849267806
-0.01930199925989662 0.08895141800419021 0.031244332481354387
-0.019350537083226118 0.0889029471875159 0.029691186725915253
-0.019398554020468493 0.0888658416304478 0.02814178398458994
-0.019445271180202145 0.0888518287137744 0.02660799859424051
-0.01949173079030336 0.0888450394319591 0.025074152188209464
-0.019536520009048656 0.08886671896436787 0.02356181629334886
-0.019581515540416147 0.08888849835935136 0.02204251412402708
-0.01962466182065973 0.08894120296963837 0.020547731184550555
-0.019667900285172138 0.08899561100977282 0.019047858698293896
-0.01970965009707915 0.08907530877366515 0.017567253720266074
-0.019751180691255997 0.08916124990707014 0.016086483769668314
-0.019791641402075733 0.08926603689807638 0.014618762371499894
-0.01983141804684529 0.08938384242696601 0.01315822943482664
-0.01987065198503849 0.08951250518191667 0.011702769156941462
-0.019908731013066106 0.08966098804483352 0.010262018303458686
-0.019946855081788395 0.08981152846536561 0.00881732050862094
-0.019983297298742403 0.08998945426549476 0.007395804766054503
-0.020019923880024805 0.09016728588332451 0.005968282439136552
-0.02006615232311771 0.09020761833602192 0.004385950819284945
-0.02011506400040797 0.0902121932194917 0.0027571800546911662
-0.02427782034709698 -0.015027118201639766 0.03242738339345508
-0.02420886065317433 -0.013077471916715044 0.0322721211289842
-0.024140361802681313 -0.011140016222513316 0.032116897174485626
-0.024072040080748303 -0.009210081460492625 0.031965067022199645
-0.024002368863290324 -0.007262826293974345 0.031835026096315056
-0.02393309977891051 -0.005326810427323858 0.03170573574935087
-0.02386436656424337 -0.0034041585951355424 0.03157552318884177
-0.023796777365550862 -0.0015046433258416592 0.031436913501541375
-0.023729569941844657 0.00038414260472063866 0.03129908674557158
-0.023661931693590443 0.002275313597606188 0.031171963573600303
-0.023594342630915345 0.004161118255855689 0.03104968924306678
-0.023527205278052944 0.00603511173300586 0.030927288239892936
-0.021865938611591574 0.03339412869916597 0.05055569628213463
-0.02180093434615534 0.03517107069550185 0.05048188794232794
-0.021736372347473453 0.03693657260147676 0.05040780759076374
-0.021672191612700155 0.038691648526782474 0.050334164712582286
-0.02160844502139967 0.040435498797371294 0.050260249680961044
-0.021545016422275506 0.0421700050465586 0.050187472086390905
-0.02148195910600427 0.043894358266501454 0.050115120499414245
-0.021419269822112 0.04560864734403397 0.05004319119045725
-0.021356945357956635 0.047312960131442816 0.04997168047335837
-0.021294327034631237 0.04901766514511369 0.04990894183945055
-0.021231857614636952 0.05071580273506526 0.049849348120729664
-0.021169807632837108 0.05240316293399622 0.049789410393214606
-0.021108119276562667 0.05408068924588033 0.04972982198094811
-0.02104678939368413 0.05574846738835576 0.049670579839102114
-0.02098608013346766 0.05740246623247225 0.0496082455728476
-0.020930679668911864 0.05897016561740659 0.049481839628780444
-0.020875623431266633 0.06052879875184408 0.049355415215590503
-0.020813077971913996 0.06219914942616356 0.049331327408633385
-0.020746912861614075 0.06392094087046574 0.049359744071311995
-0.020685959864999427 0.06555826587421637 0.049324944428925155
-0.020627055211899465 0.06716010032998448 0.04926803666894536
-0.02056843411387797 0.06875361667948232 0.049212126481842644
-0.020510195943864287 0.07033732872499959 0.0491558605617492
-0.020452236249746035 0.0719128642079942 0.04910058322929867
-0.020394603209630414 0.0734795201588499 0.04904561743327157
-0.020337343893953263 0.07503661690204033 0.048990293189094314
-0.020280355652723882 0.07658574341362812 0.04893594435379145
-0.02022368589884968 0.07812621239885592 0.048881899255025174
-0.020167380964749772 0.07965735923218775 0.04882749317710228
-0.020111339955968116 0.08118073521963698 0.0487740496728471
-0.020055609537873116 0.08269566834712389 0.04872090236327986
-0.020000235321649632 0.08420150866595133 0.048667391718616226
-0.019945118123392367 0.08569977086811498 0.04861483114333842
-0.01989030387806719 0.08718979783813663 0.04856255946835886
-0.0198358374919183 0.08867095394224833 0.048509922268805294
-0.019781621448141152 0.0901447182768797 0.04845822295323188
-0.019824042703552237 0.09018731403656643 0.04707365042311079
-0.01986926159246248 0.09019154885711661 0.04564683139311981
-0.019914926119946524 0.09019229057481237 0.04421016350490348
-0.019974297126970395 0.08999504472411524 0.042578488393548
-0.020033926492351542 0.08979803459374347 0.04093840905952906
-0.02009114092712789 0.08964032331075061 0.03932742552902785
-0.02014858528502112 0.08948313357679155 0.03770859119998399
-0.020203752629176057 0.08936292683922592 0.0361172762102866
-0.02025917346002676 0.08924277699998467 0.03451792328397846
-0.020312264657486357 0.0891600804355705 0.03294718370923422
-0.020365634847834657 0.08907694930293508 0.03136818993794399
-0.02041707650569806 0.08902519937826697 0.029812434495956552
-0.020468576815806282 0.08897608751195135 0.028251691001763612
-0.020518258081649286 0.08895653066798181 0.026712919666984136
-0.020567722461356283 0.08894343641365493 0.025173265868286943
-0.020615838644223606 0.0889529200533214 0.02364909484475003
-0.02066325462856899 0.08897562345643611 0.022131184795834036
-0.020709907517749322 0.08901236847643773 0.02062053387301782
-0.020755629797050527 0.08906545013732725 0.019119673976492002
-0.02080082468868293 0.08912907688545424 0.017622829084080416
-0.02084464648479264 0.08921511554066419 0.01614244764620487
-0.020888443065830972 0.0893044738189428 0.014658902856663103
-0.020930418525740128 0.08942234114164921 0.013198642072439315
-0.020972563025259437 0.08954068312864527 0.011732500663658385
-0.02101312215601748 0.08968400810330407 0.010286432916322363
-0.021053464695645483 0.08983309362477115 0.008840310089691161
-0.021092836887946748 0.08999838898577672 0.007405378829692277
-0.02113144212739536 0.09017697700241434 0.005978720564466411
-0.02117369878082205 0.09030769828594493 0.0044942997747189906
-0.02122534671453958 0.09031176704590138 0.002865536638740951
-0.025493865921389178 -0.01324619339260813 0.03214896779268983
-0.02542170050675773 -0.011307437161579448 0.031994026517275787
-0.025349427719173222 -0.009371657579868076 0.03184583988594086
-0.02527602923985469 -0.007423134744832749 0.03171609076543058
-0.02520305458038718 -0.005485863132655255 0.03158709084629657
-0.025130500080486895 -0.0035597455731170013 0.03145883365812796
-0.02505893700786036 -0.0016535110065651892 0.031324658217125434
-0.024988137632563533 0.00023642469059853566 0.031187095410226462
-0.02491709771504916 0.0021254865437396187 0.031057758979217698
-0.02484596604615025 0.004011381638891198 0.030934937139852514
-0.024775169101752623 0.005887609184099196 0.030813638426932688
-0.02309049245882544 0.03227438371596869 0.049688290173815486
-0.023020779469205045 0.034073209907716284 0.04962685698836716
-0.022951486157430194 0.03586120702016116 0.049565793635542144
-0.022882608745132146 0.03763847254774061 0.04950509678572701
-0.02281414349916167 0.039405102818074356 0.04944476314916313
-0.02274608673091533 0.04116119300935622 0.04938478947534242
-0.022678434795672706 0.042906837167452805 0.04932517255242802
-0.022611184091945433 0.04464212822269703 0.049265909206684666
-0.02254427289743266 0.046368026563337716 0.04920769853318485
-0.02247781436443394 0.048082878852210575 0.049149131050681805
-0.022411746508530794 0.04978765036628452 0.049090907857537336
-0.02234606589492038 0.051482429734949986 0.0490330259267896
-0.022280712317549477 0.05316814561547556 0.04897617687877909
-0.02221579637468449 0.05484319574376212 0.048918966654587615
-0.022151201452519507 0.05650934122805518 0.04886277969400077
-0.02208703690396877 0.058165004650113095 0.04880622952656377
-0.022026351775026758 0.05976547991153397 0.04871152000178086
-0.02196710361252484 0.06134101175463308 0.0486036147822817
-0.021897083630804545 0.06307012928072797 0.04863442679585711
-0.021833944290015388 0.064694429589787 0.048584630801130346
-0.021771547726699453 0.06630386590376336 0.04853036230149166
-0.021709506779053683 0.0679041295848703 0.04847640309327794
-0.021647872045304516 0.06949452210205126 0.04842207428778994
-0.021586532965390787 0.07107668032047748 0.04836872756689514
-0.021525540511828676 0.07264989778325254 0.048315682307525754
-0.021464944481915306 0.07421349149389417 0.048262265031313534
-0.021404636228433548 0.07576905925559785 0.048209816835822095
-0.021344665912428284 0.07731591038884256 0.04815766253384424
-0.02128508254863929 0.07885337704369966 0.048105133970997915
-0.02122577935310525 0.08038301906803019 0.048053561822897106
-0.021166805694168147 0.08190416116216653 0.04800227625133202
-0.021108209821843266 0.08341615024647914 0.04795061434164305
-0.021049886767547547 0.08492050928031436 0.04789989650620874
-0.0209918851251312 0.08641657795855151 0.04784945817104175
-0.020934252397196994 0.08790371760696603 0.0477986415789608
-0.020876885384299687 0.08938341532514249 0.04774875703428877
-0.02086083713015362 0.09027959347111403 0.04716009547860606
-0.020908405931982815 0.09028403737826557 0.04573392421988376
-0.020956242428847693 0.09028779955680433 0.04430056938872512
-0.02101126804364291 0.09019444384764552 0.04276821668902708
-0.02107400109894899 0.08999745635296186 0.04112914682318719
-0.021135627241636347 0.08981985685306204 0.03950003466021601
-0.02119617514297153 0.08966114180207324 0.03788062389365471
-0.02125557143481862 0.08952222031720097 0.03627202258079454
-0.021313845792720915 0.08940257255098877 0.03467396384496296
-0.021371186061234004 0.08929950861372071 0.03308404246750002
-0.021427259299147218 0.0892175036483508 0.03150687011181125
-0.021482729670742943 0.08914734998167961 0.02993358151329828
-0.021536842347719787 0.08909929098306246 0.028374515769503894
-0.021590481453199584 0.08906115811702636 0.02681776607864156
-0.021642565735727877 0.08904759256792205 0.025278180663624972
-0.0216945248840965 0.0890390706352685 0.023736322257837172
-0.02174440717292624 0.08906196545825545 0.022219058481298737
-0.02179462809783766 0.08908349954844985 0.02069330133451619
-0.0218427881015999 0.08913599071966744 0.01919221055663317
-0.02189105173334913 0.0891901866133451 0.017685992816609486
-0.021937656404326385 0.0892696989095828 0.016199157214844162
-0.021983962152094676 0.08935619997971134 0.014712921539920154
-0.022029130863408443 0.08946082976256448 0.0132390441144829
-0.02207348185179268 0.08957923369328774 0.01177317663362032
-0.022117339988691045 0.0897070245492882 0.010310843697855232
-0.022159799148969844 0.0898561425356259 0.00886488141982289
-0.022202308817615167 0.09000732316123466 0.007414952309519829
-0.022242943430678765 0.09018592207408194 0.005988355143956292
-0.022283783881959757 0.09036442960882984 0.004555718511916107
-0.022335045817463452 0.0904090294170723 0.0029713778915608224
-0.02670412817324089 -0.01147500038552468 0.03187105143682767
-0.026627868204279075 -0.009533366873298477 0.03172651448044983
-0.026550736350175554 -0.007583574942175708 0.03159705768978177
-0.026474050055779182 -0.005645046174917678 0.03146834871878751
-0.02639788142082299 -0.0037187959524891956 0.03133954659024879
-0.02632207430564725 -0.0018024939986248656 0.03121231598094959
-0.02624767744107851 8.859267913996494e-05 0.031075017572759045
-0.026173326623697653 0.0019744545390338875 0.03094263591912111
-0.026098504968814603 0.0038626051310408083 0.030820920826133635
-0.02602410988059701 0.0057399911643926105 0.03069989964442643
-0.02595021111675703 0.0076056426370554875 0.030578743941074682
-0.024241365758232387 0.03306920778192746 0.048844924618533125
-0.0241681891233036 0.03486536457622347 0.048786046503185354
-0.024095452951702102 0.03665070997982384 0.048727522785674215
-0.024023153278518845 0.03842534131338843 0.048669350275822365
-0.023951286186289732 0.040189354733012383 0.04861152582163242
-0.023879785653167035 0.04194373296250653 0.048554756418753175
-0.023808772525809818 0.04368678728778164 0.04849761680630177
-0.023738180501396724 0.04541950542131329 0.04844081602768324
-0.023667944792026354 0.0471428454589764 0.048385055326203685
-0.023598184173126178 0.048855158173143565 0.048328921304347516
-0.023528773244260507 0.05055825911358797 0.04827381761007776
-0.02345982942893444 0.05225052477697106 0.0482183386477672
-0.023391288471294534 0.053932902066476496 0.04816318386417978
-0.02332308756352282 0.055606309690105216 0.04810904511470182
-0.02325534214389964 0.05726916185034764 0.0480545283424631
-0.02318793053698169 0.05892320104052856 0.048001018293735875
-0.02312143300482216 0.06056036530692521 0.04794161579434386
-0.023054330955621965 0.06220187109731251 0.04789423628995776
-0.022988135616593745 0.06382667913146145 0.04784096269950289
-0.022922262053465363 0.06544297672486504 0.047788677710165095
-0.022856764939978836 0.06705003761365991 0.04773669151532656
-0.022791697674367145 0.06864715982165531 0.04768432164857811
-0.022726943522179244 0.0702359894151901 0.04763292721418455
-0.022662612254746962 0.07181504774402181 0.04758114767303101
-0.022598588493593707 0.07338595450981983 0.04753033497539649
-0.022534870111611458 0.07494876702966774 0.04748048132452942
-0.022470904651532533 0.0765110490721792 0.047438288630074044
-0.022407301297727434 0.07806448708976088 0.04739633478691119
-0.022344056984067957 0.07960915596903051 0.04735461777257266
-0.02228122278724198 0.08114439666444129 0.04731247000020661
-0.022218687189780807 0.0826717543226137 0.047271222435055604
-0.0221565016418085 0.0841905624380585 0.0472302057573295
-0.022094663212370896 0.08570089259584907 0.047189418033812935
-0.02203322191363954 0.08720210520165711 0.04714819877949222
-0.021972068765176697 0.08869569657105403 0.04710786498182873
-0.021911306465374474 0.09018032061051373 0.047067099334686835
-0.021946946562164966 0.09037576748468595 0.04582030287778155
-0.021997090637138096 0.09038043988674815 0.04438825989672668
-0.022047464373866964 0.09038513368869733 0.04294965810464518
-0.022112555371930326 0.09019801849313608 0.04132097530828699
-0.022178782389191437 0.08999987911639612 0.03967311366264403
-0.02224233344941757 0.08984106646441864 0.038054508690724964
-0.022306141295132982 0.08968276738565667 0.036427986756642494
-0.022367371412038577 0.08956219436112539 0.03482983474776713
-0.022428828950457662 0.08944239290344813 0.033224293644829206
-0.022487868971765794 0.08935792364159911 0.03164541772498192
-0.022547054415960083 0.08927517408998725 0.03006035541776464
-0.022604268749602155 0.089221667436098 0.028496516061812305
-0.022661326419667067 0.089173694779352 0.02693053824863073
-0.022716591664204287 0.08915240255879925 0.025383754057249686
-0.0227715054322614 0.0891390296345082 0.023837530669782392
-0.022824924977297295 0.0891482567690689 0.02230688057651281
-0.022877511871357656 0.08917144916055303 0.020783274228052206
-0.02292936745926148 0.08920723172307216 0.01926546737574697
-0.02298007723480233 0.08926083607131097 0.017759016910708247
-0.02303026028070974 0.08932426200129201 0.0162558457164107
-0.02307886323585348 0.08941086212005517 0.01477000632071479
-0.023127555173154526 0.08949930829368224 0.013279435565125508
-0.02317411149100012 0.08961777413155075 0.011813841918905998
-0.023220855624883675 0.08973671788072579 0.010342335820580029
-0.023265900670734252 0.08987993116196086 0.008890241321554082
-0.023310647018540392 0.09002965636175014 0.0074388834548262395
-0.023354376832825884 0.09019486659931292 0.005997989134888915
-0.023397197019401603 0.09037413136799288 0.004566221964420136
-0.023443768088263636 0.09050921685180918 0.0030804022055259672
-0.02798764619092409 -0.011642706075805975 0.03174797179996963
-0.027907443863937103 -0.009696349714762853 0.03160624932236
-0.02782657204189023 -0.007745278305305803 0.03147708745122829
-0.027746167576679547 -0.0058054821030551484 0.031348672004123945
-0.027666226428706975 -0.0038768636507759413 0.031220996529332634
-0.027586744604795696 -0.001959326611168266 0.031094054649280667
-0.02750819049412061 -5.93535618993446e-05 0.030962853132909363
-0.027430473878657408 0.0018243905640823455 0.030828250733344997
-0.027352105450454477 0.0037126324129412303 0.030705987784533484
-0.027274106152004877 0.005591186583275676 0.030585246622996165
-0.02719655044672585 0.007459057147378656 0.030465192133574237
-0.027119434561180347 0.009316334985626118 0.030345818475077724
-0.025391892471276968 0.03386379248600674 0.04800181304341539
-0.025315187604490596 0.03565819625993427 0.047946208643716404
-0.02523901104094209 0.03744088403027768 0.04789022102155416
-0.025163291552601295 0.03921287530373785 0.04783456933662633
-0.025087959556930314 0.040975158828012004 0.04777996472327262
-0.025013142353361068 0.042726036695588165 0.04772497391864938
-0.024938770063034243 0.044466502669854135 0.04767031012608647
-0.024864774407936763 0.046197520661892255 0.04761667865533442
-0.02479128049995959 0.0479174325398124 0.0475626582423771
-0.024718156206110845 0.049628064472503786 0.04750966054706751
-0.02464501968760305 0.051334587883376304 0.047461891141904244
-0.024572000608586938 0.053035260388064 0.04741790555674874
-0.024499475383795495 0.05472504825121782 0.047373481416404184
-0.024427314944380454 0.05640572053682624 0.04733001523042224
-0.02435557833842609 0.05807652141436431 0.04728680434243676
-0.024284323195611402 0.05973672083687387 0.047243153884500066
-0.024215862828453234 0.06135563253510978 0.04717281752390817
-0.024142995787987172 0.06302895022289451 0.04715730355388453
-0.024072917013099725 0.06466113540341245 0.047115095478734714
-0.02400324389061119 0.06628387264725594 0.04707313172576527
-0.023933972908495502 0.06789724375204115 0.04703141017970458
-0.023865159848265677 0.06950055115196191 0.046989247449084615
-0.023796682432389468 0.0710954378009217 0.0469480059208493
-0.023728596863957806 0.07268119805041617 0.04690700038837947
-0.023660899789170874 0.0742579100127746 0.04686622883180164
-0.023593587892393252 0.07582565091145071 0.0468256892542277
-0.02352671548004337 0.07738374900603201 0.046784707542128545
-0.023460163817012825 0.07893378185435473 0.04674462782571759
-0.023393987611453598 0.08047507004654736 0.046704774222698975
-0.023328183695034845 0.0820076873751579 0.04666514482499595
-0.023262805234746494 0.08353098198616782 0.04662507276000005
-0.02319779220432507 0.08504576221278837 0.04658522467585324
-0.02313308587457259 0.08655281274993692 0.046546260170562126
-0.023068794881002674 0.08805077139989931 0.04650685270717059
-0.02300480519212829 0.0895411293137009 0.04646832166706005
-0.022984781575647244 0.09046813969236817 0.04590728617669815
-0.02303733548197975 0.09047232044316839 0.04447523122696334
-0.023090074797439804 0.09047722311003525 0.043037281249534876
-0.023149744684216336 0.090397601511362 0.041511867308476114
-0.02321897459557811 0.09020090227317595 0.03986638356665406
-0.02328720927909437 0.09002077055862251 0.03822818032387404
-0.02335403029791964 0.08986237171966943 0.03660246418849844
-0.023419752187143848 0.08972164271359406 0.03498553626893558
-0.023484066233696373 0.08960234439612214 0.03338129749477953
-0.023547523006326076 0.08949749040212346 0.031783123483028086
-0.023609409815840695 0.08941586859701384 0.03019989396819439
-0.023670806662926803 0.08934394202724566 0.028618414805335834
-0.023730531558355472 0.08929629790299581 0.027053397937682355
-0.02378991090584094 0.08925641076942631 0.025488519831372347
-0.023847339686524395 0.08924402278497379 0.02394383615117507
-0.023904808600497676 0.08923449743350381 0.02239465112689537
-0.023959926990220485 0.08925714937099971 0.020870945974866273
-0.024015300145319718 0.08927990600923708 0.019340198031369826
-0.024068579167315036 0.08933145156326616 0.017832005897146896
-0.024121852977306624 0.08938617393839876 0.01632016931134317
-0.02417341758507082 0.08946476564649286 0.014826298866990884
-0.024224470488516798 0.08955256964703973 0.013335344711533914
-0.024274452056811342 0.089656304447425 0.011854496523726
-0.02432340922754985 0.08977531025386093 0.010383266048985151
-0.024371884495704224 0.08990297270947012 0.00891480480197937
-0.024418754245268192 0.09005273042926398 0.007463608472841332
-0.024465742340058674 0.09020381057815452 0.006007622537315238
-0.024510598839574894 0.09038308625962338 0.004575916840991956
-0.024555682856324607 0.09056227339236517 0.0031381385669002615
-0.024611956526113442 0.09061115219138055 0.0015518065212379306
-0.02918799770403481 -0.00985832679147186 0.031486726319392255
-0.02910338022547145 -0.007905983413975248 0.03135785783374945
-0.029019251950350797 -0.00596492722095876 0.031229734382052177
-0.028935691967721385 -0.004036175132832109 0.03110151363561725
-0.028852528979401635 -0.0021173929164745586 0.03097486303762742
-0.028769842653351915 -0.00020960851410878334 0.03084893835810637
-0.02868852979833708 0.0016752970482562524 0.030714605273660878
-0.028606616586151396 0.003563621225324165 0.030591791621708664
-0.02852500786700055 0.00544333637561184 0.03047132894108684
-0.02844394396093458 0.007311293680290598 0.030350727810425138
-0.028433400927506743 0.008245192152785796 0.029511595885905517
-0.026618073052223048 0.032916730811435924 0.04726026138060141
-0.026536675776969464 0.03472897323493929 0.04721471741041672
-0.0264557051563985 0.03653107806224204 0.04717017308120314
-0.026375296386979136 0.03832131416887813 0.0471251798937129
-0.026295306114492385 0.040101598165809715 0.04708117718136251
-0.026215799560602198 0.04187111639784047 0.04703744056286874
-0.02613684033118158 0.043629083482325526 0.0469932539313645
-0.0260582877355637 0.04537736828069666 0.04695004434320188
-0.025980273064050048 0.0471143073860652 0.04690638405472125
-0.025902657360046967 0.04884173863585567 0.046863692054668116
-0.025825504027369633 0.05055887925336422 0.04682125437875578
-0.02574887492383995 0.05226497340884939 0.04677836510397465
-0.025672633634332323 0.053961813565662875 0.046736431282041246
-0.025596907707827653 0.0556478009351955 0.046694045336772294
-0.02552156238441426 0.05732469848925248 0.04665260647424202
-0.025446659322922574 0.058991752991427115 0.046611410849399626
-0.025376551545020515 0.06059369296906825 0.04652326369967341
-0.025303260553790084 0.062232070548805585 0.04647437220853512
-0.025224691746247446 0.06393311533933288 0.04648788205178589
-0.025151581574550105 0.0655608699623979 0.0464469539094996
-0.02507883138937864 0.06718000444298106 0.04640694860753858
-0.02500650084672396 0.06878979932311924 0.0463671740667454
-0.024934586326112583 0.07039033518038501 0.046327628296224554
-0.0248630842485992 0.0719816916680967 0.04628830932791722
-0.024792052241079134 0.07356318405562356 0.046248536399689844
-0.024721364127785223 0.07513642318015701 0.04620966706119917
-0.02465107796700238 0.07670071642424509 0.046171018744604664
-0.024581250469209767 0.07825539437132067 0.04613191624004809
-0.02451175765650175 0.07980202913489332 0.0460937061593204
-0.02444271611183968 0.08133920985414994 0.04605504179248254
-0.024374003290358007 0.08286848344568315 0.04601726255825639
-0.024305734503505594 0.08438846068772171 0.045979028984385606
-0.024237788614563334 0.08590066377884448 0.04594167337237187
-0.024170279683935907 0.08740372475529479 0.045903863410091506
-0.024103145771639783 0.08889843608957648 0.04586626348554257
-0.024036326268355057 0.09038556712941759 0.045829530983284295
-0.024076869634012694 0.0905648440393147 0.04456281123831596
-0.02413202923257806 0.0905692545906629 0.043124849263800724
-0.02418738393251763 0.09057438930788131 0.04168095673487626
-0.02425774056639064 0.0904016498016939 0.040059388473095814
-0.02433056934984575 0.09020309041635144 0.038404379910943254
-0.024400577644628652 0.09004246766023888 0.0367774191933804
-0.024470692031220476 0.08988448710260472 0.03514455402211658
-0.02453815428981035 0.089762121690454 0.03353813035657638
-0.024605688296392404 0.08964267158699196 0.03192636879810279
-0.024670808608684577 0.0895557079164167 0.030338584357762766
-0.02473578741323496 0.08947406344578157 0.028748136250569656
-0.024798844854510668 0.08941879876125874 0.027176155147347558
-0.02486154800328968 0.08937124336407654 0.02560418882098414
-0.024922467316467276 0.08934821260158893 0.024049328258348712
-0.024982754230062784 0.08933602112180367 0.02249797580063323
-0.025041648526875095 0.0893435314467026 0.020959315272438495
-0.0250994418724431 0.08936721442311285 0.01942997687770376
-0.025156494931689134 0.08940276816064557 0.017905719553203803
-0.025212226458458158 0.0894568984973374 0.016393648792246807
-0.02526750657953898 0.08951938738182508 0.014883341452012921
-0.02532092399010082 0.08960655101266862 0.013392009662934634
-0.025374503663096445 0.08969482464489503 0.011895140452284625
-0.025425672705651645 0.08981389247185945 0.010424185507074024
-0.02547704853543341 0.08993344148259313 0.008947286055444315
-0.02552662210783604 0.09007654501291146 0.007489126987596795
-0.02557580312410769 0.09022691348168765 0.0060325061029080085
-0.02562393252197074 0.0903920406032454 0.00458561112427075
-0.025670997345400348 0.09057198580613651 0.0031487077451309853
-0.030470936435761264 -0.010037569713891803 0.03135446282763782
-0.03038185521572083 -0.00807475277742703 0.03123264521628155
-0.030293468366332864 -0.006125627396226074 0.031109860553009683
-0.030206116365991846 -0.004194502427140756 0.030982768878855038
-0.030119266681694123 -0.002274482355925922 0.03085640804284412
-0.030032914993023373 -0.00036547166944306264 0.03073077175904443
-0.029947399141109457 0.001528265949590879 0.030602531877831907
-0.02986219881676276 0.0034134118472310404 0.030476677213435943
-0.02977697454915691 0.005294297648123614 0.03035649551130698
-0.02976243768943073 0.006275824092242255 0.029548605322700483
-0.029776974692671602 0.006889319988655551 0.02845562167221316
-0.029790679517720672 0.0075140840910983275 0.02736992335127375
-0.02775722000594014 0.033889058571882735 0.046553530387740516
-0.02767232154683614 0.03569806488535959 0.04651090128379465
-0.02758794084737679 0.03749603883774549 0.046468532156520415
-0.027504145327920792 0.039282179426196384 0.046425699402929343
-0.02742078560237352 0.041058396661243 0.04638384522120248
-0.027338000918713776 0.0428229927280388 0.04634152688236676
-0.027255643748463683 0.04457784575374191 0.04630017834264183
-0.027173781299482527 0.046322157340193515 0.046259078184348434
-0.02709247912636165 0.04805515673007943 0.046217513201242455
-0.027011592422583972 0.049778675429387964 0.04617690515648443
-0.026931187269174733 0.05149193334394808 0.04613653886727159
-0.026851328136972757 0.05319417723768327 0.04609570722271178
-0.02677187286615084 0.054887193396487455 0.04605581999678554
-0.026692886438208607 0.05657021955015756 0.04601616813388021
-0.02661443226606557 0.05824251953168691 0.04597605051429876
-0.02654275202012001 0.059828135183221776 0.045870625341420446
-0.026472726618936467 0.06138980553559542 0.045752545312064186
-0.026389580783502932 0.0631067814531478 0.045775967996198874
-0.026305305737220987 0.06483296256387988 0.04581652822101312
-0.026228847653912462 0.06646028458048264 0.04578032735140802
-0.026153028428990737 0.0680758176322735 0.04574227380292767
-0.026077711133316566 0.06968125834718064 0.045703753999473684
-0.02600276191922602 0.0712782517402239 0.04566613917191609
-0.025928306402668334 0.0728653247541291 0.04562805805887804
-0.025854212310058185 0.07444409578571148 0.045590874432209105
-0.025780603866091222 0.07601311453928478 0.04555322453487748
-0.025707350343437605 0.07757397330737065 0.04551646475982013
-0.02563457459827068 0.07912524414979882 0.04547923877246923
-0.025562147422349447 0.08066849375606333 0.04544289566568527
-0.025490190325569796 0.08220231614447515 0.04540608644682226
-0.02541857559224993 0.08372825289050473 0.045370152986257184
-0.02534742340777941 0.08524491958270519 0.04533375355403224
-0.025276485663316854 0.0867552614865919 0.04529955394690888
-0.025205519743991846 0.08826213303935548 0.045270191452816744
-0.025134951195789006 0.0897605669189378 0.04524099337286386
-0.025115806611951362 0.09065660885577065 0.044649673012635394
-0.025173267865036354 0.09066193005196738 0.04321303002543747
-0.025230992646814755 0.09066727565233423 0.04176979830867811
-0.02529514425239373 0.09060141686105094 0.040251450726357885
-0.025370912852012997 0.09040500878535546 0.038599520099780904
-0.025445839936157916 0.09022234246106242 0.036952159371069604
-0.02551897494113478 0.09006426276479318 0.03532010517555556
-0.025591094995160824 0.08992172507085877 0.0336947925093935
-0.02566155127356137 0.08980206159551024 0.03208363346490456
-0.025731133691353675 0.08969613388418579 0.0304778565752733
-0.02579887270233946 0.08961489826526181 0.028888538157587684
-0.025866203617524546 0.08954192143166728 0.027299535469834657
-0.02593164218580355 0.08949397131241887 0.02572781066428098
-0.025996768166265737 0.08945305636576484 0.024155482486241553
-0.026059631286489197 0.08944112277309169 0.02260494190536877
-0.02612273408610157 0.08942986273572984 0.021047632614986322
-0.02618300469425968 0.08945373791848421 0.019518948596720653
-0.026243619740667187 0.08947698885453337 0.017982434912769463
-0.02630207481531368 0.08952758899531038 0.016467092885413648
-0.02636039326778616 0.08958284117852883 0.014949607521430486
-0.026416907645858505 0.08966125158533622 0.013449429574064975
-0.026472862837165073 0.08974888404948417 0.011952180268784807
-0.02652764617368824 0.08985246453873069 0.010465094199098912
-0.026581241616537972 0.08997207572031118 0.008988472079538401
-0.026634377525774196 0.09009961169604835 0.007513844092882693
-0.02668568875721885 0.09025001273994177 0.006057385742260946
-0.0267371980728434 0.09040099439891192 0.004595304814313861
-0.03166308660295696 -0.008264083645823261 0.031092177688352707
-0.031570745424657425 -0.006311215727852482 0.03097142146334053
-0.0314788505621632 -0.004368588824406938 0.030852204857799992
-0.031387579310464805 -0.0024383458131381763 0.03073284502303575
-0.031297104826675075 -0.0005225606279913864 0.03061167582496621
-0.031207596240031436 0.0013767598635914258 0.030487047452678107
-0.031118686832829284 0.0032641654241321594 0.030362300775627404
-0.03109972604264584 0.004295175932333306 0.02958667785180963
-0.031115407044089237 0.004904239920742015 0.028486112953962306
-0.03113030534468904 0.0055236016280325595 0.027391979088393914
-0.031171260248885474 0.0058284261727967746 0.026050048925140956
-0.02898358827924524 0.0330460118465527 0.045889877782610555
-0.02889480186577961 0.03486103669622376 0.04584845188437653
-0.028806481785955237 0.036665888873348096 0.04580800581438865
-0.028718699981573625 0.038459741200866815 0.045767806246837184
-0.02863152659734201 0.040241795415740744 0.04572712834080084
-0.02854480623160974 0.04201395494412313 0.045687417150226006
-0.028458609605110992 0.04377541168710902 0.045647945791407685
-0.028373005688956506 0.045525385630946213 0.045607995718973005
-0.028287841964968495 0.047265732778354 0.04556899960059063
-0.028203187962732322 0.04899566360356905 0.04553023688157826
-0.028119111508034093 0.050714415866975115 0.045490995202792206
-0.028035462885977646 0.05242379958050969 0.04545269505450039
-0.027952310463985768 0.05412304330273582 0.04541462210093772
-0.02786972094992743 0.05581140210794261 0.045376070062742024
-0.02778818359243059 0.05748318785266243 0.04533212674887177
-0.027714503607695205 0.05905893334348633 0.04521488042558108
-0.027641213313432212 0.060626344779955266 0.0450982542132593
-0.027562952980173725 0.06224782820070818 0.045035951271650665
-0.027474695188414004 0.06398137957153455 0.045078989620243315
-0.027387069472688062 0.06570306891655903 0.04512106051990078
-0.027301365634128848 0.06739803390631238 0.045149055193374366
-0.027221894111081574 0.06901670165859186 0.04511905032089131
-0.027142883913277967 0.0706259731861677 0.045089219623962784
-0.02706433103541408 0.07222593006865424 0.045059561590368336
-0.0269862315184185 0.07381665294400663 0.045030074725342206
-0.026908581448787144 0.07539822152206915 0.045000757551323156
-0.026831376957929514 0.07697071459789034 0.044971608607708324
-0.026754614221526595 0.07853421006480421 0.044942626450606205
-0.02667828945889876 0.08008878492729954 0.04491380965260511
-0.026602398932385495 0.08163451531365729 0.04488515680253424
-0.026526938946735135 0.08317147648837919 0.044856666505234566
-0.026451905848505118 0.08469974286440374 0.04482833738133207
-0.026377296025472213 0.08621938801511708 0.04480016806701681
-0.026303105906053306 0.08773048468615502 0.044772157213818775
-0.02622933195873479 0.08923310480701863 0.04474430348839997
-0.02615590805797945 0.09072801943779796 0.04471726810908305
-0.02621390970077204 0.09075384537384856 0.04330048751457993
-0.026274001835777838 0.09075939999428756 0.04185791106233028
-0.02633437011139797 0.09076498013991435 0.040408705556948754
-0.026409886425038442 0.0906059418501507 0.038793708060314236
-0.02648930560572417 0.09040767369746006 0.03713220022459324
-0.02656590824307095 0.0902445301391494 0.03549613648616612
-0.026642370333223624 0.09008687105479846 0.033856895121405106
-0.026716202249072823 0.0899619953107148 0.03224143458807177
