# .PCD v0.7 - Point Cloud Data file format
VERSION 0.7
FIELDS x y z
SIZE 4 4 4
TYPE F F F
COUNT 1 1 1
WIDTH 770
HEIGHT 1
VIEWPOINT 0 0 0 1 0 0 0
POINTS 770
DATA ascii
0.0070788114905725626 -0.05037932237792209 0.013010946509591781
0.007101093143209459 -0.050093026388973894 0.011133638423633796
0.007116205962757097 -0.05014684167365968 0.009564775838082074
0.007134663366485107 -0.05004780346306981 0.007845069012924033
0.0071484377954113675 -0.050170772530099716 0.006327050786908095
0.007160583022163301 -0.050372378662180806 0.004877530221543025
0.007173927703509448 -0.05052099406171956 0.0033717362705842358
0.008058864104516573 -0.033264218442148 0.050455056216778815
0.008032639295905157 -0.035139997433620784 0.050457681975089375
0.008006521731686344 -0.037006325390088746 0.050462418528541
0.007980448510126465 -0.03886594448830211 0.050471366073097934
0.007954647998505414 -0.04070903959046912 0.05047673238624234
0.00792901377359366 -0.04254025577241888 0.050482064112980674
0.007903442111476613 -0.0443640833558005 0.050490861960732325
0.00787829867706865 -0.046164904611980806 0.05049053163385353
0.007853355046065269 -0.04795258341467412 0.05048881214026629
0.007828508749352127 -0.04973153732298863 0.05048918381454881
0.007803958562497357 -0.0514933487380822 0.050484714344518566
0.0077797201864718835 -0.05323743366325134 0.05047475974927218
0.00775582858591479 -0.054962399044767074 0.05045799623376607
0.0077337256582142855 -0.05660748273281485 0.05038378209393979
0.007713537735049393 -0.05816785703345573 0.050247089282365764
0.0077023482998116585 -0.05934638019122973 0.04979751494679058
0.00771536687527416 -0.05950777780928174 0.04849413002039915
0.007729933598666338 -0.05960679282045667 0.04713296688154672
0.007751936230738811 -0.05939805223586414 0.04550397309534193
0.007771535914145231 -0.05929344903171746 0.043955947001905915
0.0077894093506609766 -0.05926419489333684 0.042465445716870165
0.0078077837521230925 -0.059217447231975584 0.040953038768785976
0.007829410590354151 -0.0590394875342784 0.03931943295477108
0.007850351464869046 -0.058893822024908726 0.03770588232456845
0.007875580182093101 -0.05857535796944063 0.035932329506738636
0.007900542964133726 -0.058272458455562226 0.03416292317881631
0.007926095839060543 -0.0579499420156207 0.03236653535413597
0.007948528607131152 -0.05775979662508529 0.03067867176219269
0.007972065267691692 -0.057528699975936626 0.02894540296735426
0.007998753021819464 -0.05717355844576033 0.02709104271104834
0.008028274544146364 -0.056708137981905604 0.025126266735240765
0.00805288022354263 -0.056447495276455095 0.023336976751121785
0.00808179951807377 -0.05601683418727482 0.02138217182513008
0.008105531732798472 -0.05580088731073296 0.019614159135522002
0.008136670711853176 -0.05529096704841857 0.01756437805061256
0.008158506270049442 -0.05516063726438952 0.015856196405607703
0.008180546863704827 -0.05502609683403087 0.01413553456140998
0.00820118914606034 -0.05495154063529878 0.012462721759443351
0.00821550883480684 -0.05513311646765451 0.011024249016383547
0.008234531911594603 -0.055130037162338774 0.009404440517440327
0.008251060301128895 -0.05522955880544872 0.00787525996689864
0.008268906954106398 -0.055279865896372404 0.0062922270571247885
0.008286224774645773 -0.05535436257381521 0.004725498034328812
0.008315083782368405 -0.05497671841737667 0.002712655006231135
0.00924733859588563 -0.031108214726508154 0.05024596961768102
0.009209814921399294 -0.03327619905203211 0.050464336949765765
0.009179532348980389 -0.03516375178376585 0.050476182230258904
0.009149663822426376 -0.03703078119515263 0.0504815674855052
0.009119893855591947 -0.038889291743923526 0.05048974520566363
0.009090340625219897 -0.04073485736419313 0.05049716535312687
0.009061025290580074 -0.04256673526892424 0.05050313308403098
0.00903189842551658 -0.044386835950013304 0.05050906244811437
0.009003190117204662 -0.04618659660356389 0.050507976497709994
0.008974732863835946 -0.04797237139435162 0.05050481078806712
0.00894643203976192 -0.04974774585398256 0.05050235839469025
0.008918513943781365 -0.05150434573790075 0.05049370054965635
0.008890792162315475 -0.05324917766549714 0.05048440747463451
0.008862792704517434 -0.054999831918055686 0.050488911031937755
0.0088346340816265 -0.05675186484437145 0.050503657162891846
0.00880652068933744 -0.05849770599832688 0.050522404778495844
0.008780460119909987 -0.06016354684460501 0.050483199035767035
0.008756680798146708 -0.061741501349350025 0.05037838058100508
0.008740454900266332 -0.06303910798883577 0.05004361773760291
0.008755298925641046 -0.0631991511715293 0.048744411787184416
0.008775125506778454 -0.0631799718582382 0.04728672383290361
0.008797078572158907 -0.06308664180092827 0.045758610635135866
0.008821812806917925 -0.062895916335586 0.04413888566321594
0.008840376693842161 -0.06293257966126375 0.0427089384030937
0.008863579324942996 -0.06280464062398244 0.04112875958337292
0.008888079183299008 -0.06263366902779222 0.03950299486110681
0.00891135146203175 -0.06251078640949276 0.037911589115187494
0.00893771601800794 -0.0622806731789588 0.03621706083572124
0.008965524676650091 -0.06200308917740671 0.03447126802557615
0.008990314649139715 -0.06183781832976759 0.032817045214142304
0.00901377741530583 -0.06172383976332102 0.03120080342889392
0.00904049521232648 -0.061497866716749894 0.029474962882867217
0.009066619217818398 -0.061297257567751395 0.02776323604795161
0.009095828795432638 -0.060991604217543904 0.025946281718986886
0.009124869850579777 -0.06069659761982149 0.0241292234548085
0.009151915791781883 -0.06047657265610634 0.02237179017371982
0.00918288456356896 -0.0601229547478081 0.020480630407455735
0.009214015055916534 -0.05976863981157865 0.01857822488460581
0.009237489585169345 -0.05968730505991027 0.01692220130211136
0.00926032341387515 -0.059632117213641256 0.015282861197318143
0.009279179348613428 -0.059719195567888406 0.013771023035899055
0.009294131648279955 -0.059944999924986475 0.012385360597604811
0.009321769164464472 -0.0597332701203111 0.010573865815391714
0.009331699157636554 -0.06013867474594092 0.009349203545000628
0.009351122369413212 -0.06021796559151743 0.00780428490637658
0.009377011942266218 -0.06007767601706665 0.00603817818523672
0.009407423536788577 -0.05978617159155264 0.00411460150971249
0.010397534189462695 -0.03130176542073687 0.050395099341471905
0.010360304724315789 -0.03330107923479447 0.05048361028685938
0.010326323022262092 -0.03518567599707728 0.05049325714656583
0.01029272515849235 -0.03705251678656207 0.05049858650832628
0.010259238146741555 -0.0389108402454002 0.05050670834564258
0.010225915139490114 -0.04075889110122266 0.050516186379420014
0.010192940011742828 -0.042590563294574724 0.0505220923562556
0.010160334383861715 -0.044405210813580676 0.050523761056518124
0.010127936691480632 -0.04620828580160674 0.05052541911498021
0.010095978240544997 -0.04799215703695664 0.05052080754633703
0.010064298120216211 -0.04976224688756231 0.05051414509078889
0.010032995386662018 -0.051515342008188414 0.05050268615865755
0.010001759567896985 -0.05326175959689594 0.05049474356075939
0.009970338418332964 -0.055009812574915995 0.05049715378664377
0.009938687012335159 -0.056760936024856046 0.05051118862488768
0.00990738569962293 -0.058496070684652846 0.0505210398289479
0.009876181709442997 -0.06022355326809342 0.05053355039268109
0.009845814593646128 -0.06191928551718673 0.05052834986408966
0.009817888349719833 -0.06353124990150294 0.05046096090369756
0.009790534463920135 -0.06512064061341716 0.05038248247117483
0.009797682089994795 -0.06558831367671741 0.04935068935894549
0.009820462914632356 -0.06555162611673859 0.047882276462064666
0.0098372674689347 -0.06571096341814842 0.04657694039551025
0.009856920906777988 -0.0657810108805707 0.045188913914099516
0.00987543761043055 -0.065890369842518 0.043829491438196255
0.009896364688221273 -0.06592514109140774 0.04239896441431218
0.009917255586360408 -0.0659640582753856 0.04096589797316447
0.009940119069166791 -0.06594303619997793 0.03947332902771411
0.009963163947203967 -0.06591950662336277 0.03797170783457704
0.009987355856740952 -0.06586284357621047 0.03643343643594815
0.010012302835945279 -0.0657857120066746 0.03486943879924309
0.010037579731438383 -0.0657017141786444 0.033291725015920315
0.010064633002173461 -0.06556529681714773 0.031658570967928845
0.010092790896386313 -0.06539798083625642 0.029988918262818687
0.010124885558821066 -0.06511107643313141 0.02820047247075219
0.01015721122873295 -0.06482151958267152 0.026399854031499526
0.010185547259256886 -0.06466128094220197 0.02470994262598286
0.010213086792573328 -0.0645299284153974 0.023038475620607624
0.010241629176775378 -0.06437130767520294 0.021332938823628744
0.01026724763854096 -0.06430752804093975 0.019708457596200324
0.010302946210885802 -0.06393522208684294 0.017782570702844447
0.010328140244023001 -0.06389259558883637 0.016161052678571264
0.010347954081866718 -0.06401942647818998 0.01469470737009243
0.010366176836412572 -0.06419802328804375 0.013272282045858508
0.010379913476556446 -0.06451687850387905 0.011980480532237325
0.010396791930335549 -0.06474151441243442 0.010592419333131264
0.010408240057414154 -0.06513441397531977 0.009364281085965376
0.010439686496583386 -0.06491958987244739 0.007532960794479571
0.010484306040275395 -0.06430880714263232 0.005299127249813962
0.01052832191725011 -0.06372270575199601 0.0030759495449958485
0.011550799950432507 -0.031363136056653584 0.05044238507206361
0.011510691503063924 -0.03332411328502222 0.05050145352454416
0.011472999276112724 -0.0352066841083814 0.050509618588465255
0.011435642886661695 -0.03707424964723183 0.05051560339297129
0.01139846949977872 -0.03893148836052379 0.05052296269481504
0.011361477916614453 -0.04077847165093473 0.05053168301860067
0.011324843071071535 -0.04260997625694407 0.050537538690066275
0.011288618720747278 -0.044424458531979294 0.050539157887867114
0.011252683332945481 -0.0462256351490552 0.05053937159154631
0.01121723519320628 -0.04800763982296746 0.050533325430648646
0.01118203830774452 -0.049777599547750406 0.050526624004029574
0.011147260692200586 -0.05153056640896814 0.0505151267870802
0.01111261393811516 -0.0532751792655376 0.05050576784999217
0.01107781673616077 -0.05501979262443507 0.05050539603976306
0.011042901836013764 -0.056763409895629835 0.050513242587296114
0.011008178597223245 -0.058496888343548714 0.050521722305440275
0.010973535232714444 -0.06022355326809331 0.05053355039268098
0.010939191400040441 -0.06193697272097132 0.050543269849955774
0.010907049176425439 -0.06358149728038681 0.0505035713777327
0.010877504963841381 -0.06514596733391481 0.05040407351272019
0.010877125842410944 -0.06585621457414392 0.04958028227322425
0.010898315871080217 -0.06593886482095984 0.04821589546229288
0.010919506750262572 -0.06602421451419527 0.04684824076623734
0.01093930095802138 -0.06615274465705723 0.04551256247406876
0.010959524430758661 -0.06627141292990163 0.044162992899690556
0.010979408938040619 -0.066402456031804 0.042818925303531874
0.010998119767524682 -0.0665698260435213 0.0415016802492047
0.011017505663111868 -0.06672022097196695 0.04016433700202049
0.011036736978444385 -0.06687753601747926 0.03882798127213438
0.011057322654272173 -0.06699861511436189 0.0374539006489808
0.011077507782333969 -0.06713376275665878 0.03608698242595604
0.011097569422222188 -0.06727501882506942 0.034720161621354495
0.011118467748099761 -0.06739510242064894 0.033328589739451686
0.01114021181216629 -0.0674939184980004 0.031911839274376574
0.011159902773531162 -0.06765354875254392 0.030545265223469287
0.01118095090780732 -0.06777744519347711 0.029140199844787495
0.011204348030680631 -0.06783796922928209 0.0276703306658721
0.011226083487682071 -0.06794813787725656 0.026240564915475773
0.011251408299370831 -0.06796059176012026 0.024712823782924553
0.011275130637392683 -0.0680210707605402 0.023223579987370957
0.01129828119362821 -0.06810053695811635 0.02174586625585556
0.011323580981393338 -0.06812321105501856 0.020207440068129856
0.011360414417890104 -0.06782913815705854 0.018357480467217524
0.011379558336002248 -0.06802945662933235 0.016975096330658135
0.011403794949147677 -0.06809159478800958 0.015453152534164016
0.011422966013439406 -0.06829641486881044 0.01406378188102253
0.011443610210602077 -0.06846320643268677 0.012631727196871667
0.011462855341270999 -0.06867101921614466 0.011234365268324331
0.011487327642802848 -0.06873829495648665 0.00969221876221732
0.011532932759307288 -0.06823189853314787 0.007571278134592352
0.011562813608953814 -0.06815954668652524 0.00587242776242991
0.011604611968605807 -0.06776728098151868 0.0038428863033606597
0.01270507381106354 -0.031385447341926664 0.05045957579216642
0.01266096010742742 -0.033346223118815854 0.050518580821552306
0.012619503891872913 -0.035228602910470086 0.050526689290428306
0.012578417033995875 -0.03709597977767615 0.050532618139843
0.012537564143784199 -0.03895213399784836 0.05053921509344572
0.012496910772314527 -0.0407980499604082 0.050547177884788685
0.01245661704524477 -0.04262938700540697 0.05055298326233554
0.012416806876622426 -0.044442829312968446 0.05055385323049333
0.012377377861388218 -0.046241248033655646 0.0505519275915437
0.01233838851709117 -0.04802312117802854 0.05054584215803254
0.01229967551564926 -0.04979295079346718 0.050539101767563044
0.012261423657533225 -0.051545789411455656 0.05052756627288746
0.012223346810928492 -0.053289436466758766 0.050517480174201435
0.012185320348443478 -0.055027277263041297 0.0505115774004648
0.01214703851176538 -0.056767532930215636 0.05051666578875741
0.012108843912950359 -0.05850097657622749 0.05052513463631936
0.012070767487375149 -0.06022679622311844 0.050536271554457224
0.01203292977484783 -0.06194179616565504 0.05054733865175076
0.011998592786223734 -0.06355916706338283 0.050484635044077464
0.011965523568656015 -0.06513884460166852 0.050398001380015156
0.011966327966147912 -0.06581672960010582 0.04954644337851832
0.011989642807325743 -0.0658993132249921 0.04818182044923158
0.012012298034443668 -0.06600202974175629 0.04682902698833474
0.012035521262373066 -0.0660924368939878 0.04546005575580159
0.01205744280016903 -0.06621975932746671 0.044117783965389235
0.012079231820195657 -0.06635311782682762 0.0427755155656821
0.012099058626983655 -0.06654034953711407 0.041475609219144505
0.012119898042420219 -0.06670347021196893 0.040149443621255054
0.012141116074094092 -0.06685916696947486 0.038811563270791216
0.012162285413458589 -0.06701860862421 0.037471864350841155
0.012183281621493413 -0.06718501257527015 0.03613327066104011
0.012204970310909823 -0.06733595906332296 0.03477549055416035
0.012226394208992155 -0.06749627377582418 0.03342092635813937
0.012248392882035075 -0.06764429270608313 0.0320498003070907
0.01227065883383467 -0.06778801621813446 0.030669277719646948
0.012290648078267085 -0.06799269772136646 0.029339753704142102
0.012312374087395711 -0.06815530072564308 0.027966055106424803
0.01233443028279231 -0.06831201822975774 0.026581438520314304
0.012355866753652 -0.06848708937075909 0.02520860548011067
0.01237858929293091 -0.0686320023571928 0.023801868564349682
0.012402067604858938 -0.06876042005829469 0.022373744780593507
0.012426149179189399 -0.06887633058226406 0.02092776395060897
0.012447938160938697 -0.06905288067703985 0.01953402387990083
0.012473331318494497 -0.06914128118535545 0.018049597563360942
0.012494928881876225 -0.06932794056532177 0.01665420543579771
0.012522210686499505 -0.06937474919770598 0.015116776036377677
0.012547678762469141 -0.06947006927726596 0.013620034556934113
0.012572757262764809 -0.06957807810929179 0.01212932863762678
0.0125991911995182 -0.06965530547663734 0.010601694372525672
0.0126253385127785 -0.06974273433769074 0.009077468647168463
0.01264477080983672 -0.06999945006842678 0.007716179845095261
0.012671007625707548 -0.07009038781529303 0.006182911602498897
0.012694737497583678 -0.07024615857858535 0.004708527755560077
0.01272448300777443 -0.07025683939967459 0.0030803526537560577
0.013858981403873928 -0.0314133324675816 0.05048106112500578
0.013811083268408679 -0.03336833015697571 0.05053570595293361
0.013765936302612324 -0.035248692719007546 0.050542335543934724
0.013721119445421218 -0.037115896665929016 0.05054821311351154
0.01367652210336425 -0.03897277715782349 0.0505554655418885
0.013632213728885864 -0.04081762603002598 0.05056267097828715
0.013588297173530113 -0.042647913382227065 0.05056772416561556
0.013544977596848343 -0.04445857411013732 0.050566447969340456
0.013501968119709504 -0.04625685947078939 0.050564482427477464
0.013459369121902738 -0.048040321005618614 0.050559748276208016
0.013417209758161358 -0.0498083006249081 0.05055157838154811
0.01337548429675845 -0.05156101101584515 0.05054000461623814
0.01333398363887065 -0.0533036924351622 0.05052919148564805
0.013292604909615405 -0.05503891935528543 0.05052119228974272
0.013251080298865835 -0.056773305003571084 0.050521458125453556
0.013209348374666273 -0.0585083351354852 0.05053127661525092
0.013167779265281598 -0.060234903325616984 0.05054307421970061
0.013127062547023902 -0.06193616879943559 0.05054259170443898
0.013090387063677513 -0.06353444068123743 0.05046366672915642
0.013053720935565385 -0.06512855564709802 0.05038923004123835
0.013055541235599672 -0.06578355462355956 0.04951801219512342
0.013082547682976686 -0.06582809548185825 0.04812046399905284
0.01310691315004938 -0.06593942024791377 0.04677480218559704
0.013132520747853808 -0.06602337218929305 0.04539992484052552
0.013157006854153162 -0.06613707851340106 0.044045418993444
0.013179993882668302 -0.06628943290148848 0.042719483006020076
0.013202728895629791 -0.06645029268894487 0.04139595680839703
0.013225409031424645 -0.06661490099920525 0.04007069525342344
0.013247966368162882 -0.06678487035236913 0.03874515798080874
0.013271709338865222 -0.06692901797412443 0.037391369243186534
0.01329482956584201 -0.06709050778334463 0.03604791504137661
0.013318334967008683 -0.06724534203498678 0.03469321743519055
0.013341550171799721 -0.06740955944345567 0.03334178431018714
0.013365425641280067 -0.06756067982552205 0.031973089549990175
0.013388737066741385 -0.0677276408255939 0.03061359656953544
0.013412335815338534 -0.06789034835649721 0.029244868821895087
0.01343663771146553 -0.06803910078870884 0.027857767206433126
0.013460336655043308 -0.06820455889634319 0.02648077342503563
0.013484639554864305 -0.06835846259500522 0.025087482800922323
0.013509517696112026 -0.06850157746010238 0.02367841247114011
0.013534348049410136 -0.06864846756287801 0.02226722202278386
0.013559375048390422 -0.06879346064991848 0.02084850270554972
0.013581574005723991 -0.06900652126097834 0.019489452522207185
0.013611545070719946 -0.06904267969107886 0.017954306065639858
0.013636078365025677 -0.06920719156036859 0.016536903346503817
0.013663405903753633 -0.06931017580437099 0.015053720076874999
0.01369027120520553 -0.0694266758989141 0.013577440875546465
0.013717960175361523 -0.06952723089759494 0.012079159467528078
0.013745148753578405 -0.06964216084785158 0.010588657750780883
0.01377392878865177 -0.06972380465282302 0.009058597164464555
0.013790231792625509 -0.07009166288277474 0.007808585549750668
0.013814831591136376 -0.07027343964336719 0.006367296540169265
0.013838313876400115 -0.07048309091562971 0.004948421321859187
0.013861766179346407 -0.07069593342096919 0.003527235553958341
0.01387471538354362 -0.07114737631276391 0.0023445743688434995
0.01501282504296366 -0.0314384252995874 0.05050039501125747
0.0149610610135914 -0.03339043440003214 0.05055282891909885
0.01491215797417935 -0.0352706062269455 0.050559402122731245
0.01486369028102842 -0.03713581126086085 0.05056380629150392
0.014815343403119415 -0.038993417840893 0.05057171404049293
0.014767348414051045 -0.04083808952651824 0.05057886640825093
0.014720006715022105 -0.04266290944838258 0.05057965610260068
0.01467304339638409 -0.04447431744302838 0.050579041536867486
0.014626491787830882 -0.046271602276963475 0.05057633870381717
0.014580309479525554 -0.04805579934043852 0.05057226256171682
0.014534641049509108 -0.0498236490422686 0.05056405384614365
0.01448944262397237 -0.051576231222326074 0.050552441817286964
0.014444597903091301 -0.053316270207146466 0.050539524154804116
0.014399774361054012 -0.05505139210845772 0.05053149319942696
0.014354829061373142 -0.056784848537589916 0.05053104229015054
0.014309658722306018 -0.05851896357639769 0.05054014787086952
0.014264771766519727 -0.060242199369695326 0.050549196326270085
0.014221340494649445 -0.06192812936265257 0.05053581006248842
0.014182527429670012 -0.06350572136904614 0.050439312354189636
0.014142340872093115 -0.06511035048037783 0.05037371012775277
0.014147695313974204 -0.06568952116169874 0.04943742487064734
0.014175589747050884 -0.065764763962325 0.048065901792333054
0.014202955081712746 -0.06585458060601024 0.046701324306058056
0.014230533236441464 -0.06594236143410548 0.04532939314306639
0.014256930277750783 -0.06605912824253529 0.043977194348729653
0.014282240191979042 -0.0662026209529693 0.042643102360853724
0.01430673915587371 -0.06636656559653997 0.04132190286479914
0.014331647765692698 -0.06652388638147783 0.03998977263515452
0.014356606972127246 -0.06668255552075653 0.038653710397763774
0.014382017425375199 -0.06683377222997383 0.03730579316552962
0.014407737268892763 -0.06698071514533738 0.03594875161843625
0.014433439234294684 -0.06713059278816674 0.03458903416402548
0.014458717755289896 -0.06729225871651945 0.03323472680882095
0.014483900300627349 -0.06745851548912118 0.031879358733142515
0.014509504300167498 -0.06761810110233618 0.03051257366074378
0.01453586855648937 -0.06776373001523317 0.029127484933714698
0.014561992782389992 -0.06791716008705806 0.027744129429566333
0.01458877313052161 -0.06805900829123374 0.02634442542188281
0.014615840212338511 -0.06819732857628108 0.024935749353964143
0.014643007917930122 -0.06833616307670098 0.023521836433964882
0.014670504161157082 -0.06847063999684655 0.022098019159750404
0.014698103862053407 -0.06860562290135735 0.020668844614868453
0.014722830264188299 -0.06880465766839317 0.019295374702536172
0.01475380759925887 -0.06887303805532335 0.01779035920392541
0.014783106949288293 -0.06898012775901408 0.016316321335809625
0.014812638791192862 -0.06908518748544884 0.014834018840904073
0.014842327644555809 -0.06918984771103592 0.0133449771964958
0.014871824223425482 -0.0693014999043125 0.01185643857053853
0.014903119544437918 -0.06937821354569162 0.010326879255936838
0.014931327506888071 -0.06952284443273204 0.008858254826802137
0.014951687705639757 -0.06983464908654885 0.0075510341333412945
0.014975103565548497 -0.07008461242595315 0.0061770941527926615
0.01499950388473683 -0.0703163676095716 0.004779614273507815
0.015024421007808665 -0.07053978710640574 0.0033683194345762724
0.015038144818491672 -0.07099791911516201 0.0021916790858103607
0.016166632188586386 -0.03146072703261521 0.05051757837140891
0.016111020674790345 -0.03340977332026257 0.05056780973866065
0.016058150891539436 -0.03529434274439369 0.05057788848952077
0.016006087679319828 -0.03715662861303398 0.050580106330690155
0.015953986455652935 -0.039014953304663924 0.05058866691709335
0.015902471377280274 -0.04085588188202394 0.050592947816459566
0.01585157546068411 -0.042678786195884666 0.050592288772312755
0.015801045107650413 -0.044489184801983994 0.05059093438638368
0.015750917002196257 -0.04628634379238217 0.05058819394212172
0.01570126716364499 -0.048068696860161575 0.05058269024958173
0.01565208955882134 -0.04983643831000972 0.05057444918874865
0.015603457865413431 -0.05158806819436762 0.050562114406241254
0.015555127437351487 -0.05332884701955892 0.05054985603566975
0.015506977544747868 -0.05506136962799191 0.05053973336310008
0.015458460652433947 -0.05679721570329993 0.05054131028544612
0.015409819354143 -0.05853122629699409 0.050550383212994154
0.015361598939593294 -0.060251926915414644 0.05055735870452793
0.015314982995046564 -0.06193456094428501 0.0505412354032162
0.015274177589239862 -0.06349135977664261 0.050427133524690304
0.015231426846624343 -0.06508501808380929 0.050352114247354196
0.015239509800968217 -0.06561599401054735 0.04937441159568773
0.015268877799364837 -0.065705367690228 0.04801472993193201
0.0152979765949299 -0.06580302033558044 0.04665666900984705
0.01532826196800947 -0.06587879460841117 0.04527404893465942
0.015356623852196688 -0.06599705877614664 0.04392286910720139
0.015383813986737263 -0.06614206335782291 0.04258982135212275
0.015410052289061437 -0.06630912713167386 0.04127110037404774
0.015436886686644936 -0.0664663764820102 0.03993863962204619
0.015464362041779424 -0.06661297560817092 0.038591520833121506
0.015491699959931835 -0.06676490343328606 0.037243916159411916
0.01552047355031264 -0.06689009880877161 0.03586690800604775
0.015547457117864932 -0.06705431465494205 0.034519779631573766
0.015575248515962958 -0.06720462802331167 0.03315474842076788
0.015602622040890602 -0.06736594736937496 0.031794431979017435
0.015630451416495154 -0.0675205789630049 0.030422633957649436
0.015659101792172 -0.06766123179431238 0.029032462051696628
0.015687817157014054 -0.06780320965485481 0.027637937865853057
0.015716880332263143 -0.0679408516870969 0.026233739402946266
0.015746862118934214 -0.06806278897286028 0.024809058801956163
0.01577667366210295 -0.06819087668358614 0.023384312917438477
0.015806516603473694 -0.06832107676742843 0.021955709802507162
0.01583704669645871 -0.06844036787932212 0.0205107858542532
0.01586843592258669 -0.06854543637945437 0.0190461514427831
0.015898131490409056 -0.06868687399911039 0.01761044457009031
0.015930842266167648 -0.06877156068505597 0.01611370804270057
0.015963187991405763 -0.06886643529698278 0.01462040719027452
0.015996334633701266 -0.06894855482436546 0.013108131098627573
0.0160287791135423 -0.06904747219327334 0.011605798289201386
0.01606367536869531 -0.06910145556234959 0.010052395342964593
0.016092455533670825 -0.06927788486020947 0.008614048419336273
0.01611403413595725 -0.06959703058448546 0.007312918582074446
0.016139119190562903 -0.06985011671948693 0.005940890686945699
0.016164965954606696 -0.0700907606883378 0.004551187670403745
0.016190509935675865 -0.07033962564229757 0.0031646074019558434
0.01739019739079281 -0.02931900582333219 0.05032968797962323
0.017320201417401475 -0.03148488405083277 0.05053619121838815
0.017260762207546937 -0.033430951587887 0.050584215401548394
0.017203942213317273 -0.03531898877535222 0.05059708319949452
0.017148212964101153 -0.0371801582548289 0.0505985300994819
0.01709253154259976 -0.039035588927617104 0.0506049114323367
0.0170376091792833 -0.04087100392948467 0.05060491586212823
0.016983082652280646 -0.04269377954186049 0.05060421854492936
0.0169289477507001 -0.0445040508551941 0.05060282619139461
0.016875243775734735 -0.046301084017215 0.05060004814252722
0.016822181708230178 -0.0480807336491737 0.05059242203378589
0.01676958101815402 -0.04984666901733592 0.05058276488827895
0.016717436183379963 -0.05159905891139155 0.05057109547738958
0.016665572251347134 -0.053341422872507704 0.050560187128333656
0.016613944892701776 -0.05507467204307692 0.050550719468130834
0.01656196671831101 -0.05681040631327677 0.05055226195572887
0.016509938432324164 -0.05854267066673541 0.05055993550106774
0.016458732003482364 -0.06025435871023321 0.05055939922222141
0.016409321204458302 -0.06192652142698496 0.05053445369334569
0.016365885018787954 -0.06347779486498023 0.050415630291506475
0.016321702553933205 -0.06503988475075656 0.050313638058969934
0.016332033858350022 -0.06553847690766157 0.04930797890461075
0.016364127838130158 -0.06561583529789211 0.047937594803409145
0.016394584473235732 -0.06572763285516103 0.04659137745414593
0.016426925002843526 -0.06580566124303028 0.045210375655855006
0.016457120132727328 -0.06592779876316429 0.043862250462440466
0.016486596948088163 -0.06606633380110993 0.04252319144116501
0.016515471983284208 -0.06621893862520328 0.04119133151573068
0.01654469893914192 -0.06636728264765834 0.03985053363720237
0.016574364851269126 -0.0665097490342898 0.03849925834743234
0.016604431819833534 -0.06664711634658782 0.03713808721169187
0.016633637019600175 -0.06680344346579448 0.035788641916611796
0.01666358065408889 -0.06694826702307277 0.03442349674089146
0.016693802382388653 -0.06709039394684213 0.033050489776195624
0.01672272568060075 -0.06725962830026211 0.0316968893966888
0.01675311969500736 -0.06740363412387806 0.03031478168757412
0.016784484079700592 -0.06753200526167352 0.028912660191193762
0.01681480121068885 -0.0676827043539141 0.027525637753469
0.016846873552066315 -0.06780316032216965 0.026104753730608443
0.01687932931387369 -0.06791920736425255 0.024673853756079778
0.016911561244217846 -0.06804220491780416 0.023243584913940185
0.016943259427851205 -0.06817788313905632 0.021819461118293415
0.016976527737927728 -0.06828716881018826 0.020364258053182482
0.01701469637652718 -0.06830866645516198 0.018818513610314835
0.01704425569482954 -0.06849230933823947 0.017422411335157983
0.01707965797532062 -0.0685709115942052 0.015918786704998134
0.017115207628644675 -0.06864984105614763 0.014408902776873678
0.017151533973458432 -0.06871758430266833 0.012881417134774642
0.017187203478309297 -0.06880044945113784 0.011362069566329958
0.017224605971969027 -0.06885476287713688 0.009807729686996391
0.017253764113003268 -0.06906230112041378 0.008399127524180372
0.017277325770896156 -0.06937393553765842 0.007089356866135543
0.0173041038514526 -0.06962933699441315 0.005718503091722615
0.017331469225240308 -0.06987642222403861 0.004334170359735046
0.017357771886167724 -0.07014500841068444 0.0029665379483199694
0.018542999754532944 -0.02944378946527204 0.050425317190099406
0.018473660944904675 -0.03150810882241806 0.050554085774568436
0.018410122030080783 -0.03345673036387997 0.05060418483040341
0.018349667457426045 -0.03534180605950238 0.05061485365317886
0.018290661417066156 -0.03719463644318133 0.05060986655742944
0.018231177772439666 -0.039051736818754734 0.05061762317185281
0.01817259940951678 -0.04088701405232753 0.05061758675751066
0.018114490154396864 -0.042708771566873194 0.05061614726649383
0.01805679797952844 -0.04451804124204822 0.05061401752443673
0.01799956481262567 -0.046314089026318006 0.05061050686930596
0.01794310780472134 -0.0480910502083679 0.050600763006424576
0.017887003852853557 -0.04985689909639729 0.05059108007714447
0.017831340622337096 -0.051610048899511096 0.05058007595291325
0.01777593235477245 -0.053353997766105665 0.05057051743288865
0.01772082244493409 -0.055087973379087496 0.05056170468198312
0.017665294267898847 -0.05682524447451798 0.05056458152622645
0.01761033481165881 -0.0585475751495097 0.05056402913255392
0.01755584853560111 -0.06025679046841076 0.05056143970916949
0.01750384569986899 -0.06191606945259903 0.05052563696278667
0.01745737996761467 -0.06346981496716114 0.05040886322750476
0.017413849342383488 -0.06496621863914842 0.050250837662986325
0.017424570478384215 -0.065470420496205 0.04924965409124965
0.0174599961108315 -0.06552625236735693 0.047860416134549666
0.017492939271207732 -0.0656299726608287 0.04650679595622942
0.017528072369088522 -0.06569669359046626 0.045115503394935086
0.0175597292298856 -0.06582903102181725 0.04377580568184125
0.01759061532508819 -0.06597780392577096 0.04244529929486224
0.017622321011883 -0.06611431949716134 0.041098799232753336
0.017653383301562065 -0.06626492714259213 0.039759527646395454
0.017685181641881608 -0.0664048530970327 0.03840550380781954
0.017717139645863602 -0.0665444819580297 0.037045872609518915
0.01774853740002134 -0.06669666371915717 0.03569219970181997
0.017781177265676216 -0.06682928045017511 0.03431546631164917
0.01781312033278792 -0.06697688253823197 0.032946890692884145
0.0178443128864404 -0.06714033687043286 0.03158744530342961
0.017877169141317747 -0.06727691329870422 0.030197913523379305
0.017911477422462768 -0.06739054242144432 0.028781514434162214
0.01794421321110553 -0.06753457506846466 0.027387594569696416
0.017978872031904212 -0.0676475052919081 0.02595894016603484
0.018014129194181674 -0.06775274858296543 0.024517106193639893
0.018049058886120944 -0.06786654271132936 0.02307730861072088
0.018083562929054074 -0.0679905585687961 0.021641221859263537
0.018117541746687452 -0.0681264755618855 0.020210562417472433
0.018163911186998928 -0.0680502626406963 0.018570076295473137
0.018191846955832536 -0.0682966846479035 0.017233353655351946
0.01823036952805833 -0.06836262102069429 0.015716442019321264
0.018269294318574145 -0.06842472641706576 0.014189078189186799
0.018308673389728997 -0.0684821548905688 0.0126503264534511
0.018347692858391045 -0.06854891087781856 0.011113885230353393
0.01838726590198979 -0.06860933616809889 0.009564319604905225
0.018416572697004547 -0.06884807629125433 0.008185561361485572
0.018441788115569825 -0.06915880289423493 0.006873774209316119
0.018470293024861265 -0.06941570335342562 0.005503313623296091
0.018499179910774734 -0.06966842391372713 0.004123572443607282
0.018524327669202263 -0.06998665158942186 0.0028053721111172547
0.01969916780708016 -0.029493490747284634 0.05046340627200663
0.019626760619804694 -0.03153504571322252 0.05057484049777655
0.01955936386510518 -0.03348158486895947 0.05062343827637955
0.019495395851029863 -0.03536188279250285 0.0506304897232549
0.019433370133497153 -0.03720277989142501 0.050616242897915886
0.01937012121729529 -0.03906070721430682 0.05062468473367798
0.019307633995054443 -0.04090035467686565 0.0506281449312061
0.01924579798020665 -0.042723762271097254 0.05062807493714483
0.01918465409249308 -0.04453028188197117 0.05062380918205528
0.019123848243524297 -0.04632622612849946 0.050620267618767645
0.019063915920958113 -0.048102225763684725 0.0506097984803035
0.019004358069240907 -0.049867128547254946 0.05059939475539493
0.01894517118963416 -0.05162103815879748 0.05058905583287043
0.018886447874423118 -0.05336238049558356 0.05057740386479631
0.018827610212370532 -0.055101273636155135 0.050572689004765636
0.018768663729158613 -0.056837608577777976 0.05057484697888426
0.018710650792405362 -0.058553296858696535 0.05056880487955101
0.018652995380339012 -0.06025841162017148 0.05056280001671942
0.018599698942475474 -0.061883905263108885 0.05049850496055314
0.018548929433023182 -0.06346183467077254 0.05040209582551064
0.018506087285669787 -0.06489965216271387 0.05019408970944211
0.018520253635412834 -0.06535640022163786 0.049151937930623835
0.018557132212683878 -0.06542551029534527 0.04777362349481851
0.018592482336650944 -0.0655235101823336 0.04641459097993805
0.018628995260941538 -0.0656043704619565 0.04503512262384546
0.018663259892161478 -0.06572621538979845 0.04368581805399008
0.01869576824457175 -0.06588044375268343 0.04235963789731517
0.018729476248472862 -0.06601682578382806 0.041012569151892386
0.018763021626642645 -0.0661585032536231 0.03966490438744236
0.018796687383134125 -0.06630068913612458 0.03831240349855536
0.01883090383504629 -0.06643616257387702 0.036948550171517436
0.018864765935147423 -0.06658016751199597 0.03558698169384289
0.018900000372319037 -0.06670376515219795 0.034201508314652185
0.018932712023093847 -0.06687215433530869 0.03285130782634621
0.01896669942450227 -0.06702176220793138 0.03147865880938244
0.0190017812689434 -0.06715574735761737 0.03008616834591271
0.019037529867176783 -0.06728132723485103 0.028680264464191974
0.019073462208363492 -0.06740657003171463 0.0272683053774323
0.01911169396190969 -0.06749656781721858 0.02581754588423596
0.019149980542681536 -0.06758855366635375 0.024362490421826033
0.019187875554294433 -0.0676898698493541 0.02291007565288694
0.01922283584654136 -0.06784216976589058 0.021500029968410828
0.019260370734221644 -0.0679549974033517 0.020046551515554678
0.01930984260860557 -0.06787584584279205 0.018402386662004555
0.019340916977336912 -0.0680999964207844 0.017043268141092804
0.019382657119883098 -0.06815323264842371 0.015513030872780442
0.019425441446521485 -0.0681927021839106 0.01396250637850971
0.019467802739241834 -0.06824224730457162 0.012414840126537374
0.019510144196161146 -0.06829531585373977 0.010863671866146729
0.019551280592952244 -0.06837098015484905 0.00932792211997191
0.019581124071070266 -0.06863107244421868 0.007969224725422996
0.019607952501703347 -0.06894171664317483 0.006656233858313321
0.019638021295830307 -0.06920260798471994 0.005288666347221249
0.0196683907822362 -0.0694609794351399 0.0039135352811069946
0.019692325955497997 -0.06982398256712197 0.0026398175808048374
0.020855895767358093 -0.02952817958737275 0.05048999041667812
0.020779738487012055 -0.031561049828694454 0.050594876522825294
0.02070866040614727 -0.03350275443756778 0.05063983720060816
0.020641587870222834 -0.035371920289529624 0.05063830708113354
0.020574463964531883 -0.03723715911183423 0.05064316191409052
0.020508898291377708 -0.039071471071391306 0.05063315812170616
0.020443164604541035 -0.040903912001031995 0.050630960305128925
0.020377586934413047 -0.04272905279256678 0.05063228445236956
0.02031232371299252 -0.044544270100785044 0.050634998780816565
0.020248102756418185 -0.04633749551135585 0.05062933054177876
0.020184597438823962 -0.04811426014309106 0.05061952831633332
0.020121592191062184 -0.049878209743503876 0.050608401747336385
0.020058876730469348 -0.051632871930722135 0.05059872580684727
0.019996449312614222 -0.05337830650717301 0.050590487120633354
0.019934308205935062 -0.0551145728144109 0.05058367243658657
0.019872301046420127 -0.05684420238294002 0.0505803215687759
0.019810927968415812 -0.05855901836609628 0.050573580458122214
0.019750131203869037 -0.06026003275564723 0.05056416031060462
0.01969601837905612 -0.061847712846985314 0.050467974960243245
0.019641220146278324 -0.06344268033309453 0.050385852681561205
0.019600199035047363 -0.06481006043685605 0.05011771271956306
0.019617213233800578 -0.0652343712306861 0.04904735824489587
0.019654866538012745 -0.06532629226411935 0.04768814386682324
0.019692319493147488 -0.06542413376184009 0.04632852309362684
0.01973085595720203 -0.06550721402034809 0.04495053374759239
0.019767506187592807 -0.06562333308244472 0.043595772069689565
0.01980249761341056 -0.065768645257482 0.04226127308304972
0.01983826367428605 -0.0659040738701413 0.04091284367932574
0.019873154735051784 -0.0660560127105762 0.03957377833210918
0.019909378323492728 -0.06618923797795445 0.038212789993049
0.019945987141054795 -0.06631893367830488 0.03684322274549351
0.019982426195911937 -0.06645393344884148 0.03547296856854354
0.020019151512036565 -0.06658701090236119 0.03409550465878952
0.020054068657078 -0.06675122782187959 0.032740941158425296
0.020090339486912922 -0.06689663804530738 0.03136386346706149
0.020128081074931137 -0.06702154860154153 0.02996240366683728
0.020166119862521516 -0.06714449942355893 0.028553415696941198
0.02020554853062893 -0.06724844585231443 0.027120947850596155
0.02024539226824946 -0.06734873639481709 0.02567906127104913
0.02028696329661796 -0.06742500174766647 0.024208480135385346
0.0203270240085617 -0.06752767767248835 0.022756549654770863
0.020364131643388704 -0.06767894385136342 0.02134472057136061
0.02040301578685488 -0.0678054140797833 0.01990348200734393
0.020456618162591374 -0.0677077973919295 0.018240819751771664
0.02049222503915493 -0.06789074563149305 0.016841041782788724
0.02053733737235841 -0.06793040051699795 0.015296559734254811
0.02058356457734229 -0.06795621237743099 0.013731573932652008
0.020628809852989205 -0.06800032083649887 0.01217737212354425
0.02067436317571851 -0.06804296757380862 0.010614688620900925
0.020716843202671316 -0.06813558047646456 0.009094456678234109
0.02074706636251525 -0.06841708848946543 0.007755898696529762
0.02077578606319535 -0.06872349958833668 0.006437560338122761
0.02080717243394683 -0.06899171537416676 0.005076237871302236
0.02083920596600505 -0.06925242868258125 0.0037023780181948407
0.020864361417867586 -0.06961874547229224 0.0024309398832762508
0.022012922090219066 -0.029554426076780882 0.05051010468022138
0.021932719607645673 -0.031584264537718676 0.05061276332585879
0.02185793285004921 -0.03352208093478776 0.050654808396733086
0.021786798796509913 -0.03539655532511948 0.050657493227744155
0.021716637529939326 -0.03725072797513446 0.05065378636823176
0.021645854249237713 -0.03911003602776486 0.05066351674102626
0.02157749372745401 -0.040926143601187404 0.05064855506580118
0.021509953771592923 -0.042724644036085724 0.050628776532094355
0.021439900135194204 -0.0445582571635168 0.05064618745479277
0.021372226988880572 -0.04634963092618882 0.05063908993426197
0.021305362462466507 -0.04812371512021263 0.05062717269698247
0.021238751993876773 -0.04988929020262722 0.050617408140129105
0.021172448736734895 -0.05164555003427279 0.050609085726929515
0.021106558163049557 -0.05339087858730229 0.05060081511391723
0.02104102309981253 -0.05512620871052365 0.05059328220864706
0.02097621176296978 -0.05684585079257698 0.05058169018166542
0.020911535077772287 -0.05855901836609567 0.050573580458121714
0.02084777956106513 -0.060253548116031785 0.05055871905307324
0.020792793276521386 -0.06180829404833327 0.05043472335496341
0.020734263249852076 -0.06341394452079974 0.05036148431427784
0.020696320293503784 -0.06469899182450661 0.050023026673501614
0.020715222704261085 -0.06510907517972125 0.04893997866623462
0.020753598251832643 -0.06522224521884051 0.04759850388289538
0.020793001603381104 -0.0653223078199267 0.04624033372688763
0.02083344366787784 -0.0654092009866103 0.044865199082749
0.0208723113711163 -0.065522778957264 0.043507763787116294
0.020909428191710946 -0.06566556113136651 0.04217057552132675
0.020947628683580632 -0.06579444373973387 0.040815879324531734
0.020983741014762084 -0.06595746321747592 0.03948615633017277
0.02102226700739036 -0.06608653730129233 0.03812099754702908
0.021061469069536386 -0.06620804844372485 0.03674359495078161
0.02110017400610095 -0.06633967319372341 0.03536977004622732
0.021138859973409203 -0.06647420084998745 0.0339930820233274
0.02117617541174527 -0.06663182296157599 0.03263196326605439
0.021214869739180974 -0.06677141475462306 0.031248977179559545
0.021254957364880953 -0.06689290186593183 0.02984375933351846
0.021295797703442688 -0.06700593159187684 0.028424953811426124
0.021337892181983432 -0.0671031564263384 0.026985551160675025
0.02138153011436557 -0.06718042999421248 0.025521396233359916
0.021425181007020067 -0.0672604651780962 0.02405354264267434
0.021467289400073947 -0.067366134854354 0.022603638319145247
0.021506665882949912 -0.06751473138513003 0.02118847247072836
0.0215453482647013 -0.06767615133537996 0.01977984819021389
0.02160422379740783 -0.06754531694818089 0.018084606093538014
0.021646475136995295 -0.06766065952110906 0.01661867953337076
0.021694049960259008 -0.06770148461497516 0.015074178493181378
0.021743315002098196 -0.06772101873922692 0.013501907195936635
0.02179171735034732 -0.06775636701738835 0.011937914131584015
0.021840565520111592 -0.0677885555658998 0.01036366916724768
0.021883804955745677 -0.06790481264540771 0.008865585024771028
0.021914423329325063 -0.06820530630081628 0.007544767664079521
0.021945243529107098 -0.06850497909673475 0.006218582746440937
0.021977896011206744 -0.06878053912552323 0.004863523691644778
0.022010995974326673 -0.06905192550084643 0.003499368906307865
0.022040157369425186 -0.06938159894955381 0.0021895867317535123
0.023169776610341707 -0.02958066866894199 0.05053021595706991
0.023085670405248504 -0.031605619361624426 0.05062921709784529
0.023007017628398983 -0.03354232544914909 0.05067049073127661
0.022931847431491133 -0.03542118686960333 0.050676676655427466
0.022859678254616805 -0.03724982341736571 0.05065307809722047
0.022785585047477113 -0.03910286180696604 0.05065786914127168
0.022712856105812567 -0.040930589574498744 0.0506520737435312
0.022640707295009586 -0.042744923370023225 0.05064491221275441
0.022567558219993237 -0.044569620800827325 0.050655277571530655
0.02249650185482395 -0.0463582985440516 0.05064606049816789
0.02242600665113455 -0.04813402903186531 0.05063551152907497
0.022355837485100238 -0.04990036992469521 0.05062641393383027
0.0222861060567433 -0.05165569181868729 0.05061737309227604
0.02221680828267924 -0.053400097503278066 0.05060838847499216
0.02214799626657962 -0.055132857423253745 0.05059877320076428
0.022080111321884078 -0.05684749918555132 0.05058305878072056
0.022012142187128776 -0.058559018366094895 0.05057358045812105
0.02194552713977538 -0.06024625258499905 0.050552597377000075
0.021888850433531146 -0.06178335062712603 0.05041368240940769
0.02182695771554231 -0.0633931876645108 0.0503438822123255
0.021795816229035 -0.0645497205211068 0.04989577281473462
0.02181442509846172 -0.06497891650647564 0.048828431786787085
0.021853487101640416 -0.06511176960774584 0.04750332547608527
0.02189444458344651 -0.06521962028099265 0.046151398148581824
0.02193671229960765 -0.06531112742332246 0.04477981171808931
0.021977761518938897 -0.06542295990492308 0.04342039886450544
0.022016967396945145 -0.06556400974811977 0.042081226528449256
0.0220576496301459 -0.06568633987577616 0.04072026490374758
0.02209574441684081 -0.06584842656121304 0.0393892100161366
0.022136606406706824 -0.06597332899277203 0.03801981352481426
0.022177732384201797 -0.06609708553492555 0.03664389736759682
0.02221878546974688 -0.06622452490448 0.03526576946190446
0.02225959389044412 -0.06635808370826696 0.033887656811415146
0.022299471203158543 -0.06650748160912917 0.03251847995817436
0.0223405197042648 -0.06664285677336185 0.031131031475408688
0.022383210224127065 -0.06675766950587286 0.02971904141412246
0.022426524660554656 -0.06686643072672771 0.028295626939882357
0.02247122052206902 -0.0669585460336477 0.026850787268760834
0.022519054205570717 -0.06700950088026358 0.025361274306349824
0.02256452788763726 -0.06709657276726205 0.02389921172842635
0.022609951581790116 -0.06718726591936203 0.02243432662787087
0.022652210897842893 -0.06732497986620378 0.021007923970944087
0.022688205646003153 -0.06755251630883546 0.019661597024085375
0.02275289426617318 -0.06738431271424788 0.017929811708481513
0.022802411965355464 -0.06743023718094043 0.016395992341212473
0.02285274331150065 -0.06746810962309108 0.014847465451963637
0.022905578731722564 -0.06747472114680214 0.013261397440889777
0.022957030471522335 -0.06750374599285486 0.011689948662208405
0.02300865329466366 -0.06753373224337345 0.010112243883809047
0.023051687831711815 -0.06768452101038552 0.008647103486331631
0.023083901827049523 -0.0679857488344 0.007325885260123344
0.02311626713651761 -0.06828698714425552 0.006000134799477197
0.023150133870282693 -0.06856991174570165 0.004651362378050361
0.023185022694911368 -0.06884116286804953 0.0032859721186216384
0.02432645936598899 -0.029606907364720325 0.05055032424788597
0.02423848109525689 -0.03162697159047434 0.05064566887035582
0.024156350882855903 -0.03355704725930153 0.05068189492442121
0.02407723926398649 -0.035438518086333526 0.050690174474982586
0.024000778545728286 -0.03727695809147746 0.05067432461539667
0.023924989072357388 -0.039101068204988765 0.0506564572045094
0.023847693090357534 -0.040942148564307945 0.0506612218776234
0.023770587026331006 -0.04277577858888576 0.05066946281978102
0.023695446559158492 -0.0445766134291416 0.050660871186140544
0.0236206580237821 -0.046367832408244936 0.05065372770393095
0.023546642245569557 -0.04814348289282333 0.05064315500730221
0.023473028826124412 -0.04990889228632445 0.05063334105981848
0.023399993601422104 -0.051661607572920765 0.05062220715447152
0.02332741145830935 -0.053403449708509354 0.05061114231944425
0.023255396079908768 -0.05513285742325136 0.05059877320076234
0.023183941141453043 -0.056849971743774375 0.05058511165336721
0.023112632852062026 -0.05856065304543234 0.05057494487820641
0.023044134598424266 -0.060227606951693435 0.0505369518363582
0.02298473234819288 -0.06176323214291152 0.05039671152447961
0.022921511881441797 -0.06334847143099415 0.05030596222625783
0.022896515234725377 -0.0643979237961439 0.0497663660328565
0.02291532914467677 -0.06483752605980392 0.04870725920015384
0.022954600336210856 -0.06499485209077444 0.047402597153487436
