# .PCD v0.7 - Point Cloud Data file format
VERSION 0.7
FIELDS x y z
SIZE 4 4 4
TYPE F F F
COUNT 1 1 1
WIDTH 773
HEIGHT 1
VIEWPOINT 0 0 0 1 0 0 0
POINTS 773
DATA ascii
0.05533802836477859 -0.000934680732820603 0.025411105201484152
0.05525690709958079 -0.002302029028606545 0.024882964458832313
0.05520311677642474 -0.003479096172138263 0.02421051360267218
0.055152120792978265 -0.004635420327525286 0.023524843897414494
0.055135828297076944 -0.005552668320902399 0.022652916994170602
0.05512681619847317 -0.006419703763616502 0.021741983483393124
0.05514247067779979 -0.00711832486083358 0.020696854684836286
0.055165889921260085 -0.007764584705124755 0.019608703644374004
0.055209775382815685 -0.0082726094223311 0.018407420356147786
0.05527867512967041 -0.008612491314534232 0.017066897292629057
0.05536065748369264 -0.008865967190433421 0.015651723402049122
0.05548384777391549 -0.008843935605878095 0.014005397076620574
0.05561884935554958 -0.0087460215598264 0.012289139380032732
0.05578573538812836 -0.0084379575215916 0.0103904263116395
0.05602962112141731 -0.007618864735524755 0.008055291291378996
0.04991625569101173 -0.06462172324825693 0.023124466621131046
0.0495834478437812 -0.06746895772924688 0.024249871721423066
0.04939184845237536 -0.06940986858954595 0.02453817220137211
0.04925719395549376 -0.0709844430011311 0.024489901784696233
0.04915542699877822 -0.07234722536217514 0.02424751375537937
0.049079878519174995 -0.0735417097937281 0.02384972121137985
0.049011308444952675 -0.07469008544280015 0.02341213159119121
0.04895389736899722 -0.07576641893909508 0.022908890229349443
0.04892312558300611 -0.07667426448508902 0.022244757339182575
0.04890371069518123 -0.07751026197023964 0.021512054465671226
0.048889781301734714 -0.07831150327337433 0.020746294602515314
0.04889475517465971 -0.07899479713516877 0.019864445114705698
0.04890906069761792 -0.07962034847200278 0.01892471257086531
0.04893358614215532 -0.08018306893988003 0.017921100759968278
0.04896162754280602 -0.08072479786918646 0.0168947687610827
0.04901230809351913 -0.08112789885315325 0.015726270266235076
0.04908025443542785 -0.08142638312337835 0.014448027573282507
0.04917328132337945 -0.08157310023929559 0.013010129699394413
0.049307476802624504 -0.08147075916095387 0.011310092570777808
0.04952226537838004 -0.08088063025663639 0.009097147681406792
0.0548506887100262 0.021758210582198068 0.07562150589777658
0.05483967321869777 0.0208935807419795 0.0747373162393489
0.054828509250524765 0.020028174126325793 0.07385417196179128
0.05481750266496629 0.019164241135535 0.07297069454769992
0.05480634772077906 0.018299536222262436 0.07208826672862914
0.05479535003019413 0.017436299237038544 0.07120550069652787
0.05478420409905574 0.01657229517481551 0.07032378846655951
0.05477321529266649 0.015709753352668943 0.0694417329554895
0.05477962489463665 0.014973931951881736 0.06847972423238219
0.05479428104743305 0.014297724178964355 0.06747928310335788
0.054808181101180374 0.013615625938578346 0.0664818595883177
0.05482117103951167 0.012926557240106773 0.0654882112502636
0.05483416713672367 0.012237161835603971 0.06449409179675292
0.05484732240166042 0.011548540204403546 0.06349878145767207
0.054860330902367326 0.01085848902600467 0.06250371582036823
0.054873345575162304 0.010168110441991285 0.061508178058542196
0.054886519647673236 0.009478499938871454 0.060511439547394075
0.054899546750571994 0.008787464174683957 0.059514953572591345
0.054943424563505566 0.008315792395164001 0.058370336529781186
0.055002293983370185 0.007949431632280846 0.05715220305336599
0.0550612896904418 0.0075822849490029265 0.05593145642609787
0.055117939685095964 0.0071968458901923715 0.05472005032094124
0.05517346770136695 0.006801861179013935 0.05351216298423522
0.05522910771275369 0.0064060798184751855 0.0523018394452045
0.05528486005842461 0.006009499395985607 0.051089072326000906
0.05545701767859372 0.006428790937334339 0.049303284255589386
0.055641743734208694 0.006931247467243107 0.04744975597716061
0.05581359950126894 0.007338411803623157 0.045653522517887624
0.0570016538865617 0.0042485754808292975 0.026199169176735815
0.056851004888617794 0.0024129927415987296 0.02601154881951795
0.05672290695973328 0.0007342821381247089 0.025711504468082513
0.05660516148451988 -0.0008708776908532556 0.02536168042244702
0.05652428133979232 -0.002224316007746696 0.024822440356631115
0.0564619485474162 -0.003450757152547501 0.02418832407895244
0.05642095539998741 -0.004532264325464275 0.023443638728482985
0.05640120921861907 -0.005470372379710986 0.022587785497587276
0.05639231177120085 -0.006335449438838514 0.02167494474913123
0.056414155975126966 -0.006995364747156008 0.020598495175738085
0.05643634110481571 -0.007653636547267528 0.019519478295861092
0.05647768109246567 -0.00818541322415084 0.018336921938068018
0.0565400486466278 -0.008579113378302805 0.017039767116797444
0.05663222737333468 -0.008777593093945268 0.015579508454971469
0.05697208758713763 -0.007345482212345766 0.012774414102803777
0.05703025832729293 -0.0077765312085222305 0.011488463505943236
0.05707131363810604 -0.008321613075090883 0.010293829867688786
0.057337948531151615 -0.007390051537951692 0.007864307460232034
0.05111601683164656 -0.06421444582773628 0.022742939777079307
0.0507821209066279 -0.06702231675933296 0.02382928782204302
0.050574162229854065 -0.06903878292454624 0.024186914217130262
0.05043638051817995 -0.07061462541990798 0.024138020493513324
0.050321619410578174 -0.07204426879264786 0.023957749854046695
0.05024060831685875 -0.07326254709413627 0.02358132567072585
0.05017150558195271 -0.07440525986655838 0.023136867448913412
0.050116641157242736 -0.07545861860336184 0.022609876399124762
0.050086510460167114 -0.07635897345324794 0.02193687544683426
0.05007426426939267 -0.07714922201858204 0.021157668122565143
0.05005794532714774 -0.07796394050032285 0.02040336653823599
0.05006635845389513 -0.07862782626170411 0.019500489574637514
0.050082555307855325 -0.07924473989966041 0.018550258863584024
0.05010476329518425 -0.07982574137693899 0.017563025741004268
0.05014655232628903 -0.08028916718431778 0.016455965513271054
0.05019955963834173 -0.0806862226866184 0.015279073939802212
0.05027349563430757 -0.08095904464301606 0.013972399199057184
0.05037990280814051 -0.08103934286959968 0.01246409387495695
0.05054114034863191 -0.08079480468222644 0.010615012461056506
0.05080049057898442 -0.0799695770020627 0.00815547389048743
0.05595750485129864 0.02173094893157529 0.0770446944941715
0.05594613380582072 0.02086692837891907 0.07616266945783284
0.055934923054050754 0.020004380576702285 0.07528031785706443
0.05592356118342163 0.0191410593429428 0.07439900708374592
0.055912359475342135 0.018279205182070546 0.07351736468309458
0.05590100676846231 0.0174165824202947 0.07263676730763247
0.055889814093133754 0.01655542106263863 0.0717558332503263
0.05587847053892158 0.015693495927299295 0.07087594840895267
0.055867286885422966 0.014833026536087923 0.06999572183959635
0.05585595247281382 0.01397179818299521 0.06911654866994021
0.055844777830241416 0.013112019922802698 0.06823702873451715
0.0558391921857317 0.012292121356273167 0.06733245174616104
0.0558540897231298 0.011617103651774707 0.06633452378228022
0.055868839905278786 0.010940630516134975 0.06533677499253143
0.055883597880066166 0.010263799994396694 0.06433849908421041
0.055896808994318724 0.00957569246688672 0.06334687270397843
0.05591018189194642 0.008888349768856885 0.062354056745615005
0.05592340557981785 0.00819958951205818 0.06136148918025197
0.05593663552441389 0.007510503371675414 0.06036845198633761
0.05595002748752007 0.006822176390763213 0.0593742154033583
0.055963270032633704 0.006132436125241503 0.058380235011471604
0.05598868210440253 0.005526779580782404 0.05732841713442699
0.05604848359678224 0.005158587239561696 0.05611298572355178
0.056108412973662536 0.004789607525116202 0.054894955132738676
0.056168470645700824 0.0044198379090653606 0.05367431701560865
0.056226140130321095 0.004031949840262394 0.05246310134480131
0.05628266720693289 0.003634601825985795 0.05125544810093974
0.05633930805717482 0.0032364540582331403 0.05004536417957384
0.05646562093875435 0.0033134167638600998 0.048496670387231156
0.05665503784435314 0.003817722945547497 0.046637738360347014
0.056837370268402874 0.004268461673656854 0.044806972659717836
0.05827883303982311 0.004318200679783224 0.02614609783571209
0.0581336917317071 0.0025412040397325697 0.025913292789928877
0.0579969692470143 0.000823982713825111 0.025642390677861338
0.057887219762021644 -0.0007112768230063127 0.02523804622908815
0.0578091287433336 -0.002034826031249881 0.02467486263314661
0.05773771634614363 -0.003312271097902497 0.024079889149347444
0.0576972723706413 -0.004384490432275567 0.023327310025156867
0.057670782475843944 -0.005364200945185416 0.022503758213556713
0.05766730748324649 -0.006192779281797012 0.021561426223284552
0.05768965403510711 -0.006852889344100166 0.02048452479718199
0.05771815029915543 -0.007473610244145168 0.01937469977995049
0.05776094751895526 -0.00800227684403415 0.018188855561774964
0.05782077074404704 -0.008421834016589524 0.01691192767494648
0.05793193800422078 -0.008511140624059332 0.015361776655992476
0.05820018819740168 -0.007590259082260464 0.01297549887497601
0.05827629825027168 -0.00791362802797263 0.011601688063155924
0.05839007391719075 -0.00799720709486551 0.010024487711456864
0.058739231960692175 -0.006575452088696532 0.007184384600366245
0.052349104295168876 -0.06362154024204925 0.022187521318971337
0.05198472987871413 -0.06657113556350186 0.023404428573895242
0.05176700976926745 -0.06861985553972971 0.023790370770121916
0.05161823289506649 -0.07024473352636801 0.023786068494188572
0.05149866442830246 -0.07168887519856643 0.02361783237184678
0.051411586605335756 -0.07293370821952755 0.023265169939076513
0.05134263449076764 -0.07406703588041041 0.022809997451235353
0.051290747140929266 -0.07509598744975926 0.022257596958170922
0.05125686740810116 -0.0760156310181514 0.021601601341434684
0.05123831140928826 -0.07684275928417444 0.02085685319267616
0.05123373981161623 -0.07758599923080778 0.020030465071176784
0.051247849083491205 -0.07821800414905933 0.01909403489628303
0.05126405820413713 -0.07883794356114632 0.018144713281609992
0.051290485352380503 -0.07939784829337976 0.017134237592816237
0.05133568389091919 -0.07984763285632851 0.016011215627940056
0.05139212994151889 -0.0802324130108335 0.014819592457016195
0.0514739998025711 -0.08046933508136428 0.013474002913627214
0.05159252652897574 -0.08049359638418385 0.011905793139423027
0.051786484508629826 -0.08007990987556163 0.009879890235679367
0.05705720932267027 0.020904345392265544 0.0775437141484418
0.05703676540036035 0.019979562563621545 0.07670145508814383
0.05702536120840576 0.019119086869480717 0.07582093394548453
0.05701396157595375 0.018258955201462646 0.07494076484328549
0.057002408267394215 0.017398055827332615 0.0740616341392358
0.05699101780897832 0.01653861420024616 0.07318217078850539
0.05697947379625823 0.0156784096718543 0.07230375001387815
0.05696809250080901 0.014819657253926477 0.07142499156404658
0.05695655777271357 0.013960146732126144 0.07054727986133214
0.056945185629178205 0.013102082692912187 0.06966922546320203
0.056933660174511 0.012243265339909049 0.06879222197626883
0.056922297171855304 0.011385888850305115 0.06791487078200337
0.05691078097943703 0.010527763829645764 0.06703857465610064
0.05689942710664459 0.009671074061879725 0.0661619258192242
0.056907784379305694 0.008950462414378801 0.06519690820610619
0.05692292833268886 0.008276275046267378 0.06420095415211657
0.056937922473186256 0.007600645658710881 0.06320518577692108
0.056953082473286995 0.006925741753788295 0.06220817382409549
0.05696714426987095 0.006242918990745361 0.061215683362480455
0.0569805805597975 0.005555445972594608 0.06022560150364792
0.056994023189395684 0.004867648582703776 0.059235052492545626
0.05700763042414429 0.004180601519595983 0.058243305456766925
0.05702108582127048 0.0034921530391590627 0.05725181822311881
0.0570347059829547 0.002804451112246309 0.056259126441833174
0.05708814077426504 0.0023851689539576837 0.05508025729451094
0.0571489910219574 0.002014386240526189 0.053864932679591304
0.05720997112862081 0.0016428122491009 0.05264701447121439
0.05727108151039237 0.0012704444440066465 0.051426494358128794
0.057329761590011775 0.0008801308590235535 0.05021547788077951
0.05738727900082111 0.0004804424362743198 0.0490080671175776
0.057466292814985276 0.00022254105249092104 0.04769639951268195
0.057658306034385806 0.0007145301429916651 0.045842127017390044
0.057851606710445695 0.0012098180408894876 0.043975421547521654
0.058031280355197064 0.0016094985886503932 0.04216798333513749
0.05956148109180637 0.0044204378545496525 0.026068168234808287
0.0594131063403367 0.002642718665788135 0.02583549602594143
0.059280524849491985 0.0009713598349263552 0.025528837433061502
0.05917034935901126 -0.0005515425887387959 0.025114308723948764
0.05908947386066624 -0.0018824401718880446 0.02455618216977007
0.05901763798042861 -0.0031529417438102003 0.023955133863775235
0.05899034206192193 -0.004135404372045681 0.023131227633484686
0.058963071380709234 -0.0051169586337835304 0.022308083171419746
0.058952576351246705 -0.0059904781272819285 0.021400461033970586
0.058965272426440014 -0.006715708789517438 0.02037478992785713
0.05900712352076321 -0.007255622984491339 0.019199392775403223
0.059055656962843456 -0.007754219068687063 0.01798830002014229
0.05913848354859382 -0.008036696557978507 0.016598881149271383
0.059233842398830706 -0.008242146333278855 0.015141967806512502
0.059397295837429476 -0.008020292534651363 0.013328772363727648
0.059498835627321486 -0.008192951699325601 0.011832373932709472
0.05975751434290258 -0.007380597403250921 0.009512539738803616
0.060200386092016014 -0.005419982098479159 0.006219946850063274
0.05360147378643639 -0.0629387212155813 0.021547874299272296
0.053172046612565714 -0.06623026269024113 0.023083442251801922
0.05295252842109356 -0.06826231915793751 0.023451938109939396
0.052799628791807114 -0.06989328887549162 0.02345166903940682
0.05267421392426833 -0.071357453496251 0.02330084289180656
0.05258640036116747 -0.07259622110430414 0.022940699524918062
0.05251633317689376 -0.07372806973828233 0.022482410211334902
0.0524629334372122 -0.07476006712578814 0.021931265856284188
0.05243265928472186 -0.0756550386258949 0.0212494826419396
0.05241659871076987 -0.0764660545524814 0.020487090755908266
0.052413922905332644 -0.07719853399856497 0.019648166642314613
0.05242369091871678 -0.07785850349350038 0.01873748819268911
0.05244953348547039 -0.07842538836714197 0.017733426550613163
0.052479961254090914 -0.07896641458529352 0.016701901413840425
0.05253017042241958 -0.07939393511415394 0.015554213746056922
0.05259326919759268 -0.0797485023883196 0.014329633819655685
0.05268353855078931 -0.07994849079645033 0.012943919620965083
0.05282652290897018 -0.07984841448375207 0.011245769595176536
0.053082841180219276 -0.07910337064821582 0.00887572055465502
0.058219104098665264 0.021322912615813483 0.07869082462693977
0.05818889672499307 0.020333884233281474 0.07788810092734255
0.058158559396577984 0.019344765803963826 0.07708688730378183
0.05812841480202623 0.018357790732031642 0.07628582930913591
0.058098301440224924 0.01737183826282862 0.07548560128892054
0.05808671530854306 0.016514127689849334 0.07460761999744372
0.05807609874662347 0.015663383409202147 0.07372587374847833
0.05806436070477442 0.01480523965946412 0.0728492668592084
0.05805278810491382 0.013948541596426944 0.0719723238161191
0.0580410594830782 0.013091088675602824 0.07109642298533841
0.058029496168597275 0.012235075841149856 0.07022018100214772
0.05801777695544024 0.011378312917105837 0.06934498537922856
0.05800622291516843 0.0105229844877332 0.06846944361354895
0.0579945130993724 0.009666910729664246 0.06759495234923274
0.05798296832215698 0.008812265883187231 0.0667201099600267
0.05797126789242346 0.007956880461627625 0.06584632220641301
0.05795973236712874 0.007102918377172751 0.06497217835399416
0.05795572805040432 0.006299856725170472 0.06406496343563522
0.057971107646782656 0.005626855684280285 0.06307150060864652
0.05798633507655761 0.004952424619003193 0.06207822737842472
0.0580015705080967 0.0042776391513261736 0.0610844321994925
0.05801697444757605 0.0036035685748775914 0.06008939178023176
0.058031904818333084 0.00292593591167023 0.05909600016798605
0.05804555757913594 0.0022394235809795604 0.0581079270450543
0.05805937749999396 0.0015536528320446719 0.0571186572658296
0.058073043191991344 0.0008664924251292061 0.056129650856615254
0.05808671531861226 0.0001790084621028365 0.05514017876417948
0.0581213265084555 -0.00037098593018697335 0.05405395718009248
0.058183085012402644 -0.00074354206401539 0.05284132851016121
0.05824497490254261 -0.001116890780714308 0.05162612007138151
0.058307158708021396 -0.0014899738508776794 0.05040757020884429
0.058369312977280964 -0.0018649152526947765 0.04918717327404526
0.0584288323855973 -0.002258691936358137 0.04797712224976419
0.05848733148684239 -0.002660698095681646 0.04676996224535751
0.05865368953804574 -0.00236427466208744 0.04505276838526501
0.05884955198978026 -0.0018812205601285714 0.0431907867228396
0.05904223854779617 -0.0014239384544079692 0.04133761769603905
0.06085186834939114 0.0045677092518067175 0.025955911599792547
0.06070619564959075 0.002826920045659931 0.02569433142894828
0.060578187424134684 0.0012020713824575924 0.02535107548032972
0.0604592572871002 -0.00036189157897403845 0.024967396304685197
0.060387010230804325 -0.00162782659880506 0.024357885182359373
0.060323957238748956 -0.0028338815634773584 0.023705308938927472
0.06029343346493733 -0.003833669824681196 0.022893699962756087
0.06027714364638679 -0.00474331309164705 0.02201236878989954
0.06027350563481806 -0.005573291041906403 0.021068517312058666
0.06029412684558692 -0.00625157862421627 0.020003518188987435
0.0603187521404301 -0.0069054510861824014 0.018917781883708684
0.06036163423825383 -0.007446387508589503 0.017739417173472216
0.06045821152441851 -0.007655094891031333 0.016288708577482436
0.06055492349879386 -0.007865554449291323 0.01483423551783597
0.0606777416668371 -0.007917217788454944 0.013244096218212598
0.060867587025041595 -0.007558711309419486 0.011308571939334489
0.06112981518645988 -0.006759763236592331 0.00899708434246932
0.05498275719438861 -0.06153057574584303 0.020228760422671688
0.0543775699976428 -0.0657973798955705 0.022675813874601713
0.05414060670133088 -0.0679047821833535 0.02311350488863878
0.053987573735891636 -0.06951845768244158 0.02309501729843272
0.05386720776458583 -0.07093877599045972 0.022900397284478735
0.053774389178625544 -0.07219664173475271 0.022556531722121576
0.05369865928578998 -0.07335347466890013 0.022120390087174924
0.05364508902715565 -0.07438078618363725 0.021562811913654112
0.053615876528582324 -0.07526684927154931 0.020870415491480165
0.05359491252983797 -0.07610489399530418 0.02013258602992285
0.053597241053919824 -0.07680930188594742 0.019264124894220136
0.053613272265668144 -0.07743566914005334 0.018318128192765182
0.05364207030193703 -0.07798986798145185 0.017299245237867245
0.053682714395353354 -0.07847763486483411 0.01621209926638728
0.053726860938063406 -0.0789466676512488 0.015103688973169493
0.05380708777468075 -0.07921316389996658 0.013787604560373257
0.05390431414337001 -0.07938605263110643 0.01237150463391451
0.0540867094453678 -0.07908294004104427 0.010462686321501269
0.05458932068188597 -0.07698955286217823 0.006702093861011504
0.059348141850593686 0.020752370060105274 0.07903328538856219
0.05931739209563802 0.019765032114117287 0.07823151633066067
0.05928667418861557 0.01877871676722026 0.07743057767565686
0.05925582406862232 0.017792313035490837 0.07663114560123083
0.059225169878859785 0.016808041423309716 0.07583186574710654
0.059194547388716275 0.01582478765026879 0.07503341243140679
0.05916379304665768 0.014841450620192265 0.07423646740543868
0.059141728517409654 0.013917243583836503 0.07340404635342854
0.05913078408309032 0.013068103919035623 0.07252551320334621
0.059120006958219624 0.012220369930345476 0.07164661547053822
0.059109070561020875 0.011371855978215883 0.0707687300290033
0.05909715938990803 0.01051713774830082 0.06989533486008254
0.05908541608688759 0.009663847686456395 0.06902159510244504
0.05907351444621748 0.00880981547777826 0.06814890130875795
0.059061780537445506 0.007957205881318985 0.06727585796559882
0.0590498884157846 0.0071038588699978145 0.06640386470467846
0.059038163889992355 0.006251928923576455 0.06553151694169096
0.0590262812759254 0.005399266287050342 0.06466022337241822
0.059014566121862976 0.004548015176628062 0.06378857035662494
0.05900269300399208 0.003696036093644328 0.06291797563922985
0.059013427397512995 0.002992247185751362 0.06194836097014328
0.059028885277239145 0.0023190116216362244 0.06095757058666018
0.05904435125711084 0.0016454232726946239 0.05996626101518404
0.05905998827174831 0.0009725411844869747 0.05897370791171347
0.05907547055645555 0.0002982448505233215 0.057981355811141555
0.05909096096050058 -0.00037640510305708696 0.056988483293724246
0.059105317215928405 -0.001058790812490218 0.056000218967884485
0.05911919067822435 -0.001744666855133803 0.05501368113930377
0.05913307065493107 -0.002430864957105483 0.0540266800729155
0.05914810103503852 -0.003110038099253365 0.05303402554604908
0.05921091912408755 -0.003483288814298935 0.05182333725835864
0.05927370667611934 -0.003858382979004371 0.05061082433353059
0.059336627529967156 -0.004234273491585727 0.049395737169541654
0.05939968211059397 -0.00461096289078089 0.04817806755977938
0.05946287084477098 -0.0049884537261309925 0.04695780726271098
0.05952321511043632 -0.0053856487225703575 0.045748743635184996
0.05964128094016641 -0.005418977842357953 0.04426958904238376
0.0598396591286703 -0.004947981282130698 0.04241231463878792
0.06003936140815109 -0.004473841017961222 0.04054264370964317
0.06201614612803379 0.0031085856190332106 0.025478474158064868
0.061906575626788314 0.0016142699007796746 0.02503347883502005
0.061795429481975125 0.00011305981579351476 0.0245994770485502
0.06170832913541794 -0.0012364642815682059 0.02405308615866847
0.06164170055700589 -0.002457314126259935 0.023410455687090048
0.06161615340092572 -0.0034233253785788675 0.022570673775233197
0.06160072892007415 -0.004326436347902141 0.021682439928064845
0.0615982475414579 -0.005149743584965838 0.02073151282608171
0.06161721744458267 -0.005841674909632111 0.019675623826025612
0.061647203066186304 -0.006466817366528266 0.018565029325563254
0.061704771978970896 -0.006924623226036819 0.017317569004651312
0.06178740384627522 -0.0072315066877687295 0.01594440860773516
0.06189440514520744 -0.007392662993433996 0.014447811975019098
0.06202620800993422 -0.007406434285180119 0.012824486373454125
0.06225654411723431 -0.006828262511455352 0.010705314022429191
0.06260518230621233 -0.005542828702158609 0.00798670909824678
0.0555944759763522 -0.06531711780569588 0.022223570314135632
0.05534497603441494 -0.06746895396478447 0.02270096364555302
0.055192164553643355 -0.06906423645831944 0.022662825972379064
0.0550675185577067 -0.07049566120782413 0.02247657855575802
0.054966851530395065 -0.07178804160796542 0.022163691087965565
0.05488497840425633 -0.07297161229073901 0.021751346613693323
0.05483394899665851 -0.07397920034611549 0.0211726897938867
0.05480026262131434 -0.07488793210469258 0.020500402637978088
0.05478988433595356 -0.0756650276436262 0.019700825979239
0.054795633982073176 -0.07635158889781696 0.018812515455047474
0.054811767478590755 -0.07698032269231136 0.0178665232445539
0.05483549395048285 -0.07756718393785056 0.016877860799945354
0.054881179562420494 -0.078032634773749 0.01576616832631994
0.05494329329118908 -0.07840820422840244 0.01456130408849593
0.0550201082698906 -0.07870409018116314 0.013272168333151702
0.055155478871004235 -0.07867888639632398 0.011651794315397868
0.05539853831410458 -0.07806442879219394 0.009420745430302635
0.060505486837682795 0.021171228932056974 0.0801757591116811
0.060473997883076676 0.020183435339335865 0.07937478106813733
0.06044270892072795 0.019197782236686 0.07857396446239379
0.06041145231916172 0.01821314855117323 0.07777397610560943
0.060380061140143125 0.017228426425364207 0.07697549027576364
0.060348869282093306 0.016245830121272675 0.0761771564231806
0.06031770963433543 0.01526424849584379 0.0753796469705168
0.06028641577620962 0.014282583546765204 0.07458364175666465
0.060255320571118584 0.013303029836585656 0.07378777912139381
0.060224257426761484 0.012324486095928677 0.0729927370608196
0.060193226293578886 0.011346950763600261 0.0721985143065173
0.06018012649092802 0.010487463834844335 0.07133073337303703
0.0601690209994029 0.009641328614187816 0.07045503643967527
0.060158085268215825 0.008796584607495217 0.06957896920119322
0.06014715351145002 0.007952147609783744 0.06870322035561799
0.060135894643925755 0.007105869571926993 0.0678291857495929
0.06012397808341365 0.006255622726587473 0.0669582793914304
0.06011190083577305 0.005404643957010291 0.06608842064310944
0.060099993781676235 0.004555073268412202 0.06521820651507304
0.06008792616671731 0.0037047753553123286 0.0643490440891808
0.06007602860766406 0.0028558800155171205 0.06347952136427598
0.06006397061386727 0.002006262143808002 0.062611054427065
0.06005208253850489 0.0011580413461708128 0.06174222227961085
0.06004977151515307 0.0003712718150822303 0.060832198682029326
0.06006562210928458 -0.0002997171901728546 0.059843162694001806
0.06008131583269572 -0.0009721112607549709 0.05885432649904487
0.06009718308612749 -0.0016438076140479763 0.05786424848162419
0.06011289330829961 -0.002316906444344846 0.056874375260034804
0.060128611746352006 -0.002990357281061673 0.055883984370434014
0.060144503994273624 -0.0036631159633817023 0.0548923416851515
0.0601595762787806 -0.004341444605524936 0.05390385786882579
0.06017366161147871 -0.0050263605630726516 0.05291931565466823
0.06018791936808691 -0.005710557768433877 0.05193356990223097
0.060232227810517625 -0.0062071233199945675 0.050812390505697524
0.0602959003907028 -0.006583934260752655 0.04960256718579964
0.06035970773222424 -0.006961542711932778 0.0483901833067531
0.06042365026336337 -0.007339951208081785 0.047175230730912676
0.06048772841421833 -0.007719162294498094 0.04595770128611393
0.06055194261671371 -0.008099178527288198 0.04473758676548939
0.06062117138168016 -0.008449861304380912 0.04349251671220017
0.06082202011029643 -0.007990749034084033 0.04163993297355739
0.06102420415821967 -0.007528584409509265 0.03977503254835085
0.06122722207169132 -0.007066498025103007 0.03790007588800737
0.06337375528732415 0.0036697868460113248 0.025048391901929923
0.06325063381435235 0.0021053936620977765 0.024655070732872097
0.06313492266628591 0.0005891916785938922 0.024230643347431302
0.06304254896744481 -0.0007825355272607082 0.023699559426419492
0.06300291314784567 -0.001832805233265622 0.022921463650865725
0.06296459747367797 -0.0028740854772786872 0.02213830805653605
0.06294482231899337 -0.0038026807086221637 0.02126792387616222
0.06293484874461773 -0.004671842555749484 0.020351260771536872
0.06296350861149111 -0.005308988915849189 0.019249512209136954
0.06300091449879132 -0.005894517894935669 0.01810478175775493
0.06307185332800329 -0.0062807092707104495 0.016796962416550376
0.06317125382460413 -0.006499082918418941 0.015349081637609452
0.06328984859029071 -0.006605854380650533 0.01380487083513443
0.0634610186246205 -0.00640365956004646 0.012000704587152855
0.06376908652207239 -0.005395185543496939 0.009521774493217727
0.0568739426000363 -0.06450570187268784 0.021459492452694906
0.05656644644783518 -0.06695500591643488 0.0222144766359606
0.056396319721648464 -0.06863061269263987 0.0222502331203836
0.056267909154296226 -0.07006982716334326 0.022069288051242586
0.056164185846347255 -0.07136875109315588 0.021760572388447474
0.05609006412775986 -0.07250113029960897 0.02129665843767209
0.056039847763489664 -0.0734995682249493 0.020706749309101213
0.05600149075305598 -0.07443136517187354 0.020054564738818115
0.055993308978441715 -0.07519628606343037 0.019240722841886215
0.056001203633698024 -0.07587282230206122 0.018340133155635374
0.056013552466378506 -0.07652518898883726 0.017415129292529197
0.05605264511518158 -0.0770318791771375 0.01634420191424879
0.05609510512189781 -0.07752123544045281 0.015253699250436126
0.05616750716061159 -0.07784900026108482 0.013998027612409092
0.05625399931184709 -0.0781022523958661 0.012662808654985647
0.05642734795529289 -0.07788804678492106 0.010846926378238142
0.05693219325564865 -0.07588997220197463 0.007196268047216903
0.06162871401469993 0.020602209657860526 0.08051534324221357
0.06159685590240534 0.019617214705791308 0.07971464765209318
0.06156486061052188 0.01863212784114221 0.07891544940345324
0.06153306846327348 0.017649170265603864 0.07811640917079382
0.06150130913406381 0.016667227366378268 0.07731819376232316
0.0614694129993328 0.015685197677718477 0.07652147741915219
0.06143771932875675 0.014705282692368538 0.07572490968020748
0.061406058323895805 0.013726377675937873 0.07492916293966875
0.061374260886080265 0.012747390966817151 0.07413491697436389
0.06134266523533516 0.011770504460119069 0.07334081026295311
0.061311102098921454 0.010794623244019308 0.07254752074780238
0.06127940290062953 0.009818665405736948 0.07175573370401
0.061247904815694074 0.008844793353287306 0.07096407662475945
0.06122383988484108 0.00791917927661473 0.07014286153951593
0.061212739370963304 0.0070767919781418165 0.06926897117537295
0.06120164288163236 0.006234710091319706 0.06839539764445984
0.061190382377893815 0.005391866814294655 0.0675228379371422
0.06117929399198814 0.004550397756358293 0.0666498998264281
0.06116820962403608 0.003709233610501239 0.06577727803080846
0.061156625714839985 0.0028651968557055207 0.06490708426180208
0.06114454283423276 0.002018309968502996 0.06403933863105793
0.061132297009281675 0.0011707036162730278 0.0631726442540072
0.061120223739192306 0.0003244882149339712 0.062305586294531146
0.06110798765242547 -0.0005224419871767139 0.0614395836519494
0.061095923981392686 -0.0013679867026247794 0.06057321254462472
0.06108369762119889 -0.00221424156167066 0.059707900810711534
0.061096594061429095 -0.0029038842957763156 0.05873495157900038
0.061112512759621415 -0.003575086936585703 0.057748576618086356
0.061128439755199895 -0.004246639431814914 0.056761687523845805
0.06114454283882952 -0.00491750451369688 0.05577355501693659
0.06116048653616565 -0.00558975911351739 0.054785633547704216
0.061176438550443135 -0.006262364391220521 0.053797196734716834
0.06119256693601356 -0.006934287803505412 0.05280750657948974
0.06120853569142792 -0.0076075968406633665 0.051818034958044656
0.06122299880655396 -0.008290524081619122 0.05083473740306388
0.0612472314253167 -0.008914142173410633 0.04980768485501391
0.0613117769195465 -0.009292641559295711 0.04860054109540807
0.061376458600043524 -0.009671939551180508 0.04739085035084051
0.06144127689827756 -0.010052038679234598 0.046178604551870506
0.06150623224754288 -0.01043294148432733 0.04496379559493374
0.061571325082968115 -0.01081465051808378 0.04374641534216145
0.06163672633773028 -0.011196139817514994 0.042525684231298766
0.06179672548417528 -0.01100980428433268 0.04087357053256235
0.06197634125952553 -0.010709658261755406 0.03912730788748242
0.062148509396121654 -0.010458686464433764 0.037409680973456594
0.06463148063528747 0.0027968682650071353 0.024122293431549535
0.06451060340129813 0.0012622180274958206 0.02370928609619416
0.06443132518266474 -2.2107532580584177e-05 0.023107326346847257
0.06438254950535573 -0.001123502405864174 0.022366077750422098
0.06433366187641212 -0.0022243304272620557 0.02162681606822181
0.06431082355227588 -0.0031700657790684206 0.02076725328990614
0.06431862018182258 -0.003934666051641111 0.019764710705492794
0.0643353336118814 -0.004647020501228505 0.018719983678679275
0.0643942712658429 -0.005111995215722864 0.017475471094824724
0.06446786221237008 -0.005492644592230311 0.01615980948629836
0.06456836593098887 -0.005717884585726196 0.014714109841319822
0.06474886035337891 -0.005479241604353369 0.012884258514892222
0.0649801657799514 -0.004949515811923488 0.010806122090861847
0.0582461622448976 -0.06321683797519095 0.020245820979869877
0.057807644888132774 -0.0663531429625574 0.02164477215015398
0.057632262594558226 -0.06804026201997915 0.021688514674604253
0.05747913625017947 -0.06960160352936662 0.021621453871284335
0.05738085241518189 -0.07086073262699566 0.021272147928135865
0.05729910737677205 -0.07202761885569242 0.02083904250588592
0.05724699503404583 -0.07303198460718763 0.02025251338968881
0.05719908834180997 -0.07401231631633515 0.019645363265892613
0.05720334673129144 -0.07471028346814651 0.018763676792849293
0.057212159205095495 -0.07538386996682622 0.01785770094238409
0.057231997201496985 -0.07599853167467968 0.016892799426413696
0.057267740285004365 -0.07652857032724669 0.015842440563133275
0.057311634359566405 -0.07701598906177176 0.014747395999887392
0.05739459783114196 -0.07729640190227144 0.01344140485142109
0.05752484014472648 -0.0773276600292796 0.011878535273113944
0.05776388650624377 -0.07678537348818193 0.009724693287089414
0.06280810988010516 0.021192256354345684 0.0815518161617644
0.06275848975467488 0.020097139414987086 0.08081676332947907
0.06271569906161974 0.019047032588929314 0.08005689206497779
0.06268386049994774 0.0180680622056133 0.07925597521182617
0.06265153593574237 0.01708677521548002 0.07845788093626088
0.06261924469236205 0.016106499756092407 0.0776606093526172
0.06258681430511197 0.015126137451106081 0.07686483281402545
0.06255458972649972 0.014147883624879676 0.07606920464641784
0.06252239831427057 0.013170636643159539 0.07527439536018216
0.06249006813666657 0.012193307901525563 0.07448108283157348
0.06245794308045367 0.011218073191058053 0.07368790935135475
0.06242585103713505 0.010243840667767401 0.07289555096546263
0.06239362060542334 0.009269531444089929 0.07210469103598219
0.06236159461127278 0.008297301887862374 0.07131396089300496
0.062329601477474204 0.00732606989017498 0.07052404208062912
0.06229764115347817 0.006355833916489473 0.06973493335079606
0.06226554294116753 0.005385527948066404 0.0689473253237447
0.062250870740204495 0.004524502271643249 0.06808975511574822
0.062239615367846474 0.0036850687772659874 0.06721866350148092
0.062228193621835015 0.002844881888360129 0.066348585397289
0.06221694644759308 0.0020060577085175835 0.06547812575253475
0.06220570333826464 0.0011675366934160158 0.06460798070607987
0.06219446429164574 0.0003293186787280966 0.06373815008740658
0.062183229305534986 -0.0005085964997491588 0.06286863372611623
0.06217131784579342 -0.0013503868151171772 0.06200227077073728
0.06215907081849617 -0.002193938561001474 0.061137663765782946
0.06214665861863877 -0.0030381974451098026 0.06027411159836543
0.06213442130362287 -0.003881082328750063 0.05941018775025708
0.06212201894508333 -0.004724669721452857 0.05854732277407998
0.06212184908465081 -0.0054936108161796615 0.057632885698248704
0.06213799002436093 -0.006163624883573526 0.056648959916533626
0.062154139353958096 -0.006833987217075899 0.055664522700774544
0.062170467205987394 -0.0075036705027347606 0.05467884380168425
0.062186633423482754 -0.008174731753153863 0.05369337963368681
0.06220280805058471 -0.0088461420871222 0.05270740283091058
0.06221916148645989 -0.009516878900051373 0.05172017446860527
0.06223535304116721 -0.010188989793711412 0.05073316829963459
0.06225155302526184 -0.010861450590927468 0.04974564829138961
0.0622669081601934 -0.011539352243877643 0.04876135010693877
0.06232139464283126 -0.011984660538068348 0.047604688478132484
0.062386938687395005 -0.012365620099191177 0.04639768075092221
0.062452620743783084 -0.012747381822049098 0.04518813150617068
0.06249849141438372 -0.013247982055586194 0.04406455758900579
0.06253496109050145 -0.013805221398728862 0.042981486396185486
0.06257147335369026 -0.01436311145210395 0.041897150458660104
0.06260785574944115 -0.014922667732182926 0.04081232076111341
0.06271050580802567 -0.015094325410460907 0.03942845977364051
0.06288338358368012 -0.01485735692311102 0.03772477487207154
0.06305704214541595 -0.014620100787372414 0.03601246277583153
0.06323183849752959 -0.014380504622076684 0.034289868001709134
0.06579037398000882 -0.00027749211919558814 0.021703649565034178
0.06574962909932139 -0.0013272819807584324 0.02092065288641254
0.06572908541841001 -0.0022590406273923502 0.02004624043441522
0.06572090956302477 -0.0031187984630137167 0.01911554841488039
0.06574734583559068 -0.0037787046497185783 0.018025391600465623
0.06580962158985103 -0.004232978295385881 0.01676855903264568
0.06591578068501633 -0.004436748780223265 0.015306114188142483
0.06605184251507776 -0.0044717678827244645 0.013701244185854222
0.06625853758918362 -0.0041062169012879846 0.011762290537755238
0.06675733429796911 -0.002078930402788559 0.008447929451181446
0.05907185102167932 -0.06565081667005174 0.020979972237212596
0.058855316900544706 -0.06754170337517124 0.021214136309235077
0.05872175491601469 -0.06898350916347007 0.021030275290363054
0.05860406171345658 -0.07033734427221233 0.020768946387745735
0.058524353718641356 -0.07148606726873147 0.020315670500285432
0.058462909527465017 -0.07253582376684536 0.019770516016538398
0.058443659497673175 -0.07336049686892077 0.019008861162526147
0.05842337046281862 -0.07419018634997965 0.018253164549201673
0.05842532360930574 -0.07490207467281929 0.017382330332056384
0.05844756863551095 -0.07550724794652747 0.01640555248793546
0.058488646162648164 -0.07601411898288596 0.015329570976823359
0.05854591988684554 -0.07643719159053375 0.014167387802971332
0.05866565163872776 -0.07653538078143113 0.01267484145017983
0.05883961702461657 -0.07635386776479897 0.010892572351906438
0.06396997815463043 0.020901925936582078 0.08172408462395386
0.06391947639217485 0.01980782415742499 0.08098942333353207
0.06386905430510102 0.01871544851555107 0.08025592110001625
0.06381871170500435 0.017624794929251564 0.0795235751826466
0.06376844840407382 0.016535859329677105 0.07879238284929788
0.0637322937917928 0.015536373538931392 0.07800876432414039
0.06370021022875924 0.014563174208979235 0.07721058530561448
0.06366833400788502 0.01359204471544423 0.07641253593221392
0.06363561527862303 0.012616450328229334 0.07561866197292855
0.06360293015996125 0.011641858128816684 0.07482560352754056
0.06357010408297734 0.010667185789579647 0.07403403840952716
0.06353748620937481 0.009694596561738877 0.0732426090497443
0.06350490179112438 0.008723004894751862 0.07245199143957945
0.06347217679688302 0.00775133812785872 0.07166286885362347
0.063439659313325 0.006781740188899765 0.07087387281138446
0.06340717513082567 0.005813135212292153 0.07008568477762317
0.06337455075314226 0.004844460149816321 0.0692989934512443
0.0633421331968755 0.0038778397144861865 0.06851241951391807
0.0633097487883223 0.0029122076712376765 0.06772664986688742
0.0632836229666524 0.001985437414391722 0.06691664923806312
0.0632722105044468 0.001148636207174647 0.06604802558065415
0.0632608021577086 0.0003121367601917058 0.06517971515901338
0.06324939792421208 -0.0005240610897548903 0.06431171780373668
0.06323782510420117 -0.0013609997926306017 0.06344473778405002
0.06322642915275453 -0.0021965924682733617 0.062577368295123
0.06321503730784832 -0.003031884037480337 0.06171031136341909
0.06320364956726321 -0.0038668746629786366 0.06084356682002362
0.0631922659287815 -0.004701564507377465 0.059977134496143225
0.06318002447089135 -0.005541103434924255 0.059114592307725866
0.06316761544058631 -0.00638134459317119 0.05825310205250356
0.06315503903811531 -0.007222280693561622 0.05739267015950328
0.06314263981956118 -0.008061859566544816 0.056531858590565864
0.06315779508253266 -0.008737844890504443 0.0555554255078487
0.06317416404593978 -0.00940701993624471 0.05457342818139832
0.06319071393579292 -0.010075524215790777 0.053590190901705304
0.06320709996939206 -0.010745395011387715 0.05260717200328491
0.06322349450334654 -0.011415613306534012 0.05162364315782347
0.06324007025312324 -0.012085166341245235 0.05063886453585964
0.06325648189729495 -0.012756082017044257 0.04965431172377022
0.0632729020617601 -0.01342734600642076 0.048669247769783375
0.06328829289923645 -0.014105008391583573 0.04768816072714799
0.06329036864165291 -0.014860498359504426 0.04676440559157202
0.06332688936220691 -0.015416089077923634 0.04569062906342325
0.06336362563889002 -0.015971316980635086 0.04461485524683384
0.06340040456214462 -0.01652718943877557 0.04353783258117
0.06343705241887995 -0.017084710070439824 0.04246032303565267
0.06347391665632436 -0.017641874066464835 0.041380799542189095
0.06351082376342086 -0.018199685991980852 0.04030002066411098
0.06354777381499235 -0.018758146977871315 0.03921798421030542
0.06360677374657099 -0.019191378872475906 0.0380366512509861
0.06378144602427806 -0.018965798713710957 0.036336640700550815
0.06395690364086808 -0.0187399823382412 0.03462805958920234
0.06413315163758175 -0.018513929667507645 0.03291085118741094
0.06720015909774527 -0.001897239613751267 0.01814358929828014
0.06724426178686735 -0.0024626545370687314 0.016972643362380135
0.06730935054154442 -0.0029106260075419943 0.015705113311523022
0.067463680863325 -0.0028572906351622684 0.014029116991317314
0.06768493224125471 -0.002431403131956611 0.012042799695304307
0.06036306963263444 -0.06483260337044694 0.02020547733911593
0.06011594061062116 -0.06686437568006365 0.020569659258900974
0.05996509140867344 -0.06838497267064009 0.02045780290752952
0.05985179291542337 -0.0697053372154599 0.0201613155117647
0.059745086998420655 -0.0709885221912901 0.019834827730497828
0.05969210740237679 -0.07198917128179738 0.019239468339261934
0.05966488414643205 -0.07285464108448525 0.018514892668535288
0.059652126989289324 -0.07364442405838395 0.01771746011583958
0.05964951475105867 -0.07438140535826804 0.016868604081684224
0.059677492964280314 -0.0749604119925606 0.015863209786249943
0.05972320612313582 -0.0754487626045855 0.01476595287175847
0.0598112894043239 -0.07572053050615901 0.013449227610496661
0.05996617842489694 -0.07565200700553643 0.011785034337508049
0.060242150901182644 -0.07496806832009023 0.009489452899687778
0.06518164059938744 0.02170682807540203 0.082631536265976
0.06513017858406799 0.020612012283933 0.08189610579725803
0.06507879776491951 0.019518923880097683 0.08116183568217411
0.06502749794992867 0.018427558778944864 0.08042872317669753
0.06497627894768593 0.017337912908386377 0.07969676554545108
0.06492514056738441 0.016249982209154135 0.07896596006166864
0.06487408261881845 0.015163762634755051 0.07823630400715778
0.06482310491237916 0.014079250151408373 0.07750779467227381
0.0647754082508815 0.013016011671934558 0.07676834075647507
0.06474305723314103 0.012047549638816324 0.07597206931637393
0.0647105610273889 0.011078973558410699 0.0751772681641815
0.0646780974266362 0.010111369296731454 0.07438326447400048
0.06464566638183632 0.009144735391903469 0.07359005704623506
0.06461291394104922 0.008176927677736257 0.07279900630664218
0.06457966436148938 0.007206895687883352 0.07201080458731521
0.06454662557171748 0.006238926478398132 0.07122272924263184
0.06451362056978033 0.005271947183585812 0.0704354598402544
0.06448047307753427 0.004304897713347744 0.06964968316576009
0.06444753567595159 0.003339896874456183 0.06886402373812217
0.06441463190683305 0.0023758814003214113 0.06807916654926371
0.06438176171869095 0.0014128497824718034 0.0672951103710625
0.06434874955307524 0.0004497546203370284 0.06651254914997301
0.06431594655173635 -0.0005113106449652349 0.06573009309735661
0.06429946997054514 -0.0013746899981552096 0.06488343663098611
0.06428790635097331 -0.002208574840526223 0.0640175786313038
0.06427634688985837 -0.0030421598050461296 0.06315203200750269
0.06426479158495756 -0.003875445053446891 0.06228679659164971
0.0642532404340297 -0.004708430747344394 0.06142187221593243
0.06424151851221141 -0.005542144885246847 0.06055796893996501
0.06422997572536632 -0.006374529503755499 0.0596936683669248
0.06421843708574645 -0.007206615053606424 0.05882967832966174
0.06420690259111712 -0.008038401695949882 0.05796599866084651
0.06419537223924551 -0.00886988959181867 0.05710262919326903
0.0641829729986861 -0.009706156819827005 0.0562431763893419
0.06417022947681444 -0.010544127251534807 0.055385502544477216
0.06417197486622274 -0.011297865424642173 0.05446792306687309
0.06418856079770764 -0.011965856063424374 0.05348835372678018
0.06420515530503088 -0.012634192090089258 0.05250827789548751
0.06422193320987707 -0.01330186737684036 0.05152696059033546
0.06423854497929107 -0.0139708965446656 0.05054586773617209
0.06425516534459388 -0.014640271906790958 0.049564267207941104
0.06424851616730175 -0.015443172824629592 0.048680966309027685
0.06424116867740226 -0.016249902324670218 0.04780082806313252
0.06423382286783585 -0.017056447329892088 0.04692089110024633
0.06422647873802619 -0.01786280790357736 0.046041155351328356
0.06421983549613139 -0.018665017082953983 0.045158613171524586
0.0642567403547318 -0.019220512267243584 0.04408832393832529
0.06429368765354351 -0.01977664626534653 0.04301680388340018
0.06433085287431926 -0.02033243124724171 0.0419432889153607
0.06436806108695278 -0.02088885914819849 0.04086853213032626
0.06440513655129679 -0.02144691812201488 0.03979330009242238
0.06444243076806878 -0.022004634260535227 0.03871605658791771
0.06447976820078626 -0.022562996671664448 0.037637564790749534
0.06451714892461 -0.023122006479387447 0.03655782252990608
0.06467082864988266 -0.02303453222435864 0.03496192290990374
0.06484787080646771 -0.022820948619754977 0.03325785774743151
0.0650258849613438 -0.022606192396715463 0.03154443691250253
0.06929580714554777 0.00023565306188488844 0.011528461659982225
0.06187685345080114 -0.06289322033837258 0.018369718540618973
0.06139828236967101 -0.06610003118622432 0.01984238575689179
0.061226202327949175 -0.0677170687329609 0.019818983782401045
0.06109619180106874 -0.06911385905908712 0.019592650357728003
0.06101482075270566 -0.07025822662990372 0.019129047779249175
0.06093996169990105 -0.07136735381187509 0.018635401345835245
0.06090440900323829 -0.07227414888993205 0.017948041672777915
0.060897177694499545 -0.07303593254899621 0.017120182502010473
0.06089874957268504 -0.07375283777458397 0.016248418372930062
0.06093287931590421 -0.07430482546949774 0.01521301009925552
0.060989426881083185 -0.07474431227999062 0.01406366848566204
0.061122149720647966 -0.07480101555023583 0.012527789217751661
0.061334276911639 -0.07446141067148337 0.010585767260229861
0.06634105458296682 0.02141631585876952 0.08280291842326007
0.06628871475709296 0.02032251449964939 0.08206788021376576
0.06623645745320726 0.01923043769080074 0.08133400090786244
0.06618428247629977 0.018140081356896043 0.08060127776691892
0.0661321896319744 0.01705144143543813 0.07986970806092628
0.06608017872644766 0.015964513876716435 0.07913928906846016
0.06602824956654421 0.014879294643743934 0.07841001807665435
0.06597640195969541 0.013795779712213407 0.07768189238116371
0.06592463571393803 0.012713965070454136 0.07695490928612683
0.06587295063790986 0.011633846719369845 0.07622906610414029
0.06582134654084829 0.010555420672395677 0.07550436015622167
0.0657806256312209 0.009543149473977275 0.07474028369708852
0.06574768940384247 0.008578196510648506 0.07394804340720154
0.06571478614216587 0.007614209363775604 0.07315659606653
0.06568191579672299 0.006651186584062552 0.07236594048518133
0.06564907831814475 0.005689126725111737 0.07157607547564229
0.06561627365716095 0.0047280283434184 0.07078699985277209
0.06558350176459896 0.0037678899983560332 0.0699987124338014
0.0655498685371747 0.002803447860412145 0.06921465158437717
0.06551644841400224 0.0018410437069749097 0.0684307048189558
0.0654830623514783 0.0008796204029655752 0.06764755702527997
0.0654495320356525 -8.186654758640666e-05 0.06686590022846789
