# .PCD v0.7 - Point Cloud Data file format
VERSION 0.7
FIELDS x y z
SIZE 4 4 4
TYPE F F F
COUNT 1 1 1
WIDTH 758
HEIGHT 1
VIEWPOINT 0 0 0 1 0 0 0
POINTS 758
DATA ascii
-0.03480791896491936 -0.013377228387893458 0.06878026609827492
-0.03476148560825633 -0.014615138821602425 0.06822962138615524
-0.034719221987025005 -0.015806957369509156 0.0676508738033213
-0.0346755014593988 -0.017012342882184173 0.06708496950334475
-0.034629877942408197 -0.018235900687851248 0.06653530303765565
-0.03459058061866488 -0.01939099971298014 0.06594124741490331
-0.03454081049432845 -0.02065428499780214 0.06542680807026863
-0.03449708389611188 -0.02185216430975634 0.06486997019912794
-0.034456184977653154 -0.0230186257861536 0.06429426631374818
-0.03441502147348103 -0.02418609340553768 0.06372263211941082
-0.03436170076828639 -0.025478296441725556 0.06324443359619397
-0.03433083061484543 -0.026535090761077684 0.06259972049653656
-0.0344674202449724 -0.025855268283901167 0.06068995584525466
-0.03462384046313796 -0.02497623039672786 0.058622715140613235
-0.034773658913077904 -0.024172023109792218 0.05659775755039803
-0.03493036390019401 -0.023303317166712856 0.05451253303168929
-0.035090648216464716 -0.022404542564900487 0.052391866817353916
-0.03525487558569543 -0.02147219927495536 0.05023268715182211
-0.03541662763368272 -0.020572225714460546 0.0480842224683361
-0.0355853767880527 -0.019607725908543983 0.04587332194191257
-0.035760619318947404 -0.018584283154498726 0.04360336256343522
-0.03595859627080015 -0.017337149660764606 0.041147270901119304
-0.03614511689888362 -0.016214760916650583 0.03877064703200289
-0.036280582259345634 -0.015617389644561275 0.0367850087216503
-0.03644541935837195 -0.014729012092023985 0.03456129100773303
-0.036612988355528876 -0.013820150005143694 0.032307584800909006
-0.036778080276565914 -0.012943394208419334 0.03006494247624475
-0.03694862526166631 -0.01201895848074891 0.027770534574767858
-0.037120654168268846 -0.011086962685214474 0.025455586688936604
-0.03355418731948067 -0.04754058767785413 0.05303184371831876
-0.03314579577118031 -0.05233396043862232 0.05545173303420503
-0.032992449146243184 -0.054570770350901854 0.055839638429684424
-0.03290374680364614 -0.056158837409638396 0.0557134067941919
-0.032821025585126735 -0.05768381545558582 0.05554325801461074
-0.03276556273515578 -0.05893563414255326 0.05515584479448693
-0.032710940077552944 -0.06017678370473373 0.0547644155703188
-0.032657312883548596 -0.06140578900313215 0.054367636387287255
-0.03260069862295877 -0.06266184953468029 0.053998096279046004
-0.0325874871547336 -0.06348990359705708 0.05327434315550672
-0.034300105644887904 -0.04743196954022527 0.03830761942829436
-0.03432714431601409 -0.04790292671845281 0.037207926138551006
-0.03432103218552601 -0.048697967530658026 0.036382145678693856
-0.03431492223124517 -0.0494927252707808 0.035556659235684296
-0.034305492014683574 -0.0503194218779599 0.034759226792655085
-0.03427696352242064 -0.05133052479580813 0.034122336473308645
-0.03423390198531886 -0.05248072734705428 0.03360907402574875
-0.03417837757716382 -0.053749151395793504 0.03320309712644931
-0.034129252527250874 -0.054953682042389485 0.03274583330880465
-0.03407123248025102 -0.056241420424458566 0.0323665347998538
-0.03403451767347918 -0.05732278816013897 0.0318089223760204
-0.03409808878328519 -0.057445027143989635 0.03039733514844034
-0.034473040637781116 -0.05460351950771314 0.026317196603473647
-0.03444550016603941 -0.055603930763349296 0.025673373397742227
-0.034535986967357074 -0.05548379407347792 0.02401465897357019
-0.034634087144631405 -0.05529549302433173 0.022285572502385498
-0.03472814496431272 -0.055149560208434534 0.02058649007031027
-0.03482178992895508 -0.055011546974637504 0.018886190738237107
-0.03491454618347023 -0.05488589899997659 0.01718885218264521
-0.03500602149028841 -0.05477623710987828 0.015497970002162686
-0.03509731951306657 -0.05467215373177242 0.013803969912906056
-0.03518918947568385 -0.054566644220549576 0.012100280232854754
-0.03528087688520659 -0.054466771604658015 0.010393507989547413
-0.03537237511486017 -0.054372585720098565 0.008683725751467586
-0.035465500668626054 -0.05426723593604299 0.006954842794840932
-0.03556017905412949 -0.05415151578169691 0.005207396814695842
-0.03566982195090474 -0.053901777374949 0.003321675301387439
-0.03474872749992703 0.01797410250778686 0.08346131782027527
-0.03469078738934309 0.016536555927457397 0.08294167842925082
-0.03463862632173602 0.015168011152996985 0.08238522431996637
-0.03458643305526734 0.013801409257601704 0.08183174893859482
-0.03453656189037892 0.012463712007771632 0.08126488564772533
-0.034494533199717965 0.01121785766765343 0.08064592207084756
-0.03445213827656964 0.009969688891013517 0.08003174461925669
-0.034406296741074614 0.008684160736615043 0.07944404396158311
-0.03436542315893781 0.007457113439519603 0.07882369859480393
-0.03432232206302627 0.006206617177894058 0.07822129446410944
-0.034279792659643746 0.004964502145755001 0.07761710186931059
-0.03423339086316044 0.0036805296260484233 0.07704279648286017
-0.0341939418697399 0.0024769993464109352 0.07642113118299518
-0.034146667709117985 0.0011871711023174192 0.07585781785541351
-0.0341020938664103 -7.023804828099056e-05 0.07527751374484301
-0.03405955881052761 -0.0013028217136198394 0.07468479663416547
-0.03401493799665097 -0.002556849505743808 0.07410948987338076
-0.033968339290059005 -0.0038309786229573928 0.0735509717342917
-0.03392604619384489 -0.005055073574936508 0.07296338672794425
-0.03388440197468267 -0.006270078965369408 0.07237326741911473
-0.03383490700043058 -0.007570354825106873 0.07184325171259665
-0.03379249467718551 -0.008790000318465052 0.07126342543424785
-0.03375297569012801 -0.009975787779684997 0.07066434707048863
-0.03370583613940354 -0.0112438788522492 0.07012416614602751
-0.033656503464576916 -0.012534021963428732 0.06960288282460142
-0.03361855048531234 -0.013696963558464836 0.06899877145745037
-0.033576411568458905 -0.014904115610168411 0.06842820213344564
-0.03353313564238804 -0.01612184014151613 0.06786845532742414
-0.03348855487689992 -0.01735189412895738 0.06732089444645728
-0.03344912503905784 -0.01852384167789556 0.06673647338366978
-0.03340626447226529 -0.01973135024384115 0.06618034512127147
-0.03336465572244199 -0.020923373113985733 0.06561688465337867
-0.033319908139353635 -0.022147546918453276 0.06507976793409048
-0.033281398716905344 -0.02330231228192936 0.06449686331340992
-0.03324289098777496 -0.024455352251433304 0.06391598005539395
-0.033195598943462225 -0.02570124048291883 0.06340540080947282
-0.03319699052372787 -0.02642207553954612 0.06251767640369593
-0.03334919984546159 -0.025526239622027103 0.0604497908023468
-0.03349793977298848 -0.024674265405425833 0.058401102131047655
-0.03364479588829392 -0.023848995394172512 0.056359395021858494
-0.03379619024746072 -0.022981888346330803 0.05427405985218181
-0.03395150038676901 -0.022079863518467857 0.05214967328098563
-0.03411283608605807 -0.02112079873777767 0.0499691381739753
-0.03427339453472205 -0.020177114583607325 0.047786284455318184
-0.03443509717880401 -0.019228460021140537 0.045585783893388854
-0.03517453030786908 -0.012196274960926567 0.03873414615333004
-0.03512411838697201 -0.01350626960312773 0.03821143708792091
-0.03507249154779072 -0.014826783842372515 0.03770121848492375
-0.03512587111349165 -0.015044966373369884 0.036341583254431375
-0.03526999599546947 -0.01431688214489607 0.03424031783278547
-0.03542927155055933 -0.013437140757358523 0.032007687595171475
-0.03558519431586895 -0.012599360835709505 0.0297941168568836
-0.035751269707210306 -0.011663034610652434 0.027488845660423977
-0.035916255249087266 -0.010745366974794113 0.025183788842164767
-0.03220634735692176 -0.04991292449765705 0.05492954759994695
-0.031988033016522546 -0.052879960968896356 0.05589083079430146
-0.03186911683278274 -0.05481365359007778 0.05603601034150324
-0.03177473014156607 -0.056489997895643684 0.05598257988360966
-0.031717302064966126 -0.05778317289859686 0.055624448010027194
-0.03166237556406961 -0.05904820561761809 0.055248322525019156
-0.031608190921136994 -0.0603032290798155 0.05486884338755493
-0.03155293415463458 -0.061566773124641594 0.05450129548437399
-0.03149755704458765 -0.06282909099783329 0.05413768794464202
-0.031532125316886754 -0.06317659431680445 0.05301144551093134
-0.03317821404063113 -0.04721491528886207 0.03812452398811267
-0.03318759963070402 -0.04785552675169147 0.037167730309478564
-0.03318012549003645 -0.048666449620665575 0.036355276645092194
-0.03317248101616534 -0.04947875383025735 0.03554468561492652
-0.03314930852899962 -0.05044650643713716 0.034868714359664765
-0.03312131912935912 -0.05146145148155129 0.034235729399393955
-0.03307799862150707 -0.05262828791671886 0.03373754705914267
-0.03302411467580625 -0.05389848090826099 0.03333379523461888
-0.03298079035704357 -0.05506128028833718 0.032840502574780606
-0.03292123361554408 -0.05638321450713468 0.032491947144883404
-0.03289507965699645 -0.05737183205372837 0.03185252812176159
-0.033403446244219426 -0.05307956114245754 0.026495541943943823
-0.033320346271223863 -0.054638929859817775 0.026349011978203385
-0.03325728821647802 -0.05599753906675714 0.02602887580092783
-0.033324991043617566 -0.05607045669053479 0.024547302387004477
-0.03342009837450101 -0.05587811717861435 0.022817319302446015
-0.033511229286425415 -0.055728830198632895 0.021117942152997893
-0.033601165413186536 -0.05559522566841757 0.019424487875492502
-0.03369140639721307 -0.05546264409364665 0.01772353444832725
-0.03377988178277702 -0.05535118954682061 0.01603377401061762
-0.03386791776323707 -0.05524790969997889 0.014343323057533885
-0.033956413815482506 -0.05514409011765675 0.012644037889330273
-0.03404500764019134 -0.05504325167124313 0.010939185834970166
-0.03413369714060948 -0.054945421015144325 0.00922877832195157
-0.03422312724233266 -0.054844420088739076 0.007506892655101571
-0.03431432817055227 -0.0547304417750632 0.005763993936071243
-0.034407417958125255 -0.054602477198748556 0.003998853027269322
-0.033514465353526444 0.017543469101818754 0.08371683549970055
-0.03345864316687683 0.01610818101301492 0.08319732763035798
-0.033408388606949155 0.014741744693749781 0.08264108522784674
-0.033357557110326175 0.01337075990394787 0.0820917314832516
-0.033312593951034045 0.012071708602863829 0.08150290000207194
-0.03326992321959958 0.010801857734560272 0.08089995782731724
-0.033224203261777226 0.00949794159624806 0.08032147544066756
-0.03318391869486394 0.008260215092441736 0.07970590724724175
-0.03314274398562774 0.007013862664619952 0.07909905083422383
-0.0331048960608637 0.005808475169796878 0.07847003545288445
-0.03305623367154911 0.004478053298055451 0.07792274342337671
-0.033017780917372314 0.00326931331864877 0.07730263712986038
-0.03297835067291413 0.0020509251270870443 0.07669188792576054
-0.03293130034962724 0.0007455460554070537 0.07614004628477763
-0.03288906969841605 -0.0005016169490476008 0.07555475306456799
-0.03285029893385344 -0.001706679763817498 0.07494581400208411
-0.032809155532804994 -0.0029374488047341774 0.07435686116998441
-0.032764516840533116 -0.004206740533704845 0.07379657306083123
-0.03272209991113453 -0.00544834626212648 0.07322187711052533
-0.03268634137625691 -0.006611327429719982 0.07259882115666122
-0.032637420533333676 -0.007923939770165922 0.07207826797834127
-0.032596374041106664 -0.00914398770537328 0.07150002445318451
-0.032553871299464555 -0.010378820710904402 0.07093523078076952
-0.0325205539659616 -0.011506767978847365 0.07030184201129536
-0.03246997308254259 -0.012830008371951362 0.06980404084116432
-0.03243089388559434 -0.01402005900248171 0.06921957321009053
-0.03239096522959513 -0.015217961109877276 0.06864387230604041
-0.03235216142376504 -0.01640128293694737 0.0680615481058634
-0.03230380853891698 -0.0176908159491152 0.06755638205517672
-0.032270745453404616 -0.01880556395229388 0.06693329901593514
-0.03222738905223815 -0.020034730864107342 0.06639347130702677
-0.03218533442820397 -0.021247274683543926 0.06584567998064461
-0.0321436427891972 -0.022453815880432437 0.06529729778392152
-0.03211006375022751 -0.023567626747156123 0.06468633977923466
-0.03205839829148161 -0.024881948270577547 0.06422230781790739
-0.03202424252583083 -0.025998690138192393 0.06362016161601364
-0.03207100479350754 -0.026213603453324408 0.06236633481479431
-0.03222721925838895 -0.025215456872498765 0.060222943840290644
-0.03236585634109689 -0.024419234225707187 0.05821393398606889
-0.03251303456280466 -0.023534939950884404 0.05612765314354895
-0.03266321434270212 -0.022624284664606253 0.05400874796483118
-0.03281285158476063 -0.021726498417453666 0.05188608145273532
-0.03296937412121703 -0.02075992798716969 0.0496984865744603
-0.03312461642408953 -0.019814581654024443 0.04751291240310529
-0.034149228919252275 -0.00936377520445647 0.03810693510761998
-0.03410248798499366 -0.010658091722199725 0.03756167629405627
-0.034046396926688705 -0.01205214131219906 0.037097051113678225
-0.0340085380223019 -0.013245376268898379 0.036482752823651876
-0.03399039563905294 -0.014222946704812 0.03570480890590633
-0.034091464000543345 -0.013908971958887184 0.03392263107304094
-0.03424070012782295 -0.01307922391816907 0.031727437808567016
-0.03439115188703695 -0.01224322180326265 0.029513761572506958
-0.03454966296724366 -0.011327423035972617 0.02722323251094011
-0.03470885416504431 -0.010411600770532214 0.02491822070744798
-0.031016864503082095 -0.050758335105203334 0.05560581708163187
-0.030857808784801447 -0.05317059107465294 0.05612455772564762
-0.030751386438978838 -0.055014133037985136 0.05619809864615338
-0.030664592535409242 -0.056643873603039685 0.05610765277514257
-0.03060368369430726 -0.057994715920475504 0.055797310519933085
-0.030552017173099296 -0.05924481548572358 0.055409837992344946
-0.03050234996872667 -0.060471400844068435 0.0550077319016688
-0.030448902574783453 -0.06173559311094545 0.054641460407026
-0.030413173291091115 -0.06281078259107387 0.054122406441205195
-0.03046080571736784 -0.06300855410145262 0.05287044305874
-0.032046305378897716 -0.04708736393337809 0.03801692843800736
-0.032061927121380264 -0.047659640340133536 0.03700161591627149
-0.03205520622654676 -0.04846582147895323 0.036184241056679334
-0.03204135327567675 -0.04934596674248293 0.03543088616612444
-0.03201192406096237 -0.050387328449505386 0.034817730558577675
-0.031971766384521094 -0.051538571787837495 0.03430252172015541
-0.03191987835554838 -0.05280932250373138 0.0338951641149427
-0.03187704368565488 -0.053984241193472116 0.03340885546114725
-0.03183813492219116 -0.05511675972830676 0.03288931561826858
-0.03177016951868314 -0.056546083262128566 0.03263599936561318
-0.03179270976526561 -0.05704431110636299 0.0315613237717296
-0.032247352532536494 -0.05312304734758988 0.026534409313341556
-0.032169338459229146 -0.05465965432787462 0.026367632428950516
-0.03209001733394847 -0.056205990903834546 0.026217147055339562
-0.032119084396172976 -0.05664730959621722 0.025071039355747393
-0.03221092720182942 -0.056453514393980386 0.02334247025230901
-0.03229903237878398 -0.05630174394847043 0.021643562693857143
-0.03238530591832413 -0.056172504570334736 0.01995688281060226
-0.03247221396594464 -0.056040837076171024 0.01825955900630022
-0.03255837655378125 -0.055920649175764225 0.016564459215577976
-0.0326427328331458 -0.05582252311807523 0.014881605891077176
-0.0327277900331202 -0.05572126044291981 0.013187536050845494
-0.03281346768602157 -0.05561771230908685 0.011482952152851111
-0.03289906425216207 -0.05551890512894064 0.0097744482432357
-0.03298457494111639 -0.055424880895744155 0.008062076483169534
-0.033071872339423825 -0.05531707846231748 0.006328004353914618
-0.033159992577044654 -0.05520514962349782 0.00458129407860336
-0.032346674740646016 0.01867490663818372 0.08442016065723038
-0.03228629719501857 0.01715647002976073 0.08394646261051353
-0.032234334049176014 0.0157450018061131 0.08341406878623076
-0.03218684056743329 0.014391195043026883 0.0828514981044533
-0.032136247324104424 0.01300145042590728 0.082314683211966
-0.03209375649736058 0.011713770135113932 0.08172023100540174
-0.03204824318104511 0.01039100995091824 0.0811508473568788
-0.032007113525164825 0.009124124785566567 0.08055106075640275
-0.031965309734621306 0.007850954615031713 0.07995869978038306
-0.031926034124453564 0.00661062939737822 0.07934954375929262
-0.031882976746503644 0.005326110687399521 0.07877139480673634
-0.03184123854312309 0.004059678814379131 0.0781856130508353
-0.03180278146640315 0.00283504356527442 0.07757704486043648
-0.031762279034552955 0.0015874721836304229 0.07698639767008272
-0.03171897962027064 0.00030802718264755224 0.07641965058969633
-0.031681582875782634 -0.0008981617325141689 0.07580960513501783
-0.03163858790304239 -0.002169959209033012 0.07524523599290933
-0.03159748669682151 -0.0034169582311015523 0.07466851930716123
-0.0315602912811746 -0.004615169936563801 0.07406352615072898
-0.03152099332067185 -0.005836770027036364 0.07347718039210469
-0.03148078494383362 -0.007067371508660714 0.07290025092774247
-0.03143439551824489 -0.0083697276725469 0.07237456851261376
-0.031403851646225556 -0.009481396213528115 0.07172554243761767
-0.03136210694564688 -0.010724574800047904 0.071167616631297
-0.03132196998006321 -0.01194671870939007 0.07059918647637808
-0.031281189060757775 -0.013174565216186707 0.0700382082535313
-0.031244568646496083 -0.014351378027878059 0.06944599491564307
-0.031205227045435997 -0.015558491110442274 0.06887787968885672
-0.031168207701805718 -0.016736440038171874 0.06829313903233264
-0.031125033515820327 -0.01798481092416565 0.06776065386517094
-0.031088941458670374 -0.019148234823283816 0.06717270646423001
-0.031050971309546177 -0.02033187726228619 0.06660221792505144
-0.031012278487665402 -0.021522135757669314 0.06603983442544387
-0.030969372303648757 -0.022759565431450135 0.0655144587181834
-0.03093996846461629 -0.023838202600009684 0.06487957370748054
-0.030898799647883137 -0.025051740017698165 0.06434423095749281
-0.030874619574908092 -0.02606690272980977 0.06366941160145573
-0.030961812946343068 -0.025795927175450817 0.062063120160566365
-0.031100416214489616 -0.02493717815228802 0.060019822262981526
-0.03123877690012287 -0.02408781584987385 0.05797070504957175
-0.031382631464816305 -0.023182047404153083 0.05586725332126047
-0.03152655318229128 -0.02228236004391765 0.05375506862347473
-0.031673246671413316 -0.021357875583912778 0.051611108156422225
-0.031822170078581305 -0.020414966300119686 0.04943976670809769
-0.03197198061288309 -0.019469060322078513 0.0472523681383234
-0.03299722240866933 -0.008596605437838079 0.037525310171377835
-0.03295297819410989 -0.009883162543345814 0.036970991723842106
-0.03291252509971477 -0.011124774971346618 0.03638635450617961
-0.03287061406163201 -0.012380900701821573 0.03581667925023552
-0.03284453097780012 -0.013456935393693081 0.035111421214275684
-0.03289958272775405 -0.013620733924164519 0.03369814683502248
-0.03304769486182942 -0.012744473030188164 0.03146532702010918
-0.03319331679145097 -0.011903106156836263 0.029246020016295893
-0.03334739061531932 -0.010974377398305923 0.026943821516782207
-0.030189958102677862 -0.04691973371230812 0.05396668829804968
-0.02983725238481567 -0.051556713561881795 0.05624446412517137
-0.02971519427898555 -0.053620099369504515 0.05648605569949583
-0.029631819773795292 -0.05524977473740389 0.05638861574884069
-0.02955831485744058 -0.056766542795456953 0.056207360460372946
-0.02949674870420434 -0.05814831878109494 0.05592282719157554
-0.02944513691174825 -0.05941776411621347 0.055551915697528764
-0.0293968551019138 -0.06064823450600776 0.055153774042935366
-0.029345664991646862 -0.0619082299972748 0.05478479435905981
-0.029343475113724957 -0.06263077116854526 0.053972156055784426
-0.03084079873728159 -0.047016226284532614 0.03945128959173988
-0.03089823313427657 -0.04712607941152891 0.03804958675946091
-0.030899528071649435 -0.04784762545357307 0.03716102989911302
-0.030899204327466696 -0.04858675284546099 0.03628733510545884
-0.030882540654587134 -0.0495023299571824 0.035564890518083314
-0.030849751220741187 -0.050590881944464205 0.034993098652574606
-0.030815018838606826 -0.05169876330464368 0.03444126031818523
-0.0307601387720206 -0.05302113943282227 0.034079581696592975
-0.030738177365037207 -0.05398852803453935 0.03341260744565622
-0.030682213713869762 -0.05531803507358096 0.03306640576530895
-0.030639658276115558 -0.05650198901396042 0.032596999409051364
-0.03069610563907698 -0.05663122208790633 0.031194039419102093
-0.03109148157941588 -0.053167391469333025 0.026574043476754183
-0.031017007885832056 -0.05469591585324951 0.026400212562993353
-0.03093891357595495 -0.05625913360211465 0.02626514491713966
-0.03092423358556225 -0.05715038869588279 0.025527795523743235
-0.031005350108720554 -0.057033745675398706 0.02387203313589581
-0.031090826029187345 -0.056875234254538665 0.022169712197056435
-0.03117422047113327 -0.05674257811530092 0.020482632611906415
-0.03125740089659112 -0.05661612758191764 0.018792892769194713
-0.03134069333902247 -0.05649247051916062 0.01709734532619478
-0.0314220871617816 -0.05639251531213518 0.015415559682710855
-0.031502474640974075 -0.05630687247337768 0.013738983427787455
-0.03158530402304109 -0.05619979010580278 0.012033928633030044
-0.03166857011955542 -0.05609214315094574 0.01031988400827194
-0.03175039625474914 -0.05600329196128806 0.0086152998286394
-0.03183367715740162 -0.055903387824888684 0.006891700071816387
-0.03191860514396455 -0.05579056300126323 0.005147055459427341
-0.032011282568879834 -0.05560251865695287 0.003320591076688806
-0.031116142250651707 0.018255685573301483 0.08466747215177356
-0.03106389737779143 0.01681394849099349 0.08414969883772219
-0.031015468543922113 0.015423818131230949 0.08360574749365263
-0.030968287955164316 0.014052087300949312 0.0830550431239476
-0.030921503196651982 0.012687754860023104 0.08250406088262582
-0.030876957620175845 0.01135433569974631 0.08193847032167523
-0.03083915280700902 0.010109048994745407 0.08132303047302422
-0.030795094459033733 0.008786067359674743 0.0807586838986539
-0.030753659363658235 0.007498575185782008 0.08017635795522238
-0.030713830317353353 0.00623348625060155 0.07958382921557938
-0.0306740214749442 0.004970622227543797 0.0789934878017087
-0.03063258091200708 0.0036891274181843903 0.07841843486782576
-0.030591499315896355 0.0024142044346075475 0.07784296600711224
-0.030551267237895054 0.0011519952079063756 0.07726312956830333
-0.030510567201203844 -0.00011409762563646675 0.07668941704083199
-0.0304747982529012 -0.0013164147019156802 0.07607840865902829
-0.03043764499546732 -0.0025342678319548173 0.07548069218306966
-0.030397002911209732 -0.003793809990964292 0.07491345488300677
-0.030352738085788013 -0.005096449804837033 0.07437809495268538
-0.0303220316793276 -0.0062284185377651236 0.073734603235524
-0.030281293944555275 -0.007483274329037948 0.07317514867935795
-0.030243241866068294 -0.008702875576633795 0.07259600095042887
-0.030200788301797135 -0.0099749635260179 0.07205543425363467
-0.030174074845150868 -0.011050915952178553 0.07138695479267015
-0.0301334136983481 -0.012297143050102988 0.07083602376498249
-0.03009445645005241 -0.013520439066488199 0.07027327072837558
-0.030058940074598573 -0.014699646627685026 0.06968399987254031
-0.03002422161325321 -0.01586734068344059 0.06909011673152948
-0.029984754513714497 -0.017091269989048863 0.06853832374350965
-0.029949733331950446 -0.018259100210065438 0.06795123388744223
-0.029910540447918965 -0.019475903573254405 0.06740163266122429
-0.02987427807513527 -0.020655222716790655 0.06682936949241058
-0.029839906249719945 -0.021809863764125137 0.06624307772398808
-0.029803580257416223 -0.02298641218894487 0.06567557834576043
-0.029772569749516604 -0.024097083297512645 0.0650644554461795
-0.02972730276402746 -0.02537773852809333 0.06457832220492726
-0.029718436923300135 -0.026219118999620206 0.06377931285127586
-0.029843041948435907 -0.02546089356812753 0.06181990045961416
-0.029976446380977104 -0.024603617600486016 0.059776349296889075
-0.03010945264004288 -0.02375768882785667 0.05772842384149951
-0.030249684643473353 -0.022832297975799887 0.05560917280969324
-0.03038805833605099 -0.021935922314669787 0.053498040934741364
-0.030529426717490215 -0.021010878191651594 0.051352266304859284
-0.03067352452597433 -0.020060526575765125 0.049173938352193025
-0.030822752073254973 -0.019056726206379437 0.04694144293896091
-0.03182192320490952 -0.008044894786598089 0.0371070342091146
-0.03177492530003229 -0.009384258762893505 0.036590705662642886
-0.03173675293238474 -0.010617738548903022 0.03599778199773851
-0.03169955673156257 -0.011837900518979871 0.035398300656408865
-0.031676750835802556 -0.012888076535763626 0.03467075690596755
-0.03171097199901074 -0.013272189176347093 0.03342669479641697
-0.03185172479832522 -0.012418468327167809 0.03121006451650521
-0.03199472388230538 -0.01154562640725626 0.02896460930946093
-0.032142650292835945 -0.010622767906501629 0.02666554713189051
-0.02887098696047029 -0.04924148909769749 0.05581404204175794
-0.028694718800972945 -0.05198875327550595 0.05659006574241149
-0.02858618854609463 -0.05394752554433235 0.05674937430816401
-0.028509495302971557 -0.055535221485302266 0.0566194003999243
-0.02844296585251637 -0.05700262565388953 0.056399252775574615
-0.028393697993800062 -0.05826931079497866 0.05602169588983258
-0.028344034729440467 -0.05953807255408233 0.05565074936113301
-0.028295954476299803 -0.060786351283986406 0.05526784095632514
-0.028243471933000946 -0.06208227736467181 0.054929299380787944
-0.02827341798784449 -0.06244098269080611 0.05381374504203773
-0.02971058652339721 -0.04688001170270678 0.03933699201111934
-0.029743414803014383 -0.04724393068873328 0.038148999838634345
-0.02974606289395458 -0.04794943587316286 0.03724736654665178
-0.029743570560520776 -0.04871284892272909 0.03639483207267408
-0.02973220458603575 -0.04957565659821728 0.03562773195449204
-0.029703594606145526 -0.050630867437198135 0.035027547482105625
-0.029654201278425964 -0.05191672120191182 0.034630029197458057
-0.029619870316919168 -0.053032325451002615 0.03408932075961296
-0.029593711632377482 -0.05405538829514117 0.033471125748086805
-0.02953677028007902 -0.05541858011433576 0.03315486933757206
-0.02951397836486856 -0.05640103619149739 0.03250770985645868
-0.030010420112769373 -0.05164901885479123 0.02676427922850194
-0.029936394666495086 -0.05320650873677113 0.026609005949996378
-0.029864460704233143 -0.05473734779105893 0.02643743819190808
-0.029790058935669887 -0.056291696391689794 0.026294555246769824
-0.029743570563621497 -0.05753690852593246 0.025878725062547903
-0.029802876544924688 -0.057624724787301906 0.024411405301205502
-0.02988677512967431 -0.05744757137406953 0.02269480370761434
-0.029967431342536707 -0.05730980729640783 0.02100575920126352
-0.030046854999427382 -0.057189397312856605 0.019324353135220407
-0.030126700773263196 -0.0570683473802619 0.017634010814901013
-0.030206088494580192 -0.05695618998293572 0.015943595383652642
-0.03028306991133571 -0.05687387380410569 0.01427290585473645
-0.03036222995713191 -0.05677195403365343 0.012575520957683384
-0.03044164178117647 -0.05667124914687871 0.010870903148321176
-0.03052081406250112 -0.056577032899583046 0.00916405641409318
-0.030600069520095943 -0.05648584375876392 0.007451690985746273
-0.030680649135561018 -0.05638447593482976 0.005721031070757665
-0.030765653247836432 -0.056240096907322734 0.0039399689414234
-0.029889647686884308 0.017857083405670715 0.08490261992001039
-0.029834051232842353 0.016344346693091816 0.08442833853448242
-0.029797670702674146 0.015091204347277842 0.08380424755814753
-0.029751002752790034 0.013702751653580758 0.08326472731080234
-0.029708601171607823 0.012373480435126094 0.08269378800983973
-0.029664870022096945 0.011028728416496825 0.08213617066387355
-0.02962938291487301 0.00979552230805808 0.08151448961205299
-0.02958708661482737 0.008474041822861822 0.08095031915779605
-0.029549866506547336 0.007221773986516022 0.08034733287266815
-0.029509949226304812 0.005935869840722752 0.07976871179128792
-0.029471252851300263 0.004668079203847486 0.07918250290016784
-0.02942686936415646 0.0033276114872388685 0.07864557959532667
-0.029392660893014115 0.002122753826236834 0.07802712872946768
-0.02935316691992934 0.0008505329019730112 0.07745469936605026
-0.029314250967138418 -0.00041211279228581255 0.07687986899322588
-0.02927473190164442 -0.0016806136424700746 0.07631247264858457
-0.029239075713243204 -0.002896862602465855 0.07571504069382373
-0.029201944770355485 -0.004130412782121173 0.07513223055892038
-0.02916296131288671 -0.005386042107481337 0.07456737505705677
-0.029125479663027226 -0.006620258234902199 0.07399215174199958
-0.029084066688195753 -0.00790325218672644 0.07345273989333947
-0.029053277354804515 -0.00904736864644129 0.07282497414618397
-0.029014458337652226 -0.010293053762728765 0.07226804024108649
-0.02897974051707843 -0.011484162827693378 0.0716781456905255
-0.02894134768049033 -0.012720508072108894 0.07112215863705734
-0.028908717150924596 -0.013881299038910222 0.07051851805804749
-0.02887295424104354 -0.015080329472317966 0.06994415655642905
-0.028839563890814487 -0.016247347204797702 0.06935125181909407
-0.028801161609569872 -0.017476259620130608 0.06880434855700018
-0.028769300891813877 -0.018620339570669997 0.06820222803460135
-0.028731160954673783 -0.019842154462446915 0.06765751431980821
-0.02870277314854607 -0.02093898570581304 0.06702871420815343
-0.028666238640651293 -0.02213691771168097 0.066474099805995
-0.028635276123829028 -0.0232629672956306 0.06587200370482588
-0.028606478016688763 -0.024360287783981638 0.06525242505365164
-0.028557489682309218 -0.02570874905792192 0.06481601245617291
-0.028580055808084898 -0.026161236087490602 0.0637375209692767
-0.028722548085297804 -0.025120525299135388 0.0615728080283226
-0.028850075804866 -0.024273225299852763 0.05953518890494608
-0.028979356088447917 -0.023410735187610276 0.05747379352802107
-0.029113446905095444 -0.022495321727273143 0.05536051764243455
-0.029248627754804052 -0.021573333200296863 0.05322903027522263
-0.02938649284571328 -0.020625193757795035 0.051064565949741736
-0.02952207267431509 -0.019712267069012024 0.04891274513442678
-0.03066078878129362 -0.006487123553846008 0.03746319202096249
-0.03062039087436107 -0.007770533245692879 0.03689902873147477
-0.030578472702657466 -0.00907045725407507 0.03635151256677427
-0.030541706861834567 -0.010305349035285016 0.03575837912341984
-0.030504773744858243 -0.011540387266691376 0.035169068365020206
-0.03048255463650287 -0.012594719952155886 0.03444350936608803
-0.030522162970838075 -0.01289816550772438 0.03313539938034732
-0.03065287271930699 -0.012101257631806417 0.030961687743048583
-0.030793819662493414 -0.011187457310398663 0.02868265594334285
-0.03093344044761585 -0.010296884139934959 0.026407632863927555
-0.02770058199931062 -0.04996269079971277 0.05638788141888218
-0.02755668914334145 -0.052401318750301296 0.0569200893277681
-0.027467089730687233 -0.05418253885831087 0.056938373794499675
-0.027387269721121318 -0.055842322603462835 0.05686769268184344
-0.027333948797191004 -0.05718211379261545 0.05654514390346094
-0.027287377803086144 -0.05843887264030945 0.05616025345560738
-0.027240965232380124 -0.059691356294583275 0.05577667231311406
-0.02719315309814422 -0.06095802911447856 0.05540962503577079
-0.027171912029302317 -0.061908229997278796 0.05478479435906314
-0.02727218445384159 -0.06142443269756398 0.05296525983960637
-0.028540178311007487 -0.0472058638845817 0.039610414397540816
-0.028574448317025502 -0.0475373197557325 0.03839648727566608
-0.028590154860445412 -0.04808800923134243 0.037364878675878066
-0.02857781255238533 -0.048967378066011036 0.036611818291147236
-0.028564210966414757 -0.049860799932367306 0.035872101755801244
-0.028526985032286196 -0.05102845982608356 0.035370086525420175
-0.0284676546143743 -0.05245088656506958 0.03509265889894386
-0.02845756777000488 -0.05329970353178487 0.03432211244088135
-0.02843726743737059 -0.054266077398574475 0.03365552779143155
-0.0283831762032441 -0.05562118674877964 0.033333130806388056
-0.02839837778251658 -0.05617600083977986 0.032308673263105714
-0.028852666882022024 -0.05168928389801142 0.026800079551608846
-0.028781657522902657 -0.05324474776182725 0.0266431834623303
-0.028712128894599665 -0.0547796321098849 0.02647542966526778
-0.028643160715099203 -0.056304548337949956 0.02630616297389743
-0.02857086067626406 -0.057863837142030694 0.02617555047627801
-0.028605429191452612 -0.0582059093128145 0.024941838187336918
-0.028686339949326792 -0.05802473172386696 0.02322432029769278
-0.028764149132127062 -0.057882773884943894 0.02153417710933292
-0.028841010742163203 -0.05775550388193418 0.019849172758818312
-0.02891698272992389 -0.05764219655303582 0.018168786680285598
-0.02899266339866118 -0.05753606642525522 0.016486808480748127
-0.029067890304415252 -0.05743891052854316 0.014804978290685722
-0.029143353089210077 -0.05734298705828805 0.013116042805027872
-0.02921873973649418 -0.05725179299597849 0.011423290405124575
-0.02929498881751023 -0.057154882125519335 0.00971674238604825
-0.02937108404081985 -0.057063599715885926 0.008007163198561762
-0.029447893179701156 -0.05696832571175636 0.006285281339941218
-0.029527579378233106 -0.056845219963931604 0.00452781808227265
-0.028740699764676955 0.019278410706669247 0.0854355989075952
-0.02867491570562833 0.017589597215340425 0.08506041831098302
-0.028629037941879185 0.01618188144372723 0.08452473779875122
-0.02858244970726521 0.01476673534546219 0.08399788691073701
-0.028538498103172622 0.013390708794385253 0.08345202698573415
-0.028494681461452506 0.012018907613710772 0.08290784323503764
-0.02845910697608164 0.010763499372046792 0.08229721089714298
-0.02841984641541608 0.009459091577161183 0.08171993540284328
-0.028381999930971694 0.008176277480750394 0.08113319568593749
-0.02834073016313574 0.006848398088830199 0.08057796017288352
-0.028306608558002423 0.005620871941370231 0.07996439193875957
-0.02826959635756412 0.00435556375928875 0.07937774831287503
-0.028233060901757655 0.0030987582141727144 0.07878937080865533
-0.028194572740623973 0.001817256422635083 0.07822016738474555
-0.028157550306798267 0.0005577833417774736 0.07764073248837886
-0.028120775800769212 -0.0006963358195276048 0.07706150683086382
-0.02808432287955967 -0.0019441215246341348 0.07648182433885853
-0.02804556379115966 -0.0032211853832737614 0.07592465364709061
-0.028006687127022794 -0.004497762182381848 0.07537099005661288
-0.02797157378073343 -0.005721494184155018 0.07478662951756776
-0.02793974917737481 -0.006899072463503075 0.07417541083668791
-0.02790161056734812 -0.008159775698628358 0.07362229329188191
-0.02786076268064989 -0.009454763006187084 0.07309575575736621
-0.027827564807248354 -0.010645192931636294 0.07250340394322397
-0.027793709238193486 -0.011842627990668875 0.0719190748202109
-0.027759568498901176 -0.013042050310738296 0.07133947570987781
-0.02772529160706807 -0.014241454858519242 0.07076328683201832
-0.02769365893142616 -0.015403922805045711 0.07016529856363496
-0.02766012820724702 -0.01658984105892647 0.06958660873420391
-0.027623985729182395 -0.01780849293686876 0.06903391917133672
-0.027597885019906645 -0.01889271661782488 0.0683914794067163
-0.02756168757865329 -0.02010848917191893 0.06784358940988766
-0.027531728025152646 -0.02124035354626652 0.06724042640746536
-0.027499020730707754 -0.02240664633807493 0.0666646288282316
-0.027472795628691912 -0.023486354828282874 0.06603066639175953
-0.02743548963190263 -0.024709377211901196 0.06550173008495652
-0.02740437117841999 -0.025849756467998197 0.06491726629467126
-0.027464592556140956 -0.025800445423176166 0.06347702749521533
-0.027597739752094202 -0.024807794171415654 0.061345778949150054
-0.02772148014805402 -0.0239441219218523 0.05929496932514278
-0.027846778875573838 -0.023066934471048628 0.057221477154657696
-0.027974857256923925 -0.02216060258298136 0.05511352799502639
-0.0281066805117244 -0.02121292460016888 0.05296163737407522
-0.02823929569299436 -0.02026213477783373 0.05079374299632594
-0.028368409078773114 -0.019363338614763137 0.04865105020875149
-0.029428905073474433 -0.00655686954624668 0.03751578477466938
-0.029394421598496333 -0.0077852601465828175 0.03691019383881328
-0.029359772222633806 -0.009013916996535365 0.036308415134601146
-0.029328731381668065 -0.010194846065303576 0.0356736940508387
-0.029299475239686887 -0.011351473083101304 0.03502351104665857
-0.029273464254555428 -0.012465454309314394 0.03434337423714218
-0.029327993114751684 -0.012560689414399973 0.03287256778099834
-0.029455606862050347 -0.011737618563929797 0.030676957436968966
-0.02958834302502713 -0.010856953139748493 0.0284224806120581
-0.029722702150864384 -0.009963027480968223 0.02614340860780967
-0.026547585152317418 -0.05052596402622889 0.056836061666587556
-0.026427285881635097 -0.052740454082072785 0.05719137392366852
-0.026346145587550104 -0.054460149649433076 0.057161630494450444
-0.02628215772507622 -0.055962050746213354 0.05696449328599462
-0.02622680815282094 -0.05735325911495037 0.056684253842898435
-0.026181754672304592 -0.05861392763073736 0.05630329974826309
-0.02613679056771845 -0.0598710777986618 0.0559243139498205
-0.026091006805693182 -0.06113593159918479 0.05555654988886838
-0.026101333144837563 -0.061707602063881206 0.05461822048720011
-0.02730077181723593 -0.04767337097738733 0.041487641950811505
-0.027350047747629405 -0.04780060158284882 0.040109458472738724
-0.027386048678176636 -0.048092823986996214 0.03886508114612586
-0.027403655002702153 -0.04861144686573038 0.037808761047945616
-0.02740372661956406 -0.04934452180647997 0.0369333335133728
-0.02738647783226491 -0.05028803622522354 0.03623824620139576
-0.027336357993265763 -0.051629115805961356 0.03588757159419942
-0.027312078171331397 -0.05265494945963706 0.03526939360042286
-0.02731044208215146 -0.05340619008784858 0.03441482454482797
-0.027281238887743108 -0.054489318538976095 0.03385091579099031
-0.02724551281064577 -0.055649259484203406 0.03335783032851408
-0.027287841441923002 -0.0558714979378524 0.032039350155411095
-0.02769585332432043 -0.05172166389795557 0.02682886915091115
-0.02762696974308274 -0.05328558419999063 0.026679682506616897
-0.027559659284203612 -0.05482708112715279 0.02651806149961028
-0.027494334016228722 -0.056341384981018594 0.02633943339787681
-0.027424152627059703 -0.057909758814090995 0.026217243734797724
-0.027415620172901715 -0.05874517823153891 0.025434015725456505
-0.02748921649589897 -0.05861090574294803 0.023762106491573398
-0.027564947993577844 -0.05845543461496516 0.022062312939669038
-0.027638839352872927 -0.058325637739979785 0.020377725955555648
-0.02771180961399841 -0.05821059514454874 0.01869848309370087
-0.027783988257386587 -0.058108718640411394 0.01702325411062966
-0.02785632187038956 -0.058008900324139745 0.015341714835219622
-0.027928809932586434 -0.05791115870536756 0.01365385616264353
-0.028000778951243907 -0.057823328087313275 0.01196710583226046
-0.02807349563496124 -0.05773068923416691 0.010267475167572426
-0.02814689319774856 -0.05763407428963124 0.008555634867139228
-0.028219916074965677 -0.05754571239588818 0.006843285478710159
-0.028294845753761465 -0.05743932084759851 0.0051049596904581
-0.02838192313078459 -0.05719748725731222 0.0032256720365663183
-0.02751624593368377 0.018116139599180292 0.08474979464534169
-0.02745055116151135 0.01639125722826562 0.08440050402159491
-0.02739704055298424 0.01484698944985291 0.0839499921881906
-0.02734619370458323 0.013344322218841076 0.08347986992546053
-0.027301467865093933 0.011933046314215101 0.08295967760780754
-0.027257479556429123 0.010534919181153846 0.08243599889201919
-0.02721989848959144 0.009231582663265347 0.08185886667289272
-0.02718352388082172 0.00794769873537271 0.08127358082092437
-0.027143140036616036 0.0066082967390929115 0.08072626628051172
-0.027107701378625615 0.0053420002423286705 0.08013763009465297
-0.02706834435235255 0.004021656745198721 0.07958635820370422
-0.02703746468311389 0.0028244919122947243 0.0789616955641366
-0.027001793362135193 0.0015608062083424246 0.07838221394857597
-0.026966071315497785 0.00029839327606084876 0.07780556670296845
-0.026926619111097613 -0.0010149426475283274 0.07726511825480911
-0.026888864959965446 -0.002302030621819884 0.07671184596126707
-0.02685595270513704 -0.0035185871119716716 0.07611686726373437
-0.026821116342056976 -0.004760439943192307 0.07554171800711879
-0.02678894093619056 -0.005962892140273568 0.07494440936845448
-0.026752283789935813 -0.0072265019891352145 0.07439062380749895
-0.026716295042108155 -0.008478692429593149 0.07383308650606416
-0.026681040546286172 -0.00971859812125253 0.07327111826751107
-0.02664997755635148 -0.010898005613247053 0.07267237954703368
-0.026611867018510905 -0.012173887609345901 0.07214171874735098
-0.026581527291384625 -0.013339566856807983 0.07154055481283836
-0.026547328650747173 -0.014557110285097596 0.07097781228892946
-0.026519165200834825 -0.015689145093867207 0.07036021799821707
-0.026487430481859274 -0.01686897373373447 0.06977842474624979
-0.026452846655156872 -0.01808633405142407 0.06922590520086147
-0.0264266205065713 -0.019186694756049283 0.06859573951824888
-0.026394898770000452 -0.02036109794967028 0.06802007485997458
-0.02636698845739214 -0.021481466311369157 0.06740980915814387
-0.026333684310173147 -0.022674083467373263 0.06685353919876275
-0.02630060185942292 -0.023861811620425444 0.06629733742197114
-0.026272203623360118 -0.024983854023162555 0.06569774991412114
-0.026254494421438346 -0.025958937363982526 0.06499566632203951
-0.0263494276478691 -0.02540423249671686 0.06319095889120219
-0.02646984837574654 -0.0245096263508352 0.061129322192066626
-0.026590178675307323 -0.0236229733203267 0.059060556106470874
-0.026710684986809397 -0.02274067199893448 0.05698203215130887
-0.026834581418453726 -0.021819474132489802 0.05486180891308956
-0.026961296232444875 -0.020867343765477386 0.05270524542910965
-0.027088629249173664 -0.019914009398967425 0.05053405972592845
-0.02721333799033786 -0.019002895891581273 0.04838071962807028
-0.028174155833852396 -0.006937902279517294 0.03780310681290283
-0.02814700890342734 -0.008086907082040407 0.037138885566820934
-0.02812015030218284 -0.009230561855963715 0.03647355122596602
-0.028095070877083125 -0.01034911511389447 0.035791919701960384
-0.02806870326001063 -0.011483318067314507 0.03512509686714488
-0.028060160108513796 -0.012380607032890123 0.03427764762349078
-0.028127549021757393 -0.01227656750032946 0.03265128924138494
-0.028255435031701092 -0.011380580758841297 0.03039739593627966
-0.028383206509051802 -0.010493245388404515 0.02813616717610179
-0.025666792972549802 -0.04686343448388236 0.05534750662091065
-0.025421098057073738 -0.05079175933634189 0.05704754732278
-0.025309309341401943 -0.052960061995163066 0.05736704492688732
-0.02523463107160168 -0.054639190975729224 0.05730561688454039
-0.025173628349328927 -0.05613656553792584 0.05710558907920593
-0.02512309087228147 -0.05749492910147064 0.056799405709020645
-0.02507882550316167 -0.05876937362535106 0.05643032253797792
-0.025034528741762988 -0.06004174895998843 0.0560645207087504
-0.02500201521621594 -0.06115995740231622 0.055576392150214315
-0.02501944491373574 -0.061634802510762754 0.05455777774013354
-0.026168281364780107 -0.0476087486037447 0.04143370350396064
-0.026206771279950622 -0.04784780989379456 0.04014907094046394
-0.026235850096051075 -0.04820912385278825 0.03896318553701672
-0.02625442583462068 -0.04870580638203165 0.03788877922617978
-0.026271654149422737 -0.04922064725094283 0.036827730394513924
-0.026273440048405445 -0.049932227302853405 0.03593331550426826
-0.026234411745916852 -0.051160201751201895 0.035483586567815195
-0.026195499221878336 -0.052384533382186294 0.035035191763657436
-0.026166237197322095 -0.053485151806333564 0.034483572256488515
-0.02613010818174808 -0.054670425483701324 0.034009426554608535
-0.026124537827864884 -0.05547053260052287 0.033200579225216076
-0.026607216549458346 -0.05016226443792288 0.02698971516335552
-0.02653877522520635 -0.05176016160676472 0.026863098107445638
-0.026472567898462668 -0.053326410525832035 0.026716172512649905
-0.026407522815477914 -0.05487451642844737 0.026560681010471043
-0.026345075643172428 -0.05638677685813659 0.026380430808909117
-0.026280860999334042 -0.05791741116505866 0.026224191466290625
-0.026242084776999516 -0.05913048363540829 0.025785674533364722
-0.02629784875107507 -0.05917717269463291 0.024281628917941556
-0.026370032878099754 -0.059025231446332316 0.022587807542111593
-0.02644059668542085 -0.05889718777186648 0.020907592042591072
-0.026510699852024044 -0.058778722173800146 0.019227926435489873
-0.026579839887461553 -0.05867592778096875 0.017554600810472387
-0.026648564123244425 -0.05858206020639589 0.015881436523299375
-0.02671771569964749 -0.05848684311165919 0.014198780861132354
-0.026786941478023026 -0.05839459196972546 0.012510663204207184
-0.026856168042328616 -0.05830620067005554 0.010817925151822116
-0.026926330527513004 -0.05821038876181173 0.009109721192331555
-0.02699642541490954 -0.058119312097050735 0.00739762976139241
-0.027067104914169 -0.058025133869475 0.005674050023155464
-0.027142186980682853 -0.057882167268538676 0.003894262501314305
-0.026444215514449042 0.01846573613436564 0.0817903659642581
-0.02632334721280058 0.015861553755608493 0.08196893437711875
-0.02623225520445608 0.013714771449156116 0.08188405208897007
-0.0261485474883117 0.011684776519373274 0.08173783518088668
-0.026080153327368915 0.009890380656024933 0.08145656313114216
-0.026026554797057337 0.008322453881066616 0.08104341921237962
-0.025981671089490305 0.0068884437527484965 0.08055322471617071
-0.025938761730770938 0.005486628066848964 0.0800477857049322
-0.025896412478245097 0.004095692663796724 0.07954010393456809
-0.025856357263005437 0.002741457819168569 0.07901386686515532
-0.025817535235993158 0.0014079261208663207 0.0784788162966065
-0.025781111336573195 0.00011230170607767764 0.07792382203281378
-0.025743479997528993 -0.0011991028197008702 0.07738280912516918
-0.025709739980330954 -0.0024507065863022537 0.07680739728095212
-0.02567293367250902 -0.0037456382961839063 0.07626361264235662
-0.025639514983632698 -0.004988471537300532 0.07568992761037024
-0.025604682562816512 -0.006250154970448896 0.07513216690890401
-0.025571917421422424 -0.007479443412801268 0.07455687721767398
-0.025538150349540885 -0.008721502044001794 0.07399357548041402
-0.025502848282856247 -0.009984040341930345 0.07344754896781772
-0.025474730834758187 -0.011139633989996955 0.07283387975579989
-0.025441758487165997 -0.012364315038087548 0.07226970751561546
-0.02540967741037201 -0.013574110562744324 0.07169907318305252
-0.02537694013666571 -0.014791553131580426 0.07113714412525002
-0.02534642571780247 -0.015974893023777137 0.07055549665319594
-0.025316918102591967 -0.017141899462637944 0.06996597543317301
-0.025288876247290103 -0.018286041266650732 0.06936390131918319
-0.02525558661498906 -0.019504078708158845 0.06881626231578786
-0.02522840874255048 -0.020632379361903763 0.0682096059703518
-0.0252010250074307 -0.02176204294067946 0.06760691544253511
-0.025167438929460505 -0.02297883657615929 0.06706880857011877
-0.025142817750050984 -0.02406567839706064 0.06644213534409954
-0.02511122327281735 -0.025250433440519637 0.06588812975571501
-0.02511056726572512 -0.0259934507651971 0.06502044951854474
-0.025227150699514103 -0.025072913314894585 0.06295174404106174
-0.025341146687352472 -0.024195826248557983 0.06090151708426139
-0.025456784366956118 -0.023302202447817166 0.058826418600269825
-0.02557450288904887 -0.022385993172283902 0.05672173230044103
-0.02569420804795082 -0.021448706493083003 0.054588219039043984
-0.025814553760683753 -0.02050941953834401 0.052439695723996704
-0.025934632540703575 -0.019580905740008148 0.05028558187056026
-0.026056893161766462 -0.018628896755507496 0.04810022179269563
