# .PCD v0.7 - Point Cloud Data file format
VERSION 0.7
FIELDS x y z
SIZE 4 4 4
TYPE F F F
COUNT 1 1 1
WIDTH 786
HEIGHT 1
VIEWPOINT 0 0 0 1 0 0 0
POINTS 786
DATA ascii
0.05110389316474597 -0.03937490501221269 0.02138297770973485
0.051151757397122126 -0.0389052696825018 0.02007081391091231
0.052007233365001494 -0.04508197047999818 0.013982991919957333
0.0523818386752474 -0.04727951789739965 0.010712760653084241
0.04188436753139095 0.04037112473061105 0.07128539216423846
0.041690424987851575 0.04266295715271673 0.07160305972600459
0.04151528812592326 0.044795017579248586 0.071815492279035
0.041359948625398574 0.04676019784311214 0.07191557082088623
0.041218759402242885 0.04860531859450412 0.07193627440455297
0.04108737520357717 0.050366278376962004 0.07190313247322902
0.0409664265877108 0.05203848023651103 0.07181171046382878
0.04085573682163468 0.0536238786448629 0.07166245754417985
0.04076074871798974 0.055079203761725926 0.07142137431591342
0.040691816467145786 0.05632212234396855 0.07102380362663885
0.0406508674856676 0.057338514703633936 0.07045627177297048
0.0406356447109992 0.058147845667979536 0.06973106472565271
0.04063067238086385 0.058874884699953056 0.06894278228177725
0.04063136836848197 0.059556630173574376 0.06811936705022764
0.04063743485515769 0.06019573562487074 0.06726233867329723
0.04064987190173733 0.06078454595933852 0.06636509819351133
0.040672576739398156 0.06129255646534343 0.06540273138974173
0.04069470846412818 0.06180585885848128 0.06444306786024945
0.04072175780021415 0.06228117692068774 0.06345136258849854
0.04075114353678422 0.06273904718677104 0.0624437202675171
0.040784779218476785 0.06316458111647782 0.061407801558059805
0.04082338843868725 0.06355233178835706 0.06033872224563058
0.040869413690589954 0.06388347880402007 0.05922051320366273
0.04091937483240559 0.064185515144001 0.05807512083725691
0.040978356864953276 0.06441910513553184 0.0568694823431225
0.0410427844517619 0.06461244398312871 0.05562620380298483
0.041111282966946674 0.06477644911122266 0.0543538848125385
0.041185833320490785 0.06489602623891172 0.0530393721745146
0.04126506425993916 0.06498205105266636 0.051691262192349596
0.04134902830798885 0.0650343571581774 0.05030892745806331
0.04144553962304116 0.06499322347377062 0.04884069450027689
0.04162217395192272 0.06434189314429539 0.04684005270013086
0.04198594330792999 0.062266904987700766 0.04359411283495834
0.044293520052648805 0.045387226444418116 0.027433144571486323
0.044266121704536934 0.046344856417831204 0.026722613602319756
0.044272968035342225 0.04704168221655547 0.025784536781481515
0.04429032952787727 0.04765911966113684 0.024775762591428496
0.04433811442604678 0.048047295464262396 0.0235619258077579
0.04442840575413847 0.048116670575997056 0.02205977783939389
0.04455012490355347 0.04795272619155044 0.02034161282879199
0.044676840445007374 0.04775540545423135 0.01858467598381308
0.04480887394214171 0.04752255425503649 0.01678647917323256
0.04492575926638505 0.047407333207636015 0.015086240437642895
0.04504533353684278 0.047276024400596306 0.013362901451596298
0.04517402549619622 0.047080956316545575 0.011572208732981593
0.04530580378240296 0.04686734243318902 0.009755097924690315
0.04544220852739811 0.04662393813305704 0.007900757444623874
0.045635689850535226 0.045963589417991335 0.005646011780547411
0.04090545971003664 0.09266325076523957 0.024355395203349783
0.040790087336449406 0.09417218006937983 0.02437088999024961
0.040672274956528046 0.09569444354802276 0.024408853043128842
0.04055593368847258 0.09720235360875062 0.024440794506942032
0.040441536685263645 0.09869265834300056 0.024463151422869478
0.040328762817281254 0.10016770872553948 0.02447817048311579
0.040218077462574456 0.10162433096922574 0.02448231785695021
0.04010635092453404 0.1030844759669296 0.024498635412462333
0.03999996500817567 0.10450365459670513 0.024479814938688227
0.03989270413182206 0.10592531161454499 0.02447179607814648
0.03978830530381807 0.10732350838697907 0.024446741825895624
0.039685684636027965 0.10870588222436706 0.024412590182440075
0.039583969458556884 0.11007854068543871 0.024375781675878005
0.03948202320336133 0.11144934747637131 0.024344812679103045
0.0393817216514114 0.11280542025132739 0.024305546643113463
0.039283415546217816 0.11414444178897892 0.024255231089942375
0.03918615393381702 0.11547300612372607 0.02420095749157397
0.03908642793194469 0.11681506429588223 0.024169345207375348
0.038989314043309055 0.11813600244831873 0.024121837785208544
0.03889286375320159 0.11944915801625378 0.024073172865996806
0.03879670815505505 0.1207570584758077 0.02402613789687924
0.03870265073949216 0.12204755772814091 0.023966855379214058
0.03860824023459712 0.12333724986826639 0.023914085658440554
0.03851625489302455 0.12460747703244246 0.02384638743223827
0.03842275047937358 0.12588475836652496 0.023794163693206527
0.038332176842628726 0.12713931224968883 0.023722950769404838
0.03824502436859049 0.12836802218053028 0.02362875341271342
0.03815625029599043 0.12960455363108636 0.023550727868869636
0.03806893484503188 0.13082841891108105 0.02346486630920297
0.037987319254164965 0.13201166703571776 0.0233378029579272
0.03789990917838491 0.13323034447281926 0.023259611632901078
0.037816259422605934 0.13442134474649828 0.023155288722273015
0.0377347790719859 0.13559529029904793 0.023037185646552827
0.03774404385764314 0.13617299893562654 0.022203046780324476
0.037868874881607416 0.1359971635290919 0.02045013118039868
0.037997751750256534 0.13579922799900004 0.018659948796335424
0.038130048191638136 0.13558346174421382 0.016837257170867148
0.038257802477364246 0.13540156992396432 0.01504560273895944
0.03838561696618137 0.13522361150517276 0.01324831420329875
0.038502766354049575 0.13511864533967174 0.011531702816577727
0.03861443512504436 0.13505283716193747 0.009854585469519672
0.03872223740173286 0.13501557079038423 0.008204238431776423
0.03882937186609169 0.13498621734573085 0.006554959800033344
0.03893500062686602 0.1349700810809984 0.004913600691078768
0.039005434173371475 0.1351811490475391 0.0035547737008421176
0.051380595682361314 -0.072777465125133 0.03500941378300465
0.05121245194712688 -0.07039616046881814 0.034886312147248466
0.050366467648068014 -0.06203109768146897 0.03857637569934114
0.050202546795416525 -0.05971049454260441 0.038457433206902425
0.05007456490999737 -0.05771190553650213 0.038141986073082224
0.049988626516973514 -0.05608708084296404 0.03759314484433768
0.049982289546605024 -0.055163092343486875 0.03659429287763061
0.04988034761049669 -0.0534028347190737 0.03614244021551816
0.04985988601830418 -0.05235761042146703 0.03522715946407107
0.04982868755022453 -0.051219528536002756 0.03437457163009627
0.049806273349897234 -0.050158930196212426 0.03347249538240005
0.04979292649920248 -0.04917781471974875 0.03251874280898409
0.049786639045349655 -0.04825831550326232 0.0315244414798907
0.049791239340213504 -0.04743316148611337 0.030466784125719737
0.04980811455695641 -0.046713753510217115 0.02933696061212182
0.04983268078927181 -0.04605998232464498 0.02816118178360799
0.04986772960071574 -0.04549543521965149 0.02692248563440397
0.04991422989865058 -0.045027874932079104 0.025614479573653426
0.049975180897480626 -0.04468237291659061 0.024218617648250396
0.05004603983289124 -0.04441937645524008 0.022761109679630853
0.049967611647095615 -0.04288145581560171 0.022194577817226502
0.04983867206555846 -0.040916599281244304 0.021934794384684875
0.04980995561097714 -0.03980700131483045 0.021076078088488936
0.04984220616914952 -0.039214881437722726 0.01984970223818916
0.05094197293786438 -0.04764652898837407 0.012141447501818281
0.041038592268059886 0.03750353018303387 0.07056232915508726
0.04073928989819829 0.04073121122581769 0.07154822708112984
0.040554203901591014 0.04299083333565856 0.07184368913273265
0.040387837574348676 0.04508739269860085 0.07203123631455693
0.04024005191789139 0.04702302556242566 0.07211056699826376
0.040102792649434345 0.04886581254992223 0.07213058932155453
0.03997773400113338 0.050602380835102656 0.07208020844911339
0.03986111796821411 0.05226454925594587 0.07198218045172672
0.03975407462786052 0.053843400362527105 0.07182888664346868
0.03966715929456304 0.05525221449380335 0.07155325067175256
0.03960224603369853 0.05647658783216136 0.07114217990551286
0.03956580136757732 0.057464458881586356 0.0705533111376569
0.039553506711874034 0.05825277075284052 0.06981234461674496
0.039550410008031764 0.05896529193447081 0.06901319291406521
0.039552248526010046 0.05963735447055657 0.0681825744579364
0.03955844282240533 0.060273943116648465 0.06732390427019891
0.039572096548963126 0.060850016840294674 0.06641691390806764
0.039591867593806195 0.0613768677540763 0.06546981553006276
0.03961554128738006 0.06187276822369947 0.0644965907630658
0.039642937169094235 0.0623393814420109 0.06349817118543732
0.03967309696931516 0.06278463645976928 0.06248057942697549
0.03970730109750568 0.06319836423107072 0.06143526114914827
0.03974517949207526 0.06358374978048537 0.06036439555656431
0.03979018061126929 0.06391332871277833 0.05924503505344342
0.03984392384200154 0.0641745132487776 0.05806603474619454
0.039901160707565116 0.06440966829814804 0.0568616473673334
0.03996448933770041 0.06459827491132769 0.05561437736162256
0.040032777334948394 0.06474965347007372 0.054331400681832454
0.040104383124580326 0.06487708492832817 0.053023394369021926
0.04018213749643049 0.06495833494870823 0.05167115068576339
0.04026611056802124 0.06499317018153383 0.050273815617901285
0.04036353279000995 0.06492493297449353 0.04878216914770622
0.040565803431228314 0.06403561247679712 0.04657618179162992
0.04094794471366475 0.061742044470527446 0.0431395419070999
0.04315668505780034 0.045161885011126335 0.02723695200158116
0.04315161621524662 0.04595122430181403 0.026378093861903262
0.04316094823753401 0.04662814800055792 0.025420692791920718
0.043201087541880005 0.0470658210406914 0.0242510089150324
0.04328738542929692 0.04714673529703928 0.022761222715164675
0.04340850359360265 0.04696107560502011 0.02102692300367187
0.043529012093114945 0.04678433351830347 0.01929183927156425
0.043659740555348665 0.046533012490368786 0.01748062497512526
0.04379481567658462 0.04625280913244778 0.015633650662974063
0.043888150768030855 0.046297542345464904 0.014073361481305002
0.044015295369071845 0.046086708097775375 0.012271761488192034
0.044143902044310845 0.045869124802391026 0.010454598217396638
0.044269382742193185 0.045679830593431225 0.008654192971407959
0.04440521283473483 0.045416211437844245 0.0067752646678719275
0.03983508505819103 0.09261889000505646 0.024310014068148755
0.03971939613647177 0.09415230811726294 0.024350455870375154
0.03960486237509809 0.0956733254558178 0.02438702526547415
0.039491855514335275 0.0971793115630622 0.024416855037199814
0.03938016322419121 0.09867187917696907 0.024441451453628582
0.03927034105851214 0.10014709500514707 0.024456532124521924
0.0391605605307591 0.1016181958330723 0.024475844586515805
0.039053844973025685 0.10306351099650324 0.02447640057565248
0.03894714644219574 0.10450499654336864 0.024481245615299185
0.038842989216591135 0.105924645713255 0.024471082632921526
0.03874143007954836 0.10732218686010847 0.024445318546564676
0.038640954805585576 0.10870850493099327 0.024415429683703804
0.038539988619859904 0.11009480843890346 0.02439348438381167
0.03844165108672072 0.11145903429079007 0.024355408306513282
0.03834335936818289 0.11281952053268807 0.02432104921091699
0.03824737876227958 0.11416034553801485 0.024272806522967927
0.03815394851303311 0.1154799521366573 0.024208673200332098
0.038057031097722724 0.11682070450986315 0.024175642693999966
0.03796212024532044 0.11814408882066185 0.02413091291981151
0.03786714939651907 0.1194645930121348 0.024090584237760504
0.03777344689425514 0.12077299169497324 0.024044203773158523
0.03768222713060971 0.12206094093194753 0.02398210801432904
0.03759066016666864 0.1233481191567194 0.023926536971099366
0.03750049402313799 0.12462246342537081 0.023863643367695753
0.037410413092803955 0.12589308916581637 0.02380380549627492
0.037323607400256725 0.12713813058867302 0.023721576235495923
0.037238661844998085 0.12836743548084778 0.023628067492616422
0.037155041410087 0.12958475017858506 0.023527452877194932
0.037067460444615084 0.13082610573230724 0.023462133741302182
0.03699061490727264 0.1319915641270744 0.023313932385842062
0.03690726088404898 0.1331984081603254 0.023221494784212704
0.03682411390733866 0.13440095814885117 0.023130831681940023
0.036753453033822985 0.13551653513142903 0.022942219849552303
0.03678247143638279 0.13596012745297997 0.02194503849917795
0.03690397476146539 0.13578512850452368 0.02019181502865619
0.03702984565907263 0.13558516669525092 0.018397822827659893
0.03715657812774897 0.13538383617169378 0.016591550966909452
0.037282117364707434 0.13519484082503463 0.014789844384752115
0.037403833813362625 0.13503555236043172 0.013014456795346907
0.037516332395143265 0.13494144705055813 0.011310217517010612
0.03762372957331182 0.13488489545994198 0.00964359010578042
0.03772698831591217 0.13485929744840106 0.008006892335900073
0.03782984158771817 0.13483994727279427 0.006369295362723515
0.03792827321222842 0.13485310209225743 0.004764351828476232
0.03802131542153769 0.13490484686087637 0.0032004354326009565
0.04986751052638256 -0.07075267158465953 0.03466103883877164
0.04917835270626604 -0.0636035190622054 0.03757715141415685
0.04894360565449869 -0.060597707643230525 0.03789044372923256
0.048825554795600565 -0.05865591741297843 0.037535286935430456
0.04879329269678332 -0.05749285949775068 0.036684576463624385
0.04886848527513342 -0.057299155604667196 0.035205954092204006
0.048978354153530794 -0.05741459225533052 0.03352031959716856
0.04907156539878866 -0.05737660955014623 0.03192827001330689
0.0485911530717303 -0.05219748790791279 0.03372817344077261
0.048571646106033484 -0.05115551245062078 0.03281009999049761
0.04856729663217273 -0.05024945437233885 0.031802477484149494
0.04856639678070149 -0.049374264281549174 0.030774397690336686
0.04857809643446879 -0.048611057237208155 0.029670693197104248
0.04859745828467634 -0.047915376818432165 0.028520314451137396
0.04862660521888849 -0.04730559936876505 0.027309933535726416
0.04866768056249479 -0.04680013011587464 0.02602591780377822
0.048720895646327346 -0.04640019276132168 0.024666218702235176
0.04878587599935917 -0.046101843161298894 0.023232349894731052
0.048864233407597345 -0.04591859970046863 0.021713675384320952
0.04876621233593522 -0.04418741981087693 0.02127713249774399
0.04857359529199463 -0.04163273493283165 0.021428935515906855
0.048555451415343204 -0.0406071450143517 0.020507769988035107
0.04860361465317988 -0.04015952516127652 0.01917507731322371
0.05000289532799211 -0.05144995717268147 0.009410302151501793
0.03984881564578854 0.038201199720332035 0.07106880675704241
0.0396003050400268 0.04105868915255306 0.07178726030521831
0.03942422088220498 0.043283168222645996 0.07205823467321762
0.03926468686212693 0.04535903372019473 0.07223168063337831
0.03912424001317092 0.047265399839071576 0.07229038843787478
0.038990689413644745 0.04910769142412763 0.07231101836290904
0.03886937864986029 0.05084061108749077 0.07225888026212321
0.03875750922266874 0.05248868073087132 0.07215118941204085
0.038658820084707134 0.054020586164487516 0.07196321903089181
0.03857614225431999 0.05541299089482976 0.0716758014897255
0.03851625183086225 0.056609327350468364 0.07124390626503496
0.03848505791803966 0.057560843938186945 0.07062757536275727
0.0384744201647058 0.058337773921143754 0.06987819207076046
0.03847065596035252 0.05905644113397068 0.0690841814001732
0.03847366716152408 0.05971803848632151 0.06824575032531077
0.03848044415981993 0.060348165667885034 0.06738233289202433
0.03849475906344184 0.06091546112242585 0.06646870857147719
0.03851342210700869 0.061446962163473784 0.06552558770863892
0.03853748453890055 0.061934142877202336 0.06454568628230445
0.03856450801229569 0.0623975648425128 0.06354496279682254
0.03859516784819018 0.06283178412446067 0.06251869855144349
0.03862995568234045 0.06323292561528687 0.06146335333157593
0.03866784801571683 0.06360966495588727 0.060385572236956786
0.038713626698414216 0.06392275377540196 0.059252777842510373
0.038766678687627835 0.06417765660388963 0.058068630836229984
0.038823613248064576 0.06440259027967993 0.05685577083090415
0.038886194390774946 0.06458331730599648 0.05560189275381627
0.0389526430136733 0.06473467742815853 0.054318834371375635
0.0390231914051728 0.06485498389750682 0.053004751191061905
0.0390977857399986 0.06494489421188687 0.051659752833901396
0.03918252182556697 0.0649551419555684 0.05024139661452787
0.03928655557597445 0.06481211009072435 0.0486854792310073
0.03951544003620799 0.06366376749173724 0.046255825041118026
0.0399083661179568 0.061200766198830525 0.04267075189647468
0.042038995549243535 0.044769977197317734 0.026895739048529876
0.042044052268843814 0.04547999501312078 0.025965658513166345
0.0420727303007581 0.04600097634711864 0.02486888197015652
0.042147928467260856 0.04615116575104494 0.02344202548230878
0.04226367259762795 0.04598069748704242 0.0217244789882049
0.04238028255875265 0.04580747318614842 0.019995849084308126
0.0425078744452924 0.04555122737542222 0.01818392216725495
0.042638895301356096 0.045272376496759636 0.0163420333076435
0.042734237748594514 0.04528018184366067 0.014750581754246761
0.04285311224274412 0.04510583108403443 0.012985715775354456
0.042978755894492314 0.04488246837729132 0.011166930013137899
0.04309911465124565 0.04470507751389202 0.009381056665070386
0.04322204968707823 0.04451180758396012 0.007571355503236177
0.04334951087305526 0.044287560234163026 0.005723463152073949
0.038761899497884465 0.0925931258838944 0.024283657367551115
0.038652926570542055 0.09409977637710037 0.02429643787453517
0.03853757614116937 0.0956500919780745 0.024363011003878887
0.03842798130038458 0.09715347213517034 0.024390009223189735
0.03832068847997567 0.09863585482888138 0.024403830659554926
0.038210836718505135 0.10013335082456143 0.02444210479975273
0.0381053052400725 0.10159501649579944 0.024451387463020557
0.03799971242863588 0.10305336548076927 0.02446564058777212
0.03789634664917403 0.10449157547773641 0.024466938223707546
0.03779553964426185 0.10590733346188913 0.02445253186524826
0.03769544820374819 0.10731425789277116 0.0244367785864526
0.037596334818627085 0.10871047190512434 0.024417559273908873
0.03749926105090367 0.11008830144210952 0.024386403553190716
0.037403220944688016 0.11145515952015406 0.02435117014556404
0.0373073175591165 0.11281759775023037 0.024318935319098567
0.03721331337222562 0.11416288988697587 0.02427561839888548
0.03712065776765112 0.11549510592925288 0.02422550608409174
0.037026980551341786 0.11683135767567565 0.024187537218943178
0.036933688223001346 0.118161504049907 0.02415045748239908
0.0368425907241681 0.11947261845241108 0.024099637344935032
0.03675108277809703 0.12078340849128927 0.024056014889896893
0.03666224999632479 0.12207188978877964 0.023994586279436514
0.03657478113566121 0.12334751523695209 0.02392584525824909
0.03648569729323302 0.12463145439116813 0.023873995968071715
0.036400078678652484 0.1258877335678933 0.023797607265048204
0.03631553172111145 0.12713340410163754 0.02371607797476849
0.036232795472976184 0.1283633290385151 0.023623265967195273
0.03615201407504979 0.12957659486420792 0.02351786799939415
0.03607159208119906 0.13078446275558714 0.023412938957073304
0.03599391563740148 0.13197030898429818 0.023288693623330137
0.03591321069876257 0.1331744505444467 0.023192900750743872
0.03583833713608595 0.13433524544474376 0.02305199837132249
0.035773210609283485 0.13542590469976523 0.0228329344188542
0.035823236595316055 0.1357192924988193 0.021653137420215518
0.0359370062189441 0.1355755560173996 0.019936498916634238
0.036060096622678055 0.13537186991492525 0.018136633046706596
0.036183367217212194 0.13517134513910756 0.016330009493610576
0.03630413139580108 0.1349923462280296 0.014539324817667787
0.03642157136696328 0.13484031147027875 0.012771668659109281
0.03652891142116347 0.13476111245885908 0.011084812059748428
0.03663321687754467 0.1347063164130225 0.009419230392413658
0.03673202819858484 0.13469238867086142 0.007796115524125902
0.036829821642346425 0.13468885278173764 0.006177507161442053
0.03692648996716376 0.13469637540818336 0.004564390415601471
0.04858674279734294 -0.07173019436587624 0.03404335869177583
0.04841537640877903 -0.06923710981160242 0.03399718165303217
0.04831991374250305 -0.06745795959621653 0.03350627591163713
0.047581396046034626 -0.05969901228390556 0.03686490896491884
0.047504828577153435 -0.058114148081340744 0.03628303166847113
0.047533179938241715 -0.057504459434418176 0.03507251650833476
0.047597094489202414 -0.05722266761947992 0.03364576333767555
0.047670392952492494 -0.057025151406297825 0.03215927662506696
0.047595168477597975 -0.05545665004281353 0.03157397691686775
0.04733762528677016 -0.05221461786313958 0.032106147510701066
0.04733996994807139 -0.0513667606303988 0.031055689390690255
0.047341288890246545 -0.05050942417489396 0.030011441857794363
0.04735653610289295 -0.049779332644180996 0.028881104261516466
0.0473825083311833 -0.04914650226028339 0.027683618074893668
0.04741556504868571 -0.048577204305286725 0.026440925295333095
0.04746148012395603 -0.04812349892603118 0.025116517523652404
0.04752047587049321 -0.04778669311662498 0.02370815781607577
0.04759887154310235 -0.047623238898175435 0.022175262880206825
0.04768689313225448 -0.04754381771529531 0.020578214670910644
0.047821706039767 -0.047882783704897514 0.01868112332940386
0.0479849729618608 -0.04847266456844318 0.0165973933791021
0.04818713835907972 -0.04940562036668117 0.014258585642239474
0.04850229113054353 -0.05134301520363149 0.011188296899191985
0.03868398261998629 0.03871672659083181 0.07144305675909116
0.03846253004261346 0.041394133997536664 0.07203210875346425
0.038296850513595986 0.04356905012474288 0.07226804434818032
0.038146480314206165 0.04560246414855079 0.0724113083201807
0.03800691918285624 0.047534943352876946 0.07249036717084292
0.037881790262214186 0.04933516834017887 0.072480704297748
0.03776410288654189 0.05106538408999245 0.07242745919112117
0.03765762065843716 0.05269298664740668 0.07230524868434318
0.03756345213087238 0.05420888961172987 0.07210598019201456
0.037485276105532664 0.05558163645444547 0.07180435052162784
0.037432239685339236 0.05673237477410986 0.07133820498860144
0.03740522869948101 0.05765478432933052 0.07069995598660078
0.03739580688678749 0.05842352640217624 0.06994461997699891
0.03739297208456706 0.05913486763141185 0.0691452612481272
0.0373955324228835 0.059799472677928234 0.06830951358228377
0.037403398631025396 0.06041840875042259 0.06743762884625154
0.037417859178389475 0.06098087882193798 0.06652048219656587
0.0374369129238821 0.06150443251207738 0.06557131528534982
0.037460023294085404 0.06199392125941383 0.0645935048957581
0.03748794048288038 0.06244315327102096 0.063581625435296
0.0375173719892018 0.06288048879859842 0.0625580765233687
0.03755238199249588 0.06327140565007361 0.06149463066268224
0.037592169881308826 0.06362301351130878 0.0603964800950581
0.03763750691901253 0.06392903680985906 0.059257939447804664
0.037688525874942085 0.06418865809397944 0.05807771674819384
0.03774462039629272 0.0644073088365048 0.05685968855089635
0.03780527444109126 0.06458961528217927 0.05560714957375362
0.03787137530873 0.06472837124988856 0.05431354293948826
0.037939684351438734 0.06485103688388416 0.05300142177956385
0.03801353132741642 0.06492987087874902 0.05164701291828705
0.038097819649700264 0.06492423730700664 0.05021505046500063
0.03820194152946179 0.06475646367223559 0.04863778994395446
0.03845769171826351 0.06333206340075415 0.04597005100729762
0.03889058253076041 0.06044778116956978 0.04201860697235238
0.040938099360760434 0.04421669251260624 0.026414023939194786
0.04094906183169104 0.04487801043376588 0.025438781815533107
0.04101144051358796 0.04511609703551828 0.024090329559044166
0.04111730247302648 0.04499900133345469 0.022422972777875028
0.04123104828750091 0.044821126086095786 0.020693484654861316
0.04135336362896567 0.04457729397792004 0.018896331882135242
0.041480007068462 0.044302612012669995 0.017062070390199968
0.0416057305078983 0.044040077430698654 0.015229035224084808
0.04169250890128693 0.04409874954050602 0.013677934332421315
0.04181415125474669 0.04387783620540525 0.011864954897681412
0.04193317056016788 0.043682617592009865 0.01006612517406813
0.04205298499607906 0.043485350740245676 0.008256164754324335
0.04217360238904848 0.04328601641051416 0.006434962979461667
0.03768898794238649 0.09256377785717368 0.024253634317544737
0.037578772194770696 0.09410332632026425 0.024300088357603167
0.03747131092568221 0.09561769968586048 0.02432953009874189
0.03736364084583931 0.09712972366929595 0.02436533581720668
0.037256224671609044 0.09863585473544201 0.024403830659157077
0.037152402808268245 0.10011067006703678 0.02441829664887535
0.037049068214001744 0.10157797040456185 0.024433401713277292
0.036946931714068224 0.10303239585013108 0.02444340080848112
0.036845445581017953 0.10447815311860381 0.024452629453192876
0.03674583988304993 0.10590600157554086 0.024451104786700872
0.0366487034875382 0.10731161474100875 0.024433931823628352
0.03655225403223099 0.10870850474753158 0.024415429682770884
0.036458570780059985 0.11008114339642922 0.024378614249595476
0.03636294524190226 0.11146484591997691 0.024361765319476147
0.03627048672563982 0.11282144301464292 0.024323163071167164
0.036178839573870435 0.11416861460960903 0.02428194492575969
0.03608867639509466 0.11550141945002013 0.024232519222594118
0.03599802931693214 0.11683449073367758 0.024191035427095775
0.03590825806213726 0.1181577722983781 0.024146269577567492
0.03581851393504251 0.11947755690737577 0.024105208213579588
0.03573163838343688 0.12077299151550991 0.02404420377206684
0.03564368770279581 0.12207310619215156 0.02399597268821818
0.03555881469353199 0.12334751514764852 0.023925845257693534
0.035474344914404946 0.12461586940921626 0.023856051001278078
0.035389947883959987 0.12588059245326588 0.023789342555309345
0.03530904930368377 0.12711686024369634 0.023696832464094153
0.035228357420494634 0.12834866231949732 0.02360611639953175
0.03515191171097243 0.1295468820134275 0.02348294644335941
0.035074107578054965 0.1307520642451635 0.02337466511362074
0.035001293089432686 0.13191859238260445 0.023227284193974185
0.03492335595139263 0.13311910241059918 0.02312684118680286
0.03485108597078129 0.13427630105805774 0.022981284793210266
0.034794308317448945 0.13532055495985526 0.022705899900509086
0.03486276565141016 0.13547347270279533 0.021355194522288068
0.03497215565035156 0.13533900786289146 0.01964831911417464
0.0350902040897431 0.13514739840850223 0.01786175939572987
0.035209457515891864 0.13495163514717456 0.016059582666514693
0.0353259331993134 0.13477977188791088 0.014276334923078116
0.03543784314906763 0.13464418731316413 0.012527782152533029
0.03554030165312726 0.13457878326770903 0.01085691349348894
0.03564136052542289 0.13452690096619382 0.009193819858630103
0.03573656393752235 0.13451944794120818 0.007577721400025161
0.03583101791505675 0.13452068940893874 0.00596405296811231
0.0359246221181015 0.13453127813016325 0.004353749285129382
0.04836427082602723 -0.0829617655028006 0.02694631765418043
0.04716842682103666 -0.07054821568696601 0.03316401515913098
0.04701079589699365 -0.06814367904161961 0.0330680545945225
0.04694305318777845 -0.0666060661216617 0.03242587153080029
0.046279095497161055 -0.059371644881773766 0.03547029929740986
0.046198927568186186 -0.05773188561243309 0.03492470045721435
0.04619878381669869 -0.05685710311886216 0.03388469965053187
0.046202663367354735 -0.05602055763265973 0.032819576454970745
0.046130637425847144 -0.054464005785592184 0.03223008147773604
0.04609942907397719 -0.0532965045830312 0.031387053045031255
0.04610615382013578 -0.05248849260772592 0.030305943223449816
0.04611502778693191 -0.05170048687935663 0.02921091301021239
0.04613808755222458 -0.05104560573366157 0.02802528274699445
0.04616289178157114 -0.0504062316264115 0.026827481923710095
0.046203668788991695 -0.04991558773669169 0.025526280972981874
0.04625560565557555 -0.04952776113275775 0.024151528444074644
0.046324266277257276 -0.04929404329691417 0.02266659064079679
0.04638183244132815 -0.048954401307691686 0.02125035265026265
0.0464729570810922 -0.04892449448608055 0.0196136030338101
0.046618216197300305 -0.04939327571786578 0.017619996187039966
0.04683988315961652 -0.05056385403685326 0.015120233501257185
0.04708589574955961 -0.05195095239830566 0.012450744180338147
0.03752784098051177 0.03918294600639194 0.07178151170794797
0.03733158149443828 0.041686894389714735 0.07224580090511767
0.0371713758581191 0.04385445130630583 0.07247750122075075
0.037029792588863825 0.045846384337113244 0.07259129740154818
0.03689569739688622 0.04776492268878518 0.07266099260461828
0.03677549342306976 0.049552429232793016 0.07264276961412078
0.036662131455255396 0.05127347877386207 0.07258352944736388
0.03656053060604443 0.052884040275384014 0.0724493149175646
0.03647139670431494 0.05437842056677272 0.07223450910459772
0.03639499746472122 0.055754919415355264 0.07193643438186814
0.036347354660492014 0.05687049278707773 0.07144405321241343
0.036325223199474746 0.057755829100019196 0.0707778104955496
0.036317763204587496 0.0585092335989057 0.07001101280388577
0.036315898641438145 0.05921246455198015 0.0692056950086834
0.03631953898710763 0.05986664474550596 0.06836210955901634
0.036327710296073505 0.060480733725013 0.06748669160656912
0.036341841163359326 0.06104233147621074 0.0665691177645879
0.03636078844944804 0.06156188232268239 0.06561702652053975
0.03638331960861646 0.06205053287765677 0.06463879031876635
0.036411411307738686 0.06249108574131684 0.06362017317009538
0.03644026153000255 0.06292603781752237 0.06259490313720406
0.03647551541186372 0.06330595125063188 0.06152271001583898
0.03651514546183554 0.06364892231661173 0.060417651570097985
0.03655935995640474 0.06395338150166119 0.05927793874845699
0.036609815880900204 0.0642051589527331 0.058091344440542536
0.0366643020566892 0.06442382292046345 0.05687339965705385
0.03672466961925675 0.06459355135537959 0.0556104349806244
0.03678787812893736 0.06474098307278225 0.054324125593598005
0.03685605897284486 0.06484787918352153 0.05299875819088734
0.03692899087862554 0.06491642773611883 0.05163561302627967
0.03701133895728276 0.06490680122444958 0.050200186275738135
0.0371219567816484 0.0646578423019934 0.048553270823510575
0.03739972108974977 0.06298274969424456 0.045669105703670276
0.03788840436647369 0.05951725827709786 0.04121270011883643
0.03984257014796757 0.04358513801327646 0.025864163514919936
0.0398801139780998 0.0440192388610518 0.024687156660197995
0.039971110881289226 0.04400138955459593 0.023109565057300496
0.040080683804795215 0.043829777003192905 0.021388831123717145
0.04019673185748577 0.043607632629520166 0.019614547316088415
0.04031980022507291 0.043330730532077866 0.01778217067390514
0.04044307394670472 0.043056755562629945 0.015942697432750452
0.04052825587979478 0.043106921815798394 0.014386220025294605
0.04064735889017836 0.04287645028301024 0.01256818293421652
0.04076380789471111 0.042672641249456855 0.010765002953990521
0.04088002602012446 0.0424751585837389 0.00895834015988256
0.040994080319506764 0.04230005486142724 0.0071630267085165955
0.04111423412136917 0.04207868300252504 0.005315682072884742
0.03661667183407705 0.09252797957332543 0.024217012629250634
0.03651002740979097 0.0940642710159082 0.024259928104793105
0.03640293185367825 0.09560009207333592 0.024311330788546304
0.036300099257694944 0.09709828583874414 0.024332673534699645
0.03619555280740748 0.09860605845897347 0.0243727139551963
0.03609379916418984 0.10008798567236399 0.024394484680058004
0.03599322648499795 0.10155683040571661 0.024411096357580653
0.035893646363262234 0.10301412940676863 0.02442402796348564
0.03579478822695253 0.10446204459844882 0.02443545710820194
0.03569836037348104 0.10588735502101793 0.02443112425242905
0.0356026213144164 0.1073036851655858 0.024425391208574565
0.03550985587270362 0.10869342288019113 0.02439910180571986
0.035416812614230936 0.11008179404356622 0.024379322384487923
0.03532534768842363 0.11145451354698854 0.0243504637727871
0.03523518970713635 0.11281375210325661 0.024314707445247385
0.035146072826263565 0.1141616174914773 0.024274212466348644
0.03505715739385545 0.11550457605337 0.024236025667475236
0.03496951390182147 0.11683449064331525 0.02419103542659712
0.03488222562651662 0.1181583941590994 0.0241469675693069
0.03479577954824627 0.1194726182725464 0.024099637343889646
0.034711220774440735 0.12076931468018504 0.024040034917873543
0.034627637005614824 0.12205546584566562 0.023975868487172813
0.034543731837111166 0.12334087273804711 0.02391823620975375
0.034462390820648066 0.12460387966164804 0.0238422457074583
0.03438167070181618 0.12585916690716037 0.023764545672740556
0.03430259515548895 0.1270991323139538 0.023676209512449364
0.03422506526215058 0.12832460529939066 0.023577986832211295
0.03415094672015041 0.12952182457435413 0.023453496415553776
0.034078321140165645 0.1307051874252007 0.02331928733413202
0.03400374639359958 0.1319001990657533 0.023205443632246192
0.033931434851995255 0.13307571970697335 0.02307506272496279
0.03386112818838562 0.1342337757183297 0.022930268617033123
0.03381742087356136 0.13519424256338414 0.02255358783361633
0.033895819536727545 0.1352605231914287 0.021097091667916235
0.034004991549486295 0.13510541214974373 0.019363736187503255
0.03411902191489112 0.13491910058370127 0.017582200274933846
0.034233898512007026 0.13473096308514595 0.015787971689244562
0.03434589801135687 0.134567981759353 0.014014315229505303
0.034452878553858424 0.13444544688118146 0.012280642225263372
0.03455160484407851 0.1343863551947826 0.010616392034798638
0.034648635555203665 0.13434316589337544 0.008962982313567625
0.03474011841286101 0.13434335837469347 0.007355350839621688
0.03483249401223089 0.1343406363195004 0.005735506836776372
0.0349232273830105 0.13435310047687496 0.004126419408864879
0.04694469646190705 -0.08299059293611172 0.026928102161947687
0.04643533107467122 -0.0770297184809749 0.02904522394999448
0.046272741756306024 -0.07451756866427223 0.028994705410372412
0.04564878366735156 -0.06745877879181739 0.03187784872967653
0.04558816248365786 -0.06597256029178761 0.031204063360607714
0.045552586551842016 -0.06473488440709796 0.030373086569006003
0.04494006659580961 -0.057838790796584605 0.03324305986065712
0.04490171871460038 -0.05658798593754283 0.03244661705578272
0.044876003538375536 -0.055462109313944685 0.0315703686793416
0.04486720560489541 -0.05450220355191959 0.030585664647212907
0.04487055669038531 -0.05366087546637194 0.029522342883877117
0.04488550329357755 -0.05293203920338263 0.028383170556616488
0.04491052974868157 -0.052300325677448245 0.027177269526150016
0.04494258757286963 -0.05173565600207952 0.025923979708173783
0.04498886504898059 -0.051307016009506434 0.024575386077367922
0.04505001301239654 -0.05101984535314724 0.023126189317254187
0.04512587001309971 -0.0508717227020527 0.02157642651843361
0.04520254976407177 -0.05072853977655961 0.020017656441848608
0.045323187758501714 -0.05100332388561907 0.01816122610537324
0.045501982153008005 -0.051829194573841664 0.015908752652499636
0.045710724275423144 -0.05293371966120214 0.013446224287449793
0.03638850484050096 0.03951877921276581 0.07202531197873016
0.03620502414816361 0.0419560309376949 0.0724422495067247
0.036051577834019785 0.04410378393970871 0.07266048727510724
0.03591248179147759 0.046110932877812816 0.07278650816955412
0.035788840595973204 0.04796797531281605 0.07281164067825183
0.03567284263752719 0.0497487942314927 0.07278924768807032
0.03556452317856936 0.05145350751542083 0.0727185503583836
0.0354651450517874 0.05307081505406869 0.07259015463570412
0.03537881728476765 0.05456309090176509 0.07237451584405735
0.0353077742748553 0.05591039691510019 0.07205494614723351
0.03526519897792228 0.056991748553177624 0.07153697888078361
0.03524606061861082 0.05785522134632459 0.0708543917435564
0.03524063320465778 0.058591723685471775 0.07007491350856199
0.03524020247607632 0.0592821117328054 0.06925993738833314
0.03524442344796613 0.05992984001026297 0.06841159168876909
0.03525243751351578 0.06054303462265037 0.06753573541330055
0.035266923823952016 0.06109746131970323 0.06661274926840166
0.035284875773355893 0.06162088472509214 0.06566397310831534
0.03530708205879667 0.06210633867322013 0.06468343113977909
0.03533451123514907 0.06254528717581964 0.06366376245386979
0.03536415143262611 0.0629652937986086 0.06262664180833744
0.03539879458381439 0.06334127426048164 0.06155142126104113
0.03543707634244337 0.06368581552050862 0.060447798954089804
0.03548111554634383 0.06398007786951321 0.05929986995668163
0.03553121753645981 0.06422165810359792 0.05810497072238374
0.035584886118841884 0.06443325873089617 0.056881233936739106
0.03564356280696211 0.06460221048720688 0.05561766258983747
0.035705262585563634 0.06474650037781737 0.05432875524106168
0.03577267835095057 0.0648423531281564 0.052994096783494815
0.035845249897415735 0.06489507458283067 0.05161750533487253
0.035925007688937804 0.0648869851869015 0.05018329317348946
0.03604211337648091 0.06455199497849762 0.04846255901077706
0.03634044344377424 0.06262378889657266 0.04535984911005009
0.036945919690572815 0.0580052108539198 0.03990314670605044
0.038760030070529 0.04280129387626552 0.025181712699475334
0.03882463641467258 0.04299044591655449 0.02378672318513214
0.03893198766673789 0.04280858162803142 0.022060084634725363
0.03904099134108068 0.042616491630616704 0.020315718879179434
0.03915719939062937 0.042365972145114505 0.018510566200065748
0.03927966509797839 0.04206566187950683 0.016651469766544025
0.039398377046718114 0.04180263283291008 0.014815897415910939
0.039477989829794224 0.0418820947659318 0.013279970581094092
0.03959235981492274 0.04166498889663772 0.011468271470392255
0.03970597284183099 0.041458850104142075 0.009657205478624309
0.0398195799359609 0.04125718823015301 0.007840911496579506
0.03993328598431432 0.04105910474350205 0.0060185615874729925
0.035646116145043434 0.09096391443265311 0.024154740288363785
0.03554339038658283 0.09249790217982884 0.024186243434216992
0.03544003537980203 0.09403301915045303 0.02422779208424347
0.035336240442327575 0.09556768850768971 0.02427783823111407
0.035234084915660595 0.09708500995792468 0.024318880636120144
0.035133888114119396 0.09858249417230197 0.024348105433155187
0.03503485548007325 0.1000666727698834 0.024372112382156697
0.0349368028436345 0.10153909762024327 0.024392386055967274
0.034839465887581265 0.10300195042281796 0.024411111328999813
0.03474459542769115 0.10444123502917552 0.0244132732228885
0.03464865812102486 0.10588535694475226 0.024428983321044873
0.03455921235366359 0.10727394544797353 0.024393359527598524
0.034466107180360465 0.10868817656473972 0.024393422122996444
0.0343762068374298 0.11007333410796094 0.024370116361123517
0.034286937332075856 0.11144999283524065 0.024345519075425426
0.03419959038500465 0.11280798360964739 0.02430836540980985
0.034113333033397704 0.11415398386457654 0.02426577659709722
0.03402726877910677 0.1154951056574961 0.024225506082620918
0.03394299608601426 0.11681882407346234 0.02417354355924034
0.03385866270497105 0.11813973427233576 0.0241260263753722
0.033774747347176864 0.11945409699069498 0.024078744724369883
0.03369219167154986 0.12075460657701009 0.024023358333672196
0.033610195291218656 0.12204755728054428 0.0239668553764788
0.03353046841972509 0.12331973573230132 0.02389402301388671
0.033451041283994294 0.12458649259136922 0.02382222575599352
0.033373766231258074 0.1258335706201864 0.023734921758117367
0.03329838535750894 0.1270630780394173 0.02363426736517027
0.03322410981880223 0.1282811738768765 0.023527202939992387
0.03314947894121144 0.12949909376698404 0.02342678088941602
0.03308322729152552 0.130650186251134 0.02325431185733179
0.033008093741166186 0.13186627939694961 0.02316516670787644
0.032935106187570146 0.1330631586823033 0.023060070867096938
0.03287502905319175 0.13415946330169676 0.022841118508395652
0.03284252879545529 0.13504520891520203 0.02237387763895765
0.032926531629740505 0.135052303699338 0.0208447217781611
0.03303645559577314 0.1348679638366863 0.019074459747815187
0.03314650634271239 0.13468695641103393 0.017297931157465585
0.033256755759602005 0.13450875163536072 0.01551446597852646
0.03336357150404311 0.13436043327908403 0.013757543164302
0.03346680253978635 0.13424292343924152 0.012028798005175978
0.033561687779424754 0.1341913119598855 0.010372601807579873
0.0336546771459567 0.13415741622493652 0.008729613708457817
0.03374344425755019 0.13415828291585544 0.007121632651216958
0.03383268086912482 0.13415915419093477 0.005505146787680493
0.03392047534302421 0.13417408167155315 0.003898016339351107
0.04553488048279179 -0.0831211191877611 0.026845624894961673
0.0454026837457029 -0.08085580625661715 0.026613865516536994
0.04493095730955787 -0.07513366070663241 0.02860098074391748
0.04484851551788419 -0.07339213547446266 0.028064588699400594
0.044368595744673486 -0.06761685543419116 0.03014133945023556
0.04426450620536955 -0.06567050346484549 0.029764979050498963
0.04424895582634915 -0.06462404239917569 0.02880815865879338
0.04422124448102147 -0.06345542353405037 0.027932785318638353
0.04372516515714247 -0.057568474855799245 0.030178131949466225
0.04366835193431166 -0.05611883434368553 0.029511143373438797
0.04365212716906223 -0.05507882944466347 0.0285746070571381
0.043663033122392156 -0.05431122024195656 0.02745620490056866
0.04368827412034439 -0.05368646613342348 0.02624043461859915
0.04372338713923303 -0.05315918049593549 0.024956525248545414
0.04377568293199346 -0.052801553078012486 0.023554027157808577
0.04384363481267103 -0.052597379658036014 0.022042130099470647
0.043930838863947934 -0.05258137431649468 0.020395070625969625
0.04404709692265974 -0.052849371691631175 0.018544072765224462
0.04418309256649545 -0.053307616750300546 0.016551328818549427
0.04440537438792175 -0.05461078304209943 0.013954674708969883
0.03525192543955416 0.03984876546725835 0.07226486761836556
0.03508041798307352 0.042223033196531645 0.07263714024485726
0.034934123290988016 0.04434598050309396 0.07283823614569396
0.034800820533809125 0.04633735856852955 0.07295358803896321
0.034683839992219016 0.048165798012505534 0.07295840858692801
0.03457174614787829 0.049942457265300166 0.07293371023765693
0.03446810552554134 0.05163334097192984 0.07285342480631582
0.03437260373977495 0.05324197483187604 0.07271921968466583
0.03428822185131447 0.05474030808831626 0.07250887202520409
0.03422317521766702 0.05605052054802878 0.07216175452928378
0.03418485062091119 0.05710335175117437 0.07162250720479496
0.03416764086019341 0.05795375845607603 0.07093031411353434
0.03416388370715779 0.05867575697789462 0.07014000965175826
0.034164384547801206 0.05935726541549141 0.06931846831718497
0.034168726224134416 0.0600024840297369 0.0684684722180039
0.03417774714096964 0.06060373512297018 0.06758351937524992
0.03419195641928886 0.06115650806992312 0.0666594807309468
0.03420977650811806 0.06167593408970734 0.065707774377668
0.03423188918790836 0.06215584023499893 0.06472302901321347
0.03425789136453438 0.06260025541167802 0.06370796840513782
0.034287548445341265 0.06301160349065121 0.06266408342895691
0.03432104782572226 0.06338835949861232 0.06158969305401013
0.03435934070616444 0.06372191550801437 0.060477298160737436
0.03440322086476698 0.06400519977666491 0.05932050774160613
0.03445273082428739 0.06423815554684192 0.05811859559393889
0.03450553411705634 0.06444269398242392 0.05688906775238173
0.03456089148189374 0.06462582407087358 0.05563737225352372
0.034619941141759356 0.06477723657974854 0.05435454605318785
0.03468633399222293 0.06486366639520558 0.05301207560555321
0.03475747461821267 0.06490931017857049 0.05162957739921359
0.03483775978716636 0.0648743015929471 0.0501724804835042
0.03496662312052211 0.06439986553997645 0.04833218310270909
0.035277718728215335 0.06227373414116588 0.04505826536849372
0.037648537810984026 0.04147428240557527 0.025586046134798757
0.0376897432048342 0.04185754447816431 0.024360040979543418
0.037778038748216884 0.041817151756550375 0.0227598174741368
0.03788378140088086 0.04162307738675769 0.021017030289619765
0.037995796077055485 0.041376855269849855 0.019219300024074792
0.03811314996244317 0.04108723217265342 0.01737361708862134
0.03823164918798296 0.04079207118139333 0.015513151972525008
0.038305075954275306 0.04090423068405574 0.014008704069924605
0.03841801604685931 0.040667224676838476 0.012182714148671836
0.03852939419798424 0.04044864351033706 0.01036392571983491
0.03864003169666647 0.04024110729628744 0.008545801417931986
0.03874872883632514 0.04005519005962144 0.006738136537681294
0.03885911926506109 0.03985868627660005 0.004911476748705623
0.034569434709957006 0.09093430676389974 0.024124607516395946
0.034468951865719896 0.09247569817877255 0.024163528750504537
0.03436964289664232 0.0940031815133503 0.02419711030675703
0.03426972848442688 0.09553175428386018 0.024240696349588697
0.03417039330066813 0.09705146554159627 0.024284029713315003
0.03407130019986945 0.09856516497497514 0.024330008329942088
0.03397657791768232 0.10003847983551839 0.024342518036816307
0.0338798355796161 0.1015247733367165 0.024377272168047748
0.033785193705213656 0.10298977037938778 0.024398193570864535
0.033693433705432645 0.10442713642782453 0.024398243546270404
0.03360136321894237 0.10586337712612298 0.024405431042457904
0.03351228451824529 0.10727130152326708 0.02439051193227615
0.03342375677487076 0.10867112486000075 0.02437496165476566
0.033336172424540865 0.110059667006561 0.024355243887308864
0.033250073841400093 0.1114325546550014 0.024326445130444407
0.03316544157740395 0.11279003580210978 0.02428863290211347
0.03308186526118595 0.11413553427185735 0.024245387935974416
0.03299824180624619 0.1154780573275897 0.024206568953261565
0.03291620243976854 0.11680440919317353 0.024157449222668437
0.0328334133545643 0.11813351366572039 0.02411904532136605
0.032753878557798446 0.11943310306936761 0.024055062872146593
0.03267518633811943 0.1207227334645386 0.023987219317352093
0.03259603536205643 0.12201287590807519 0.023927329904933126
0.03251711566622606 0.12329799122457857 0.023869113899875227
0.03244060942528003 0.1245607074990418 0.023792536041441825
0.03236551125209293 0.12580916010824694 0.023706670207394143
0.032291804105184486 0.1270435689925934 0.02361157242463241
0.03222073366182714 0.12825416846583432 0.023495625844128565
0.03215064074715912 0.12945420310810019 0.023374020781180394
0.032085563998172764 0.13061196076387505 0.023209154320895875
0.03201554411282185 0.13180589128330078 0.02309346051737804
0.03194509924706588 0.13300033496783664 0.022985088972215406
0.03188572254022457 0.13410554481744522 0.022776434343726504
0.031874672971916165 0.1348320733709734 0.02211687100114429
0.03196153038465254 0.13479777881620833 0.020536227982019428
0.03206598904278816 0.13463062993556224 0.018785322693144924
0.03217172496308223 0.13445780925374715 0.01701733199766109
0.03227808598707566 0.13428441932664412 0.015238349838793963
0.032380127370139074 0.13414850310496315 0.013495350211321255
0.03247904299014614 0.1340406481242319 0.011777262338983963
0.03256968529233106 0.13400002330213084 0.010133504538133942
0.032659690510829835 0.1339678981919027 0.00849151067562659
0.032745975729694454 0.13396768197065562 0.006880936729176335
0.03283379755573377 0.1339592761638713 0.005251436328412962
0.0329185260221869 0.1339778012543554 0.003647589845667931
0.04428513753415325 -0.08586985817498943 0.026783308193045363
0.044145127784772004 -0.08347208080384577 0.026623858224594732
0.04401501000078308 -0.08118443571500339 0.02640503190479615
0.043890776698851386 -0.07896412556513949 0.026153053086306555
0.043531481602269266 -0.07427962536209892 0.02749421521645351
