# .PCD v0.7 - Point Cloud Data file format
VERSION 0.7
FIELDS x y z
SIZE 4 4 4
TYPE F F F
COUNT 1 1 1
WIDTH 773
HEIGHT 1
VIEWPOINT 0 0 0 1 0 0 0
POINTS 773
DATA ascii
0.0024528512328045315 0.017839149192598287 0.019565785917859457
0.0029576031971863537 0.017900543287892527 0.01754756131783025
0.006823583105478648 0.018118415324906125 0.012857978120608127
0.059487504449686146 0.017805221213519337 0.030540818966110495
0.05656215083285715 0.017722773886307382 0.030843276972758626
0.053663764127621194 0.017641086586798083 0.031142946817831307
0.05079063195736272 0.017560094564063038 0.03144076331420942
0.047950392541799614 0.017480111804954655 0.031731400484358185
0.04515033858474471 0.01740144077798993 0.03200964989089944
0.042372780658448905 0.017323369039996282 0.03228716948486671
0.039789496683045544 0.01725290964794155 0.03244640039955554
0.03745865745450078 0.01719248724030642 0.032445246813925466
0.03514408718197504 0.017132486573254644 0.032444101280103554
0.0328456161250405 0.017072903246600542 0.03244296371408245
0.03056307689637794 0.01701373292115815 0.032441834033019146
0.02829630442114245 0.016954971317687858 0.03244071215521371
0.026045135897158456 0.016896614215864435 0.03243959800009577
0.023809410755956606 0.01683865745326717 0.03243849148819539
0.021588970624585535 0.01678109692438979 0.03243739254113126
0.019383659288217503 0.016723928579671123 0.0324363010815899
0.017193322653512644 0.016667148424545378 0.03243521703330793
0.01501897278766351 0.0166108010969444 0.032433295253486094
0.012859275217812549 0.016554833477199413 0.032431386423901976
0.01071293858331257 0.01649919381197975 0.03243032981719157
0.008582114751975178 0.016443974503773856 0.03242844369458847
0.00646550617765157 0.016389123577341142 0.032426570154713674
0.004361857006825953 0.01633459038201098 0.03242554011465998
0.002667937977974877 0.016297142255890934 0.03212768553252621
0.0021185015372855442 0.016307998103166375 0.030974026547541056
0.001566122691477989 0.01631877465109749 0.029820505037964407
0.0010152215412231325 0.01632965934665228 0.028663774795492203
0.00046358499339405057 0.016340558572179406 0.027505500434618524
0.0001439617955081296 0.016361410921832156 0.02616634607392193
-3.28733887630106e-05 0.01638846153913477 0.024712526594775797
-0.0004027083205300763 0.016407350721814346 0.02340374697932185
0.00018523757300198396 0.016467478652850503 0.021341333600840617
0.0006948804426342159 0.016524490585881818 0.019328793907416375
0.001331494690882895 0.016587225425879402 0.017204584140057433
0.006070077002782948 0.016827632266498544 0.01180422618288296
0.059330808260848356 0.016429768840641307 0.030643812310660046
0.05640584040719687 0.01635366636996408 0.030946592927132366
0.053509199788041195 0.01627831620095066 0.031245680672143117
0.0506391295190739 0.016203657205142743 0.0315420249403508
0.04779394029271 0.01612963029376664 0.031836554119268445
0.0449890479565484 0.01605681760198493 0.03211865957260257
0.0422145514659526 0.015984854279482437 0.03239470509654396
0.03978949668296711 0.01592576275194309 0.032446400399609165
0.03745865745442478 0.015869988221818444 0.032445246813977646
0.035145348528263176 0.015814650693465774 0.03244322969947433
0.03284686617567151 0.015759650368406576 0.03244209516122304
0.030564315777373174 0.01570503127867304 0.032440968486964594
0.02829753225671805 0.015650789474150183 0.03243984959522073
0.026046352809770523 0.015596921059106822 0.03243873840563033
0.023810616866322687 0.015543422191262575 0.032437634838936136
0.02159016605171732 0.015490289080874322 0.0324365388169649
0.01938484414945063 0.015437517989841353 0.03243545026260852
0.017194497064537573 0.015385105230828745 0.03243436909980446
0.015018972787610496 0.015333047166408173 0.03243329525352456
0.012859275217761645 0.015281384748182112 0.03243138642393906
0.010712938583263942 0.015230025057210196 0.032430329817227266
0.00858211475192866 0.015179053388097143 0.03242844369462278
0.006465506177607272 0.015128421763697796 0.03242657015474654
0.00436185700678382 0.015078083429546958 0.03242554011469134
0.0022732651716836916 0.015028122052001509 0.03242368861708639
0.0008048622354668855 0.015002192055524397 0.03196459137579416
0.00025569845490802656 0.015012157841714648 0.03081399520456074
-0.0002963886018802486 0.015022050794169942 0.029663541101956015
-0.0008470123238872307 0.015032042990478743 0.028509890261273763
-0.001398369048678516 0.015042048488625441 0.027354703654453083
-0.0016723742181417034 0.015063051518134269 0.025982559895739776
-0.0018517378080413205 0.015087889814994758 0.0245322738511074
-0.0021930622919384968 0.015106409136633527 0.02320354888446058
-0.0015569142076676812 0.015163863442501322 0.021101423810087505
-0.0010534205465731472 0.015216278467324573 0.019092078685748526
-0.00028002920579417445 0.015279692419150465 0.016856823747666727
0.005724063868003504 0.015552643807672786 0.010423840640809146
0.06213316531832003 0.015125938812720533 0.030436216380718917
0.05915898611591064 0.015054771475526444 0.030756747650734828
0.05624279280132083 0.014985298554436994 0.03105436193190786
0.05335203606478017 0.014916417582232675 0.031350142251654056
0.050486393542091945 0.014848121071904025 0.03164411104255599
0.0476442238124245 0.014780356206713252 0.03193718055448819
0.044827878797476295 0.014713207071222643 0.03222758715833568
0.04213677700248497 0.01465010314173554 0.032447562122291995
0.03978949668289483 0.014598615855945338 0.032446400399658515
0.037459930224226334 0.014547533237690393 0.032444372184390835
0.03514534852819545 0.014496763135674613 0.03244322969952107
0.03284686617560595 0.014446346171037083 0.03244209516126856
0.03056431577730978 0.014396278672114748 0.03244096848700889
0.02829876009962945 0.01434659984430814 0.03243898703007436
0.026047569729627906 0.014297220169550958 0.03243787880604698
0.023811822983845154 0.014248179249416208 0.03243677818459395
0.021591361485917726 0.014199473609931424 0.032435685087750465
0.01938602901766817 0.014151099824463808 0.03243459943861182
0.017195671482457098 0.01410305451291623 0.03243352116132303
0.015020136869304812 0.014055334340940426 0.0324324501810509
0.01285927521771496 0.014007936019165284 0.03243138642397314
0.010712938583219256 0.013960856302441094 0.03243032981726007
0.008582114751885916 0.013914132272420861 0.03242844369465436
0.006465506177566527 0.013867719950054862 0.03242657015477679
0.0043618570067449625 0.013821576477083326 0.03242554011472032
0.002273265171646832 0.013775778547666732 0.03242368861711403
0.00019846876446716344 0.01373028311968957 0.03242184934883369
-0.001048005973259658 0.013714336707782554 0.03180239078927832
-0.001596891826386393 0.013723422012749755 0.03065484123191109
-0.0021486819832022275 0.013732440886167306 0.029507438284791743
-0.0026990230219909317 0.013741550201799268 0.028356850512022413
-0.003250094674953352 0.01375067161065058 0.02720473525781153
-0.0034780773161958156 0.013771554810407026 0.02579889254549378
-0.0036599390373304175 0.013794203783796281 0.024352117378586835
-0.003977525600681375 0.013812003535680113 0.023006947538650957
-0.003291727073468531 0.013866519604450572 0.02086354263329171
-0.0027954398143313353 0.013914333698224812 0.018858263896488037
-0.0018860249835523923 0.013977503455468483 0.01651138220698617
0.0619763049565748 0.013746008048250416 0.030538741737489494
0.058991449585542366 0.013680970385864048 0.030866866140053795
0.05606891742975084 0.013617606260106371 0.031169287727036143
0.05318009860651757 0.013555036644134863 0.03146442344895922
0.050317705216253894 0.013493039382920676 0.03175685942059109
0.047482699787121996 0.013431647950647373 0.032045742997564186
0.04467206639075871 0.013370771714262679 0.03233289433614023
0.042136777002416914 0.013318275583393813 0.032447562122338236
0.03979078100592354 0.013271509273055598 0.03244552269970752
0.03745993022416233 0.013225030216080161 0.032444372184434855
0.035146609882104884 0.013178915330433855 0.03244235811362561
0.03284811623376549 0.01313308145019494 0.032441226603178164
0.03056555466573574 0.013087565268925525 0.03244010293576277
0.028298760099573383 0.013042363494823805 0.03243898703011372
0.026048786656730716 0.01299751154712778 0.032437019201345674
0.023813029108523842 0.01295292862765971 0.032435921525169054
0.02159255692718698 0.012908650511493446 0.03243483135348779
0.019387213892865685 0.012864674083471367 0.032433748609602964
0.017196845907273606 0.012820996270741654 0.032432673217861974
0.015021300957812178 0.012777614042042976 0.032431605103631245
0.012860429082393765 0.012734524407002911 0.03243054419328589
0.010714082334986219 0.01269172441545091 0.03242949041419052
0.008582114751846837 0.012649211156744975 0.03242844369468317
0.006465506177529279 0.012607018136412304 0.032426570154804435
0.004361857006709491 0.012565069524620054 0.0324255401147468
0.0022732651716130814 0.012523435043332296 0.032423688617139346
0.00019846876443518902 0.012482075563353113 0.03242184934885778
-0.0018637537898963386 0.012440952943560858 0.03242084503610476
-0.0028907503075232266 0.012433518064386832 0.031641076449421934
-0.0034393530643786474 0.012441732351010414 0.030496557434051774
-0.003990841307110693 0.012449886545543761 0.029352189519588234
-0.004540894506337045 0.012458122481458818 0.028204648610314798
-0.005087362496080883 0.012466511603806432 0.02705222906177529
-0.0052743260869844155 0.012486820140394983 0.02561618684344341
-0.005458657330144334 0.012507302363828465 0.02417290571920222
-0.00575285310287299 0.012524224823062483 0.022811352720544353
-0.0050203272610375715 0.012575376658291037 0.020628543089607987
-0.004531192892580194 0.01261863322524357 0.01862733248165771
-0.0028962718475594174 0.012700357375170508 0.015693571853708344
0.061818156047463046 0.012367010544437295 0.030642109300519138
0.05883095520301057 0.012308402564707404 0.030972355963137355
0.055895179654772253 0.012250996291500161 0.03128412257542751
0.05300829658634698 0.012194728089131088 0.031578614625000445
0.05014914812049026 0.012139011871599326 0.03186952008669963
0.04731468458578192 0.012083765325790414 0.03215866824628316
0.04450590433822943 0.01202901937308709 0.03244519641258392
0.04213677700235535 0.011986448025052696 0.03244756212238009
0.03979078100586386 0.011944358345748352 0.03244552269974832
0.03745993022410443 0.011902527194470507 0.03244437218447466
0.03514660988204893 0.01186102379738888 0.032442358113664305
0.03284811623371148 0.01181977330517391 0.03244122660321569
0.03056555466568317 0.011778808742031476 0.032440102935799464
0.028299987949826022 0.011738162185281314 0.032438124459810036
0.026048786656681866 0.011697760392413605 0.0324370192013802
0.023813029108476658 0.011657635764892387 0.03243592152520253
0.02159255692714146 0.011617785460342794 0.032434831353520266
0.019387213892821942 0.01157820667512297 0.03243374860963438
0.017198020338987263 0.011538930504238733 0.032431825269421066
0.015022465053132594 0.011499886269650206 0.03243076002126566
0.012861582953802908 0.011461105371664856 0.032429701957685964
0.010715226093402086 0.011422585155098175 0.03242865100624137
0.008583248506652319 0.011384323000341942 0.03242760709546
0.006465506177495639 0.011346316322770094 0.03242657015482936
0.004361857006677461 0.011308562572157115 0.03242554011477072
0.0022732651715826613 0.011271091538998176 0.03242368861716216
0.00019846876440632322 0.011233868007016956 0.03242184934887954
-0.0018637537899235945 0.011196857649203971 0.03242084503612541
-0.003911356874288119 0.011160122028231887 0.032419027171267545
-0.004724527133038892 0.011159646939408045 0.03148146389084294
-0.005272840871790252 0.011166999513530146 0.030339963256116265
-0.005822949513179965 0.011174330027831716 0.029197787816578613
-0.00637270981344773 0.011181701969085047 0.028053277694482792
-0.006873960751860919 0.011190548409362787 0.026868705150766226
-0.007061194588294406 0.011208794539597248 0.02543443525679151
-0.007449564574529055 0.011221109127711413 0.02415418184841661
-0.007519114777417901 0.011243022237813023 0.02261675672029062
-0.006741649646578141 0.011290444291258755 0.020395544079798045
-0.006255267818029431 0.011329317208422925 0.018394902561840454
-0.003616684893444466 0.011433213053158671 0.014643092018055692
0.06166011950813627 0.010988992861726608 0.03074540341763704
0.05866919526690517 0.010936796914199349 0.031078677609867822
0.05573524365042487 0.010885806383863762 0.03138983491584291
0.05283798102294507 0.010835524241042381 0.03169181780191116
0.04997938591116302 0.01078600402397806 0.03198298623000395
0.04714680047746672 0.010736934379610145 0.032271505385638666
0.04449936516664016 0.010692298120540261 0.03244961596889362
0.042136777002300285 0.010654620466712129 0.032447562122417506
0.03979078100581046 0.010617207418441637 0.032445522699784846
0.03746120300162947 0.010580056198043784 0.03244349754958037
0.03514660988199875 0.010543132264344408 0.032442358113698944
0.03284936629939533 0.01050649674156457 0.03244035803989731
0.030566793561542405 0.010470083578020593 0.032439237379360164
0.02829998794978056 0.010433921942471126 0.03243812445984201
0.026048786656638012 0.010398009237699868 0.03243701920141112
0.02381423524031695 0.010362373623043139 0.03243506486069109
0.021593752375486275 0.010326950920436995 0.03243397761420452
0.0193883987750062 0.01029176957048535 0.03243289777560848
0.01719802033894957 0.010256827114877909 0.03243182526944827
0.015022465053096457 0.010222121128577033 0.03243076002129186
0.01286158295376838 0.01018764921925676 0.032429701957711166
0.010716369858468966 0.010153438521318652 0.03242781159341096
0.008584382268024049 0.010119427519826038 0.03242677049139164
0.006466630043045152 0.010085643611136461 0.032425736340787326
0.004362971082790268 0.010052084528356528 0.032424709072207625
0.0022732651715554053 0.010018748034664337 0.03242368861718259
0.00019846876438051053 0.009985660450681064 0.03242184934889902
-0.0018637537899480194 0.009952762354847336 0.0324208450361439
-0.003911356874311156 0.009920108469538853 0.032419027171285086
-0.005945567988812239 0.009887668150938174 0.03241722119577417
-0.006546197443702384 0.009892761457414736 0.031321077613424564
-0.007095283577167766 0.00989923360015233 0.030183396730132872
-0.007645088638385755 0.009905714216975395 0.029044226262064876
-0.008194551075588308 0.009912231434393312 0.027902730977575563
-0.00864912302291504 0.0099212911067011 0.026684464617209858
-0.008838756106444023 0.009937425591290534 0.025253630331209087
-0.009269548720083176 0.009947210759568682 0.024009526854446683
-0.008925369469757471 0.009977707494905005 0.02214236799365693
-0.00845251347544923 0.010011774587238634 0.020161944624373096
-0.007962403610556501 0.010046450487026107 0.018156621079418622
-0.004506992556817413 0.010160876624004313 0.013729877646074362
0.061502195218868294 0.009611953956198445 0.030848624167097216
0.058508934776605404 0.009566225092107009 0.031184013700155278
0.05557678964621182 0.009521640673656018 0.031494567703822085
0.052670498732243554 0.009477440539045597 0.03180313779525168
0.04980975671117793 0.009434056263138164 0.032096363472149725
0.04697904730881425 0.00939115388173609 0.03238425451870752
0.04449936516659009 0.009355760855471632 0.03244961596892748
0.0421367770022516 0.009322792908372044 0.032447562122450646
0.039790781005763276 0.009290056491135398 0.0324455226998171
0.03746120300158379 0.009257549173287305 0.03244349754961179
0.03514660988195445 0.009225240731300379 0.03244235811372953
0.032849366299352534 0.009193184648868053 0.032440358039927064
0.030566793561500827 0.0091613231307671 0.032439237379389196
0.028299987949740535 0.009129681699661347 0.0324381244598701
0.026048786656599432 0.009098258082986525 0.03243701920143838
0.023814235240279702 0.009067076920161916 0.03243506486071751
0.02159375237545047 0.009036082055381572 0.032433977614230114
0.01938839877497167 0.009005298374173907 0.032432897775633296
0.017199194777564708 0.00897475006167279 0.032430977316024456
0.015023629155234308 0.00894438214573373 0.032429914933977066
0.01286273683191197 0.008914219048949712 0.03242885971719567
0.010716369858439823 0.008884258706153163 0.03242781159343239
0.008584382267996127 0.008854499079847153 0.03242677049141224
0.006466630043018562 0.0088249381597438 0.03242573634080703
0.004364085165314613 0.008795599257536186 0.03242387802486185
0.002274369569491008 0.008766429658056548 0.03242286032298469
0.00019846876435769545 0.008737452894345412 0.03242184934891623
-0.0018637537899696133 0.008708667060490925 0.03242084503616033
-0.003911356874331473 0.008680094910846032 0.03241902717130052
-0.00594556798883128 0.008651709632070464 0.03241722119578877
-0.007812056527853994 0.00862706087120762 0.03229641519693066
-0.008358005511335254 0.008632734698624517 0.031161559642595704
-0.008907843153420969 0.008638342796811095 0.030027679266277585
-0.009457339829340994 0.008643982616805813 0.02889149801737878
-0.010006499533054825 0.008649654268632668 0.027753001746354644
-0.010415078233882324 0.008658616936387746 0.026501179665903984
-0.010607083166310538 0.008672661423362699 0.02507376468982253
-0.011040604133596199 0.00868112971912796 0.023834408545286567
-0.010622158733386566 0.008709559873866393 0.021906790230781847
-0.010155154413050538 0.008739250528298312 0.019929467913373244
-0.009659262558437909 0.008769747786673294 0.017917734773689076
-0.00566018204700236 0.00888283950801059 0.013032116383529968
0.06134577913647499 0.00823591866030172 0.03095085913884915
0.058347410491198126 0.008196621859605405 0.031290180458284245
0.055417085550171885 0.00815843453392936 0.031600126760616076
0.05251393823303285 0.008120601380844262 0.03190719843149281
0.049640260364276045 0.00808316734369443 0.03220965191757785
0.046878722146755536 0.00804768239777916 0.032451684392837354
0.04449936516654668 0.00801922359040344 0.032449615968956846
0.04213677700220947 0.00799096535003239 0.032447562122479234
0.039790781005722364 0.007962905563829569 0.03244552269984502
0.0374612030015441 0.007935042148531227 0.032443497549639044
0.03514660988191609 0.007907349198256742 0.032442358113756065
0.03284936629931523 0.00787987255617191 0.03244035803995293
0.030566793561465022 0.007852562683513975 0.03243923737941423
0.028301215807339852 0.00782546481695228 0.03243726188440538
0.026050003590963322 0.0077985301278432825 0.03243615959160806
0.02381423524024734 0.007771780217281024 0.03243506486074049
0.02159375237541933 0.007745213190326465 0.032433977614252374
0.01938958366414284 0.007718849905779399 0.03243204693659035
0.017199194777535953 0.007692642910004695 0.03243097731604522
0.015023629155206664 0.007666613267771236 0.03242991493399716
0.012863890716786064 0.007640781455315409 0.03242801747176738
0.010717513630157272 0.007615101012040589 0.0324269721757211
0.008585516035940155 0.007589592612971265 0.032425933882494096
0.0064677539150611585 0.007564254534983546 0.032424902521947685
0.004364085165292686 0.007539085077887733 0.03242387802487823
0.0022743695694701915 0.007514082564048063 0.032422860323000346
0.00019956358745581992 0.007489266734033706 0.032421023784963754
-0.00186266844596783 0.007464593021410596 0.03242002218920503
-0.003911356874349126 0.007440081352153394 0.03241902717131401
-0.005945567988847877 0.007415751113202929 0.03241722119580148
-0.007967575604182098 0.00739155864151151 0.032416241804800294
-0.009615424396218042 0.007374653302320854 0.03213561456739089
-0.010161080824691582 0.007379490341790934 0.03100372040343341
-0.010710599777647878 0.007384271329029949 0.02987280397651787
-0.011259783354355679 0.007389079342653534 0.02873959631787737
-0.01180863554624284 0.007393914476171461 0.027604083360290244
-0.012171897829519773 0.007402474814767147 0.026318842881741522
-0.012366247541181985 0.007414450701258252 0.024894831032201026
-0.012779393516925308 0.0074220919162720795 0.023641655237067793
-0.012310830259378791 0.0074474792935738015 0.021672339513214345
-0.011845399249952204 0.007472913124127675 0.01969466574248896
-0.011347010140127345 0.0074991218877364756 0.01767911267416633
-0.006690098634953678 0.0076095305730176695 0.01223601725781015
0.06118807799812109 0.006860829855523689 0.03105393403484563
0.05818738338221768 0.0068280416796436365 0.03139536315158864
0.055258861222097666 0.006796241926272679 0.03170470774036255
0.05235614200813865 0.006764716049549766 0.03201208041412401
0.04948156137761173 0.006733502056671109 0.03231572359297874
0.046878722146717566 0.0067064019981487085 0.032451684392862834
0.04449936516650993 0.006682686325335627 0.03244961596898166
0.04213677700217383 0.0066591377916931 0.03244756212250344
0.039792065336584914 0.0066357747932002335 0.03244464499454042
0.037462475786792626 0.006612555139635677 0.032442622909437335
0.035147871243466744 0.006589477541608283 0.032441486522580554
0.032849366299283866 0.006566560463476097 0.03244035803997469
0.030566793561434658 0.006543802236261166 0.03243923737943544
0.028301215807310542 0.006521220680793102 0.03243726188442597
0.026050003590935067 0.00649877510653562 0.03243615959162799
0.023815441379256397 0.006476502715087832 0.03243420819113735
0.021594947830840316 0.006454363394912057 0.03243312386988306
0.019389583664117638 0.006432374921482429 0.03243204693660845
0.017199194777511584 0.006410535758336855 0.03243097731606287
0.015024793264162062 0.006388863074367949 0.03242906984173316
0.012863890716763693 0.006367317879429147 0.032428017471783754
0.010717513630135844 0.0063459175100334785 0.03242697217573681
0.008586649810452929 0.006324678821834039 0.032425097268728886
0.006468877793593175 0.006303563634784411 0.03242406869827369
0.004365199254231622 0.006282588966361111 0.032423046972747505
0.0022754739737433916 0.006261753418518231 0.0324220320240492
0.00019956358743905556 0.006241055611694482 0.032421023784976355
-0.0018626684459836507 0.006220494184508572 0.03242002218921708
-0.003911356874364058 0.006200067793460919 0.03241902717132539
-0.005945567988861866 0.006179792594335545 0.032417221195812196
-0.007967575604195198 0.006159632201259376 0.0324162418048104
-0.009975384858435965 0.0061396201744739086 0.03241445661849274
-0.011409077963059566 0.006128992146565836 0.03197568013144336
-0.011955478805531106 0.006132984103693315 0.030847547652097296
-0.01250363276202815 0.0061369640240010095 0.029718764047121426
-0.013052498615278685 0.006140949113097868 0.028588514471936832
-0.013601038607528704 0.006144956666218965 0.02745596925058047
-0.013919652517297543 0.0061528141853507004 0.026137446926137176
-0.014116320262475501 0.006162742621032678 0.024716822133374783
-0.014506261034503365 0.006169478129650202 0.023447353114586345
-0.01399039626122589 0.006191439866898528 0.021438157644029343
-0.013521292536669505 0.006212710316079211 0.019455829336965103
-0.013026781329874726 0.006234501039687729 0.017441618316329788
-0.007704688995459064 0.00633790872939242 0.011429133283790305
-0.017042597082853606 0.006234358702744312 0.01267276215710883
0.061030488752739254 0.005486716711186684 0.031156935796579577
0.05802609423294203 0.005460436489561372 0.031501375359330674
0.055099388530327476 0.005435015239799215 0.03181011384668714
0.05219980730689122 0.005409829592188891 0.032115990969854236
0.049302997617016564 0.005384577647297704 0.032435072541893484
0.04687872214668676 0.005365121598518582 0.032451684392883595
0.0444993651664799 0.005346149060268125 0.03244961596900198
0.04213677700214469 0.005327310233354115 0.032447562122523255
0.03979206533655666 0.0053086198345598315 0.03244464499455979
0.03746247578676509 0.005290044111708196 0.03244262290945621
0.03514787124344032 0.005271582033286293 0.03244148652259882
0.03284936629925811 0.005253248370780552 0.03244035803999262
0.03056803246473805 0.00523505747054391 0.032438371817795186
0.028301215807286395 0.005216976544634176 0.0324372618844429
0.02605122053254949 0.005199035551700056 0.032435299976676046
0.023815441379234026 0.005181202172069981 0.03243420819115317
0.021594947830818778 0.005163490715929371 0.03243312386989844
0.019389583664096877 0.005145899937185678 0.03243204693662338
0.01719919477749171 0.00512842860666923 0.03243097731607719
0.015024793264142855 0.005111090459494113 0.032429069841747094
0.012863890716745374 0.005093854303543082 0.03242801747179713
0.01071865740850625 0.005076748755480673 0.03242613275314293
0.008586649810436109 0.005059743057467014 0.032425097268741265
0.0064688777935772435 0.005042850907827322 0.03242406869828551
0.004366313349582096 0.005026085627669142 0.03242221591583411
0.002276578384353356 0.005009417093679513 0.03242120372034557
0.00020065841679678398 0.004992858753452708 0.032420198216303764
-0.001861583095794983 0.00497640951787131 0.03241919933757126
-0.003910280902651719 0.004960068312123362 0.03241820701888121
-0.0059455679888734125 0.004943834075468285 0.03241722119582102
-0.007967575604205968 0.00492770576100736 0.032416241804818724
-0.009975384858445957 0.004911696139578995 0.03241445661850051
-0.011970190020112015 0.004895790208578132 0.03241268299434169
-0.01319309551038772 0.004890023038453415 0.03181660490893101
-0.013739186538171022 0.0048931994648938075 0.030691401392030082
-0.01428702056546688 0.004896366302493439 0.02956555273766648
-0.014835564159160541 0.0048995372418489695 0.028438245859972178
-0.015383787352960754 0.004902726044680794 0.027308652919187493
-0.015658412276884914 0.004909585012034046 0.02595698453604256
-0.015858404747604027 0.004917473065825593 0.02454056612269273
-0.01622444030884579 0.0049231665133305505 0.02325402856796921
-0.0156619746365253 0.004941373872519958 0.02120508948947214
-0.015187195960955802 0.0049584780785605 0.019216404467356563
-0.014643044089990342 0.00497659374099272 0.017159334714273
-0.008707348590622388 0.005067783393786195 0.010614093980226391
-0.018210724230370345 0.004971567991382757 0.013658132446618676
0.05786629999585802 0.004093843607472382 0.03160640499048567
0.05493458580525418 0.00407472811357308 0.03191904292644887
0.05201127694913926 0.004055614613446854 0.03224130092400834
0.050155834395334276 0.004046399748316086 0.031865051095499364
0.05032295542141496 0.004056078969093203 0.030136769456063806
0.04449936516645647 0.0040096117952008745 0.0324496159690178
0.0421380730100504 0.003995494854405375 0.03244668133054879
0.03979206533653468 0.003981464875919667 0.03244464499457478
0.03746247578674389 0.003967533083780947 0.03244262290947081
0.035147871243419615 0.003953686524964524 0.03244148652261314
0.03284936629923818 0.003939936278085226 0.0324403580400065
0.030568032464718786 0.00392629310290775 0.03243837181780862
0.0283012158072678 0.003912732408475454 0.032437261884456
0.026051220532531505 0.0038992766637748707 0.03243529997668876
0.02381544137921665 0.0038859016290523195 0.03243420819116555
0.021596143293313275 0.0038726294787987314 0.03243227012047756
0.01939076856025962 0.003859436316914338 0.0324311960925599
0.01720036922301721 0.0038463327419917424 0.03243012935766404
0.015024793264128034 0.003833317844620442 0.03242906984175786
0.012865044608360354 0.0038204018629730474 0.032427175221448556
0.010718657408492593 0.0038075615666103724 0.032426132753152925
0.008586649810423064 0.003794807293100134 0.032425097268750924
0.0064700016786022885 0.003782149094312416 0.032423234869794204
0.004366313349570272 0.0037695642207517415 0.032422215915842933
0.0022765783843420873 0.0037570628202595246 0.032421203720354064
0.00020065841678607033 0.0037446440650894266 0.03242019821631181
-0.0018604977394225397 0.003732317766162374 0.03241837648123724
-0.003909204924829157 0.0037200617921684482 0.03241738686177953
-0.005944501290271742 0.0037078860456772706 0.03241640372030091
-0.007966518086838514 0.003695789741505902 0.03241542699340205
-0.009975384858453673 0.00368377210468417 0.03241445661850645
-0.011970190020119287 0.003671842656433527 0.03241268299434735
-0.013953147577937697 0.0036599800030714907 0.032411727751682384
-0.01496755448135173 0.0036576921950635718 0.03165838199448989
-0.015513331163131472 0.0036600617636517153 0.03053609228895221
-0.016060840805030174 0.0036624241708925363 0.029413163380051677
-0.01660905768972687 0.003664789629760742 0.028288783933471562
-0.017156959573750907 0.0036671684061457296 0.027162127937880587
-0.017388246369490545 0.0036727377724187736 0.02577744852297681
-0.017590496819024803 0.0036786234583440765 0.02436438371066907
-0.017932970857366337 0.003683119974714627 0.02306083593397179
-0.017321496042960183 0.003697280515418896 0.020969737449452297
-0.016844244642358452 0.0037101425773886964 0.0189772472284222
-0.015717848545572843 0.0037296520981376182 0.016434651514662557
-0.008781608808817731 0.0038083691660056947 0.009025802658325921
-0.018380842184737012 0.0037269372469742245 0.013801634956856046
-0.01860949129861772 0.003732774819365627 0.012366690418305126
0.05769148558354825 0.002728146919231658 0.031721307089463247
0.05474405961384943 0.002715303644972031 0.03204497435562281
0.05182290985659738 0.0027025723698650213 0.03236650236112454
0.051169179809507914 0.0027039104021903933 0.03118774843528399
0.051339122388329994 0.002710393478124613 0.029453790138932623
0.05102404508826397 0.002713870027635182 0.0280398539794674
0.04213807301003414 0.002663663236270148 0.032446681330559834
0.03979206533651891 0.002654309917279679 0.03244464499458555
0.03746247578672862 0.0026450220558538688 0.0324426229094813
0.03514913261259528 0.00263579896724881 0.03244061492616879
0.03285061637247144 0.002626632080790328 0.03243948947144265
0.030568032464704964 0.0026175287352717454 0.03243837181781828
0.02830121580725442 0.002608488272316885 0.032437261884465385
0.026051220532518626 0.002599517775849832 0.03243529997669786
0.023816647525389867 0.0025906087663552903 0.032433351516473974
0.021596143293301395 0.002581752985865745 0.03243227012048605
0.01939076856024813 0.002572957544609485 0.03243119609256817
0.017200369223006162 0.002564221827994424 0.03243012935767203
0.015025957379904975 0.0025555527036141916 0.032428224744541656
0.012865044608350085 0.0025469345753152987 0.03242717522145605
0.010718657408482879 0.0025383743777401854 0.032426132753160086
0.008587783591511966 0.0025298788531857666 0.03242426065013321
0.006470001678593407 0.002521432729541553 0.03242323486980081
0.0043663133495618345 0.002513042813834439 0.03242221591584926
0.002277682801287706 0.0025047157263133335 0.03242037541189868
0.00020175325240562314 0.002496436508815637 0.03241937264291739
-0.0018604977394295896 0.0024882118441082036 0.03241837648124257
-0.003909204924835985 0.0024800411947789205 0.03241738686178475
-0.005943434585632512 0.002471931023208465 0.03241558624015384
-0.007965460563503057 0.0024638667748767286 0.032414612177387
-0.0099743364197582 0.0024558549718883558 0.03241364444931849
-0.011970190020124394 0.0024478951042889844 0.03241268299435135
-0.013953147577942526 0.0024399866687142956 0.032411727751686104
-0.0159223119231654 0.0024321359377037564 0.03240997432593534
-0.016732531491459923 0.0024319464082627157 0.031501004556559464
-0.01727798938176378 0.0024335176878948605 0.030381613628407744
-0.017825170267208423 0.002435084213366367 0.02926158937753104
-0.01837203925171932 0.002436659551596693 0.028139304473898896
-0.018907424340762147 0.0024383185734804364 0.0270057093237569
-0.019109223347059112 0.0024422234512367167 0.025598831772072228
-0.019497896885867616 0.0024448883825600263 0.02433961653547395
-0.01963295798154502 0.002449274228775126 0.02286860935033974
-0.018965003659716373 0.002459103259114656 0.020728725235731493
-0.018494573567087058 0.0024676379355072194 0.018740063089998094
-0.015393487015032847 0.0024940566564208193 0.014544549728535194
-0.01839328361086373 0.002484540056854825 0.01381212988601721
-0.019193868336698394 0.0024845259284134945 0.012862250379872486
0.05455369912119129 0.001357061454331943 0.03217079626347674
0.04880719372801334 0.0013419148127534395 0.03437095010270247
0.04881337116957646 0.001344619846795932 0.032762330444997934
0.04881424681878099 0.0013473191891682343 0.031150792549439033
0.0488151259907838 0.001350029391273521 0.02953277127055215
0.042138073010024424 0.0013318316181350437 0.03244668133056644
0.03979206533650942 0.0013271549586398098 0.03244464499459204
0.03746247578671941 0.001322511027926905 0.03244262290948763
0.03514913261258623 0.0013178994836243766 0.032440614926175004
0.03285061637246289 0.0013133160403951368 0.03243948947144859
0.030568032464696637 0.0013087643676358465 0.03243837181782411
0.02830244367221091 0.0013042480295317206 0.03243639930383224
0.02605122053251091 0.0012997588879248914 0.0324352999767033
0.02381664752538243 0.0012953043831776215 0.03243335151647925
0.02159614329329418 0.0012908764929328493 0.03243227012049121
0.019391953463398004 0.0012864825603354398 0.03243034524348737
0.017201543675433306 0.0012821146763492615 0.032429281394275866
0.015025957379898647 0.0012777763518070754 0.03242822474454626
0.012865044608343978 0.0012734672876576298 0.03242717522146049
0.010718657408476995 0.0012691871888700738 0.032426132753164416
0.008587783591506415 0.0012649394265928653 0.032424260650137315
0.006470001678588078 0.0012607163647707592 0.03242323486980475
0.004367427451330563 0.0012565250205831006 0.032421384854148194
0.002277682801282821 0.001252357863156651 0.03242037541190235
0.00020175325240107123 0.0012482182544078036 0.03241937264292083
-0.0018604977394339195 0.0012441059220540875 0.03241837648124585
-0.003908128940900368 0.0012400241167680975 0.03241656670002341
-0.005943434585636342 0.0012359655116042198 0.03241558624015678
-0.007965460563506721 0.0012319333874383524 0.032414612177389834
-0.009973287975167222 0.001227930937013038 0.032412832275563574
-0.01196915056487119 0.0012239509808785066 0.032411873450311435
-0.013952117017933141 0.001219996740972439 0.032410920820386824
-0.015922311923168064 0.0012160679688518693 0.03240997432593745
-0.017878845217255912 0.0012121677822976304 0.03240823214733907
-0.01848709050026387 0.0012127364032354384 0.031343660744825974
-0.0190332370773571 0.0012135144941535169 0.030227958767554075
-0.01958008491899793 0.0012142935841578618 0.029110824203762986
-0.02012662614411065 0.0012150770543701 0.027991438324316276
-0.020617395898622437 0.0012160510457051397 0.026824701372801796
-0.0208214110613269 0.001217993533874993 0.025421127241134156
-0.021262443606639037 0.0012191456792015772 0.024207235963540796
-0.021053236646492113 0.001222498918708595 0.02245334086652201
-0.020599843080718994 0.0012266932490568113 0.020487990114936794
-0.020136171112145218 0.0012309407351927435 0.01850313353022459
-0.016435712327286522 0.0012462102357050258 0.013791200796295422
-0.018383952620862842 0.0012423018185792364 0.013804258756287768
-0.019177316096505692 0.0012423194805143188 0.012848213846984924
0.047410432468110275 0.0 0.0368922561948401
0.046904406470619275 0.0 0.035635670473640524
0.046901468835126525 0.0 0.03404021310877936
0.046903799048023054 0.0 0.03243482987437618
0.04689952584979534 0.0 0.03082744637954482
0.04689523552833319 0.0 0.02921362191097404
0.039792065336506255 0.0 0.03244464499459421
0.03746247578671641 0.0 0.03244262290948968
0.035149132612583345 0.0 0.032440614926177
0.03285061637245995 0.0 0.03243948947145059
0.030569271375444462 0.0 0.03243750625098285
0.028302443672208244 0.0 0.032436399303834074
0.026051220532508357 0.0 0.032435299976705134
0.023816647525379986 0.0 0.032433351516481024
0.02159733876286718 0.0 0.0324314163660151
0.019391953463395617 0.0 0.03243034524348909
0.017201543675431086 0.0 0.032429281394277476
0.015025957379896537 0.0 0.03242822474454782
0.01286619850669557 0.0 0.03242633296619474
0.010719801193508238 0.0 0.032425293325682114
0.008587783591504472 0.0 0.0324242606501387
0.006470001678586301 0.0 0.03242323486980614
0.0043674274513288425 0.0 0.03242138485414947
0.002277682801281322 0.0 0.03242037541190351
0.00020175325239951691 0.0 0.032419372642921995
-0.0018594123768717608 0.0 0.0324175536202192
-0.003908128940901701 0.0 0.03241656670002441
-0.005943434585637675 0.0 0.03241558624015778
-0.007964403034204759 0.0 0.032413797356777685
-0.009973287975168332 0.0 0.03241283227556446
-0.0119691505648723 0.0 0.03241187345031227
-0.013952117017934085 0.0 0.0324109208203876
-0.015921290159874923 0.0 0.03240916998608939
-0.017878845217256745 0.0 0.03240823214733968
-0.019690234068156398 0.0 0.03230096760892348
-0.02023333770277569 0.0 0.03118795576408545
-0.020779149326018265 0.0 0.030075121134211236
-0.021325659918796813 0.0 0.028960861401867655
-0.02187186912001221 0.0 0.027844359624396964
-0.022318670499917093 0.0 0.026644614032595382
-0.02252186941047246 0.0 0.025241857486063446
-0.02296338567021916 0.0 0.024030881727297893
-0.02267590536833819 0.0 0.02221166746574077
-0.02222709899766956 0.0 0.02024837168833371
-0.021771142908637187 0.0 0.018268158838445014
-0.018509362660736772 0.0 0.013910048034073752
0.045612323614091566 -0.0013293314181291218 0.03808074590393101
0.04501570804998578 -0.0013301327278736213 0.03689102645621378
0.04500772700741906 -0.0013327700947434202 0.03530595760194738
0.04500494730994453 -0.0013354342680639104 0.033711073351708865
0.045002156477093935 -0.0013381091139471012 0.032109800064345606
0.044992786969549226 -0.0013407741237828896 0.03050656265234969
0.04498732830248031 -0.0013434621631574647 0.028894228200201044
0.03746247578671941 -0.001322511027926905 0.03244262290948763
0.035150393989386186 -0.0013179034589513021 0.03243974332446231
0.03285186645322563 -0.0013133199881190036 0.03243862089765315
0.030569271375447182 -0.0013087682880431565 0.03243750625098091
0.02830244367221091 -0.0013042480295317206 0.03243639930383224
0.02605122053251091 -0.0012997588879248914 0.0324352999767033
0.02381664752538243 -0.0012953043831776215 0.03243335151647925
0.021597338762869622 -0.0012908803069060079 0.03243141636601338
0.019391953463398004 -0.0012864825603354398 0.03243034524348737
0.017202718134760098 -0.0012821184387234138 0.03242843342589813
0.015027121502497687 -0.0012777800887625902 0.03242737964237752
0.012866198506697568 -0.0012734709994512183 0.03242633296619324
0.010719801193510126 -0.001269190875755023 0.032425293325680726
0.008588917379169614 -0.0012649430888402727 0.032423424026668424
0.006470001678588078 -0.0012607163647707592 0.03242323486980475
0.004367427451330563 -0.0012565250205831006 0.032421384854148194
0.002277682801282821 -0.001252357863156651 0.03242037541190235
0.00020284809428389172 -0.0012482218204728805 0.032418547064803516
-0.0018594123768702064 -0.0012441094646605927 0.03241755362021803
-0.003908128940900368 -0.0012400241167680975 0.03241656670002341
-0.005942367874953558 -0.0012359690080025044 0.03241476875537813
-0.007964403034203649 -0.0012319368610610175 0.0324137973567768
-0.009973287975167222 -0.001227930937013038 0.032412832275563574
-0.01196915056487119 -0.0012239509808785066 0.032411873450311435
-0.01395108645216564 -0.0012200001476067646 0.03241011388457887
-0.01592129015987409 -0.0012160713535806307 0.03240916998608867
-0.017878845217255912 -0.0012121677822976304 0.03240823214733907
-0.019822868603022015 -0.0012082925332062824 0.032406501108026675
-0.02142654840606517 -0.001205535357061164 0.03214244130231897
-0.02196634038067885 -0.0012063208852712427 0.031029869422261602
-0.022506836272105146 -0.0012071074378509183 0.02991584669063052
-0.023049032648852774 -0.0012078916774383066 0.028801179176375535
-0.023589945320252492 -0.001208683624144511 0.027683437305909997
-0.02398944140836029 -0.0012099555817561862 0.026447471639945874
-0.024195801109454185 -0.0012118853527793463 0.025048700593100826
-0.024636800743694676 -0.0012130293335766394 0.02383972601001233
-0.02426309484606365 -0.0012169418543719333 0.021947759634215858
-0.023821728008148357 -0.0012211014873565063 0.019988804119532078
-0.023380359325783584 -0.0012252793453251347 0.018018963235849617
0.0484794356015294 -0.00267112163156725 0.03777620762560824
0.04496123931562751 -0.0026546243991848514 0.038511090811440774
0.04314353142248106 -0.0026486298354081745 0.03813540094400708
0.04313577231623 -0.0026538826629294693 0.03655713994748444
0.04312279510993089 -0.0026591239986601834 0.03497609284767306
0.04311756264396116 -0.00266443482335454 0.03338351928899502
0.04310970533501357 -0.0026697505905038483 0.03178634125839175
0.04309659859206949 -0.002675054853575155 0.030186343452396347
0.043087360836765065 -0.0026804049014258454 0.028577280660564475
0.035150393989395234 -0.002635806917902661 0.032439743324456094
0.032851866453234235 -0.0026266399762380614 0.03243862089764721
0.03056927137545551 -0.0026175365760863654 0.032437506250975134
0.028302443672218958 -0.0026084960590634925 0.032436399303826524
0.02605243748139935 -0.0025995255091317867 0.03243444035661319
0.023816647525389867 -0.0025906087663552903 0.032433351516473974
0.021596143293301395 -0.002581752985865745 0.03243227012048605
0.019393138373539565 -0.002572972696776977 0.03242949438938608
0.017202718134766704 -0.00256423687744687 0.032428433425893355
0.015027121502504015 -0.002555560177525221 0.03242737964237297
0.012866198506703674 -0.002546941998902476 0.0324263329661888
0.01071980119351601 -0.002538381751510084 0.032425293325676396
0.00858891737917511 -0.0025298861776805815 0.032423424026664316
0.00647112557011692 -0.002521440005211571 0.032422401036488246
0.004367427451335615 -0.0025130500411662342 0.03242138485414442
0.002277682801287706 -0.0025047157263133335 0.03242037541189868
0.00020284809428844364 -0.002496443640945791 0.032418547064800074
-0.0018594123768658766 -0.0024882189293212137 0.032417553620214756
-0.003907052950849033 -0.0024800552723334766 0.032415746533600465
-0.005942367874949728 -0.002471938016005034 0.032414768755375245
-0.007964403034199985 -0.0024638737221220593 0.03241379735677402
-0.009972239524676296 -0.0024558687762026373 0.032412020097238314
-0.011968111103788037 -0.0024479088192635038 0.03241106390173104
-0.013951086452162864 -0.0024400002952135475 0.03241011388457671
-0.015921290159871426 -0.002432142707161279 0.03240916998608662
-0.017877832159207963 -0.002424342290700214 0.03240743038234972
-0.01982286860301985 -0.0024165850664125796 0.032406501108024954
-0.021755497590691952 -0.0024088773257327184 0.03240557776151631
-0.023123985517158385 -0.0024049061728758305 0.031960856652905545
-0.023621929220418114 -0.0024067475827290216 0.03081740331107885
-0.02339999148833455 -0.0024134280668858714 0.029086444792688515
-0.023668481335082925 -0.0024168390531212674 0.027747613075534527
-0.023936736615788656 -0.0024202663982538647 0.02640417451790128
-0.02443848944715371 -0.0024221314146529427 0.025249130383865392
-0.025059182722583728 -0.002423199389379415 0.02419041406727368
-0.025679432210255537 -0.0024242750320433853 0.023129936231436665
-0.025849164855393403 -0.0024284184381537697 0.021690025709772742
-0.02541519882654003 -0.002436693525933433 0.019735446233637044
-0.024906118386499143 -0.002445517881529093 0.01770631890186647
0.04749505552856881 -0.003997542045875429 0.03842322142201332
0.04465201752078907 -0.003979059614729768 0.03871547605773484
0.042872437537189556 -0.0039704174711140084 0.038315588170841075
0.041493210984503426 -0.00396548051217465 0.037654999713744364
0.04126226505719438 -0.003971271573497502 0.03622657981122568
0.041248203812483286 -0.003979120013270946 0.03464694180453165
0.04123795843397132 -0.003987035919680824 0.03305841656088926
0.041225086084100415 -0.003994959031592823 0.031465325764307994
0.041209571306545956 -0.004002889246869047 0.029867671333647206
0.041197889158941736 -0.004010887828620055 0.02826097045711795
0.03285186645324856 -0.003939959964357228 0.03243862089763727
0.030570510293642272 -0.003926316625422072 0.03243664067893659
0.02830367154452762 -0.003912755768785011 0.03243553671802846
0.026052437481412227 -0.003899288263697803 0.03243444035660409
0.0238166475254023 -0.003885913149533054 0.03243335151646515
0.021597338762888774 -0.003872640920718207 0.03243141636599972
0.019391953463416378 -0.0038594476810064953 0.03243034524347421
0.017202718134777806 -0.003846355316170412 0.032428433425885306
0.015027121502514673 -0.0038333402662879346 0.032427379642365195
0.012867352411794042 -0.0038204241337994904 0.032425490706004256
0.01072094498520404 -0.0038075836879843277 0.03242445389330867
0.008588917379184435 -0.0037948292665209624 0.03242342402665743
0.006471125570125802 -0.0037821600078174426 0.03242240103648164
0.004368541559528205 -0.003769585902809504 0.03242055378765146
0.0022787872245806917 -0.0037570843587423695 0.03241954709868289
0.00020284809429604866 -0.0037446654614187603 0.032418547064794356
-0.0018594123768588267 -0.00373232839398189 0.03241755362020937
-0.003907052950842205 -0.003720082908500282 0.03241574653359525
-0.005942367874943344 -0.0037079070240076135 0.03241476875537036
-0.007963345498927077 -0.003695821004109911 0.032412982531561274
-0.009972239524670634 -0.0036838031643040116 0.03241202009723393
-0.011968111103782875 -0.0036718632288953064 0.032411063901727044
-0.013951086452158035 -0.003660000442820369 0.03241011388457293
-0.015920268390883285 -0.00364822421498479 0.03240836564175542
-0.017877832159203966 -0.0036365134360503613 0.0324074303823465
-0.019822868603016186 -0.0036248775996189056 0.03240650110802207
-0.021755497590688733 -0.00361331598859911 0.032405577761513704
-0.026677140935375265 -0.003571745002539853 0.03481833190038319
-0.026847469350622044 -0.0035777213129359704 0.03342526399507528
-0.02698235069319521 -0.003584080232107204 0.0319982503706247
-0.026839642731984914 -0.0035932670380376904 0.030338930239882766
-0.026868483342651295 -0.003600759267541072 0.028812611960555623
-0.027015049604876384 -0.0036070912220747655 0.027377042331344748
-0.026883298721976645 -0.003616276794075601 0.025704909779730667
-0.02522281076234939 -0.0036410592459264375 0.02274880726940315
-0.026140754309773195 -0.0036396538835964842 0.02193469832482925
-0.027057989521805437 -0.003638249605720955 0.021121217591180574
-0.02695691615917578 -0.003647269964671102 0.019445424306740178
-0.024962577112625506 -0.003675765877615068 0.016147718719719373
0.047229990014293066 -0.005326774394821313 0.03859744380765329
0.044810470332913854 -0.005307378468979961 0.038610744057686
0.042940823926427785 -0.005294740007415676 0.03827013397766821
0.04151119229919359 -0.005287531305471249 0.03764298131201932
0.04041680792016472 -0.00528447754247944 0.03679482278399743
0.03941177277976554 -0.005282528816827229 0.03588810977929202
0.03938130332755885 -0.005292783707408829 0.034320235188615156
0.03936865927666405 -0.005303303784721425 0.032733998583730495
0.039350827812956124 -0.005313801136974984 0.031144973837033574
0.0393316388827184 -0.005324323907552931 0.02955053511145883
0.03285311654154677 -0.005253295743466958 0.03243775231860607
0.03057051029366148 -0.00523508883389634 0.032436640678923156
0.028303671544546383 -0.005217007691713585 0.032435536718015245
0.02605243748143027 -0.005199051018263966 0.032434440356591376
0.02381664752541962 -0.00518121753271096 0.032433351516452824
0.021597338762905538 -0.0051635212276244895 0.03243141636598773
0.019391953463432587 -0.0051459302413422005 0.032430345243462555
0.017202718134793293 -0.005128473754894081 0.03242843342587409
0.015028285631935367 -0.005111135302960232 0.032426534535244245
0.012867352411808364 -0.005093898845066171 0.03242549070599382
0.01072094498521775 -0.005076778250645947 0.03242445389329862
0.008590051173425706 -0.005059787004435905 0.032422587398334535
0.006472249468147784 -0.005042894561847431 0.03242156719834777
0.004368541559540029 -0.005026114537079492 0.03242055378764269
0.002278787224592016 -0.00500944581165664 0.032419547098674395
0.0002028480943066513 -0.004992887281891819 0.03241854706478636
-0.0018594123768486681 -0.004976437858642653 0.032417553620201656
-0.003907052950832768 -0.004960110544667167 0.03241574653358803
-0.005942367874934407 -0.004943876032010268 0.03241476875536348
-0.007963345498918806 -0.004927761338813323 0.03241298253155489
-0.009972239524662863 -0.0049117375524054515 0.032412020097227934
-0.011968111103775603 -0.0048958176385271715 0.03241106390172138
-0.01395005588062842 -0.004880014217040649 0.03240930694425326
