# .PCD v0.7 - Point Cloud Data file format
VERSION 0.7
FIELDS x y z
SIZE 4 4 4
TYPE F F F
COUNT 1 1 1
WIDTH 759
HEIGHT 1
VIEWPOINT 0 0 0 1 0 0 0
POINTS 759
DATA ascii
-0.03176258274421839 0.018270921706481237 0.012341376272471893
-0.0316914372974314 0.018315447347695014 0.01065286248333941
-0.031627819737619134 0.01835977905262046 0.00896310111719123
-0.03156981525908836 0.018404015785627975 0.0072704327433225635
-0.015686466286859158 0.01685642567057372 0.03988225948330665
-0.01799745954457377 0.016785743747227123 0.0401442131783471
-0.019997486942921416 0.016729092814558026 0.04017804121989865
-0.021791072225395114 0.016681735192056995 0.040061339953240516
-0.023468927630496517 0.016639532106415517 0.039862609497363366
-0.025094609924722067 0.01659956891952776 0.03963047718643825
-0.02669610262494526 0.01656055941255957 0.03938647816782259
-0.0282450469281606 0.016523830521580282 0.039107787086250456
-0.02961757719074304 0.016495178343505456 0.038694694392804874
-0.03038348563259441 0.01649477800772885 0.03779900315856266
-0.03071995027565977 0.0165145065384249 0.03655617861596805
-0.030816351473788806 0.01654559764900661 0.03511459471811412
-0.0308902131178459 0.016577884299689375 0.033648857188582515
-0.03099590966850141 0.016608808840770768 0.03220330325523385
-0.03107615083589771 0.01664107125878277 0.030730996945411093
-0.03116054085748765 0.016673277462940738 0.02925614494105122
-0.031244297411324506 0.01670565419421238 0.027774771264187315
-0.031315868359181875 0.016738752371135212 0.026277134817869807
-0.031374224536140416 0.0167726258217673 0.02476216520095842
-0.03141832616677215 0.016807329353924934 0.023228762849887508
-0.03144518577916938 0.01684301156599415 0.021674147211705352
-0.03145954815098995 0.016879451120959534 0.020102108414364606
-0.03146230582317272 0.016916610090479685 0.018513201219879538
-0.0314338915204872 0.016955436890152144 0.016890274891290802
-0.031387761185624585 0.016995292266934987 0.01524457100611526
-0.03134729002016645 0.017035050794337134 0.013596255472815566
-0.031285027724802794 0.017076044474626795 0.011921204042476652
-0.031216558051278598 0.01711752333969456 0.01023284682216219
-0.031132947718828408 0.017159926281090834 0.008523102017094164
-0.031118199873349073 0.01719915390294118 0.006866785045473722
-0.019651642883050158 0.01554895659458523 0.03991013438807134
-0.021653097598934135 0.015496099256098553 0.0399538831520313
-0.023422951047054552 0.015452969839091613 0.03982660970707769
-0.02508392487403327 0.01541434556901136 0.03962206583313832
-0.026685490381487154 0.015378120295202802 0.03937807931517989
-0.028194244627318954 0.015345754032822956 0.039067365151075395
-0.02943926999731955 0.01532467935159493 0.038552061044799746
-0.030082730714455996 0.015329642626427942 0.03755713371211755
-0.030356226680339216 0.015350730971269542 0.036262106793641
-0.030415760701885175 0.015381243639745046 0.03478898738021341
-0.030484141163978018 0.015411501487202175 0.033317035154848684
-0.03058824339524746 0.015440325434782598 0.031868404367954184
-0.030656267870669995 0.015470858549134069 0.030384226862992025
-0.03074186799126838 0.015500751172926151 0.028908536422173003
-0.03081624283196266 0.015531269154445552 0.027417486256498813
-0.03089766448364767 0.015561609085939447 0.025926220083757168
-0.03095234322119278 0.015593266353364024 0.02440628843332021
-0.030992718566428656 0.015625697471525198 0.022867841608420314
-0.031019676538549812 0.015658868132198415 0.021311400281893045
-0.03101562862978796 0.015693567377496307 0.019721666227454693
-0.031011562741318777 0.01572842074780599 0.018124870988260933
-0.030987938541305493 0.01576430429458426 0.016504044031278586
-0.0309593094067544 0.01580057172094372 0.014871541041513114
-0.0308961843052159 0.015838552088363433 0.013201432788760847
-0.03083373946368212 0.015876671105481483 0.011524142369294499
-0.030766058197208457 0.015915197021770872 0.009834393961565713
-0.03064558942332196 0.01595628577403563 0.008089783495728475
-0.030534425012995636 0.015997136667629613 0.006345015004229515
-0.021326466596382654 0.014317020671978301 0.039699497808796724
-0.023300615659428925 0.01426913254823645 0.03973082076476542
-0.025058666763478066 0.014229630729873993 0.03960218245609548
-0.026685490381506638 0.014195187964801811 0.03937807931519527
-0.02820958270406404 0.01416469909387534 0.03907956921926975
-0.029248367885315707 0.014153495318804912 0.038399352638293194
-0.029756651543918267 0.014163512873328551 0.037294898304751856
-0.029947810742519176 0.014186315416427104 0.03593190105321786
-0.030017128768280055 0.014214122387448307 0.034464972221085854
-0.03011356127890663 0.014240955416878542 0.03301421549455452
-0.03020555786355572 0.014268084089958938 0.03155402722382933
-0.030294058642518384 0.014295472230673274 0.030085087973585167
-0.030372302538460738 0.01432339614367306 0.028601699963342664
-0.03045085270650605 0.014351429359951706 0.02711250548984595
-0.030515208854626108 0.014380164120674452 0.025605301691509985
-0.03054882504269596 0.014410281487778506 0.024065901836524517
-0.030568991748060215 0.014441082121162968 0.022508515296566223
-0.030580489274569578 0.014472374235089595 0.02093699282745204
-0.030587161938105845 0.014504002872070359 0.019354467225346728
-0.03056454869037606 0.014536979148936945 0.017739753441419537
-0.030531057082285762 0.0145705511241686 0.016108348235805703
-0.030485626463481907 0.014604766703770299 0.01445913073007149
-0.030408476169832166 0.014640451471121346 0.012774574452309395
-0.03034378202446769 0.014675776991025792 0.011093057988505517
-0.03023422958562194 0.014713131172190355 0.009364008389363687
-0.030164820503570555 0.014748974683899772 0.007662323700037943
-0.024942044659969576 0.013048077760021018 0.03951037664779766
-0.02665364985805624 0.013013418346514842 0.039352879755311265
-0.028121370649773547 0.012987535607700034 0.039009381415152256
-0.029010406480272644 0.012982764193999791 0.0382090000717723
-0.029391721369293855 0.012996632051795253 0.03700141861745743
-0.02951163390949696 0.0130201873420963 0.0355792505301451
-0.029600328037354795 0.013044996532898931 0.034126189138822816
-0.029697047711369218 0.01306961610813353 0.0326738610875546
-0.029795095541171546 0.013094293110916033 0.031216831375030063
-0.029874234465128602 0.013119779741130572 0.02973836644246519
-0.02994112740614885 0.013145833210769594 0.028243711277633143
-0.02998796757383626 0.013172748521988744 0.02672614840792581
-0.030029182951945288 0.013199991797579969 0.025197477516774147
-0.03005988333667553 0.013227748459317002 0.023653456469220957
-0.03006929634146932 0.013256426483485947 0.02208476655157976
-0.03007387199531031 0.013285412750446207 0.020505101237098866
-0.03006380024709976 0.013315079375170373 0.018905942533906928
-0.030039961657227388 0.013345397575149801 0.0172878041774423
-0.029987520405565682 0.013376933826607354 0.015637602108079407
-0.029913157179214 0.013409442536998559 0.013960712454368751
-0.02986213797931947 0.013441207379036042 0.012296401146960179
-0.029790081342629726 0.013473916293877463 0.010605889723532769
-0.029723630590028693 0.013506557038079223 0.00891239974049568
-0.02962002018360782 0.01354076773499263 0.007177932501073125
-0.026685490381540944 0.01182932330400037 0.03937807931522247
-0.028029276512790857 0.011809914342573261 0.038936104749067335
-0.02871944896478279 0.011812213229190549 0.03797625430439877
-0.028968530298453088 0.011829259249839609 0.03666108506388377
-0.02910701779068825 0.011850081639080676 0.035252116956926816
-0.02919984918376861 0.011872525843478806 0.033800672770130546
-0.029286291483427818 0.011895281925648699 0.032338211295378394
-0.029348946906030515 0.011918938225015179 0.03085031912892866
-0.029382852503920698 0.011943668221008445 0.029332547256409602
-0.029414961787852745 0.011968566624444132 0.027806855522178486
-0.02941808504911514 0.011994556835246608 0.026250483639825295
-0.029412465979607172 0.012020957826743993 0.024679990508567118
-0.02940097162454769 0.012047674619093804 0.023097633393007855
-0.02937281113918544 0.012075077736416117 0.021494137287278614
-0.029333745217849094 0.012102974580610411 0.019874142633697023
-0.029295480507581628 0.012130966940395685 0.018247487052704237
-0.029245223790980546 0.012159495158223203 0.016603110940651422
-0.02918485942380844 0.012188497883890318 0.01494243365814285
-0.02915488224497398 0.012216580270929573 0.013300523173268908
-0.029056317328280734 0.012247160694555633 0.011591120185612314
-0.029038827182944538 0.012275066019033689 0.00994490591489361
-0.028952461752646708 0.012305489743610155 0.008230325314762588
0.008794054407060548 0.006263010066298178 0.04004042938481528
0.006441328024496484 0.006238221916199843 0.04019823720386295
0.007762967184696601 0.006272306961474745 0.03770083844550248
0.005158849692439849 0.006243392224350921 0.03805209290857264
0.010929692135100921 0.005027386879290416 0.04004980437283667
0.008651445004099645 0.00500858441438534 0.04014283360192544
0.006292356506805485 0.004988668615129106 0.040305795748726114
0.003847459521077512 0.004967568809777308 0.0405433260158472
0.0021852883229079856 0.00495645305749665 0.04022255941295261
0.00242292345107209 0.004969786640105476 0.03851439836204951
0.0027465384240412116 0.004984286484850989 0.03673452345630729
-0.0031210383154151033 0.004928942662775283 0.03800738899950162
-0.0048410441348671895 0.004916878159840377 0.03775939319486937
-0.005641788562092853 0.004916739830853074 0.036825762574959564
-0.006131821254965253 0.004920657554472312 0.03565665443170529
-0.006708527228387662 0.004923457771707368 0.03455115209281723
-0.0072583506599649406 0.004926622244169236 0.033423285791000346
-0.00795276981823112 0.004927900288813215 0.032404834026737106
-0.008029878933545953 0.004937311512952469 0.030907377593244967
-0.007907669841571097 0.004949392520280905 0.02924872861786537
-0.009694747789166347 0.004936279538738005 0.02907738909770763
-0.010874813161949992 0.004931153957902923 0.028436544849750056
-0.010837610843822953 0.004942170374355531 0.026835584840609605
-0.01079918696240012 0.004953250162023405 0.025226616176148353
-0.010760590409910065 0.004964379740580794 0.02361041704987965
0.012967838803238096 0.003782290973912972 0.04013880220928745
0.010765436839187015 0.0037689680610156063 0.04016710864997591
0.008208558873908423 0.003752190707286632 0.04046085896694035
0.007318564015845019 0.0037513638120956656 0.03956486628710326
0.0036606088456065944 0.0037238771765959154 0.04067897144631627
0.009289404379602406 0.003785896123968619 0.035037112056030995
0.0012656463801050677 0.0037161488542346976 0.039363727695330586
0.001348848467769559 0.003724670829111034 0.03776588078858123
-0.0024577708222308092 0.0036954563058803494 0.039046893792937076
-0.004355607936870065 0.0036846937620857675 0.03892831342354047
-0.005553634183030176 0.003680710127970592 0.038293832986314
-0.005923990719748917 0.003684797348218267 0.037038560358524875
-0.006713504741949261 0.003684797348325915 0.036097654230291654
-0.007967996294864554 0.003680234737596952 0.03551117420252564
-0.008449432376253174 0.003683254521234725 0.034336083599130096
-0.00908730292961768 0.003684745554962605 0.03327898565792675
-0.009811757140953392 0.0036853878997163423 0.0322877030076133
-0.009137002400165961 0.0036998792074984348 0.030206152078666004
-0.009976080692818634 0.003699419735088563 0.029297673528905555
-0.011567604983017288 0.003691480569303768 0.028981915848915185
-0.011533065490979877 0.003699701670821954 0.027385988826742202
-0.011496269778963453 0.0037079804507944326 0.025781265000236198
-0.011459309022989417 0.0037162963645221247 0.02416934332303511
-0.011422182110126633 0.003724649662407 0.022550175258275407
-0.011383829470718199 0.00373305122904392 0.020922856073791518
-0.011346364368246653 0.003741480103566217 0.01928904127295966
-0.011308729697678932 0.0037499471274191425 0.017647831778885403
-0.011271990277762822 0.0037584417830702974 0.016000052973997536
0.012777103026037018 0.0025203127766803704 0.04027427377710835
0.010445250031417774 0.0025106023544044106 0.040395772705073385
0.007728684127039531 0.002498392237176207 0.0408054449251154
0.005906007023550319 0.0024918589705708624 0.04058474295200121
0.0033060893580117434 0.0024803086949968 0.04093633711215228
0.0008744209069813103 0.0024697930835413974 0.04117938978043878
0.0001597062814865935 0.0024703027788628654 0.04017538066087628
0.00019236307774522787 0.0024756427594089534 0.03861925294119434
-0.0033772134525488773 0.002457685395931406 0.039729043162452904
-0.005300645141045945 0.0024503319214321485 0.03963326179407084
-0.007302938364692646 0.0024424350654731197 0.03960580438477951
-0.008307869655027278 0.0024410022592808583 0.03883615169492216
-0.009051650200616601 0.0024412682248218013 0.03787030499210764
-0.009597350408112548 0.0024428310896155063 0.03675313878498093
-0.010094718757235333 0.0024447173783267 0.03559696585579525
-0.010460377980545388 0.00244747687123527 0.03433693256442766
-0.010839387057766936 0.0024501601562632903 0.03308375275155556
-0.011149289454268074 0.0024533107288365794 0.03177335276979948
-0.011334604260622383 0.0024572983625988217 0.03036140118933045
-0.012257822186270417 0.0024564141709912846 0.029525260089323824
-0.012225925967971951 0.002461867597670387 0.027934339707607225
-0.012190746544340436 0.0024673661930164578 0.0263338402640646
-0.012387213326141733 0.002471343770085639 0.024911602201355465
-0.01125949329218684 0.0024841868915342594 0.022419339644409175
-0.012281338985940693 0.002482690588102345 0.02164849571359767
-0.012046329318928073 0.0024896225978400725 0.019857985293142977
-0.012012465602121825 0.00249523176503451 0.01822289015659284
-0.011976325093624673 0.0025008805793920283 0.016578665828629102
-0.011941085025637121 0.0025065478378229703 0.014927859172200242
0.014713632642582963 0.0012637356969632143 0.040443868303742914
0.012349472943508577 0.001258794888331382 0.040578001366014804
0.010461077418987108 0.001255351672198144 0.04038446944542812
0.007334704121241764 0.0012479365993133494 0.041088352035117404
0.011312679992988017 0.0012632497331362613 0.03668108481548488
0.011056709990977742 0.0012650346518076126 0.03530972500860202
0.00060118160291317 0.0012340176013564202 0.041378833034994345
-0.0003919602580510495 0.001233373143517526 0.04058025049367048
-0.00039950965047674813 0.0012359095716694209 0.039055996637666957
-0.004228455088226668 0.0012260873816752735 0.040360593110145004
-0.00612395531274651 0.0012224954974239548 0.0402474081593322
-0.007896401001479536 0.0012192885740311315 0.0400508990765342
-0.008944261434531975 0.0012184283056686331 0.03931603023760438
-0.009738902911133107 0.0012183909302665805 0.03839134145557538
-0.010277798092425627 0.0012191899046614231 0.03727180560961979
-0.011152795216955946 0.0012188905916009668 0.036407833708150816
-0.011415857508573213 0.0012206000116183496 0.0350731243772634
-0.011667191739379634 0.0012223552694162836 0.033725008610352714
-0.011919249862842873 0.0012241155827061134 0.03237301000160642
-0.012172035010908078 0.0012258809733605648 0.0310171117517975
-0.012716890284812044 0.0012266863604845936 0.029886641993632057
-0.012171595428394633 0.00123111416012451 0.02789134086408185
-0.012881588648486153 0.0012313848012186497 0.02688352353209278
-0.012779883102170986 0.0012343627507328037 0.02522571069995344
-0.012812934773347662 0.0012369032549572343 0.02366862937659031
-0.01277890182305641 0.001239679312985312 0.02205077703962466
-0.012746821709474887 0.0012424607934911128 0.020427358025874087
-0.012711431009889473 0.0012452654312522697 0.018794050318987454
-0.012677996027327665 0.001248075629097 0.01715509029724649
-0.012643349384140079 0.0012509021206058087 0.01550784047567122
-0.00996438342035294 0.0012626911549117124 0.011657763275747912
0.014468743190350686 0.0 0.04061685165168383
0.011904580224699424 0.0 0.04089398987647458
0.009422567702053353 0.0 0.041126129743010775
0.007965677807473703 0.0 0.040635265737761384
0.004711859020792686 0.0 0.04144692670040251
0.0025105193937141612 0.0 0.041513886163037084
0.0003023654470702408 0.0 0.041596945384673734
-0.0007114152904443283 0.0 0.04081469956078032
-0.0005812566895286864 0.0 0.03919010802660855
-0.004902256193711596 0.0 0.04086049705643757
-0.006672590234634512 0.0 0.04065666114164018
-0.008276028200472851 0.0 0.04033561801357205
-0.009355873431567352 0.0 0.03962641099934455
-0.01023166451884755 0.0 0.0387649256721051
-0.01074319650884964 0.0 0.03762655252757319
-0.011254436354301955 0.0 0.03648572744635242
-0.011639964411429837 0.0 0.03524579753481766
-0.012023209188373574 0.0 0.034000796220730434
-0.011490382852134218 0.0 0.032039001653137056
-0.011739712496837584 0.0 0.030678602043655523
-0.012994277398700016 0.0 0.03010500324279286
-0.013602885338282522 0.0 0.029024107285205436
-0.013674803412403846 0.0 0.027514661792285622
-0.012764192286765674 0.0 0.025213159139406638
-0.012995209044915967 0.0 0.023815215764730835
-0.013003576278331597 0.0 0.022232427136959998
-0.012885761120410844 0.0 0.02054029046190947
-0.013339408986047352 0.0 0.01930720304279404
-0.013379126014284148 0.0 0.017731070376726554
-0.013344017129412244 0.0 0.016086503179085776
-0.012263837798143495 0.0 0.013566914775604899
-0.009951209716141884 0.0 0.010002035338253668
-0.007481874930490184 0.0 0.006278038788002704
0.014206941945951845 -0.0012621257764139358 0.04080178103650778
0.012091062880852488 -0.0012579721555140346 0.04076153912092584
0.009334867471156694 -0.001251758661886581 0.04118876158774393
0.0076404439058430085 -0.001248914022395987 0.04086880800343734
0.004405662250290876 -0.001241123138853634 0.041668003048334235
-2.6227104077014562e-05 -0.0012319993892594284 0.041836792166772
-0.0006467040035204596 -0.001232552000685746 0.04076720774092352
-0.003666030849970192 -0.0012253583818982137 0.041466367102882706
-0.005439573600951597 -0.001222167208568263 0.04125914153787935
-0.007080134005276906 -0.0012193940659259868 0.04096066749796634
-0.010006459027292747 -0.0012124301560860879 0.04163343446859996
-0.009456814336726127 -0.0012167588435908724 0.03970252665015056
-0.010210899179703359 -0.0012168503417965158 0.03874918255650167
-0.010702728101347259 -0.0012178000236918215 0.03759570574698834
-0.012150203081000788 -0.0012156213498082618 0.03717220755392581
-0.012503767313088665 -0.0012170265993793697 0.03591135300246601
-0.012857117629265558 -0.0012184384995460303 0.034646780334254224
-0.013211288757138562 -0.0012198536794723789 0.03337927013928593
-0.013510508328177684 -0.0012214565209965513 0.03206514001134547
-0.013811548807193541 -0.0012230601564446448 0.03074836552145338
-0.014288053646189791 -0.0012240881461015366 0.029566370349210558
-0.012363437191424187 -0.001233108588819185 0.026471245263958554
-0.01241446530095569 -0.0012355810288134314 0.024933401884996043
-0.012465698449098339 -0.0012380634034409959 0.0233893792215083
-0.012442430523365577 -0.0012408059140348194 0.02177873879538139
-0.01264149511711471 -0.001242814217354803 0.020341746689433227
-0.012993020313023407 -0.0012443185146718465 0.019024151251478827
-0.0141794223920641 -0.0012430157590119202 0.018388515900176816
-0.014042038890520081 -0.001246178245100477 0.016662980635127334
-0.01293988090419268 -0.001252619970241254 0.014128208238240125
-0.012615130754601744 -0.0012564527519883112 0.012225534617543166
-0.011772211484269712 -0.001262063799270268 0.009878058776100651
0.01391110877259466 -0.002522371637099745 0.04101074966415924
0.011835262679263159 -0.0025143154640832684 0.04094322320173499
0.008997923874623781 -0.00250136738393452 0.04142939264203105
0.00750760029608899 -0.002496978666221738 0.040964199650639466
0.012341490740002847 -0.0025330910456895215 0.035938275796662755
0.002046949618036198 -0.002472224754011438 0.04185041757570557
-0.00039629887985725976 -0.002461617927484073 0.04210691552853535
-0.000559309009000919 -0.002465667420686466 0.04070306827571718
-0.0041282809399208475 -0.0024477305358658794 0.041807462077111945
-0.005769877631370657 -0.0024421961474897797 0.04150419944434269
-0.00712629459357722 -0.0024384886817520337 0.04099510088467456
-0.00847859948085472 -0.002434792455461703 0.04048754569361618
-0.00963774700048331 -0.0024323390372532096 0.039838961006790075
-0.0105480495602856 -0.002431499776409692 0.039004791067413724
-0.011060412819471899 -0.002433260183535945 0.037868348598523394
-0.011526933542089113 -0.002435328528289393 0.03669455848819625
-0.011842051104762497 -0.0024384002223589493 0.03540150423993316
-0.013246916232603378 -0.002434310870498679 0.034948736391876845
-0.013580558393900821 -0.002437271222593158 0.03366686311900957
-0.012251098278783734 -0.0024512392442392113 0.03107901850627426
-0.013545736731863822 -0.0024478813896117923 0.03053911623082317
-0.014969655813519389 -0.0024436508578283412 0.030105811060964383
-0.012594486170716679 -0.002464679868960791 0.026655084316688504
-0.012648038904984393 -0.0024696046206270504 0.02512024451601158
-0.014176671131715723 -0.002464693772807651 0.024765356772229408
-0.014396951060949015 -0.0024685232532583637 0.023358975611627475
-0.014442718242052066 -0.0024735404097974084 0.0218058130329713
-0.012891824041615707 -0.002489317626413301 0.01894145863440705
-0.012782700644692002 -0.0024954455402532274 0.017241105408500323
-0.014737429627560694 -0.0024876593229535317 0.017237285198938856
-0.01306715983319573 -0.0025043783369317675 0.01423388320207214
-0.013427161810810329 -0.002507396545385877 0.012903313891843404
-0.012830855023921284 -0.0025169298845425076 0.010766366221272805
-0.011939231065230982 -0.002528517236186684 0.008367832457503999
0.013582540320720093 -0.003780425550291766 0.04124284161550673
0.010931819976893575 -0.0037628439815479728 0.04158490040106444
0.008540608217853018 -0.003747674077083091 0.04175598839800648
0.006112083581575278 -0.0037320839683591617 0.041966285022619676
0.012076917552839683 -0.0037970938921773507 0.036129299607537135
0.0018498617452199495 -0.003706439112851824 0.04199349476438058
0.008175296089117212 -0.003775144726334997 0.035850323698987885
-0.0005226127852513418 -0.003698855991648905 0.04067613680007226
-0.004588347116061764 -0.0036671376246822755 0.04214694553835102
-0.0058984658644004595 -0.0036620455701876294 0.041599601135754505
-0.007144126330513811 -0.003657559507224401 0.04100840242861553
-0.008701800517437963 -0.0036500122416313345 0.04065494561135191
-0.009966927080109378 -0.003645291988434752 0.04008718303287262
-0.010929072122171424 -0.00364351870948991 0.039293661005805336
-0.011490795118352437 -0.0036456671315792453 0.03819640470847474
-0.0119313153329626 -0.0036490164195822523 0.03700446066141333
-0.012278635342959643 -0.0036532982430885243 0.035737890036117936
-0.01257611880111903 -0.0036580903128168953 0.03442910562321844
-0.012816448658666435 -0.0036634682821539526 0.03307176248328264
-0.013044023365460011 -0.0036689955958050485 0.03169988101269794
-0.014785671098895059 -0.003659499734792479 0.03151520201025004
-0.015648742757861434 -0.0036587131845650413 0.030643261148650902
-0.013150538642825726 -0.0036914701730564516 0.02709751933654303
-0.013206163828060002 -0.003698824679410079 0.025566705619766927
-0.013260965568496985 -0.0037062190286378614 0.024028939229821966
-0.013256271280316811 -0.0037142428351948148 0.022436731946113897
-0.013383821603834611 -0.003720970012272962 0.02094512292310291
-0.013120490979911636 -0.0037316695851387213 0.01912831401259879
-0.013020445642824008 -0.003740764678409245 0.01743641353319547
-0.01503390480414446 -0.0037284850758039414 0.017482136097720646
-0.01540298763253628 -0.003732849233155802 0.01617323420185307
-0.012891876633892907 -0.003766542018376141 0.012456526547959368
-0.01348439980141325 -0.0037687296535749387 0.01131475542864524
-0.01282833027519853 -0.0037836885230743754 0.00911782953427015
-0.011650403175780366 -0.003804058577972568 0.006465285643702412
0.013227109300915585 -0.0050360501222432895 0.04149390856513385
0.010653800009005565 -0.0050135846393138395 0.04178236624354026
0.011258614151605006 -0.0050315843921938525 0.039814901996225116
0.0058795443016996796 -0.004973138327670273 0.042133265617227134
0.01141532006068624 -0.005054314160169877 0.03660697792245332
0.0014226244367147034 -0.004936432911038053 0.04230365039255041
6.991435256470391e-05 -0.004929234606180672 0.04176661644635099
8.714169549872697e-05 -0.004939669936880317 0.04022863604196264
-0.004927908342534371 -0.004885129566186911 0.04239750823224964
-0.0060048537510491995 -0.004881349992990199 0.041678532030851756
-0.007404067675739756 -0.004873373458949254 0.041202305088680946
-0.008929941280006792 -0.0048637168434924926 0.040826050304550554
-0.010214726658758444 -0.004857160835563815 0.040274039155954455
-0.011303122551050482 -0.004853141366887929 0.039577245063953714
-0.011920182611598329 -0.004855271665900161 0.038523702534297044
-0.013895119352571594 -0.004839607884806177 0.03850944220901159
-0.01427662821394221 -0.004844813426667048 0.03727733274585093
-0.014630332747109398 -0.004850407080174917 0.03602039491808323
-0.014972582997931805 -0.004856175585836956 0.03475099369424978
-0.015315648282743677 -0.004861957828605076 0.033478569521231905
-0.015659531516400094 -0.0048677538576079845 0.03220311158789402
-0.01384225879779205 -0.004902272211507455 0.02921355473059528
-0.013943639559086451 -0.0049114062700666115 0.027728567011417182
-0.014020464214270223 -0.00492090695093282 0.026218089269170075
-0.014320185226498972 -0.004927469570474642 0.024880771924464196
-0.014341750919442509 -0.004937785809243722 0.02331434610060762
-0.01414303530025185 -0.004951103169537018 0.02156222538258651
-0.013698797956596398 -0.004967780622035449 0.01960087803800903
-0.013619263578382224 -0.004979614071225461 0.01792834400048887
-0.015298547692069508 -0.004967738259070838 0.017700697562836543
-0.01609371881797539 -0.004967780622474082 0.01674672263085425
-0.013360335849832261 -0.005015699808437293 0.012847536158972439
-0.014317662125189534 -0.005013642175751024 0.012013945569866458
-0.014310980061671752 -0.00502471281703847 0.010368514489623282
-0.013397892518660637 -0.005048211450500156 0.007947181226803046
0.01578318072407614 -0.006322756741296664 0.04123123761539321
0.012847240829562512 -0.0062890278266061915 0.04176223747580293
0.010650411943497029 -0.006266926864077765 0.04178477264339375
0.008150269838424706 -0.006239896870462274 0.04203475177780369
0.009748949194495427 -0.0062782736377032956 0.03935474351067503
0.0035261170536315944 -0.006191527602674449 0.0423030412285203
0.00990991058191193 -0.006306766527738493 0.0361422512979096
0.0009558173048231922 -0.006175791865013951 0.04111997679609508
-0.0034596131669649144 -0.006117424244708631 0.04283161074717351
-0.004978631487494389 -0.006105592753608546 0.04243493691035938
-0.0061111816298575206 -0.00609996667000246 0.041757418405160895
-0.007665741685989436 -0.006087473035240288 0.04139750022631211
-0.009172361252185401 -0.0060757063108441405 0.041007864349957346
-0.010462197257372241 -0.006067420799206152 0.040460647207855915
-0.011625936137942106 -0.0060611584160082345 0.039821984221907636
-0.01233212025990732 -0.0060623526576343454 0.03883769932923553
-0.012738472186908212 -0.006068465788629234 0.03762303367535774
-0.013107585462359073 -0.0060752163146693084 0.036376591623383414
-0.01345694284779414 -0.006082320549555394 0.03511143273859485
-0.013376416660328572 -0.006096544953246967 0.03350787433791519
-0.013576610458988947 -0.006106190070207649 0.03211689816013541
-0.013773303712967033 -0.006115934242395309 0.030718258691930844
-0.0165213886910347 -0.0060833706782592025 0.03133389971446465
-0.014038002618896761 -0.006137688201232419 0.027803648994386088
-0.014113951601751995 -0.006149575285728273 0.02629287267424063
-0.016039863196056714 -0.006130608952087349 0.026263750334710623
-0.01638968929837653 -0.006137946877791558 0.024970111574321274
-0.01648876946972383 -0.0061495233531055175 0.0234688800334536
-0.01451375823682044 -0.0061960232080016855 0.02026682350659026
-0.014479295629610256 -0.0062100258678578 0.018634862532625862
-0.015562810211787292 -0.006205210277868989 0.017918944892049093
-0.016782898303045468 -0.006198062427841209 0.017318922740715337
-0.013870993522407893 -0.00626096378646577 0.013273767623998123
-0.013515210487723084 -0.006280692384900438 0.01134060866537201
-0.01300243623407965 -0.006303181692997279 0.009264696114224868
-0.012122959295899016 -0.0063320301035293194 0.006866019891395625
-0.013802780277463511 -0.006317216721499646 0.006633983992385628
0.01812277793106265 -0.007616295737782694 0.041133267454722344
0.014887182330927062 -0.007570261640680805 0.041860680500953706
0.015983138268582775 -0.00760661596651673 0.03954712354232742
0.010205952199272506 -0.0075118217404984465 0.042100453630290524
0.00791688654012157 -0.007483408790157091 0.042201424389189
0.005531256019211395 -0.007453026810275252 0.04238336265260034
0.0030468540591073734 -0.007420621224619045 0.042649072678671074
0.0019674368559604583 -0.00741514279625066 0.04190814036858481
0.0018589141521903607 -0.007428380416735699 0.040460786951383665
-0.0037155972884121424 -0.007335958247238283 0.04301947831031255
-0.004883514423790314 -0.007328554730033006 0.04236474989882982
-0.006159588313397912 -0.007319019901558703 0.04179333210718922
-0.007907204600367423 -0.007300268432648391 0.04157761894257228
-0.00941342882947488 -0.007286146255292344 0.04118866410440636
-0.010682469656280558 -0.007276600196570996 0.04062674614436873
-0.011778381271099203 -0.007270404627966594 0.03993755957263029
-0.012497667148675451 -0.0072715743180702865 0.038963886369188294
-0.012929694745467013 -0.007278398281519656 0.03776957906341166
-0.01334198663586117 -0.0072856400106937795 0.036557196460838715
-0.013741744417686108 -0.007293159928292362 0.03533205322956873
-0.013978912343372674 -0.007303929635837771 0.033977107417234975
-0.014185906604705811 -0.007315343561961648 0.032593978704742455
-0.014410032698057573 -0.007326465586874467 0.031219496599533825
-0.01462246729587624 -0.00733786795137361 0.029831035495323288
-0.014764327558184964 -0.007350727803417941 0.028381564937670967
-0.01487566249126887 -0.007364253389270886 0.026902188385501402
-0.014596498979404071 -0.00738566521779772 0.025102985595562288
-0.014647747150107526 -0.007400531342456564 0.02356174514299747
-0.014624170571301665 -0.007416968044654623 0.021953300728711433
-0.014601533731915639 -0.007433456843301666 0.02033854932517254
-0.014581937262048261 -0.007449955601683576 0.018719182896480557
-0.014609473127928374 -0.007465570898477657 0.017131609356863475
-0.01746949375372664 -0.007423731370290503 0.017888977422871044
-0.016781673400642017 -0.007453916882427589 0.01570322950295744
-0.014028672850359136 -0.007526357775057867 0.011771454764612721
-0.015236235072008164 -0.007518155478622937 0.011149010687613203
0.020176930781794666 -0.008913050002025105 0.04124534547978864
0.017069634750467355 -0.008862350407902708 0.04186904750817483
0.014184040133527198 -0.008816365014368019 0.04235464104493997
0.014932333404590326 -0.008851014061117816 0.04028938394492554
0.009757997945231467 -0.008753808570062327 0.04241861661993762
0.007437594758472055 -0.008719939809688137 0.04254371457637823
0.005040291511633654 -0.00868421095420508 0.04273591188836967
0.0038715287495181827 -0.008675884315346718 0.04205365141250633
0.003741921657444358 -0.008690873903909761 0.0406199418959195
-0.002116379363019505 -0.008576931357226137 0.04336243932965639
-0.0035340009981407183 -0.008562715466680521 0.04288620421371814
-0.004695252995340515 -0.008554237240908761 0.04222583153303283
-0.0063215550189677505 -0.008535186751863204 0.041913497827641866
-0.007928095868283136 -0.008516505502217251 0.04159320273674505
-0.009258640987386935 -0.00850402576244222 0.04107257381903551
-0.010580121933085718 -0.008491700429754181 0.040549569666237906
-0.011437266592323803 -0.008489932483622339 0.03967894555314905
-0.011996460083317229 -0.008494978971843111 0.038581844541331456
-0.01239356704808331 -0.00850376566516771 0.03735871205037872
-0.012824468966165015 -0.008511812427672384 0.03615845189305661
-0.013268547640951478 -0.008519589631890869 0.03496549308297242
-0.013584680145718508 -0.008530354107365398 0.03367007320391474
-0.013875839602676576 -0.0085417421831662 0.0323511953961122
-0.014135796654272337 -0.00855390229193977 0.031003615896762482
-0.014383072313723877 -0.008566408986003733 0.029641571016258472
-0.014632105476204305 -0.008578928241325341 0.028276359615510616
-0.014875662491260266 -0.008591628954149567 0.02690218838549452
-0.015034012705605615 -0.008606377005678333 0.02545483754007416
-0.015159724851904033 -0.008621953510105423 0.023975680938461752
-0.015231879038158758 -0.008638855205598053 0.022447257030232703
-0.015303275950551753 -0.008655847794136643 0.020911978560870292
-0.015369741370472478 -0.00867303033745223 0.01936636598866953
-0.01488415547704014 -0.00870333881005784 0.017358462143779674
-0.017377336936380827 -0.008663203398238782 0.017812463042869764
-0.015080534432381942 -0.008736629232311237 0.01428333709049906
-0.014539653727932922 -0.008768591186905568 0.01220021865055565
-0.016297438002941478 -0.008745873185843845 0.012044185362309723
-0.012596458987868264 -0.008853525055688878 0.007267554301312096
0.02224377805306721 -0.01021781805348039 0.04135811613366103
0.019115142594419543 -0.010159518054573333 0.041983090930588385
0.01631053889709444 -0.010109183811988231 0.04239939095801282
0.013638613695468427 -0.010062010015579083 0.04273780556136958
0.013888194370517637 -0.010088904096547805 0.04102693578386024
0.013967918493345277 -0.01011158190589514 0.03942848783852432
0.014048001830879009 -0.010134361895149232 0.037822837730912384
0.013719159066952757 -0.010146777102229774 0.0365038358895024
0.0017290180400719168 -0.009860388187891003 0.04360056009568003
-0.0003296143799166318 -0.009827866860527378 0.043575699251713285
-0.0017367852870190936 -0.00981197571582406 0.043085365435819256
-0.0030851061650185585 -0.009797536300165726 0.04255675886403165
-0.004642336843088735 -0.00977763852812822 0.04218678463184011
-0.0062679321147832145 -0.009755887686667256 0.04187371412708796
-0.0077148956907070465 -0.009738681381164831 0.041434166545243845
-0.009080840426416603 -0.009723509891900801 0.040939224083140824
-0.009961739470500552 -0.009720913810438875 0.04008327125616645
-0.010686881776539703 -0.009722373936104568 0.03911004586796307
-0.011159820288712874 -0.009730439561304332 0.037944121295830247
-0.011653203495951281 -0.00973800307441236 0.036791326774991195
-0.01228380198564577 -0.009741992882979552 0.03574187090638653
-0.012665010127480614 -0.009752566737462868 0.03449796496297791
-0.01295711661766269 -0.009765536707938964 0.033181316894075996
-0.013153768696486046 -0.009781086065451937 0.031785811906339834
-0.013449453591294735 -0.009794077165591658 0.03046332140909158
-0.01369722102040688 -0.009808396282500537 0.029098767416801452
-0.013946751198486207 -0.009822729725653533 0.027731042853731847
-0.014197011742875243 -0.009837105122302672 0.026359315007759065
-0.014446967030059876 -0.009851550423654508 0.02498273083784258
-0.014672704011096771 -0.00986670662225774 0.02358192285399857
-0.014883524563052364 -0.009882328618136474 0.022164108287823614
-0.015096055657508767 -0.00989797213200186 0.02074264832662609
-0.015308217738155494 -0.009913693369230881 0.019315824167194073
-0.015426026065679554 -0.009932032197075084 0.017805978533450395
-0.015372623683820918 -0.009955086806103516 0.016148024143853412
-0.015250729082069814 -0.009980100603335639 0.014425393733866587
-0.015023934500450642 -0.010008076577132555 0.012606578487146913
-0.014530289107060779 -0.01004344824659831 0.010553512002956067
-0.013597442704221419 -0.01009097211510944 0.00811640259561669
-0.015512745660890614 -0.010060735689619425 0.008091730696124178
0.024322243298861512 -0.011530640596644607 0.041472406690682806
0.021172079577517655 -0.011464647441539398 0.042098651576193635
0.018403396649996406 -0.011409228727946691 0.04247762207989547
0.01581106549950584 -0.011358606992694077 0.042748348791997126
0.013095821870579505 -0.011304271273632078 0.043119119250243476
0.012849520147969806 -0.011320315267090408 0.041760627426347896
0.012926706567709834 -0.011345694300608418 0.040168016699178966
0.013003094622456468 -0.011371154501152001 0.03856906684991673
0.0035365424220123454 -0.011122147906978868 0.04381571620039698
0.0016281020377766353 -0.011090027156529923 0.04367342220065501
0.00019837009939954742 -0.011071604187580658 0.04319240557724657
-0.001155774458741543 -0.011055293339023308 0.04266127311528406
-0.002919960945507949 -0.011027019310342459 0.04243555826073592
-0.004565052672797054 -0.011002090064454729 0.04212975653677414
-0.006099604276038062 -0.01098027727033946 0.041748828978971364
-0.007543323650960998 -0.010961025105445775 0.04130618276924741
-0.00845668223247431 -0.010957207197275892 0.0404711078417494
-0.009246546000789613 -0.010956993473360129 0.039543971392413
-0.009699342406456701 -0.010966680496239804 0.03836134889951237
-0.010166470467556699 -0.010975986362425659 0.03718694685116336
-0.010759190036287558 -0.01098162653680804 0.036106190301767094
-0.011222659720783734 -0.010991111403451402 0.03492426652583236
-0.011594451148870144 -0.011003352326493849 0.03366866037885241
-0.011794439368038367 -0.01102074552929949 0.032275805632418886
-0.012173075535902855 -0.011032897804245496 0.03101792648570756
-0.012542141307943067 -0.011045387160418713 0.02974907826782003
-0.01287769392935284 -0.01105893110132584 0.028450168720245417
-0.013218235734957506 -0.011072383585426782 0.027151383973072374
0.007438292633214771 -0.01171591895412209 0.009052576905823118
-0.013775696331112253 -0.01110317922069957 0.024442889716127014
-0.013982024789492509 -0.011120858253967587 0.02302350624327082
-0.014184832181422746 -0.011138719884820254 0.021596198634506292
-0.014388292094662525 -0.011156638984455826 0.02016429874451542
-0.014593454692873986 -0.01117458407448268 0.018728644495393465
-0.014805566885933874 -0.011192395837922363 0.017293557933625914
-0.014987928829629349 -0.011211191368259902 0.015828626305409377
-0.015121521613195521 -0.011231557724538013 0.01431754792696277
-0.015117689133581413 -0.011256217680762341 0.012685247968903579
-0.014823352814287094 -0.011289893215095976 0.010800725048769
-0.014132069545160053 -0.011335914662081026 0.008569773689078242
0.026414825129337516 -0.012851656708272376 0.04158658421985123
0.02324290985183053 -0.012777875623716888 0.04221410952307236
0.020508518529691766 -0.012717584515617292 0.042557167180545086
0.017899700722481315 -0.012661014217080617 0.042827597134740714
0.01531283999369032 -0.012604908595936657 0.0430964347845334
0.01256700605804284 -0.012543533468943345 0.043490614727822674
0.009914017875312486 -0.012484857654096546 0.0438341875833228
0.007513442306538942 -0.012433978056100822 0.044012829703066914
0.0053536115000190065 -0.012390570392585565 0.04403200844442701
0.0036021559821600158 -0.012360039726420996 0.043768600756960374
0.002144089281848449 -0.012338782019825521 0.04330087556891943
0.0007267314799172531 -0.0123187433845546 0.04280883828896709
-0.0011879800182631461 -0.012282623295740858 0.0426847806469976
-0.002842133134623781 -0.012254752385443836 0.04237844018211212
-0.0043531533959397795 -0.012231389074372108 0.04197339577027537
-0.00575511599549644 -0.01221145854509003 0.041493247547756074
-0.006747232581270246 -0.012204738546414207 0.04071234043172628
-0.007613534481136108 -0.012202079879976869 0.039838750275791424
-0.00811726314926392 -0.01221121963766593 0.03869242266642553
-0.008621747001615998 -0.012220373097574188 0.03754437649591824
-0.009212786535956086 -0.012226733943271673 0.03646000747299244
-0.009755321391837879 -0.012234711448510278 0.03533686517002094
-0.010113612342205036 -0.012248774423358023 0.03406975151404362
-0.010307443155894769 -0.012268310290649993 0.03267168436005713
-0.010676776189874726 -0.012282139907246583 0.031405352035004996
-0.011052177016681874 -0.012295827717348657 0.030140259886700882
-0.011381297702354742 -0.012311106911038774 0.028835253338306777
-0.011710189787681013 -0.012326458901037155 0.027526170389039317
-0.012049334463053896 -0.012341535465841002 0.026221322722771445
-0.012390357989250256 -0.012356614009500265 0.024914117713034534
-0.012692367550297623 -0.012373060811342344 0.023571668277237223
-0.012981540851888795 -0.012390008202200643 0.02221461141619524
-0.013271507401804272 -0.01240700208244304 0.02085383193265461
-0.013563321065226175 -0.012424007314603452 0.019490172983916476
-0.013822294212591069 -0.012442192960179937 0.018095134186337458
-0.014005200421755681 -0.01246302661805869 0.01663255673154579
-0.014265636939669646 -0.012481326756178239 0.015228934196546529
-0.014410836918700709 -0.012503615619879213 0.013724359584216417
-0.014303910995993374 -0.012534572908791942 0.012002407001890592
-0.014261148884992692 -0.012563479762422313 0.010326479544116529
0.028520459826478717 -0.014180912902456625 0.041701473952425405
0.025326582926198382 -0.014099248136724725 0.04233028351278356
0.02262718905101818 -0.014034360929066009 0.042637224236305726
0.020000559031269627 -0.013971733355377514 0.042908163305420466
0.01739610835679206 -0.013909621985367026 0.04317750023336453
0.014982145481758413 -0.013853888514168718 0.043327474998389404
0.012715841367303748 -0.013803078091589384 0.04338605725623479
0.009725473542328333 -0.01372675368857265 0.0439673702486339
0.007385670955405932 -0.013672901041695197 0.04410358029802386
0.005631366242574987 -0.013639374932490986 0.043833647599400616
0.004112513932976347 -0.013613990961190097 0.04340212557850648
0.0025186378208068017 -0.013585858728394204 0.04303044873528444
0.0005526112025396879 -0.013544469335336373 0.04293524200636739
-0.0010816810505309138 -0.01351464692550417 0.04260719074040381
-0.002596713690976582 -0.013488929578896471 0.04219832606970436
-0.003927579715301888 -0.013469649082304278 0.04165936436869078
-0.005009206811080635 -0.013459162514298179 0.040939845450564505
-0.005893917170189833 -0.013455658061952805 0.04007581172583885
-0.006398663126830739 -0.013465724138138185 0.038927601439373016
-0.006908383247466399 -0.013475654146505946 0.03778085286895916
-0.007504205055041235 -0.013482534441939214 0.03669711886461319
-0.008108001692808509 -0.013489156739534025 0.03561789240711055
-0.008497844636356167 -0.013503521068037799 0.034373184836017756
-0.008703217394467055 -0.01352461118972819 0.03298304982873096
-0.009102095179898295 -0.013538784186411567 0.03173796597374495
-0.009499703175327001 -0.013553063358499942 0.03048862912603767
-0.009860227126600452 -0.013568751644898909 0.02920695987044153
-0.010214210358898024 -0.013584745079238153 0.027916513290779377
-0.01054478496936262 -0.013601661575771955 0.02660383352626494
-0.010876183906928627 -0.013618620255599524 0.02528788043876734
-0.011188365919860721 -0.013636356367781627 0.023952607692934336
-0.011479195125337016 -0.013654953419178299 0.02259602556893514
-0.01177187491438697 -0.013673562361965406 0.021236592197137694
-0.012065353518929844 -0.013692222094426542 0.01987344850286399
-0.012335311257123671 -0.013711832539068335 0.018486703751214306
-0.012575349199875407 -0.01373263708551585 0.01707076566567428
-0.013005657082863609 -0.013746463254924277 0.01580706068928306
-0.013242025479174413 -0.01376757029599937 0.014379067648225163
-0.013297730890638682 -0.013795510448764384 0.012795281576483963
-0.013287727867244026 -0.013826029841581024 0.011149728073510723
-0.013359747702366476 -0.013853608986412238 0.009566105173760442
0.0348620802995524 -0.015645465259032102 0.04052822900629671
0.03063804551438759 -0.015518440586144155 0.04181791008600616
0.027429258003292323 -0.015429068002456308 0.04244307576223355
0.02476073407215662 -0.015359684521492696 0.04271698179690042
0.022114921466167115 -0.015290877677008803 0.04298924734804249
0.019493876751366934 -0.015222728750577477 0.04325827688207623
0.017085765596003166 -0.01516237241857725 0.04339313077313034
0.014721880600472803 -0.015103449942975052 0.04350930944577752
0.012385374275541539 -0.015045329041198333 0.043618211868801104
0.01022753641262436 -0.014993782984876757 0.04361272648840275
0.0079473772801536 -0.014937352551581976 0.043704624016275895
0.013775335998890859 -0.01519110403087178 0.03801756428839714
0.004319888863343557 -0.014859582015113667 0.04325321486889244
0.0023290949448184772 -0.01481365039957587 0.04316730010289127
0.0006996838030386976 -0.014781450150944857 0.042828473721186644
-0.0008312689543454876 -0.014752917325501365 0.042424409556658604
-0.0020899355331471803 -0.01473479853280611 0.041826399963408145
-0.003180252809613815 -0.01472312992192241 0.04110791082183762
-0.004148713682354421 -0.014716145883412884 0.04030143167043532
-0.004671499569194326 -0.014726479652939405 0.03916395207404777
-0.005206701775671785 -0.014736372314814242 0.03803363501707213
-0.005787186010739687 -0.014744536515625213 0.036935401193831485
-0.006423417375963247 -0.014750551481043123 0.03587772625771746
-0.006812393226674152 -0.014766296557876174 0.03463032327490978
-0.007016679221367728 -0.014789372360794547 0.033238078381279956
-0.007423224283293062 -0.014804573381655051 0.031996822053785845
-0.00782000036634739 -0.014820224595124637 0.03074479593136087
-0.008183674531198393 -0.014837252453701356 0.02946368539525862
-0.008537575422791488 -0.014854740351684596 0.028171319977403575
-0.008892311548011733 -0.01487226952246515 0.026875904476752588
-0.009248947376940098 -0.014889797825552404 0.0255782681940529
-0.009589436193425782 -0.014908045709720548 0.024264052151461768
-0.00990632906672384 -0.014927315811916265 0.022927067415405733
-0.010224042230203068 -0.01494663579555848 0.021586621839715492
-0.010542578873027397 -0.01496600585457826 0.020242701969192756
-0.01084385818596717 -0.014986154355854327 0.018880595268292333
-0.01108846403797592 -0.015008676910036215 0.017467841512460447
-0.011461636054122204 -0.015026097761236963 0.01615584746485177
-0.011765368994265057 -0.01504640849873873 0.01478274001346469
-0.011972891249501683 -0.015070715353016295 0.013325352670662649
-0.011860497881591325 -0.01510815038042026 0.011595663977594706
-0.011961928384728815 -0.015137026283691896 0.010037250164741496
0.03604528908215826 -0.01696322516581691 0.04129629708924287
0.03277014484442092 -0.016864405795092203 0.04193424661476686
0.029595058080731707 -0.016769255721481982 0.04252282226493803
0.026906907418628945 -0.01669355197606642 0.0427980752964256
0.024244110263443808 -0.0166185773022949 0.043070039930598436
0.021611017750559625 -0.016544514029887113 0.04333552292594273
0.019205415763934475 -0.016479471086196917 0.04345760121616393
0.01682212111896464 -0.016415079878590855 0.04357631468483353
0.014461955884014943 -0.016351378201607824 0.04369090623650157
0.013815684340015788 -0.016358065308860505 0.04261341264023921
0.010144332217911556 -0.016239828133299498 0.043671499702328254
0.008147980369273056 -0.016190434841606104 0.04356214411349357
0.006133875399621291 -0.016140102662161888 0.04347477653168125
0.004131157616087122 -0.016090036873746084 0.043388738019668305
0.002489213774294896 -0.01605478948375268 0.04305169311592749
0.0009508328255231069 -0.016023718454318252 0.04264615049874748
-0.00024317810780077886 -0.016006919679389026 0.041995149378262264
-0.00133690517907592 -0.015994253615912505 0.04127374858491906
-0.0023935600336871254 -0.015983091666665394 0.04052740914544062
-0.002952831745496487 -0.015992812489314022 0.03941418750495557
-0.0034978142105556165 -0.016003176372391348 0.038288444128506904
-0.004061666746951742 -0.01601278621630806 0.037174863155854665
-0.004731842585007751 -0.016017934256338687 0.036139607342497326
-0.005121005489148289 -0.016035027781967325 0.03489031060536679
-0.0055142005666783955 -0.016052021732418126 0.03364078435773471
-0.005731040193921955 -0.016076601902422424 0.032252815598508344
-0.006132311432335558 -0.016093410533226306 0.031002180678349034
-0.006501315865559354 -0.016111671017466935 0.029723281822032543
-0.006851929744714991 -0.016130797553845482 0.02842650168653499
