# .PCD v0.7 - Point Cloud Data file format
VERSION 0.7
FIELDS x y z
SIZE 4 4 4
TYPE F F F
COUNT 1 1 1
WIDTH 777
HEIGHT 1
VIEWPOINT 0 0 0 1 0 0 0
POINTS 777
DATA ascii
-0.10202075767077749 0.10363490618516918 0.0050899400119896465
-0.10228030888623363 0.10390618066692359 0.0031330063088935156
-0.07828796504386298 -0.02363544068489537 0.06191387838572915
-0.0779981662588468 -0.025703081623939583 0.061995718363314745
-0.0777103017970341 -0.027756400680466586 0.0620776329582276
-0.07742435257099278 -0.029795539789551573 0.062159620706938534
-0.07714110091422444 -0.03181699148386585 0.062238988640284765
-0.07692817597952409 -0.03351357194522059 0.06208768425091754
-0.07700833405315213 -0.0338773299525737 0.06094996435999428
-0.07086506980197478 -0.09991263178437865 0.03622234170970329
-0.07065575525679635 -0.10141674594024458 0.03626869155214535
-0.07044834176021776 -0.10290934404967045 0.036312064472186156
-0.07025028086183169 -0.10436092201038505 0.03632215826210944
-0.07004688911126304 -0.10582985099278441 0.03635840685231906
-0.06984976216933961 -0.10727020261356285 0.03637367462133512
-0.06964835313596542 -0.1087236917591976 0.03641090500112565
-0.06945475874794647 -0.11014267034078234 0.03642060975090711
-0.0692562637414102 -0.11157719655014209 0.036454838786000976
-0.06906644546786805 -0.11297404428379682 0.03645774389394374
-0.06886776602549317 -0.11440186660791263 0.03650158262768377
-0.06867514707424739 -0.11580235099136199 0.03652475843898956
-0.06848739144690617 -0.11718031624577185 0.03653204592144543
-0.06828590320703372 -0.11860790683648048 0.03660083685363191
-0.06809027826315774 -0.12000903995803885 0.036649647969492716
-0.06790011576251768 -0.12138542647343364 0.036679961939062866
-0.06771240136596017 -0.1227488078277752 0.03670426761711909
-0.06755259074870512 -0.12400164735429853 0.03661516985828839
-0.06751007122503633 -0.12480283863396219 0.03603389233890708
-0.06753539229177598 -0.12534438372716666 0.035166051621514705
-0.0676465689335528 -0.12555964150673604 0.03393280111848285
-0.06778516625245354 -0.12567289733678133 0.03258021392626714
-0.06792231393138154 -0.12579426333907695 0.031230696875866604
-0.06806329203825734 -0.12590375221771227 0.029861683110113613
-0.06820219487532482 -0.12602372636171078 0.028498405283489125
-0.06834874081785672 -0.12611759814458107 0.027099088342047828
-0.06849275969871836 -0.12622371511576058 0.025707379055859958
-0.06863691108571435 -0.12633205928803376 0.024311851392757045
-0.06878533316269285 -0.1264271974436328 0.022894542909182136
-0.06893199944555724 -0.12653167476752303 0.021481529551813316
-0.06908041686120069 -0.1266324256180965 0.020057573068497536
-0.06922963608802198 -0.1267330140584062 0.018626766014868512
-0.06937626117400995 -0.12684600259469886 0.017203971312875044
-0.06953294598112536 -0.12692471208736222 0.015733651480780597
-0.06969377320873665 -0.12699116595111665 0.014241545081325302
-0.06985764566960385 -0.12704950197701526 0.01273235996635802
-0.0700274069758426 -0.12708941382436006 0.011193396872107797
-0.07019451243326834 -0.12714221646143775 0.009662403464261726
-0.0703655836260049 -0.1271837595068398 0.008109988683959068
-0.07053966787419302 -0.12721761021463307 0.006540270787115887
-0.07071091294497976 -0.12726502121307753 0.004979335286545428
-0.0709073524118982 -0.12722478119024855 0.003301518790529978
-0.10723048681449397 0.18138580623404577 0.03792060388372637
-0.10742133266241236 0.18135974058561732 0.03618788442489834
-0.10761246344343994 0.1813315073260201 0.034450041132984
-0.10780427558055596 0.18130317341856694 0.03270600265837176
-0.10799717115670025 0.18127682018771096 0.03095466429998911
-0.10819035840859809 0.18124828698182482 0.029198127253807993
-0.09697048701227681 0.12180034210123813 0.05839153683413317
-0.09656455704606058 0.11876066957597675 0.05838842448879439
-0.09616201145447953 0.11574633982272747 0.05838533809210439
-0.09576280808823716 0.11275703722039704 0.05838227732089307
-0.09536659480587009 0.10979084586066024 0.058380098713958994
-0.09497333850292371 0.1068475089324985 0.058378791387944606
-0.09458331216573913 0.10392834676625234 0.058377494799479235
-0.09419708238922399 0.10103617800721004 0.058374516099898965
-0.09381369346006378 0.098165991349555 0.05837240455693882
-0.09343341272161831 0.09531907371933701 0.058370310132547454
-0.09349309479615028 0.09472766370319086 0.05713334644201873
-0.09371398296624166 0.0949573254297949 0.055437522065067746
-0.09393621879271645 0.09518960949187455 0.05373280663933411
-0.09420375139005227 0.09564779224710684 0.051893423266486605
-0.09438386761010915 0.0956574984336997 0.05029900455426678
-0.09460929577782372 0.09589311917645188 0.04856980147752532
-0.09532529118479352 0.09860297555374237 0.04541519039590802
-0.09506308940483743 0.09636619663333545 0.045087393318644364
-0.09529177770935512 0.09660522194877341 0.043333179009917344
-0.09552188065391867 0.09684696593169712 0.04156959120412884
-0.09604590340852921 0.0985580274165318 0.03893636511923676
-0.09598480706373484 0.09733082323138514 0.03801859852963635
-0.0962176407022046 0.09757293516160787 0.03623110130016527
-0.09645160667249261 0.09781622454643607 0.034434910996944235
-0.09674359084210639 0.0983437051415092 0.03246009388614429
-0.0969236106386715 0.098309557582419 0.030814272053259206
-0.09716134925074396 0.09855803920473888 0.028990631281205104
-0.09778940540303152 0.10073282365821717 0.025982446690730687
-0.09764034253967473 0.09905867739923241 0.02531637877495485
-0.0978812873029554 0.09930923933920227 0.023466629941396977
-0.09812408198043682 0.09956427621618502 0.021605719578497606
-0.09844383900056156 0.10019242650064497 0.019503242446713365
-0.09861197407382694 0.10007165493702913 0.017860154927413663
-0.09885774407610895 0.10032724110262436 0.015973370031075462
-0.09944410652164667 0.10224011744210176 0.013024812704561961
-0.0993539893030427 0.10084718132721143 0.012168295820920272
-0.09960381544786634 0.10110829021100048 0.010251926504655506
-0.09985524175999388 0.10137236786983034 0.008324827524957557
-0.10010691358024192 0.10163280983601136 0.006391206648923398
-0.10036020129192753 0.10189623043504598 0.004446727655066207
-0.10061511980339898 0.1021626550499457 0.0024912878650703574
-0.0770236210195036 -0.024162152936187842 0.06229416844791952
-0.07673911995225399 -0.026223892542809546 0.062373804242376985
-0.07645611379061072 -0.028273237013796304 0.06245488282899425
-0.07617518735571063 -0.030307521471695964 0.06253536559356682
-0.07589710492133746 -0.03232327428205212 0.06261257530822822
-0.07594613497869938 -0.03282533564348933 0.06157707073800589
-0.07603233703353254 -0.03315728977588989 0.06041285216062581
-0.06901467250219583 -0.1058383466749459 0.036367142913510786
-0.06881851487987123 -0.10728640937382111 0.036390426091454264
-0.06862379090236033 -0.10872497781661311 0.03641224115219949
-0.06843224538945811 -0.11014713575775636 0.03642527306774834
-0.06823778927464634 -0.11157719655005621 0.036454838785910826
-0.06805361011086535 -0.11296274379751187 0.036445820409665874
-0.06785437561377322 -0.11440435723644077 0.03650422412708865
-0.0676653748506905 -0.11580173330571464 0.03652409995699052
-0.06748084615313135 -0.11717786494741678 0.036529419243856165
-0.06728092554950908 -0.11861094547554835 0.03660410968251998
-0.06708895064166472 -0.12000903995794476 0.03664964796939085
-0.06690189044801446 -0.12138423056081843 0.03667866054418445
-0.06672043234636041 -0.1227339771541231 0.03668804568948009
-0.06658006149425819 -0.12392034750368053 0.03652578524349104
-0.06655977565454242 -0.12463785562665214 0.035851568598055106
-0.066599602086476 -0.12512219597289537 0.03491924621081682
-0.06672697209459327 -0.1252691369550299 0.03360844832284904
-0.06685986922052799 -0.12539722473503984 0.032270836884151166
-0.06699774330809173 -0.12550873298028792 0.030908607648926167
-0.06713464750266974 -0.12562660530038983 0.02954744194518827
-0.06727427678081893 -0.12573668261192428 0.028171268070496858
-0.06742023291495663 -0.12582530318582774 0.02676425264271315
-0.06755933874129524 -0.12594279138147524 0.025383914117829254
-0.06770512639616669 -0.1260375868434359 0.02397104196997868
-0.06785248825356796 -0.12612921962112095 0.022547902762770078
-0.0679959123555147 -0.12623855069957357 0.02113878209297143
-0.06814502002921237 -0.12632922451286976 0.01970121935983815
-0.06829111861915406 -0.12643406529821233 0.018273603241528547
-0.06843640502150833 -0.1265447531937836 0.016846260586768413
-0.06859163151286153 -0.126621071926731 0.015371247823677436
-0.0687519232842397 -0.1266814832579507 0.01387002876585025
-0.06891393938227545 -0.1267385576280744 0.012357411778768534
-0.06908095921412072 -0.12678018035776312 0.010818594111613733
-0.06924633343728219 -0.12683109608188242 0.009283374368106112
-0.06941562872592094 -0.1268707157790832 0.0077266549670398366
-0.06958608466864136 -0.1269093120514086 0.006160806394412521
-0.0697588759227076 -0.12694260622485293 0.0045804540765143065
-0.06996144197590577 -0.12687020044560582 0.002860586422657352
-0.09552348274363208 0.12180201439235594 0.05839066560474193
-0.0951236087899166 0.11876232483950122 0.05838755689621705
-0.09472706873077595 0.1157479782838779 0.0583844741061032
-0.09433382104545923 0.11275865910054689 0.05838141691161042
-0.09438538564946074 0.11211042347406575 0.05714214338583651
-0.09355612952104217 0.1068490982689021 0.05837793806059649
-0.09317192198455329 0.10392992014366692 0.0583766449723056
-0.09279115578635001 0.10103617800695053 0.058374516100039964
-0.09241348908001384 0.09816599134929987 0.05837240455707826
-0.09203888417348619 0.09531907371908621 0.0583703101326854
-0.09174488241093666 0.09289757567309787 0.05814563300351411
-0.09196110122472838 0.0931235668550141 0.05645785756603866
-0.09217834158900592 0.09335062575808062 0.05476210804069742
-0.0927977252498558 0.09564779224686737 0.05189342326662144
-0.09261621352994237 0.09380950862757265 0.051345592265410245
-0.09283596601789626 0.09403674913874899 0.04962732072307113
-0.093057364417838 0.09426815108899228 0.047899110644463616
-0.0935339767852735 0.09580174515358952 0.04541272768567861
-0.09350304120072113 0.09473273283317818 0.04441874111709099
-0.09372794125720259 0.0949690269239083 0.04266466607491837
-0.09395392581289697 0.0952064604574554 0.040902132640007915
-0.09424656764353061 0.09577813080116787 0.03893457989996851
-0.09440825267677273 0.09568007718118526 0.03735423450798481
-0.09463691252723869 0.09591782146940586 0.03556785602630891
-0.09529997160439752 0.09834529599840008 0.03245913899494984
-0.095097571332454 0.09639678180953448 0.031969012699153976
-0.09533021688624674 0.09664118624817669 0.030154494944432342
-0.09556400351411219 0.09688678943556711 0.02833107738856372
-0.09596727711356703 0.09797732799098613 0.025980506064628317
-0.09603407425032291 0.09737682778539691 0.024660244372112283
-0.09627100877358427 0.09762446158990878 0.022810753684812668
-0.09697452797066494 0.10019242650045823 0.01950324244683005
-0.0967477533919737 0.0981201845660033 0.01908628680075447
-0.09698822697689528 0.09837151090763652 0.017209162946091372
-0.0972298989697521 0.09862408974226466 0.015322684383610952
-0.09760078467038537 0.09951078681974046 0.013022342767516792
-0.09771687419257187 0.09913304252910338 0.01152138201730174
-0.09796219565521837 0.09938943553685425 0.009606415890129227
-0.09856390606258678 0.10139260503271352 0.006547328254506601
-0.0984558802296875 0.09990280539367197 0.005749647989766182
-0.0987049310505155 0.10016308950392955 0.0038055628702297617
-0.09895524504848845 0.10042469376617474 0.0018516174182262035
-0.07576317663861644 -0.024686382084365688 0.06267266569166763
-0.07548354096064702 -0.02674412007622451 0.06275146660919206
-0.07520556963735389 -0.028788571757491166 0.06283103665743728
-0.07492340814042941 -0.03084730476878661 0.06293151416849169
-0.07482018101675549 -0.03206120943643431 0.06241919735264645
-0.07493041690191767 -0.03227388567601386 0.061167941192849185
-0.06722260553405998 -0.11156390793877669 0.036440889581436486
-0.06703087212172969 -0.11299099323979545 0.03647562724916226
-0.0668394546820187 -0.11441307407281281 0.036513468989511855
-0.06665575203570816 -0.11580049792594305 0.03652278298395584
-0.06647029831200923 -0.11719134652837915 0.036543865370541884
-0.0662759709900447 -0.11861398404477946 0.036607382436188995
-0.06608883473728504 -0.12000421760849467 0.03664442718367805
-0.06590471036333014 -0.12137884881908795 0.03667280412036572
-0.06572879973502337 -0.1227173647929874 0.03666987493563717
-0.06561393782044785 -0.12381127847141221 0.03640586997474804
-0.06560945917386828 -0.12446795553728135 0.03566381095943394
-0.06567042120874318 -0.12486729353384646 0.03463610143821816
-0.06580484717285884 -0.12497974268133011 0.03328533516966897
-0.06593394450314138 -0.1251156536666198 0.031954840213669955
-0.06607081503355385 -0.1252237493911077 0.030587135199134696
-0.06620597484683081 -0.12534116943880524 0.029223802416658173
-0.06634535207135539 -0.12544484862137062 0.027838671529387182
-0.06648777010388511 -0.12553946671491883 0.026436815402466673
-0.06662664417519237 -0.12565054883369314 0.025047416321198668
-0.06677089216162005 -0.12574362946880424 0.023630828666467596
-0.06691467914927236 -0.12584129163541047 0.022212953677360037
-0.0670559679420523 -0.12595133181589446 0.02080293951545431
-0.06720505872846393 -0.12603428973962427 0.019354581110679836
-0.06734836421714208 -0.12614221798878367 0.01792882975886617
-0.06749449380541012 -0.1262421934289758 0.01648699390331204
-0.06764855836995243 -0.12631490422714542 0.015005827472871325
-0.0678069949327604 -0.12637406802808 0.013501232652787243
-0.06797034069438616 -0.12641778450921615 0.01197061169716862
-0.06813173864288832 -0.12647201720117474 0.010445088607688335
-0.06829584588344347 -0.12651921820886308 0.008903422439240583
-0.06846350879752822 -0.12655629612593883 0.007341636378179861
-0.06863150690249646 -0.1265953874813044 0.005774416819128214
-0.06881248084923455 -0.1265893961055951 0.004143474144096715
-0.06905157626762363 -0.12637090355287717 0.0022396949486882534
-0.09447361174550686 0.12486905745608734 0.05839292565727172
-0.09407646888817306 0.1218036866945571 0.058389794369576475
-0.09368265102704494 0.11876398011394995 0.05838668929791374
-0.09329211657943144 0.1157496167557941 0.058383610114425055
-0.09301314903560813 0.11333834931628894 0.05807389058623241
-0.09318191883663327 0.11331750236705002 0.05649792706886653
-0.09213891134312927 0.10685068761562522 0.058377084727707806
-0.09176052268270324 0.1039314935312527 0.0583757951396382
-0.09138522918347822 0.10103617800669462 0.05837451610017902
-0.091013284699966 0.09816599134904808 0.05837240455721593
-0.09064435562535617 0.09531907371883869 0.05837031013282151
-0.09027840543814225 0.09249514329029818 0.05836823261966373
-0.090221331243806 0.09130231797421406 0.057471232453409515
-0.09043364459848592 0.09152422048336323 0.05578436912663187
-0.09064695956303952 0.09174716984019354 0.05408954785030606
-0.09102845447109259 0.09284509062560536 0.05189177927678762
-0.09107662280732996 0.09219623886901002 0.050675805126688345
-0.09129298549902548 0.0924223736038744 0.04895676917409841
-0.0915100837545443 0.09264805256853798 0.04723042968096791
-0.09175637206365961 0.09302087926671582 0.04541117591914373
-0.09194769037339362 0.09310418746756666 0.04375210225800347
-0.09216851563161954 0.09333621377793222 0.041999073331728365
-0.09281858934586004 0.09577813080095482 0.03893457990009419
-0.0926130615402437 0.09380207101479315 0.03846855534545934
-0.09283649125450716 0.09403434964962515 0.03669189025380665
-0.09306100162763195 0.09426775174274371 0.03490663199502558
-0.09349851795573652 0.09558706907541209 0.03245783539277247
-0.0935136037864553 0.09473953224501364 0.03130913019526638
-0.09374171452681662 0.09497793647279612 0.02949674321639517
-0.0939712518082241 0.09521908910453925 0.027674520692979376
-0.09420160347291606 0.09545983846073386 0.02584433278068088
-0.09443277322659337 0.09570017916684981 0.02400613901625548
-0.09466539590240453 0.09594329893094383 0.022157903777653976
-0.0951509899626047 0.0974592409136738 0.01950156550067006
-0.09513345911648377 0.09642993739234562 0.018436010494044752
-0.09536955100922082 0.09667667660300427 0.01656020407968961
-0.09560681763173942 0.0969246435216291 0.014675064156946027
-0.09584526777361564 0.0971738473341876 0.012780520890532665
-0.09608491031233186 0.09742429731851782 0.010876503746730104
-0.09632608093753789 0.09767763330508678 0.008961881764054935
-0.09672008179082729 0.09868736283657525 0.006544072054093963
-0.09681042238538899 0.09817993770926997 0.005109049440275459
-0.09705492174519055 0.0984354570048967 0.003166435895797959
-0.07449624637333162 -0.025257889483591922 0.06308529817526887
-0.07421338356800201 -0.027350222459132545 0.0631914703493992
-0.07393323812050158 -0.02942396472628095 0.06329482354683352
-0.07365519974117177 -0.031482109680104176 0.06339739939007827
-0.07368290943947325 -0.03207851050326482 0.06243196383006233
-0.06546075827760495 -0.11720115045570234 0.036554370724218355
-0.06526743936659571 -0.1186316063696552 0.03662636292470395
-0.06508763792923715 -0.12000361480229971 0.03664377457191642
-0.06490674752083346 -0.12137645686275705 0.03667020118794506
-0.06473792597238658 -0.1226971897892058 0.03664780733040629
-0.06465303455523953 -0.12367791271320738 0.03625924182188334
-0.06466275040192694 -0.12427839173726934 0.0354543228326758
-0.06474279629714533 -0.12459833723093644 0.03433734568087593
-0.06487709205246525 -0.12470386149350937 0.03297730958450379
-0.06500435684455705 -0.12483996722887253 0.03164544764392252
-0.06514302826584746 -0.12493339832288386 0.030259608026535045
-0.06527524022322957 -0.1250550998129556 0.02889944429878616
-0.065412961605824 -0.1251576974865199 0.027511411932087115
-0.06555308108250475 -0.12525358920817709 0.02610933115401376
-0.06569106689196508 -0.12536062115717317 0.024713583944388273
-0.06583406034634219 -0.1254507901167265 0.023291909312961767
-0.06597445894359047 -0.12555391376018804 0.02187864454018018
-0.06611684297609462 -0.12565208560038982 0.020453033481979188
-0.06626123429634798 -0.12574527969131855 0.019014906219070926
-0.06640268644800616 -0.1258527126077995 0.017586822910672872
-0.06654988981236487 -0.12594072630188885 0.016129024643954437
-0.06670276028580441 -0.12600981545517376 0.014641694854597764
-0.06685948264767946 -0.126067124471071 0.013133002390407988
-0.06701947366071137 -0.12611500336049025 0.011605506998087545
-0.06717991437248078 -0.1261643271714311 0.010072156551551248
-0.06734192351552092 -0.12621084290912832 0.008527737595636964
-0.067509048589308 -0.12624110363951196 0.006955671426149335
-0.0676745861608064 -0.12628069239504675 0.005387078865036921
-0.06785390487208236 -0.1262714090256823 0.003750070996468957
-0.09302017156475413 0.1248690574557999 0.05839292565742049
-0.09262913859753388 0.12180368669427422 0.05838979436972386
-0.09224137947273153 0.11876398011367162 0.05838668929805968
-0.09185685324738971 0.11574961675551998 0.058383610114569606
-0.091805885460437 0.11455081023501912 0.05743067867601548
-0.09197287235846822 0.1145321176309263 0.0558496886012918
-0.09214046783265015 0.11451335690248349 0.05426293668018162
-0.09034882233369093 0.10393149353099596 0.05837579513977692
-0.08997930258060852 0.10103617800644199 0.05837451610031624
-0.0896130803199203 0.09816599134879983 0.0583724045573516
-0.08924982707722823 0.0953190737185946 0.05837031013295568
-0.08888950689289524 0.09249514329005831 0.0583682326197964
-0.08853208438565706 0.08969392277028887 0.0583661718138716
-0.08870227478732909 0.08971176653132507 0.05679882148880189
-0.08891070479321536 0.08992960351688462 0.05511287225060346
-0.08912011663162175 0.09014846664757586 0.053418981162654755
-0.08933080263945628 0.09036987552569598 0.05171623044367091
-0.08954191368751371 0.09058930048422664 0.05000714790938554
-0.08975431301110216 0.09081128593293553 0.04828909164258105
-0.09034473557033122 0.0930208792664981 0.045411175919269964
-0.09018185817067281 0.09125690166190936 0.04482930245276562
-0.09039730797664963 0.09148207234094391 0.04308656794551696
-0.09061408333383682 0.09170985989089547 0.041334578953710455
-0.09103891045668133 0.0930211979816652 0.03893188880400067
-0.0910498786517504 0.09216408633188267 0.03780804179984931
-0.0912695009731019 0.09239361778585486 0.03603155657047974
-0.09148988601588899 0.09262270295944358 0.034247419980755756
-0.09171103715015014 0.09285133635792359 0.03245559402522058
-0.09193416678815443 0.09308577373066174 0.030652216944450195
-0.09215838480683436 0.09332135464088431 0.028840043359617762
-0.09271021719962046 0.09524249787137307 0.025978579992839312
-0.09260950455730661 0.09379282231807679 0.0251910099954466
-0.0928364164627065 0.09402870745529757 0.023354053309898815
-0.09306506253911724 0.0942689284146726 0.021506076508893412
-0.09334124048452468 0.09474784991356122 0.019498893193328204
-0.09352418614576197 0.09474494777696402 0.017787756888856532
-0.09375592245135529 0.09498712718769164 0.0159132688186156
-0.09429721033700139 0.09679977426720493 0.013020930800320574
-0.09422317492698122 0.09547671677408015 0.012135243908700077
-0.09445839247294292 0.0957225375026508 0.010232600299049155
-0.09469510803264762 0.09597121074905601 0.008319373213412917
-0.09493172381951677 0.0962146253880895 0.006400810476169194
-0.09517017285984715 0.09646252336670996 0.004470478558293356
-0.09541047388447747 0.09671494362904548 0.002528249031514329
-0.07310430663056731 -0.026456988513371082 0.06395105636389692
-0.07284719804915855 -0.028442676955795776 0.06398454438786716
-0.07261243883536934 -0.03031464102782394 0.06394494718943278
-0.07244819849105319 -0.03184005942044571 0.06366009977427933
-0.07254556177005102 -0.032096720309868265 0.062445400867617684
-0.06376768708275268 -0.12259211055544728 0.03653287069526878
-0.0636965101333654 -0.12352253985861195 0.03608841810385166
-0.06372118617023838 -0.12406199687076458 0.03521518352854036
-0.06381731437401687 -0.12431228855072174 0.034019603768269124
-0.06394778975475199 -0.12442561560456344 0.0326666437741982
-0.06407424791032383 -0.12455776832613275 0.03132874637848493
-0.06421152724073106 -0.1246489191541067 0.029938704582359532
-0.06434228870254238 -0.12476898856126623 0.028575038983736145
-0.0644798280950522 -0.12486454780678141 0.0271773159300297
-0.06461541833064714 -0.12497065407862079 0.025785217517653447
-0.06475337938718771 -0.12507003954041612 0.024378998599022927
-0.06489418982080675 -0.12516087405199067 0.022956373243324724
-0.06503198390955203 -0.12526649239015342 0.021544284805113667
-0.06517446568813275 -0.12535634592846245 0.020107227619837076
-0.0653149794842579 -0.1254568221263354 0.018675880663752698
-0.06545671337719372 -0.1255553217209761 0.01723550052924372
-0.06560368088579446 -0.1256361350408809 0.015767345713440906
-0.06575409292724393 -0.1257064210052931 0.014279584460659855
-0.06590907984126829 -0.1257618713886826 0.012766800135780965
-0.06606870152104599 -0.12580239085780137 0.01122854728905831
-0.06622564739705758 -0.12585650727794745 0.009699067095606195
-0.06638617754616075 -0.12589989392833306 0.008148917309708514
-0.06654827972364671 -0.12594043228253576 0.0065874881385721284
-0.06671801991153774 -0.12595479721252473 0.004985955432359801
-0.06689422882152833 -0.12594771243185127 0.003349604226170033
-0.09195522533398623 0.12796212585992128 0.058395204887564
-0.09156703599339107 0.12487074702614187 0.0583920507489491
-0.09118211036066336 0.12180535900756273 0.05838892312878208
-0.09080040744859322 0.11876563539904905 0.05838582169402823
-0.0904281252038159 0.11578566586722233 0.05836460085831857
-0.09059270947322864 0.11576920901909199 0.0567843167214131
-0.090757893940272 0.11575269215695139 0.05519826968384289
-0.09092368189409962 0.1157361149519196 0.05360642816423766
-0.08893740934974013 0.10393306692875626 0.05837494530161397
-0.0885736609970019 0.10103773565230878 0.05837366973381902
-0.08821287593987667 0.09816599134855503 0.05837240455748538
-0.08785529852910232 0.09531907371835391 0.05837031013308808
-0.08750060834765022 0.09249514328982178 0.05836823261992724
-0.08714877056708831 0.08969392277005639 0.058366171814000944
-0.08698408003348268 0.08791310465567337 0.057805554259280245
-0.08718769318066756 0.08812590054882974 0.056128391318286786
-0.08739226180355145 0.08833969500866029 0.05444335811715817
-0.08787857920411804 0.0900660903843662 0.05188928787669472
-0.08780457259635574 0.0887718128697062 0.05104859591354749
-0.0880117682581836 0.0889871405746363 0.04934047904577782
-0.08822022683649687 0.08920500042290824 0.047623404254092616
-0.08858677387434749 0.09026321302654311 0.04540874803085171
-0.08863983508935137 0.08964230877873147 0.04416562962044529
-0.08885156985914282 0.08986481637400606 0.04242302728773517
-0.08906431859649679 0.09008838952635861 0.04067207988140703
-0.08927750946278201 0.09030996542069608 0.03891455974410807
-0.0894917233964504 0.09053260462075724 0.03714860556101046
-0.08970726014101212 0.09075785887753401 0.035373224317136354
-0.09027805219464273 0.09285133635773213 0.03245559402533682
-0.09014087297331684 0.09120853216765823 0.03179857886087645
-0.09035984840416124 0.09143862164785821 0.029996352643464452
-0.09057959224431039 0.09166826964395186 0.028186313838416188
-0.09092097888690827 0.09252967251057087 0.025975692500058822
-0.09102200093679684 0.09212936161040691 0.024540678066582333
-0.09124528356718256 0.09236396458675855 0.022702987772136862
-0.09188278360192108 0.09474784991339019 0.019498893193436284
-0.09169392955055448 0.09283029972145579 0.019004455406485987
-0.09191991108783798 0.09306519122729079 0.017141516562345638
-0.092147317731544 0.09330283798089317 0.015268347712496133
-0.0924860391165051 0.09411011328767821 0.013018492973153606
-0.0926055233805932 0.09378167660758058 0.011494066826744864
-0.092836652411629 0.0940244951132419 0.009591763865249181
-0.09340655655752222 0.09599995707905434 0.00654190772278207
-0.09330112396566083 0.09450731189385186 0.00576280746660407
-0.0935354248098505 0.09475216005851855 0.0038328466159309738
-0.09377090538455203 0.09499824106060234 0.0018931682001601668
-0.07202155218833572 -0.026162169829957227 0.06373819513810386
-0.07176860434129904 -0.028147756219281783 0.06377044487136602
-0.07151761285838734 -0.030118527286306596 0.06380179958375587
-0.07126818628177274 -0.03207647056819252 0.06383360262214627
-0.0714085173771722 -0.032114017875855716 0.06245816476175736
-0.0631910992039898 -0.12407417443978347 0.030786027061443788
-0.06328117093789656 -0.124350729672217 0.029602335377659383
-0.06340682722155563 -0.12448402865239705 0.02825193911098567
-0.06354310358706657 -0.1245766972637029 0.026849259233128808
-0.06367613681395146 -0.12468530428304808 0.025458337783691887
-0.0638129827493255 -0.12478119654370262 0.02404641515864464
-0.0639538356070143 -0.12486370677750397 0.02261244494326009
-0.06408710385666612 -0.12497963018651637 0.02121057555309408
-0.06423007004878875 -0.12505932386488378 0.01975992226813489
-0.06436840668179797 -0.12516048105729582 0.01832758958842373
-0.0645087011093109 -0.12525663813236182 0.016882651016043748
-0.06465522715499791 -0.1253308211617175 0.01540480872888872
-0.06480379345403871 -0.12539988332850993 0.013913722530949357
-0.06495810248410107 -0.12544920595129933 0.012391705518495388
-0.06511361023279358 -0.12549693644659943 0.010860219071287147
-0.06526955478785598 -0.12554611710663255 0.009322862364859297
-0.06542780327878489 -0.1255894148767605 0.007770669525166196
-0.06558994671498426 -0.12562065651085613 0.006195910782855252
-0.06575917923963778 -0.12562745870354214 0.0045830555019147345
-0.0659416069829182 -0.12558620011064564 0.002902353082798237
-0.09049592090605071 0.1279638329318732 0.058394326274682995
-0.09011389075388554 0.12487243660772895 0.058391175834654696
-0.0897347752755246 0.12180535900728784 0.058388923128925296
-0.08935913113983715 0.11876563539877816 0.05838582169417017
-0.08921081028121312 0.11700785672369507 0.05772012064559828
-0.08937357753449558 0.11699358939542759 0.056134781525243815
-0.08953693981890566 0.1169792699098342 0.054543646852616146
-0.08970090040331768 0.11696489798038534 0.05294668478916259
-0.08986546258059207 0.11695047331843922 0.051343863262696354
-0.08716801036697151 0.10103929330820066 0.05837282336187449
-0.08681267155983508 0.09816599134831361 0.058372404557617386
-0.08646076998097846 0.09531907371811665 0.05837031013321847
-0.08611198354418315 0.09249665491879316 0.05836739648435968
-0.08576572829330213 0.08969541945175424 0.05836533903399871
-0.08542224646692624 0.08691662123314037 0.05836329806331736
-0.08547777378420969 0.08633590292602383 0.05713619401599351
-0.08567756667982496 0.08654469935347475 0.05545993320217457
-0.0858782957420959 0.08675447413529369 0.05377581795751313
-0.08614292758281852 0.08730898916883073 0.05188681610913304
-0.08628258881000417 0.08717698639708527 0.05038380231574768
-0.0864861661933201 0.08738973785759446 0.048675789680028225
-0.08669070650012291 0.0876034956350783 0.04695969812386058
-0.08689593782809323 0.08781675649813198 0.04523635606705673
-0.0871024232650984 0.08803254416497064 0.04350394143157432
-0.08731017376924509 0.08825087877796234 0.041762372635852585
-0.08785584682782152 0.09028540295319426 0.03892921834101082
-0.08772809386645644 0.08868763216183428 0.03825602632591879
-0.08793827235308974 0.08890604850080974 0.036491160219925656
-0.08814974719798725 0.08912705034980223 0.03471688440823045
-0.08850948709782663 0.09013627012410597 0.03245336958966849
-0.08857547334546606 0.08957071294723479 0.031143557361238694
-0.0887900277271734 0.08979493005703981 0.02934344062135491
-0.08900591650327037 0.09002179033456514 0.027533616394316673
-0.08922226993230188 0.09024663883684941 0.025716917485582858
-0.08943997304697358 0.09047414648676766 0.023890382795714482
-0.08965874115522354 0.09070276709358893 0.02205491278252597
-0.09009171271705972 0.09205640590425168 0.01949624054552801
-0.09009890440632008 0.09116022563184983 0.01835891908911641
-0.09032091185107351 0.0913922252336129 0.016496263536317057
-0.09054401606946104 0.09162537097281775 0.01462440598804482
-0.09076822520912178 0.09185967136381185 0.012743278085124154
-0.09099354749859788 0.09209513500548872 0.010852810789600986
-0.09122029843106587 0.0923333713338958 0.008951882233863506
-0.09159413090994906 0.09333183374194381 0.00653975892064701
-0.0916756562654344 0.0928053720019485 0.005126812509119449
-0.09190551197765705 0.09304556665820019 0.003198301843328144
-0.07083016698837771 -0.026404777683710856 0.06391335976654272
-0.07058175585434251 -0.028387243405608942 0.063944302062308
-0.07033489843063269 -0.03035676785972674 0.06397569646317047
-0.07012441726622633 -0.03213915701496051 0.06387960839277329
-0.0702715850714999 -0.032131313736686595 0.06247092739765997
-0.06315204151068497 -0.12464334640885122 0.020819373761822524
-0.0632846773630745 -0.12475678940153961 0.01940617131466077
-0.06342143500754405 -0.12485620426375943 0.017969971618150782
-0.0635608728917102 -0.12494757229436265 0.016517536444497605
-0.06370152445967454 -0.12503691627273272 0.015055819051479957
-0.06385047459547186 -0.12509565426980146 0.013550616006292704
-0.0640029960243632 -0.1251430914015499 0.012024469789325032
-0.06415518424851731 -0.12519503016260147 0.010496169316427495
-0.0643100826918902 -0.12523926081276876 0.008950940828420184
-0.06446833912183554 -0.12527327782736636 0.007385528763045768
-0.06462629706639635 -0.12531176657297005 0.0058176635365124185
-0.06479479367247643 -0.12531161479665864 0.0041943035383575356
-0.06503232654182534 -0.12504109216581782 0.0022279634775636548
-0.08903630927848506 0.12796383293159364 0.05839432627482688
-0.08866044090296836 0.12487243660745373 0.05839117583479725
-0.08828773265708419 0.12180703133166704 0.05838805188220558
-0.08791785483108337 0.11876563539851148 0.05838582169431
-0.08798751531900414 0.11823605157272143 0.05707247443439445
-0.08814844567619565 0.1182239955213571 0.05548204966199288
-0.0883099657996837 0.11821189528782183 0.0538857964123291
-0.08847207893741992 0.11819975062878996 0.05228368258689747
-0.08863478836125087 0.11818756129915498 0.0506756758510577
-0.08576207471584847 0.1010392933079588 0.05837282336200589
-0.08541274090894936 0.09816753345608592 0.05837156162913382
-0.08506651294734198 0.09532060048803076 0.05836947061493286
-0.08472308058375214 0.09249665491856324 0.058367396484486855
-0.08438241009498275 0.08969541945152842 0.058365339034124386
-0.08404446829806515 0.08691662123291849 0.05836329806344154
-0.08378106131852646 0.08456092490596062 0.058135540391764495
-0.08397614608884489 0.08476479683819366 0.05646796046149721
-0.08417214149200175 0.084969620420699 0.05479259646359347
-0.08475352552499302 0.08730898916861929 0.051886816109254164
-0.08456688982080689 0.08538214931468896 0.05141829723175673
-0.08476565570900733 0.08558986817259018 0.04971925119423315
-0.08496508728743196 0.08579707117666474 0.048013071008807195
-0.08544176616027271 0.08752694139839884 0.04540633897864427
-0.08536705245479594 0.08621591898374809 0.04457562490892808
-0.08556987678182887 0.08642909345202354 0.04284333466165835
-0.08577366718836431 0.08664328329890725 0.041102793283341266
-0.08610843503544723 0.08756898310900141 0.03892748089628961
-0.08618333789881397 0.08707017782031351 0.037599473345503565
-0.0863895042501158 0.08728439569945523 0.0358356967741314
-0.08659694071407689 0.08750116976422917 0.0340625278131263
-0.0868048103046743 0.08771592092961666 0.03228270626738777
-0.08701453251889017 0.08793631840699795 0.0304914702334822
-0.087224985103874 0.08815624136038502 0.02869251586359417
-0.08770693586325179 0.08983546738789827 0.025973798675430093
-0.0876489591110159 0.08859929420201201 0.025068374620892064
-0.08786249548619444 0.08882243971615561 0.023243059929253018
-0.08807707486618806 0.08904667517033482 0.021408829604329382
-0.08831347734055052 0.08938312419346489 0.019494607726536106
-0.088508805485335 0.08949530955362245 0.017715376505823888
-0.08872655724800117 0.08972285393779478 0.015854021167583887
-0.0892252917730484 0.09143995619180784 0.013016072823785696
-0.08916529098014872 0.09018131818014175 0.012103698486344683
-0.08938628896189675 0.09041225477068032 0.010214594269516597
-0.08960868644543298 0.09064593154297423 0.008315049780387052
-0.08983098221846453 0.09087438472200898 0.006410276146565752
-0.09005529652748012 0.09110878038291154 0.004492816138387035
-0.09028073389821119 0.0913443495792487 0.0025657560920337996
-0.06964058256158857 -0.02664612468376465 0.06408761404947366
-0.06939632748026332 -0.02862733036251275 0.06411859466037667
-0.06915395923111954 -0.030593772525524254 0.06414869122723277
-0.0689898063766503 -0.0321573228135017 0.0638929403266128
-0.06919399677905277 -0.03184799318160447 0.062261864829245284
-0.06290811413467809 -0.12473645790662807 0.013121904351808045
-0.06304576579485535 -0.12483563762474365 0.011655627432749671
-0.0631963065959155 -0.12488507023598505 0.010122408181658327
-0.0633489231954901 -0.12492921837968812 0.008575157569681413
-0.06350424574280374 -0.1249655869946209 0.007010677786078168
-0.06366033181975789 -0.12500213438924995 0.0054385073824700925
-0.06382482849685155 -0.12500797112960377 0.003820568065813379
-0.08794984734433176 0.13108327708307355 0.05839662119180705
-0.08757699022395508 0.12796554001495963 0.058393447656071185
-0.08720728116009216 0.12487412620029026 0.058390300914677506
-0.08684039277741393 0.12180703133140003 0.058388051882344694
-0.0865994179094268 0.11947842164850409 0.0580122207234548
-0.08675790901557806 0.11946863175673139 0.05642251576797286
-0.08691698131472778 0.11945880596504665 0.054826981303110756
-0.08707692725103927 0.11945061312804361 0.053224694433468556
-0.08723717263358004 0.11944071798015499 0.0516173973520096
-0.08739800889423721 0.11943078634556015 0.0500041736306891
-0.08755943930719294 0.11942081802207216 0.0483849904287193
-0.08401280128506505 0.09816907557374616 0.05837071869524546
-0.08367197994816493 0.09532060048780044 0.05836947061505948
-0.08333417762332307 0.09249665491833681 0.058367396484612144
-0.08299909189666525 0.08969541945130577 0.05836533903424829
-0.08266669012920595 0.08691662123269978 0.05836329806356394
-0.08233694020273533 0.08415999176207023 0.058361273375353295
-0.08228731702596516 0.08299687404830919 0.05746920314152115
-0.08247864327835898 0.08319681113703054 0.055802513612698945
-0.08267086130961943 0.08339768014004512 0.054128055581218304
-0.08303695035998128 0.08457352914203403 0.051884363743195716
-0.0830579977652182 0.08380224007312242 0.05075561573720366
-0.0832529288648105 0.08400594424890384 0.04905752350745085
-0.08344877709515935 0.08421060683185366 0.04735144192855567
-0.08371633612817513 0.08481181636803309 0.04540394854405372
-0.0838429828026813 0.08462133872198979 0.04391597158946442
-0.08404188975586982 0.08483041314257789 0.042184693253557226
-0.08424174271690313 0.08504048192780461 0.040445180902384636
-0.08444200444237202 0.08524853540520333 0.038699196882801046
-0.08464322057174059 0.08545758042028995 0.0369448918824834
-0.08484539794402919 0.08566762407818079 0.03518220627536456
-0.08533203143484003 0.08744163707483832 0.032451161894852865
-0.08525294135267217 0.08609226169039136 0.03163050953578023
-0.08545832407081114 0.08630687893839739 0.02984136006924415
-0.08566497869040605 0.0865240671426864 0.02804261069343439
-0.08594921624599587 0.08716124343439768 0.025971918895933865
-0.08608045289522756 0.08695698025851217 0.02442181228830198
-0.08628984697372313 0.0871757892278125 0.022597718677896617
-0.08686571541690623 0.0893831241933088 0.019494607726635915
-0.08671113258918658 0.08761350285139469 0.018924779212011744
-0.08692361000088165 0.08783552762789776 0.017073818434400423
-0.08713713128199452 0.08805864317857237 0.01521376416616499
-0.08744552957760357 0.08878909159978043 0.01301367016042998
-0.08756733637462363 0.08850817891401763 0.011466105784768033
-0.0877843297985322 0.0887361952138579 0.009577321150839146
-0.0883226194631265 0.09068278603670837 0.006537625481344178
-0.08822007453919686 0.08918768910747205 0.005776840168244757
-0.08844002071224073 0.08941751186620667 0.003860808948480954
-0.08866106634547408 0.0896484834558916 0.0019351999305579626
-0.06845242844396501 -0.02688807518277414 0.0642623040630238
-0.06821268057848436 -0.028866170922434986 0.0642919824289162
-0.06797442998040633 -0.03083137208361858 0.06432212021587957
-0.06785548860281551 -0.03217457857997852 0.06390560438520049
-0.06288408619560285 -0.12457410252505574 0.0032865470881471293
-0.08648401655521322 0.1310832770827981 0.05839662119194794
-0.08611737372017678 0.1279655400146883 0.058393447656210795
-0.08575382647404549 0.12487412620002303 0.058390300914815896
-0.08539305289774587 0.12180703133113702 0.05838805188248164
-0.08536590518995303 0.12071650243422039 0.0573632910007707
-0.08552252440659193 0.12070895986094266 0.05576847150294534
-0.08567971937219421 0.12070138956036203 0.05416778927836152
-0.08583749326737686 0.12069379137929759 0.052561211939478436
-0.08599584929622929 0.12068616516344721 0.050948706859751725
-0.08615479068652894 0.12067851075736902 0.049330241171428924
-0.08631460970611461 0.12067251457785488 0.04770486534242929
-0.08647473267179319 0.1206648064232696 0.04607437168791356
-0.08227770956303733 0.09532212726746758 0.05836863109141094
-0.08194527466289592 0.09249665491811371 0.05836739648473549
-0.08161577369834966 0.08969541945108667 0.05836533903437019
-0.08128891196034858 0.08691662123248434 0.058363298063684566
-0.08096465786598642 0.08415999176185873 0.05836127337547231
-0.0806429803342816 0.08142526680584478 0.05835926477565667
-0.08079792699359546 0.08143738239430143 0.056804808262371775
-0.0809855158188708 0.08163340672131691 0.05513901104306079
-0.08117397772241669 0.08183034338721562 0.05346546084936821
-0.08136357562469533 0.0820296666375665 0.05178325244696924
-0.08155354525927555 0.08222697933210488 0.050094884022527764
-0.08174466328357467 0.0824266915592819 0.04839774735686658
-0.0823210638593386 0.08481181636784213 0.04540394854416635
-0.0821293375895718 0.08282745312333728 0.04498037922475151
-0.08232316704809994 0.08302999585507559 0.043259161495490805
-0.08251817771724589 0.08323498942053886 0.04152890433888495
-0.08296835832340337 0.08487475529016919 0.03892484753018782
-0.08291018393622614 0.083643401087654 0.038046414770091685
-0.08310772102298083 0.08384981811770065 0.03629227306997196
-0.08330593241842478 0.08405571163155556 0.03453067982914454
-0.08359526813615957 0.08476720740934984 0.032448970752397166
-0.08370547700878365 0.08447197715059523 0.030981221170448825
-0.08390709963113513 0.08468389442964175 0.02919226677305059
-0.08451672930853357 0.08716124343423615 0.025971918896035395
-0.08431272135353855 0.08510774420576317 0.025590313351503857
-0.08451672930990212 0.08531967399725865 0.02377722142936428
-0.0847222838201182 0.08553571181737413 0.02195336580562779
-0.08510605040338066 0.08673093391033776 0.019491990108034152
-0.08513500121682178 0.08596321083013425 0.018283914908205856
-0.0853432953065623 0.08618085614272214 0.01643423570942837
-0.08555261113443964 0.08639956906368507 0.014575483340200479
-0.08576324157233416 0.08662091997732835 0.012706563870123755
-0.08597462496806062 0.08684179640450534 0.01082945493748122
-0.08618734110967911 0.08706533604636557 0.008942025329607806
-0.08654121447739833 0.0880526101217059 0.006535507240519545
-0.0866142006795962 0.08750626413736728 0.005145383572414397
-0.0868298049307742 0.08773154143900858 0.0032307815923990346
-0.06750315582282122 -0.025138918482919215 0.06440683159836164
-0.06726606208019638 -0.027128768687080473 0.06443608651728966
-0.06703045371264921 -0.029105610070804866 0.06446580474640867
-0.06679666317031402 -0.03106773948810987 0.06449464982931308
-0.06672128239647387 -0.032191832649236474 0.06391826719819427
-0.08538198415155926 0.13422941784601106 0.05839893574910188
-0.08501847100193774 0.1310850019055232 0.05839573883722604
-0.08465804003888934 0.12796724710946872 0.058392569031580244
-0.08430037178800107 0.12487412619976002 0.05839030091495212
-0.08397213931535676 0.12196595271172828 0.058305257101001096
-0.0841262991037355 0.1219606991522445 0.056711155663152435
-0.08428102595995575 0.1219554262678485 0.055111190415611855
-0.084436323018671 0.12195013395170906 0.05350532894424026
-0.08459219343768279 0.1219448220962156 0.05189353859554591
-0.08474864039815302 0.12193949059296116 0.05027578647447645
-0.08490566710481902 0.12193413933272612 0.04865203944218571
-0.08506327678621535 0.12192876820548926 0.04702226411376115
-0.08522147269489357 0.12192337710041123 0.04538642685594052
-0.08088317211277858 0.09532212726724415 0.058368631091533785
-0.08055637170247064 0.0924966549178941 0.058367396484857004
-0.08023245550003591 0.08969541945087078 0.058365339034490316
-0.07991113379149305 0.08691662123227228 0.05836329806380325
-0.07959237552923928 0.08415999176165034 0.05836127337558966
-0.07927615015908937 0.08142526680564016 0.05835926477577258
-0.07912984847151482 0.07969118327462998 0.05779956638607692
-0.07931287221014315 0.07988243003785545 0.05614234727366624
-0.07949674456273277 0.08007456354218384 0.05447744424392309
-0.07995525743577743 0.08185945649949133 0.051881930551216815
-0.0798673105468822 0.08046297633044364 0.05112351985740021
-0.0800535127383104 0.08065634660614096 0.04943609349523659
-0.08024083925893782 0.08085208946987671 0.047739914122121696
-0.08061428781259307 0.082117593739294 0.045401576512317354
-0.08061787827570636 0.08124485937151699 0.04432451033012769
-0.08080811617371328 0.08144485341728591 0.0426034102332275
-0.08099925402247363 0.08164579356681606 0.040874168197487626
-0.08125273641923905 0.08219945787058985 0.038923139839874
-0.08138320976158672 0.08204456475333621 0.0373946744588996
-0.08157681851519621 0.08224686919928126 0.035641608094173105
-0.08217866568376227 0.08476872441933053 0.03244803372373939
-0.08196628252635414 0.08265136705044857 0.03211220411864424
-0.08216294519552642 0.08285808884716184 0.030332946924003512
-0.08236028616442992 0.08306429017663836 0.028546082996762867
-0.08277756008031502 0.08450830640489804 0.02596908798473313
-0.08275755543061929 0.08347815524350866 0.024947448579690168
-0.0829580380917542 0.08368888041143441 0.023133616632987353
-0.08315922156370226 0.08389909676746288 0.021311959980615525
-0.08336083474866368 0.08410726185925094 0.019483432697028513
-0.08356397901869089 0.08431952095772283 0.017644014338418612
-0.08376811580291905 0.08453281710325278 0.015795609022685064
-0.08422612101547856 0.08615575174842993 0.013012309774604602
-0.08417911651848341 0.08496099649814398 0.012072600307422132
-0.08438655451560956 0.08517900438473569 0.010195807848538518
-0.08459501739453669 0.08539808937540883 0.008309742785481633
-0.08480337757288842 0.08561198623185101 0.006418552555893908
-0.08501333708169075 0.08583008514539747 0.004515897095684063
-0.08522462544357334 0.08605084424495463 0.0026027247816105548
-0.06631388463203806 -0.025382418086369263 0.06458168247682833
-0.06608112592654064 -0.027370064499422253 0.06461030384232158
-0.06584982433538494 -0.029344725676109518 0.06463939218582965
-0.06562030625480418 -0.031304700614497194 0.06466761281303063
-0.0655871877411658 -0.03220908502152753 0.06393092876577888
-0.06771990621600536 -0.03205921898278569 0.042142605669977795
-0.06730424669637411 -0.03495930500997996 0.04296769567855202
-0.06711582913255208 -0.03667751782069295 0.04286070334937875
-0.06697604764376393 -0.038141111600081046 0.042556204338569215
-0.0669118516161 -0.03921323102305918 0.041939718761072775
-0.06684795487470993 -0.04028239304826331 0.041323675035468466
-0.06679051685004278 -0.041317095531054726 0.04068217404309771
-0.06678400404745012 -0.04209055212746049 0.039827485813732966
-0.06677749251487178 -0.042863857897695534 0.03897296425093316
-0.06701731831088412 -0.04238492974066532 0.037073531318657316
-0.06736257209807067 -0.0413766136958586 0.034719093773331655
-0.08391016369860414 0.1342311606498513 0.05839804962651218
-0.08355291561482628 0.1310867267398229 0.05839485647658288
-0.08319841865886568 0.12796724710920582 0.05839256903171558
-0.08284691710195884 0.12487412619950122 0.058390300915086124
-0.08272830204011232 0.1232140268566686 0.05765503605637268
-0.08288055438851165 0.12321105723246262 0.05605579089890378
-0.08303336817761076 0.12320807665756439 0.0544506484181384
-0.08318674651867175 0.12320508507129324 0.052839575933659066
-0.08334069254598757 0.12320208241251851 0.0512225405231343
-0.08349520941709403 0.12319906861964736 0.049599509020080035
-0.08365030031298884 0.12319604363063852 0.04797044801158262
-0.08380596843834824 0.12319300738298944 0.0463353238360108
-0.08396221702174612 0.12318995981372094 0.044694102580702555
-0.08411904931588059 0.12318690085939343 0.04304675007960962
-0.07916772040947406 0.09249816655649618 0.05836656034396237
-0.07884913730172399 0.08969541945065834 0.058365339034608554
-0.07853360327460965 0.08691810316653786 0.058362468607300544
-0.07822033887267917 0.08416145912634737 0.05836044722136391
-0.0779095637157544 0.08142671978506671 0.05835844189763367
-0.07760124825138866 0.07871362508896751 0.05835645244541998
-0.07765278742779873 0.07814460033445136 0.057138150085043915
-0.07783213377484598 0.07833199718859546 0.05548181174405781
-0.07801231047386126 0.07852026166757708 0.05381780475620196
-0.07827048992534659 0.07916506877825652 0.05188036336462448
-0.07837542475702718 0.07890087143277247 0.05046571818167844
-0.07855788075244521 0.07909032152992923 0.04877923561325215
-0.07874143720042985 0.07928211746818514 0.04708401523355504
-0.07892585344452352 0.07947481179711069 0.04538085427806299
-0.07911113553995973 0.07966841084374687 0.0436696968241681
-0.07929754209245088 0.07986439488478292 0.04194959663706099
-0.07985182717060213 0.08219945787041882 0.038923139839977805
-0.07967223834560368 0.08025470045782696 0.03848767831326777
