# .PCD v0.7 - Point Cloud Data file format
VERSION 0.7
FIELDS x y z
SIZE 4 4 4
TYPE F F F
COUNT 1 1 1
WIDTH 784
HEIGHT 1
VIEWPOINT 0 0 0 1 0 0 0
POINTS 784
DATA ascii
-0.05436105848708267 0.005242730011406687 0.08667773355468023
-0.055822655204965765 0.005230140504012311 0.0864400595822
-0.05726946888854839 0.00521773593568509 0.08619790690081083
-0.058721799823674814 0.005205191621020797 0.08596587584907717
-0.06013723169210328 0.005193188904981733 0.08571310941375118
-0.061546150854340176 0.005181241416018867 0.08546150601106214
-0.0629599626847584 0.005169165295638258 0.08521944058155861
-0.06432431488361529 0.0051578393841154955 0.08494668420291429
-0.06569466281969905 0.005146369007284469 0.08468404303762544
-0.06704778852306881 0.005135130591797977 0.08441421188478407
-0.0684105138690585 0.005123688780139036 0.08415724201325162
-0.06975398402863286 0.005112513200665409 0.0838914102682404
-0.07110326061908728 0.0051011956690479926 0.08363561907125397
-0.07243355076822172 0.005090141610767855 0.08337097534888038
-0.07376384028347449 0.005079040885195198 0.0831119081704094
-0.0751054843540736 0.005067706311940905 0.08286724918334981
-0.07646527880309323 0.005056024320447214 0.08264246880415188
-0.07781670425301163 0.005044431007908155 0.08241706688482225
-0.07914374396285578 0.005033192228878296 0.08217836724232369
-0.0804593192244985 0.0050220957786394045 0.0819363250121537
-0.08174077156231185 0.005011519471645971 0.0816728024001312
-0.0829735640872975 0.00500170897690782 0.08137577136482568
-0.08407857830518894 0.004993990939245876 0.08098101468451971
-0.08518902506902837 0.004986148731027714 0.08059461959431835
-0.08630883705596298 0.004978115568210548 0.08021987864175767
-0.08727836520406218 0.004972574518040498 0.07972648241120311
-0.088159922200093 0.004968491794026109 0.07916368591447492
-0.08905138964170245 0.004964223987819994 0.07861119215182905
-0.08999721243745856 0.0049590177266218526 0.07810604641264562
-0.09098078842635265 0.004953148451637037 0.07763512478126788
-0.09200290079061219 0.004946598504367394 0.07719960372745588
-0.09294359681996289 0.0049414067731985535 0.07669883178834241
-0.09359063618615165 0.004941205589549438 0.07595175769060422
-0.09389037254872495 0.00494694575497165 0.0749087132794791
-0.09384136367182727 0.004958691291766221 0.07356376798702377
-0.09344687502814863 0.004976425884842565 0.07191497949485715
-0.09270043356885854 0.00500030080414286 0.06995198841260603
-0.09149554758570616 0.0050321951370037 0.06757719404309143
-0.05811656016964878 0.005620840588620504 0.037025608594097204
-0.05781665187610635 0.005638569348768964 0.03526480055349018
-0.05751484570788634 0.005656410299765289 0.033492849796399826
-0.05721112359265906 0.005674364509936143 0.0317096502173681
-0.05690546722790851 0.005692433061215429 0.029915094359475203
-0.05659785807725032 0.005710617049361717 0.028109073392749373
-0.05628827736669473 0.005728917584179587 0.026291477092175053
-0.05597670608082156 0.005747335789745499 0.024462193815263045
-0.055663124958882426 0.005765872804638039 0.02262111047918769
-0.05534751449084113 0.005784529782172376 0.02076811253749211
-0.05502898359377251 0.005803323307265577 0.018902280382467718
-0.05470925119604725 0.005822223830758901 0.017025095996247464
-0.05438830808481454 0.005841232249883931 0.01513646315742695
-0.05406438000284158 0.005860380914341432 0.013234631214656123
-0.05373920739467952 0.005879639712755994 0.011321123681495182
-0.05341100046965103 0.005899041437139422 0.009394155571494534
-0.053081514230800375 0.0059185555946285485 0.007455278628076156
-0.05274894309149697 0.005938215428777282 0.005502672739612191
-0.05241415516671577 0.00595800630747761 0.0035370515651425016
-0.05207803383074561 0.005977913187076934 0.0015591597495401843
-0.007407297630488641 0.004541898297946733 0.09070409671164431
-0.009598707634602355 0.004524191081864503 0.09073703955589241
-0.011418545106111122 0.00451092532972958 0.09054947496569771
-0.013242968211073347 0.004497551946961278 0.09037252000922047
-0.015058493991513211 0.00448423461292799 0.09019779762137692
-0.016882970467804015 0.00447075572370666 0.09003653639269271
-0.01871137841393139 0.004457175734343178 0.08988568907408254
-0.020525025523645712 0.0044437231896419654 0.0897333992408004
-0.0223561011778185 0.004430003467311251 0.08960024171691838
-0.02416865026516324 0.004416457486370612 0.08946321510885769
-0.025977344664027957 0.004402905353162661 0.08933170117720787
-0.02777854183438916 0.004389392038276567 0.08920332459798919
-0.029572256475295045 0.004375917591419192 0.08907806042986516
-0.03132075300632542 0.004362950364965823 0.08893093200235086
-0.03307459643707922 0.00434986487301841 0.08879509427765125
-0.03482227133550253 0.004336803829292497 0.08866295659398468
-0.0365277638998221 0.004324216829594896 0.08851029162875582
-0.03823019041357567 0.004311617583354849 0.0883631096547218
-0.03989402671865522 0.004299451139979006 0.08819727881720393
-0.04153342004046817 0.004287542494508104 0.088022076009282
-0.04315876788584472 0.004275762401304115 0.08784441273375423
-0.044745496064779844 0.004264421431500209 0.0876471917324313
-0.046323829280989604 0.0042531404637940725 0.08745101417565945
-0.047877564578170384 0.004242124954766951 0.0872445051611439
-0.04938853915906649 0.004231606893463553 0.08701466282446135
-0.05089043513652569 0.004221161251810573 0.0867848241085909
-0.0523538628385945 0.004211162760904752 0.0865340483660457
-0.05386259842686619 0.004200545068676317 0.08632175418292745
-0.055300888128769043 0.004190784576210824 0.08606539179843228
-0.05672938673764666 0.004181109349639579 0.08580796356695794
-0.0581691387415193 0.004171249696733518 0.08556466803859664
-0.05961135758988284 0.004161317529760579 0.08532926257740017
-0.060967162115417695 0.0041524583987712265 0.08503658432900082
-0.06235294027841709 0.0041431752085454125 0.08477151791686069
-0.06371591966069434 0.004134148571564041 0.08449530593955448
-0.0650557107342234 0.004125385146354663 0.08420741817088717
-0.06639729198729005 0.004116561827804177 0.08392634198846247
-0.06773759316834371 0.004107718240813148 0.0836498184172853
-0.06906110253788939 0.0040990567781136154 0.08336610637927078
-0.07037757867949451 0.004090450913104371 0.08308247272953878
-0.07169072006821736 0.004081852506669013 0.08280169934917106
-0.07301063582813022 0.004073128785967058 0.08253156820796106
-0.07433999752858023 0.004064243780538083 0.08227426762310613
-0.07568568053798902 0.004055105748455418 0.08203530545865051
-0.07702320058941592 0.004046036817231639 0.0817957513510919
-0.07832800574147508 0.0040373627547533614 0.08153621190023805
-0.0796321239627234 0.0040286607953560405 0.08128165749177363
-0.08090908970545407 0.004020282942681883 0.08101105697625802
-0.08216832373761646 0.0040121056476260545 0.08073163511424247
-0.08336683672161349 0.004004704727665889 0.08040862656233394
-0.08444757141036341 0.003998849370810878 0.07999515167037863
-0.08534083208373477 0.003995485035062688 0.07943306690222585
-0.08622038730722903 0.0039922905074540145 0.0788619548957499
-0.08714513681119962 0.003988472913222964 0.07833003711921052
-0.08813871514599131 0.003983708905106832 0.0778574387578854
-0.08916069908491636 0.003978539588895388 0.0774115204689777
-0.09022197331409981 0.003972814626226301 0.07700176334493058
-0.09131727876718154 0.00396660188732821 0.0766242985135896
-0.0922787084268134 0.003962186366202038 0.0761379671000744
-0.09290949991599795 0.003962267214106768 0.0753741445370002
-0.09316638404874117 0.003967466357970351 0.07429151256908764
-0.0929102147594269 0.003979726437790478 0.07276576674658902
-0.09195967255721427 0.004001587069839302 0.07063370485470916
-0.0902497440396341 0.004034007822881356 0.06782949575377883
-0.061266752682922754 0.004443192206270826 0.041258605000735915
-0.06097941861306155 0.004457050702536986 0.03953127725941408
-0.06069111114122894 0.004470984481595772 0.037793866127829256
-0.06040099538366395 0.004485005654346964 0.03604555782512253
-0.06010905427429114 0.004499115045586741 0.034286249506973454
-0.05981527053160929 0.004513313490522887 0.032515837030828554
-0.059519626655276825 0.004527601834939657 0.030734214935347948
-0.05922210492263141 0.004541980935365799 0.028941276419458595
-0.05892268738515849 0.004556451659245571 0.027136913321021916
-0.0586213558648771 0.004571014885113255 0.025321016095077753
-0.05831809195065585 0.004585671502771022 0.02349347379167055
-0.058012021451810725 0.00460043452345312 0.021653385009625103
-0.057704832992749144 0.004615280718365235 0.019802206533089395
-0.05739565544122788 0.004630223044672225 0.017939041391215826
-0.057084469414978134 0.004645262439105147 0.016063772782600738
-0.05677125527908866 0.004660399850605073 0.014176282383368544
-0.056455993141871164 0.004675636240522758 0.012276450322278976
-0.056139540259035725 0.004690959991492286 0.01036499000931973
-0.0558201251434875 0.004706397189949051 0.008440116625048733
-0.05549948572808888 0.004721923568463686 0.006503383309688859
-0.05517583500180073 0.004737565571627245 0.004552970254154187
-0.054850925449375976 0.004753298623472239 0.0025904593364068917
-0.007358482589681914 0.003406866423426507 0.09067411619835
-0.009412042194170633 0.0033948394622070168 0.09062173977489271
-0.011222772682278948 0.0033849763695819025 0.09042785895466302
-0.013023964904266772 0.0033751617306751625 0.09023569668008863
-0.014826086764303248 0.0033653001538662625 0.09005177337410356
-0.016614894369081645 0.003355521807008347 0.08986714357935091
-0.018424979858471913 0.0033455097668025867 0.08970369176236698
-0.020219679489718034 0.0033355997379360676 0.08953826230934964
-0.022025761164437774 0.0033255457351152777 0.08938793817852617
-0.023828256714271245 0.003315485065515044 0.08924321539795904
-0.025639706999123102 0.003305301703620663 0.08911225281996282
-0.027450790653186286 0.0032950812997090194 0.08898910344988695
-0.029236522271207932 0.003285055633157788 0.08885738889461545
-0.030983272118336014 0.0032753526789551482 0.08870786844227002
-0.03273369769177886 0.003265576694951981 0.08856851004658015
-0.03445638858951089 0.003256020653271738 0.08841840685435903
-0.03618019479015189 0.0032464158435066633 0.08827668581307069
-0.03784953575478256 0.0032372832468219744 0.0881058408743973
-0.039500204257325644 0.0032282893488154627 0.08792962947511221
-0.041128290482645824 0.003219471806101198 0.08774521249045378
-0.042741672500613836 0.003210757353831112 0.08755779062503208
-0.04431572818526203 0.003202379414150913 0.08735022541764592
-0.04586433718740979 0.003194208541555424 0.08713175256986314
-0.04738548328269365 0.00318626514000246 0.08690071183032236
-0.04889908253162695 0.00317836114796552 0.08667081735075524
-0.05039312214830566 0.0031706113124496406 0.08643353553779862
-0.05186071478642601 0.003163082364257997 0.08618378613011168
-0.053341196701720606 0.0031553991723839744 0.08594939083155378
-0.05475537832490723 0.0031483202721176618 0.08567367496047795
-0.05617732849285573 0.003141137559105882 0.08540937340415525
-0.057547668720167144 0.003134422224200795 0.08511350794320238
-0.058930722947269365 0.00312755642595946 0.08483245268854095
-0.06036841962325562 0.0031201337717187507 0.08459716530443642
-0.061740558503825815 0.003113315569319568 0.08431964056699379
-0.06309382330244806 0.003106652271219676 0.08403376258213044
-0.06442699110808886 0.0031001567460997455 0.08373842618411081
-0.06574486045784916 0.0030937832548222316 0.08343702085434729
-0.06706625303519625 0.003087348648695715 0.08314358666647673
-0.06836514924538478 0.0030811073257105076 0.08283847362247479
-0.06966174489468002 0.0030748623328104583 0.08253683307979298
-0.07095747869365465 0.003068599499649722 0.08223977222832116
-0.07226464401125354 0.003062197574669677 0.08195678554447411
-0.07358656605926356 0.0030556228391132134 0.08169062470028496
-0.07491070791034576 0.003048998256206282 0.08143174463208944
-0.07623268122500604 0.0030423670264380686 0.08117677253176692
-0.07752202932644581 0.0030360317829014397 0.08090174112647674
-0.07880812841006357 0.0030297018595925474 0.08062952231862669
-0.0800686103895053 0.003023600533263859 0.08034231166625394
-0.08132749851600035 0.0030174889979182654 0.08005903344213039
-0.08250605045475223 0.00301215644392079 0.07971637554558578
-0.08360076643317477 0.0030076430556080264 0.07931050683017224
-0.08443018410204634 0.0030057808267333203 0.07869287594956573
-0.08526676401685318 0.0030038382926063584 0.07808270083347249
-0.0862538301585476 0.003000365907793634 0.07759782642192722
-0.08732245293087343 0.002996052108542368 0.077183309681326
-0.08842566263347379 0.0029913683388924184 0.07680124702442712
-0.08956086923140733 0.0029863385356683654 0.07644995853158221
-0.09059315822651998 0.0029823363553128615 0.07601668920660468
-0.09145241474805632 0.0029800851812471266 0.07544094944819643
-0.09192282695973963 0.002981807159567361 0.07453743196887996
-0.09176661827853638 0.002989969473000941 0.07309821125591576
-0.09046992940777798 0.003009901514699355 0.07067442484445369
-0.08508457318684676 0.0030720805004296214 0.06471057693910309
-0.06434209287328124 0.0032932351017283348 0.04539140282021942
-0.06406842857259387 0.0033033774344383687 0.04369787380411588
-0.06379226640544089 0.003313590808668882 0.04199317494418703
-0.0635152014999672 0.0033238591052168523 0.040278615100190596
-0.06323641409570496 0.003334191239257269 0.03855339592228141
-0.0629558880795339 0.0033445878079582003 0.03681741769767766
-0.06267360713673154 0.003355049415959296 0.03507057946602271
-0.06238955474780572 0.003365576675489046 0.03331277899980811
-0.062103714185282266 0.0033761702064841166 0.03154391278444041
-0.06181606851040977 0.0033868306367111595 0.02976387599791025
-0.06152660056982373 0.0033975586018907154 0.027972562490095387
-0.06123529299213232 0.003408354745823634 0.02616986476165556
-0.06094128799400422 0.003419228640027134 0.02435489907747046
-0.0606462446793648 0.0034301631629765046 0.02252909764889338
-0.0603493082430252 0.003441167846414825 0.02069158111192143
-0.060050460405743855 0.0034522433677842217 0.018842236350071262
-0.059749682652194325 0.0034633904132764194 0.016980948785884076
-0.05944695622713697 0.0034746096779745047 0.015107602357257888
-0.05914226213151569 0.0034859018659974626 0.013222079493317884
-0.05883558111849235 0.003497267690647379 0.011324261089829035
-0.058526893689389736 0.003508707874559693 0.00941402648411177
-0.058217052415584836 0.00352021369565321 0.007492096472219656
-0.05790429634523858 0.0035318047417364274 0.005556669102826484
-0.0575894738401338 0.0035434723719162302 0.0036084540215887695
-0.057273447909601094 0.0035552077046115617 0.0016481913467198406
-0.007352623932152136 0.002271279703436631 0.09067051801309695
-0.009247467205027948 0.0022642232575475025 0.09052008485600524
-0.01102391028881805 0.0022578579159328723 0.0903043234200657
-0.012806609786195855 0.0022514296441226477 0.09009990306449467
-0.01458486674464049 0.0022450032644403344 0.0899002119436722
-0.0163501829513093 0.002238630671882315 0.08969987685175426
-0.018138130651216944 0.0022320945786573486 0.08952140807555029
-0.01991659308034488 0.0022255908724632804 0.08934456943203026
-0.02171316628685316 0.0022189502661846628 0.0891870391172368
-0.02351725428281648 0.002212237150672278 0.08904221145758023
-0.025336640784356823 0.0022054031023468535 0.08891527425424006
-0.027131389221657254 0.002198694129039912 0.08878033977398947
-0.02889570773940403 0.002192146830550753 0.08863337815917943
-0.030651312563094002 0.002185627475988916 0.0884884542981498
-0.03238076635591286 0.0021792446062509226 0.08833392814664484
-0.034094074566191845 0.0021729367322981855 0.08817624238763819
-0.03578630023253743 0.0021667351117358007 0.08801194404843929
-0.03745351422643628 0.0021606649519537065 0.08783818626088774
-0.03908936345631392 0.002154766849690464 0.08765041414106556
-0.04069778548718317 0.0021490171274536466 0.08745100752412746
-0.0422792596961345 0.0021434136697032436 0.08724002702031938
-0.04384089063699731 0.002137912584238821 0.08702211630677403
-0.04537887077677011 0.002132538542667606 0.08679444364118602
-0.04689195485056641 0.0021273002012538716 0.08655590745532216
-0.04838543365482556 0.0021221648371186385 0.08630997671348303
-0.049866876305275254 0.0021170849821398963 0.08606180957354187
-0.0513260110983933 0.0021121263837648556 0.08580400868090762
-0.052821325201222624 0.0021069165982519947 0.08557812030275944
-0.05419539113317151 0.002102460640578368 0.08527156227526358
-0.05560846561945931 0.0020977364043965477 0.08499865017438926
-0.05700505231961228 0.0020930985271315487 0.08471959213290439
-0.058389270107108204 0.0020885210457630334 0.08443723459574734
-0.059778239290356916 0.00208389396425385 0.0841640300758627
-0.06111357611410084 0.002079594144377428 0.08385698940323039
-0.062458640384385034 0.0020752134601984035 0.08356251009415949
-0.06378670155105898 0.002070924810692395 0.0832608036334839
-0.06509199052373454 0.002066766275794343 0.08294737091841539
-0.0664055003273229 0.0020625367748403726 0.08264533848549871
-0.0676869048086684 0.0020584991090315218 0.0823242667270116
-0.06897659265127698 0.002054390277950603 0.08201458023556621
-0.07027435095376106 0.002050211227455522 0.0817162502103771
-0.07156902795960535 0.002046034772200289 0.08142081713585994
-0.07287293557778107 0.0020417798766958033 0.0811378134666309
-0.07415918798584253 0.0020376234124645804 0.08084644913824768
-0.0754445087792836 0.002033455444037097 0.080559631356178
-0.0767260046894736 0.0020292950666103457 0.0802751044682137
-0.07799095657213495 0.0020252267763576173 0.07998278764111763
-0.07923046901851849 0.0020213103505815747 0.0796754265920685
-0.08047218175551069 0.00201736246768675 0.07937483954725036
-0.08165419577276928 0.002013796545568969 0.07903130737892627
-0.08278161672655421 0.002010580860074338 0.07864822137472266
-0.08370466275121441 0.0020087228649287646 0.07810315923065106
-0.08449642390360745 0.0020077397959398246 0.07745321677132738
-0.08546439813979173 0.002005564776832882 0.07694930599723268
-0.08661036544238654 0.0020021780214305785 0.07659521571819453
-0.08777340507402104 0.001998660959623823 0.07625970181702935
-0.08878792645487327 0.001996136134079129 0.07580480513486249
-0.08965732494125522 0.0019945869643513726 0.07523143180540792
-0.0902068046801085 0.0019952108993704426 0.074390218664412
-0.09014789881234031 0.001999992141674299 0.07303226789296247
-0.08705547465762575 0.0020255553962862864 0.06908195797337435
-0.0652177291204517 0.0021798045443771766 0.049033109599778024
-0.0652190727865018 0.0021846111363442848 0.04759578431720746
-0.06521962610876553 0.0021894444586168043 0.04615141661551303
-0.0652201818848871 0.0021942992151875447 0.04470064358709608
-0.06522153995017238 0.002199170014234926 0.04324412255685728
-0.06522210246319149 0.0022040680446895468 0.04178041563612994
-0.06522347087026409 0.002208982357585719 0.04031088474017447
-0.06522404021864259 0.0022139242431099115 0.038834070210239824
-0.06522541909867519 0.0022188826555744564 0.037351354338419074
-0.06520900991910822 0.002223987848395383 0.03584599431102209
-0.06493448698325965 0.0022309263520580115 0.034100634238840355
-0.06465824574706924 0.0022379082853652543 0.03234434956796495
-0.06438027002704755 0.0022449340573510216 0.030577037407127527
-0.06410054343584165 0.0022520040822019117 0.028798593568912456
-0.06381904937901 0.002259118779338638 0.02700891254927762
-0.06353577105173641 0.002266278573499003 0.0252078875066869
-0.06324985946146133 0.0022734898099192446 0.023394634915614276
-0.06296295791818657 0.0022807411318253343 0.021570588612052077
-0.06267422036746456 0.002288038858087477 0.01973486944447489
-0.06238362912861123 0.0022953834355779468 0.017887365003622036
-0.062091166293192335 0.002302775316925312 0.0160279614322556
-0.06179681372133955 0.002310214960607458 0.014156543401765254
-0.061500553038009664 0.002317702831046311 0.012272994088332656
-0.061202365629155764 0.002325239398704515 0.010377195148616514
-0.06090223263782424 0.0023328251401840013 0.008469026694962023
-0.06060013496018912 0.0023404605383263886 0.006548367270137467
-0.06029605324149362 0.0023481460823154684 0.004615093821558169
-0.05999083878589706 0.002355875916184287 0.002669940975672913
-0.0073584825897146655 0.00113562214114207 0.09067411619837012
-0.009043968403101565 0.0011327279982824765 0.0903943874197709
-0.010814250212964727 0.0011295652278780302 0.09017408024485543
-0.012590909125322403 0.0011263707031886133 0.08996514307868902
-0.014340486963751009 0.0011232461731883767 0.08974666519737853
-0.016087910942836292 0.0011201159562570164 0.08953415154618699
-0.017847095570818927 0.0011169374594484477 0.08933646439745674
-0.019622263242778104 0.0011136974572323155 0.08915647260104018
-0.02141749135249371 0.0011103830649161794 0.08899701419674358
-0.02321847658927617 0.0011070378493078733 0.08884910848594763
-0.025009547280224476 0.0011037099410454553 0.08870267909792776
-0.02679436780332234 0.0011003881239572484 0.08856005951472146
-0.02855512604126359 0.001097127565510536 0.088409520460763
-0.030291350492344438 0.001093930094336455 0.08825053142946876
-0.03201836052176993 0.001090748483378115 0.0880930488580085
-0.033710137602152634 0.0010876638425609177 0.08791962551893623
-0.03540359112171404 0.0010845615989137386 0.0877547201711826
-0.03703517065739609 0.0010816403205171203 0.08755544510094815
-0.038641829200880495 0.0010787853437987808 0.08734626122752717
-0.04022821016633765 0.0010759824950453394 0.08713010209233671
-0.041792120268453914 0.0010732389887523962 0.08690527162635542
-0.04333392639654782 0.0010705540292867692 0.0866718078975389
-0.044862251765283245 0.0010679007412855363 0.08643548944480972
-0.046357574036836824 0.0010653410944677668 0.08618256150300094
-0.047829437940898056 0.001062845396518647 0.08591938723340173
-0.04930252111344352 0.0010603356304081338 0.08566316418632336
-0.050756596607296034 0.0010578761088551015 0.08539957761411548
-0.05217756819987085 0.0010555121129361608 0.08511837591962243
-0.053604113929623 0.0010531205812761195 0.08484698102138172
-0.05502026576097091 0.0010507524972892532 0.08457396549742333
-0.056406551030180496 0.001048470515413295 0.08428510633382094
-0.05779617316939817 0.001046168362860527 0.08400432036356095
-0.059147980154443724 0.0010439785639844712 0.08370148088593349
-0.06048798729508004 0.0010418177865649922 0.08339536655719748
-0.061828573380495466 0.0010396461438298245 0.08309505318571994
-0.06314611205853188 0.0010375402015206062 0.08278295734664948
-0.06445454893121405 0.0010354550434104688 0.08246929217925386
-0.06574347911302914 0.001033424690325126 0.08214613377266089
-0.06703333199732842 0.0010313828059936765 0.08182876447430557
-0.06833292580608741 0.0010293004746308439 0.08152394936648358
-0.06961549283983326 0.001027265178093717 0.08121132747162838
-0.070892265260804 0.0010252403204838079 0.08089937513372875
-0.07217202220193725 0.0010231970705949578 0.08059485349219156
-0.07342570395642545 0.0010212311674193078 0.0802752002821292
-0.07468896372206674 0.001019225248918331 0.07996803751481521
-0.07594369584709587 0.0010172390368898216 0.07965926498794096
-0.07718501899931496 0.0010152888620628023 0.07934494410312756
-0.07840392886470954 0.0010134049112011316 0.07901777227398948
-0.0795958439580694 0.001011602884420598 0.0786738302854669
-0.08078073345882975 0.001009816590680316 0.07832886218643895
-0.08191142595225609 0.0010082040747982426 0.07794466903425779
-0.08296730978175976 0.0010068356237348728 0.07750382556069058
-0.08386198477270612 0.001006003363004392 0.07693478430956588
-0.08482858757484424 0.001004925096798893 0.07642698599017891
-0.08594942585085147 0.001003321240479447 0.07604936343169769
-0.08692616590428726 0.0010021981354509353 0.07555627062602263
-0.08773699037895849 0.001001632932742341 0.07492761862158404
-0.08821930057271787 0.0010021820436882489 0.07402478603176901
-0.08737153775569612 0.0010072650427166527 0.07199853741970755
-0.06470988431275776 0.0010868521480041865 0.05146047320170011
-0.06470931395386059 0.0010892447122145001 0.050031840103831104
-0.06470953640117877 0.001091645105965906 0.0485975848249981
-0.06470896275228571 0.0010940588422900799 0.04715630747172089
-0.06470838656102462 0.0010964832762917604 0.0457086423782862
-0.06470860843269532 0.0010989157152547675 0.044255244043498176
-0.06470802888926847 0.001101361746756123 0.04279468064415598
-0.06470825095338151 0.0011038159028944631 0.04132830828517492
-0.06470766802076366 0.0011062838217806778 0.0398546734472508
-0.06470789027188922 0.0011087599872393742 0.03837515254372559
-0.06470730391246093 0.0011112500886067912 0.036888270022118475
-0.06470671491340807 0.0011137513999055439 0.03539469385689992
-0.06470693652053638 0.0011162611450682158 0.033895113276360134
-0.06470634402884867 0.0011187850916084343 0.03238801902787619
-0.06470656580036699 0.0011213175998310233 0.03087483964732496
-0.06470596977677257 0.0011238644902601695 0.029354042977033645
-0.06470537103952201 0.0011264229767218308 0.02782632209532604
-0.06470559211110793 0.0011289902212426811 0.026292392157428568
-0.06470498977329642 0.0011315721252649841 0.02475068596524732
-0.06470521098493731 0.0011341629213991661 0.02320268617618898
-0.06470460500554681 0.001136768565967555 0.02164680177159256
-0.06470399623542167 0.0011393862106063822 0.020083751876033284
-0.06470421668781356 0.0011420129533648786 0.018514278554081998
-0.06470360420446775 0.0011446548343543095 0.016936754338911064
-0.0644202063565219 0.0011483281919280202 0.015080038633316084
-0.06413414289782837 0.001152028239653369 0.013210555038254357
-0.06384623002032758 0.0011557522084278214 0.011328985110144352
-0.063556449730934 0.0011595003309803986 0.00943521126048108
-0.06326393244804657 0.0011632759402835115 0.007528278705484115
-0.06297035885196739 0.001167073100996779 0.005609730248360256
-0.0626748624158946 0.0011708951322459919 0.0036786157367028616
-0.06237828631618175 0.0011747391206049197 0.0017356707868337873
-0.007279375291340262 0.0 0.09062553122596415
-0.00883345338756042 0.0 0.0902643561984966
-0.010595683130939115 0.0 0.09003830393816664
-0.012358702596751925 0.0 0.08982007097567637
-0.014087240723770378 0.0 0.08958754754853462
-0.01583656787504939 0.0 0.08937533205586579
-0.017582709996234736 0.0 0.08916845564561965
-0.019337661582664034 0.0 0.08897459273862277
-0.021115808994927543 0.0 0.08880312841425442
-0.02290459036311826 0.0 0.08864624072059527
-0.02468457313971717 0.0 0.0884914614267549
-0.026451314089353806 0.0 0.08833583649225252
-0.02819515945534673 0.0 0.08817292145421002
-0.029929767265393648 0.0 0.08801153703085357
-0.031625347004447635 0.0 0.08783182564480901
-0.0333061805569938 0.0 0.08764962757206446
-0.03493872607577636 0.0 0.0874422781985838
-0.03660035709306325 0.0 0.08726157255064462
-0.03815646590974858 0.0 0.08701639897155439
-0.039748879400965165 0.0 0.08680252983842121
-0.041296860985133965 0.0 0.08656493638128718
-0.042816261077754936 0.0 0.08631410512508744
-0.044320833910712065 0.0 0.08605930466149708
-0.04581243241338895 0.0 0.08580169749492472
-0.04727077346915254 0.0 0.08552692293899633
-0.048723247732900155 0.0 0.08525398099028939
-0.050156159448405735 0.0 0.08497311245646963
-0.05159146502757117 0.0 0.08469980549500922
-0.053009112717148754 0.0 0.08441972565057182
-0.05441807317384256 0.0 0.08413917796620377
-0.05579090070793935 0.0 0.0838381710858302
-0.057159475272142435 0.0 0.08353958085168725
-0.05852380424059833 0.0 0.08324339619208104
-0.059874631153311764 0.0 0.08294277022045668
-0.06121060285355917 0.0 0.08263657084932538
-0.06251591145410179 0.0 0.08231286062745455
-0.06382364212983521 0.0 0.0819961145082786
-0.06512766052506791 0.0 0.08168176868174565
-0.06642048227063102 0.0 0.08136413618059452
-0.06771043440207014 0.0 0.08104945933979982
-0.06897605118860495 0.0 0.08072128474014648
-0.070236093340519 0.0 0.08039379821516976
-0.07148328971349999 0.0 0.08006132939748123
-0.07272943997820519 0.0 0.07973293898513698
-0.0739600533381406 0.0 0.07939729869531376
-0.07518037479143141 0.0 0.07905837283801606
-0.07639695834742805 0.0 0.07872124890476198
-0.07758140357624871 0.0 0.07836331246923267
-0.07877022802828298 0.0 0.0780133949885459
-0.07991765027234199 0.0 0.07763476396904642
-0.0810270906301837 0.0 0.0772296807765373
-0.08209979396790662 0.0 0.07679869320481236
-0.08313211813176946 0.0 0.07633837317887038
-0.08409152229088596 0.0 0.07582148497220201
-0.0850104932155103 0.0 0.07527392414430814
-0.0856964953716765 0.0 0.07453532088927706
-0.08610126581216204 0.0 0.0735623257533349
-0.08226922272600823 0.0 0.06903207767185648
-0.06420319664133911 0.0 0.052454950028687386
-0.06420151189158568 0.0 0.05102936622609855
-0.06420061582553932 0.0 0.04959817458817484
-0.06419891793131371 0.0 0.048159981164708376
-0.06419721251663263 0.0 0.04671541753787073
-0.06419630095440532 0.0 0.045265135386568456
-0.06419458213524087 0.0 0.04380770893919861
-0.06419366065315035 0.0 0.04234448850327632
-0.06419192825764924 0.0 0.040874026684850795
-0.06419018810299737 0.0 0.039396978840532615
-0.0641892505676217 0.0 0.03791402119160353
-0.0641874965650086 0.0 0.0364236732750865
-0.06418654874322333 0.0 0.03492733657450742
-0.06418478071301814 0.0 0.03342350815263728
-0.06418382245668486 0.0 0.031913610504241297
-0.06418204021606755 0.0 0.030396117865378047
-0.06418024986598841 0.0 0.02887172036643565
-0.06417927473716889 0.0 0.027341130139805325
-0.0641774698877447 0.0 0.02580278650123946
-0.06417648393316083 0.0 0.024258165884108174
-0.06417466439316205 0.0 0.022705683865432535
-0.0641728364787651 0.0 0.021146056534543323
-0.06417183302931395 0.0 0.01958002284262106
-0.06416999012213881 0.0 0.018005962044034707
-0.06416897543673644 0.0 0.0164254065978246
-0.06416711733665026 0.0 0.014836711061469998
-0.06416609124926953 0.0 0.01324143090951535
-0.0641642177524896 0.0 0.011637895605760451
-0.06416233549187084 0.0 0.010026859242321162
-0.0641612909929134 0.0 0.008409100048413387
-0.06415939301357598 0.0 0.006782909081072708
-0.06415833667408294 0.0 0.005149900933506757
-0.06415642276259809 0.0 0.0035083405414083613
-0.06415449979233218 0.0 0.001859010392093241
-0.007200234669098526 -0.0011361005206742176 0.09057692578718898
-0.008609096172359387 -0.0011340451656597947 0.0901257749071844
-0.010361425790807177 -0.0011309394454246046 0.08989278066831699
-0.0121175881339734 -0.0011278099306073826 0.08966943359955526
-0.01384600170256095 -0.0011247526993575702 0.08943597417920368
-0.015571673615681236 -0.0011216918396093087 0.08920794979371591
-0.017315132525482668 -0.0011185645403045917 0.08899841854374119
-0.01906283495047323 -0.001115411914971981 0.08879895978542265
-0.02081823312128578 -0.001112223212847539 0.08861188179454357
-0.022587411426196857 -0.0011089794995429126 0.08844124484378449
-0.02434720814591912 -0.0011057518528121023 0.088272190292707
-0.026103996388350093 -0.0011025206818235842 0.0881088264891392
-0.027823735993674825 -0.0010993913248225266 0.08792879206698306
-0.02952664491465401 -0.0010963016884314595 0.08774508666313091
-0.03120856533008759 -0.0010932649311492255 0.08755480451606826
-0.03286109684520583 -0.0010903075270525843 0.08735214126799076
-0.03448129119178572 -0.001087439152090194 0.08713483013653117
-0.036072312708694765 -0.0010846504504783642 0.08690468913522972
-0.03766802230859967 -0.0010818358328346708 0.08668444327747069
-0.039233396392231334 -0.0010791050764772307 0.08645025132173789
-0.04074366586751377 -0.0010765365939325664 0.086184788442083
-0.04225178886707237 -0.0010739644697342133 0.08592405914865656
-0.0437369143725887 -0.0010714545287012554 0.08565358910729737
-0.04521759378980156 -0.0010689484462417791 0.08538611260359841
-0.04668233221466067 -0.0010664826945440042 0.08511354032130164
-0.04812809501299553 -0.0010640671627320773 0.08483358105437233
-0.04955516893001938 -0.0010617012461876223 0.08454625427094198
-0.050973495545274194 -0.0010593535329770432 0.08425847748173787
-0.05239516198813915 -0.0010569854938354947 0.08397886310965164
-0.053794592751927384 -0.0010546789341979968 0.08368902045978055
-0.05518319115205861 -0.0010523976288005629 0.08339700048743731
-0.056543823787715275 -0.0010501968480307402 0.0830902035699494
-0.057906576021295675 -0.0010479801150466903 0.08279041043341173
-0.05925971271152669 -0.0010457852361637368 0.0824890210603946
-0.06059641127273435 -0.0010436344312745064 0.0821808921742169
-0.06191154841306051 -0.001041544593802323 0.08186203738038211
-0.06322903731527785 -0.0010394383797717316 0.08155016318759534
-0.06453289056937805 -0.0010373677597268313 0.08123327555414783
-0.06582028481643076 -0.0010353421731009555 0.08090910013034189
-0.06709145330634553 -0.0010333611410122416 0.0805776450227961
-0.06834513831496586 -0.0010314290675655783 0.08023777812569416
-0.06959045131253105 -0.001029516334797058 0.07989633452172099
-0.07081206192121048 -0.0010276735270680606 0.07954136525140437
-0.07203879922253353 -0.0010258059939174512 0.07919505714198385
-0.07324656623912701 -0.0010239932326135594 0.07883863634998248
-0.07442769075909761 -0.0010222610082738495 0.07846585423388885
-0.07561416050920938 -0.0010205036466906254 0.07810171885739958
-0.07678584711486713 -0.0010187879497297624 0.07773031098746294
-0.07791595724763162 -0.001017203512387976 0.07733003780475656
-0.07904185108424083 -0.001015626356564343 0.07693043944416653
-0.08013613948262988 -0.0010141482358654566 0.07650934360035089
-0.08118946948009426 -0.0010128011750202498 0.07605876519375543
-0.08215851384891482 -0.0010117317228676911 0.07554279163202479
-0.08300961747837488 -0.0010110551026339747 0.074932697398581
-0.08358883350454144 -0.0010112938064506239 0.07409981350879535
-0.0827829663375736 -0.0010162216485574195 0.07211632602725282
-0.06369911084717517 -0.0010831714908660995 0.05486388285655236
-0.06369711828312258 -0.0010855451626782865 0.053448230955558174
-0.06369432182527068 -0.001087931969712471 0.05202569014383707
-0.06369151304312176 -0.0010903292957030232 0.05059688001723883
-0.06368949052273726 -0.0010927344773554476 0.04916243990454994
-0.06368665862111961 -0.001095153038837721 0.04772097129258668
-0.06368461637717271 -0.001097579572851769 0.04627379882961563
-0.0636817610553661 -0.001100019653236321 0.04481950278180108
-0.0636796988161546 -0.001102467825217587 0.04335942767216905
-0.06367681976813366 -0.0011049297129807308 0.041892132218067424
-0.06367392783314896 -0.001107402620486707 0.040418268950868474
-0.06367183417133299 -0.0011098838024487284 0.038938511196188075
-0.06366891803269625 -0.001112378959880286 0.037451384715049774
-0.06366680366628191 -0.0011148825165458094 0.03595828503435322
-0.0636638630040694 -0.001117400225549341 0.03445771551762561
-0.06366172764345934 -0.0011199264609433562 0.03295109263215246
-0.06365876213201271 -0.0011224670286426345 0.03143689699284424
-0.06365578313542075 -0.001125019149171027 0.029915815788700784
-0.0636536147900646 -0.0011275799914443176 0.028388558136051123
-0.06365061043612125 -0.0011301554419885552 0.02685356984924242
-0.06364842034029516 -0.0011327397476287252 0.025312321151786776
-0.06364539028831084 -0.001135338849561635 0.02376323420088039
-0.06364234629932591 -0.0011379499063442031 0.02220702205741165
-0.06364012203612429 -0.0011405700231463792 0.020644420566212962
-0.06363705181748858 -0.0011432052246324643 0.01907381568694383
-0.06363480501154756 -0.001145849626057357 0.017496733478619853
-0.06363170820666125 -0.00114850930870487 0.015911535289281686
-0.06362859699211676 -0.0011511813670939959 0.01431896103070418
-0.06362631477983488 -0.0011538628404953784 0.01271977429725879
-0.0636231764225586 -0.0011565598966536484 0.011112298771437934
-0.06362002335967704 -0.001159269590629872 0.00949729096521934
-0.06361770496366964 -0.001161988921078257 0.007875531633630917
-0.06361452418587116 -0.0011647241440696711 0.006245305876801999
-0.06361132839823563 -0.001167472274407783 0.004607387186240153
-0.06360811749426631 -0.0011702334036721167 0.002961720979448079
-0.007129859456709964 -0.0022726265263854103 0.0905337037606222
-0.008354304569645643 -0.0022696337878265103 0.08996839485908598
-0.010119146664005374 -0.002263349413245653 0.08974227417520711
-0.011857944105849227 -0.002257198860715003 0.0895072197917586
-0.0135882686581838 -0.002251075846234994 0.08927403741736348
-0.015299783674569578 -0.0022450436398968386 0.08903614707701066
-0.01703403544758636 -0.0022388486274016644 0.08881979015496966
-0.018768049504357287 -0.0022326306645162786 0.08861057178951032
-0.020503542583686196 -0.0022263790721290372 0.08840963589055148
-0.022258675192116384 -0.002219981898854381 0.08822877937177392
-0.023995564886169385 -0.0022136718532469422 0.0880436389676938
-0.025719900955948227 -0.0022074143058577757 0.0878577782268325
-0.027413912694549625 -0.0022013195759068302 0.08765942321657072
-0.029103930550738066 -0.0021952253190027017 0.08746568663110493
-0.030758141208329814 -0.0021893292584640343 0.08725542235438136
-0.032370194409381825 -0.002183672130331229 0.08702403051617871
-0.03397567816703384 -0.0021780333046704015 0.086795000906079
-0.035549567551584615 -0.0021725693599472466 0.08655138724890404
-0.03711214847712524 -0.0021671542596860657 0.08630666069803672
-0.038660143950919434 -0.002161808871580236 0.08605849346301342
-0.04016667672665164 -0.002156702687399119 0.08578828958326165
-0.04166442836639733 -0.00215163116391619 0.08551819753905546
-0.0431509780085817 -0.0021466098022463916 0.08524647223394718
-0.04460821144120242 -0.002141753549652817 0.08496036671710666
-0.04606381054992614 -0.002136887865592696 0.08467902608064115
-0.04750789918253712 -0.002132075451751535 0.08439549133611898
-0.048934924876402386 -0.0021273519913415787 0.08410572111241202
-0.05035402539565631 -0.0021226597261833273 0.08381607775449634
-0.051763667873949704 -0.002118008649466059 0.08352540310609921
-0.05315597721990767 -0.0021134494712573082 0.08322793529118125
-0.0545478545855696 -0.002108874251493765 0.08293577388583714
-0.05592111518393833 -0.0021043998822142754 0.08263567514476344
-0.05729404032860619 -0.0020999091340583014 0.08234086853498968
-0.0586478948401315 -0.002095522938007175 0.08203755981546806
-0.059990694042728554 -0.0020911900583206453 0.0817315007571468
-0.06132257371858446 -0.0020869099476429607 0.08142269303571517
-0.06264061303162588 -0.0020827019241758363 0.08110884724128561
-0.0639298184655781 -0.0020786641129827968 0.08077852209625583
-0.06520799823640422 -0.0020746813339256555 0.08044489878285499
-0.06646628633824248 -0.0020708119328071858 0.08010111556477839
-0.06770721012164027 -0.0020670400582652034 0.07974889524834941
-0.06894065511331904 -0.002063301386874665 0.07939567006179366
-0.0701489981221381 -0.0020597121466722815 0.07902772531271357
-0.07135094433499778 -0.0020561498867827923 0.07865934497659077
-0.07253488290336313 -0.002052691540743712 0.07828138635619741
-0.07368727889114712 -0.002049427444956454 0.07788299637105237
-0.07482446872982534 -0.0020462503787104375 0.0774767327350607
-0.07594593265967436 -0.002043164358600724 0.07706201512097782
-0.07706401904713966 -0.002040087632738985 0.0766485465227923
-0.07815742245859669 -0.0020371626278316156 0.0762191750584372
-0.07915644098686331 -0.0020348570868832043 0.07571725387703421
-0.08012642784448659 -0.002032736432207236 0.0751947059559378
-0.08085213809745018 -0.0020322494958129756 0.07447528560373948
-0.0810923976734868 -0.0020350324282488656 0.07335769641995546
-0.0631986172805617 -0.002160317741753312 0.057260080663961044
-0.06319474411606107 -0.002165044050051289 0.055852953205015765
-0.06319164813968237 -0.002169785696170952 0.054440318138196886
-0.06318774264922761 -0.0021745535686419825 0.053020814029057006
-0.06318381995721889 -0.0021793424410395217 0.05159505776397422
-0.06318067940616129 -0.0021841469930493494 0.0501636858959727
-0.06317672374663574 -0.0021889782594906528 0.048725305863771606
-0.06317355356563376 -0.002193825438689872 0.0472812366107348
-0.0631695645066922 -0.00219869966462431 0.045830064427000716
-0.06316636429179379 -0.002203590040838684 0.04437312806398369
-0.06316234139389182 -0.0022085078018164324 0.0429089923363134
-0.06315830050003729 -0.0022134475618641783 0.04143830695631845
-0.06315505354961981 -0.002218403836972078 0.03996174236035249
-0.06315097813456305 -0.002223388014993612 0.038477830519080436
-0.06314770009980403 -0.0022283889569874277 0.03698796101615598
-0.06314358970401607 -0.002233418154792643 0.035490643501270236
-0.0631394607129998 -0.002238470104498529 0.0339865521785187
-0.06313613431025139 -0.0022435392005441656 0.032476382774737356
-0.06313196962516088 -0.002248637093479719 0.030958610796156638
-0.06312861103876832 -0.002253752393733096 0.02943467859910276
-0.06312441017894593 -0.0022588968594827565 0.02790303848130854
-0.06312019009734304 -0.0022640648647095545 0.026364390054081976
-0.06311678143438065 -0.0022692506782583765 0.024819455288789538
-0.06311252443180265 -0.002274466222611638 0.023266650975203362
-0.06310824781598806 -0.002279705796541193 0.021706692426601726
-0.06310478800760644 -0.0022849635915146833 0.0201403178382214
-0.06310047370384564 -0.0022902516978016815 0.01856590764025179
-0.06309613938457148 -0.002295564337464468 0.016984193202302655
-0.06309262733167015 -0.0023008956230330152 0.015395929313083645
-0.06308825453602496 -0.002306257816146761 0.013799459165815486
-0.06308386131139082 -0.00231164506061822 0.012195530550672906
-0.06307944751427108 -0.00231705753241268 0.010584091078021884
-0.06307586337191617 -0.0023224892362998938 0.008965918255520622
-0.06307141000621891 -0.002327952668186934 0.007339304212819253
-0.06306693563894589 -0.0023334418650762133 0.005705019219756413
-0.06306329655426285 -0.0023389507489939027 0.00406385828106115
-0.06305878177679697 -0.002344491995984921 0.002414074136356914
-0.007031094242913816 -0.0034098354839401826 0.09047304557502414
-0.008098191477500405 -0.00340677787432207 0.0898101985514716
-0.009838830025552359 -0.003397576208653732 0.08956813835603508
-0.011581613710890115 -0.0033883190050594185 0.08933458109908349
-0.013326363306181033 -0.0033790075753823883 0.08910947914461867
-0.01503222181489855 -0.0033700157647235645 0.08886707920274417
-0.016736539604287393 -0.0033610027348108633 0.08863074086440989
-0.018455073775561825 -0.003351823489750417 0.08841055896291442
-0.020171649396322766 -0.0033426260508636124 0.08819633415539557
-0.021891688259950692 -0.0033333602651671058 0.08799159209613824
-0.023598571429461035 -0.0033241794288877326 0.08778561218049802
-0.02529155434706193 -0.0033150909478637954 0.08757780699376302
-0.02697620314959931 -0.0033060436892975212 0.0873717252814131
-0.02861602255293344 -0.003297377450008864 0.08714319579131072
-0.030252578208879943 -0.0032887070160136397 0.08691939118657097
-0.03185858032051214 -0.003280287281381931 0.08668207645140638
-0.03343369095126125 -0.00327212291749406 0.08643072409865038
-0.03498971365161069 -0.003264104761485262 0.08617300509416337
-0.036532964602587426 -0.0032561743394806143 0.08591303616365437
-0.038065315294516566 -0.003248314559482013 0.08565199052652864
-0.03956905843359926 -0.00324069292920574 0.0853776146598966
-0.041064918038601295 -0.0032331149559165903 0.08510394049192316
-0.04252363270133164 -0.0032258581258649793 0.08481058384113277
-0.043979143979369084 -0.003218602184860981 0.0845208677969016
-0.045425640774054254 -0.0032114024166743404 0.08423070895387652
-0.046864858831373646 -0.003204242620395267 0.08394126486049347
-0.04829522433533284 -0.003197138073705623 0.08365136883248725
-0.04971196006931722 -0.003190134839570491 0.08335754149505126
-0.051119278583048766 -0.0031831931411140935 0.08306268340123524
-0.052522087568370235 -0.003176266193179622 0.08277026224347422
-0.05392119181539884 -0.0031693463366946504 0.08248084408157219
-0.055309468988644195 -0.003162502347800282 0.08218922140985149
-0.056691763300246945 -0.0031556878534764153 0.0818988555030375
-0.05806264856687654 -0.0031489556187815253 0.08160570578918772
-0.05940209495223503 -0.0031425006561089435 0.08129480956485469
-0.06072449419117759 -0.0031361846579815163 0.08097655696146325
-0.06203315703575313 -0.003129976212141931 0.08065325758411465
-0.06331607652503646 -0.0031239933195686296 0.08031572292521805
-0.06458652571991397 -0.003118107430734786 0.07997373317349549
-0.06583035528971998 -0.0031124579983595538 0.07961638125642465
-0.06705470708686473 -0.003106976289639797 0.0792488427903223
-0.06826581628837569 -0.003101601925656848 0.07887571039407326
-0.06942903696271718 -0.0030966777102740127 0.07847001004262635
-0.07058709599979912 -0.003091783691685801 0.07806444792330797
-0.07172097233914143 -0.003087108690216302 0.07764409216359511
-0.07283756510029094 -0.0030825855421457086 0.07721409520185304
-0.07393927722860588 -0.00307819128837843 0.07677616522465056
-0.07500895986459993 -0.0030740979084174194 0.07631649271439708
-0.07604632223796587 -0.0030703102448147983 0.07583445988747728
-0.07699593158103663 -0.0030673858851709727 0.07528509505287848
-0.07778102205174148 -0.003066101504819103 0.07460522276902207
-0.07801916516040941 -0.0030703174371117044 0.07348188518984958
-0.06099474805887939 -0.0032487010139005353 0.058248802872089056
-0.06269595176366999 -0.0032385390349435137 0.058244969002201274
-0.06269098185557692 -0.003245620012660038 0.056840838177985686
-0.0626867851152299 -0.003252723950958371 0.05543121372730786
-0.06268177326043056 -0.00325986716279777 0.05401474004854012
-0.06267673934444923 -0.003267041817684686 0.052592031324454114
-0.06267248346390059 -0.0032742399445434825 0.05116372133837266
-0.06266740676806448 -0.003281478075365124 0.04972842346737988
-0.06266311138718234 -0.003288740026988593 0.04828745096258524
-0.06265799134904926 -0.0032960424798676212 0.04683939612434568
-0.06265284852287606 -0.0033033774342440016 0.04538489633512227
-0.06264849197943101 -0.0033107367450869543 0.04392460932340392
-0.06264330494040105 -0.003318137319380977 0.04245709515809787
-0.06263890753139206 -0.0033255626156179787 0.040983717002870124
-0.0626336756916056 -0.0033330296943577687 0.039503013023699296
-0.06262923685681737 -0.0033405218674461734 0.038016366874351504
-0.06262395961783318 -0.0033480563511290016 0.03652229447611871
-0.06261865851965698 -0.0033556248994133504 0.03502146713840387
-0.06261415553944283 -0.0033632191141110485 0.03351457762036325
-0.06260880811559455 -0.0033708564490855346 0.03200010781677903
-0.06260343635022281 -0.003378528549348724 0.030478744118850043
-0.06259804007674413 -0.0033862356528204683 0.02895043934749647
-0.06259344883688067 -0.00339396921134195 0.027415907110823534
-0.06258800495686495 -0.0034017470033936075 0.025873582671759154
-0.06258253606864578 -0.003409560525290869 0.024324173058114018
-0.06257787747824545 -0.003417401113784182 0.022768407926688994
-0.06257235999616007 -0.0034252867967989684 0.02120468659169561
-0.06256681699195515 -0.0034332089565489187 0.019633731964498746
-0.06256124828813608 -0.0034411678467159124 0.01805549374028792
-0.06255649700361743 -0.0034491546469697858 0.01647072354469825
-0.06255087834032824 -0.0034571877261482665 0.014877771406740348
-0.06254523344426877 -0.003465258310749809 0.013277381978171188
-0.06254041138944111 -0.003473357459855845 0.01167032380071531
-0.06253471548064393 -0.0034815038043780684 0.010054908894352066
-0.06252899279094376 -0.0034896884512869816 0.00843189864915167
-0.06252324313101848 -0.0034979116713537025 0.006801239371373946
-0.0625183236485079 -0.0035061643590182418 0.005163722766437173
-0.06251252151837616 -0.0035144655035139116 0.0035176087235805897
-0.06250669184901841 -0.0035228060486348417 0.0018636815504837756
-0.006929341158054603 -0.004547677700109612 0.09041055234214049
-0.007863194666619333 -0.004545217589447557 0.08966504537921033
-0.009549372305268478 -0.004533615360874621 0.08938832399497729
-0.011287561478053543 -0.004521335172606837 0.08915087060620547
-0.013023042114545913 -0.004509039894374845 0.08891889880328288
-0.014729208929248339 -0.004497054302092088 0.08867561041673999
-0.01641786174095916 -0.004485235856974302 0.08842823106356285
