# .PCD v0.7 - Point Cloud Data file format
VERSION 0.7
FIELDS x y z
SIZE 4 4 4
TYPE F F F
COUNT 1 1 1
WIDTH 771
HEIGHT 1
VIEWPOINT 0 0 0 1 0 0 0
POINTS 771
DATA ascii
0.0027676353453215253 0.04894907009631183 0.009507335626736002
0.0027733273070665843 0.04894613891811567 0.007803659120022899
0.002778963187233269 0.04893083187818065 0.006101985143734612
0.0027849148862975903 0.04896089053409802 0.004360041121860947
0.0022459842244594978 -0.07072781109699483 0.022698619152814514
0.0022270145781461887 -0.0740812073402104 0.0243684106203923
0.0022152656587846667 -0.07642304052666082 0.02508691235020538
0.0022078939737430444 -0.07815290651319884 0.02522725284132149
0.0022101947953867477 -0.07854554839041883 0.02407206725830635
0.0022218785472830683 -0.07765009122423688 0.02164930680507532
0.002228167351445729 -0.07750188507034284 0.019947472563166035
0.002233994855423699 -0.07742082527308719 0.018303406295173297
0.0022399907231019337 -0.07732053396325506 0.016631969187802076
0.0022462729042982132 -0.07718511423459257 0.014916874947905445
0.002252462678367065 -0.07706628443610958 0.013209611511242447
0.0022583480868552577 -0.07699267803767962 0.011539366607437596
0.002264240863040195 -0.07692185867502693 0.009863599519408628
0.002269038546896165 -0.07700251956349957 0.008334408240245228
0.002273412915492714 -0.0771432197954024 0.006860108686221444
0.0022788259054118505 -0.0771473230892642 0.005238363910735788
0.004215866982364007 0.08275060580796434 0.036963521328471305
0.0042009631829693994 0.08020391147012451 0.0368963218520349
0.004186070802172232 0.07766486042706705 0.03683595748579033
0.004171177440131035 0.07513208336365385 0.036783265556633415
0.0041558757189510635 0.07256092257004954 0.03676614731295724
0.004141065228810648 0.07005006434094507 0.03672307473638664
0.004126424878128077 0.06756413121375876 0.03667582642220424
0.004111887681947027 0.06509571373205297 0.03662891101507243
0.004097426936127239 0.0626418410650389 0.0365841056825888
0.004083143861837222 0.06021345188788968 0.036534290191922
0.004069275829641674 0.05783614831734768 0.036462707731025557
0.004055338564055769 0.05545730175225466 0.03640307302994639
0.004040674151579212 0.05300596140180713 0.03640184227951859
0.004026399869269684 0.05060292038442227 0.03638048478515016
0.004022001468156409 0.04926746824033107 0.03566481989467202
0.00402665962607902 0.04890537066221451 0.034305697315216654
0.004034716322389227 0.048905099718364764 0.03270102301253658
0.004043179445258748 0.048944798264483114 0.03106304969938045
0.00405118975562592 0.048932589383160585 0.02945338527028285
0.004059646757750775 0.04896448032235412 0.027807326051767833
0.004067899256102323 0.048971029809814215 0.026171789442078097
0.004076172698059571 0.04897626252808879 0.024530513011642052
0.004084581688577001 0.04899228645348891 0.02287510489778871
0.004093281087389854 0.04903536034820616 0.021194103911113316
0.004101799395455927 0.04905563048396522 0.019521987540020103
0.004109915027166657 0.04902991921937244 0.017875258673992367
0.004118166344649344 0.04901496501054642 0.016214330101187835
0.004126606757111983 0.049016272361747826 0.014535126317807068
0.004135316667484564 0.049042120349271245 0.01283150309514447
0.004143984812468737 0.04905988115784393 0.011126558798974617
0.004152307865666876 0.04903801959908122 0.009443113441174655
0.004160836120107568 0.04903389925060525 0.00773994896869179
0.004169266855289591 0.049016018945634676 0.006039805285014188
0.0041783044820567945 0.049057284673565404 0.004289297174823403
0.0033869531585558883 -0.06761001716072057 0.022834489616854747
0.0033597535461570094 -0.07086286809675196 0.024374223308332554
0.003339977084262418 -0.07341595857082 0.02526970747939694
0.003324710642127603 -0.07554347477621876 0.025774279168167602
0.0033113640499942963 -0.07748730704778467 0.026115452044419674
0.0033043934387289573 -0.07883848324394288 0.025893259016020298
0.0033151915700489437 -0.07855478961765561 0.02408109132255798
0.003329372306628084 -0.07796578928846665 0.0219591868668092
0.0033382502761323952 -0.0778675999438263 0.020308310671749208
0.0033470389639432153 -0.07778135727988883 0.01866097587558302
0.0033563294909485794 -0.077653221937999 0.01696363426331904
0.003365723592369423 -0.07751966649726383 0.015252127025339568
0.0033750574469501903 -0.07739559228673032 0.013541317608635084
0.0033839189580666135 -0.07731818948944935 0.011868946368522038
0.003392642706381269 -0.07725700007883801 0.010204685836346816
0.0034001850656088938 -0.07730576973440578 0.008644634321387512
0.0034069815510104485 -0.07742467446348217 0.0071495269055352195
0.003413458537411621 -0.07757508144709013 0.005680499244086812
0.0034241861563165917 -0.077348814566078 0.0038139343313695617
0.0056214995173372515 0.08277907183949207 0.03694613817699083
0.005601715134387384 0.08023954610493822 0.03687443629565801
0.005581837748943687 0.07769870258733191 0.036815053817118304
0.005561941618064439 0.07516270331464925 0.03676424410747875
0.005541624459564673 0.07259848252702611 0.036742681562931645
0.005521943677712471 0.07009301083581526 0.036696090946629734
0.005502194309837602 0.06758824746935549 0.036660587767158914
0.005482706106419222 0.0651111779149618 0.03661908401403824
0.005463645826908482 0.06267527968884917 0.03656273612861061
0.0054444462206191925 0.06023416410921584 0.036520978826576456
0.005426021170995919 0.05786215477347528 0.03644589950664079
0.0054073690370813506 0.05547765218206302 0.036389846226267286
0.005387864506195173 0.05303015780050796 0.036386027298147605
0.005368698078368596 0.05061624118837399 0.036371729283377674
0.005363491521318945 0.049333802743521615 0.035620975023014034
0.005369984797160003 0.048994291963115055 0.03424659425561294
0.0053808805890620225 0.04900617026698312 0.03263346921392424
0.0053919704038107065 0.049030093557281385 0.031005721616256365
0.005402671741874697 0.049019386890598704 0.02939472243231489
0.005413935509922049 0.049050126982203845 0.027749118945885554
0.005424993728937924 0.04906087565654205 0.026110389255872057
0.005436046487348753 0.049067636246358015 0.024467722289429894
0.0054471783310524125 0.04907711801770598 0.02281648695271432
0.005458696838633246 0.049113632198453605 0.0211397195376426
0.005469853257386346 0.049117837950251486 0.0194785262130463
0.0054809178558569574 0.049111218687685754 0.017818145449125355
0.005491871983291364 0.049092351187226435 0.016159666594482647
0.00550328586554922 0.049106063908338216 0.014471351191788162
0.005514816898801368 0.04912528836860114 0.012772107983163694
0.0055263264541114 0.04913912724138325 0.011069654199847678
0.005537533207850968 0.049125636446329224 0.00937985344255654
0.005548926449076478 0.04912306734538746 0.0076752168436948764
0.005560207454212643 0.04910811371984092 0.005972583343701099
0.005572191700218405 0.04914407618807448 0.004225600622941084
0.004539538772970606 -0.06450262785211253 0.023012901166375443
0.004503114549228415 -0.06778199309807798 0.02454464458136074
0.004476882866028483 -0.07033776156474214 0.02541648642043487
0.0044571302721549255 -0.07243361342324584 0.02586878690311384
0.004438148481033348 -0.07446952851914745 0.026277398248507944
0.00442136252358009 -0.0763470352401161 0.026546846726337947
0.004405802382538144 -0.07813431878138805 0.026740743959015212
0.004398705349460965 -0.07933230201077796 0.026372981172776366
0.0044209263283926745 -0.07850857787099108 0.02403596552266213
0.004433779756882969 -0.07833572751573165 0.02232230749912062
0.004445633553406525 -0.07823554160656576 0.020671345875615144
0.004457516794450751 -0.07813715148819617 0.01901384658713312
0.0044699667239096645 -0.07800391129755063 0.017313245375678077
0.004482474896954974 -0.07787070741261548 0.015603902246335899
0.004494729568389709 -0.07775874036107694 0.01390711037758996
0.0045066562699156085 -0.07767293354527416 0.0122281240887811
0.004518202514598747 -0.0776166766812521 0.010570742570045477
0.00452852866326754 -0.07764640640431625 0.008993106933567363
0.0045380770938307086 -0.07773177438818757 0.007465315995003885
0.004546979618741326 -0.0778635594529169 0.005978673007234037
0.004556059666960632 -0.07798632024673136 0.004476271711884194
0.007027303875229045 0.08280754135067786 0.03692875290061193
0.00700243570131343 0.08025885048804937 0.036862580213306906
0.006977631476244328 0.07772077624028506 0.03680141933503733
0.006952803190934644 0.07518749389191504 0.03674884392917521
0.0069274039995526554 0.07262304430914285 0.03672733648040949
0.006902516835283656 0.07009873765030644 0.03669249272147368
0.006878002739550419 0.06760527226292123 0.03664983008733064
0.006853361132672859 0.065109772036061 0.03661997740578704
0.006829471879947918 0.06266970623643647 0.036566297943619874
0.006806087851900284 0.060268688780083735 0.03649879045285642
0.00678277917080839 0.05787858148460534 0.03643528276419716
0.006759483184218632 0.05549529074927012 0.036378382003259435
0.006735225153047149 0.053055701357133944 0.03636933180237634
0.006711243698400186 0.05064022069801655 0.03635596802452723
0.006705475667380808 0.04940546687681047 0.03557360744542776
0.006713883819081675 0.04908457789180254 0.03418658417287068
0.006727633567684334 0.04910462652472486 0.032567662761910976
0.0067413773388956735 0.04912075672178573 0.030944785716273127
0.006754905837304944 0.0491195812157465 0.029327005240486093
0.006768908189677049 0.0491451809900762 0.02768451842660702
0.006782631756637345 0.04914941706766923 0.02604988051419793
0.006796559098434522 0.04916308241640849 0.024402133036159124
0.006810713618259925 0.04918758361915143 0.022740156089103625
0.006824777965076171 0.049202734669919646 0.021077809897458444
0.006838814881244778 0.04921253586215191 0.019412365394119835
0.006852694689725418 0.04920881844593028 0.017749581200733222
0.006866436705562773 0.049192858819250396 0.016088670715725395
0.006880624015263756 0.04920133816056316 0.014403681932567969
0.006894957120645182 0.04921530950841285 0.012707818659901726
0.006909481186160696 0.049237542138941326 0.010998984962409752
0.006923474073221503 0.0492228779735529 0.009309644355252
0.006937545782960957 0.04920952693739944 0.0076124509728868195
0.006951785419260498 0.04920299863879268 0.005903324816186883
0.006966683443286769 0.049233659541763564 0.004159855131940948
0.005705709940479053 -0.06127941593239694 0.02311608096468787
0.005660000844670392 -0.06458457019362762 0.02463845510121243
0.00562768962523502 -0.06712591555700226 0.025470328533222064
0.005600795173519233 -0.06935559282948012 0.02602644037636831
0.005577515235743168 -0.07137639274777818 0.02639962193369777
0.005555939557808184 -0.07329619995163611 0.026689537664510987
0.005535638090845247 -0.07513959030479223 0.026918281255089715
0.0055172953295545245 -0.07686907281577299 0.02704874958644421
0.005499544414010595 -0.07856107385868061 0.0271531731090362
0.005491705534805392 -0.0797010432817683 0.02673119631097004
0.00552054396519267 -0.07881792898229156 0.024338047078839353
0.005535287432208576 -0.07871710700121948 0.02269665853860303
0.005550250869923334 -0.07860801106858689 0.02103884850109089
0.005565493926047879 -0.0784874621952002 0.019361278854319874
0.005580649858247893 -0.07837558861947963 0.017683779919766718
0.005596089247746594 -0.07825217441958682 0.015986167204099455
0.005611455743509023 -0.07813669043215615 0.014287812941621236
0.005626240235597005 -0.0780567044132402 0.012616691404271074
0.0056407241267287635 -0.07799677488256984 0.01095758315162687
0.005653965476595727 -0.07800760078916591 0.00936261016651746
0.005666387140300723 -0.0780659455030907 0.0078089422339333026
0.005678081199985059 -0.07816654901154019 0.006291846057047967
0.005689230907301042 -0.07829931549029534 0.004801458539275716
0.005703132990063666 -0.07828788159804906 0.0031540696537006863
0.008433280087546506 0.08283601434216037 0.03691136549894475
0.00840327301075344 0.08027815648007713 0.03685072314281512
0.008373371732852413 0.07773254972008409 0.03679414707703399
0.00834362938254326 0.07520207783761113 0.036739784222267924
0.00831314841621875 0.07263749365335254 0.036718309188406184
0.00828333427553271 0.07011591896234348 0.03668169750027678
0.008253837169951914 0.06761804170235769 0.03664176129398439
0.008224317172749357 0.06512523718929086 0.03661014978814442
0.008195981200940405 0.06270314904204038 0.03654492571719126
0.008167738021001954 0.060292168628449994 0.03648370038429549
0.008139739371424598 0.05790048567031708 0.03642112587689961
0.008111630812339655 0.05550885984352816 0.03636956274255865
0.008082668899827634 0.05307721404188653 0.03635527092030838
0.008054036785613379 0.05066953258938267 0.03633670189631594
0.008048028299159092 0.04948379374137274 0.03552183602695136
0.008058641939418633 0.04919084495738796 0.03411595195485767
0.008074975643763731 0.049201796271844844 0.03250271619124445
0.008091325745596276 0.04921012382699558 0.03088472091471195
0.008107742192695241 0.049218485173600945 0.02926016015443178
0.008124477176586665 0.04924027683007698 0.027619889477415005
0.008140952712578363 0.0492447066854681 0.025984760083043512
0.008157774445003438 0.049263951643513215 0.024332817135056972
0.008174716822558645 0.04928597248037703 0.02267217015820061
0.008191729719725083 0.049308084975016986 0.021004611035804532
0.00820832521301121 0.04930456786974918 0.019348067112691214
0.008225142924784214 0.04930917526009981 0.017679080108739476
0.00824164100995786 0.04929341321726943 0.016017641802731297
0.008258595658601646 0.04929801639918341 0.014335015481377222
0.008275829214553474 0.04931355717201236 0.012637654298307377
0.008293187316659149 0.04933189848588704 0.010931230067048103
0.008309933435464588 0.04931468124702165 0.009243361726566146
0.008326853117383183 0.04930288723377124 0.007544675493448283
0.0083438949549125 0.04929379712520765 0.005837049062999811
0.008361753431999984 0.049323280042450734 0.004094082378647779
0.00688304044209595 -0.05810409124263405 0.023297128801919698
0.006828464188651586 -0.06141193877771278 0.0247889461782132
0.00678887010085402 -0.06400406044014478 0.025642013329903957
0.006757788685952368 -0.06618858853425386 0.026133256064424792
0.006729978268720633 -0.06821344929399165 0.026489101717217522
0.006703372719293249 -0.07017612019327135 0.026799098106978836
0.006679307406811804 -0.07201480990604953 0.027003927476246803
0.006655786018231934 -0.07382307496109991 0.02719085904033347
0.006633889922815272 -0.07555097025862595 0.02731174709258216
0.0066136888236328125 -0.07719579498776491 0.027362870255586758
0.006593792815648713 -0.07882221620913044 0.027405549058055423
0.006582930707274265 -0.08002856961739285 0.027049373040313962
0.006616242714645317 -0.07920411852030779 0.02471516140738611
0.0066339738628630905 -0.07910060941626518 0.023073093384155197
0.006652053490658516 -0.07898497190242693 0.021410782606469725
0.006670537446094327 -0.07885477138189756 0.019725569927762032
0.006688800124944855 -0.07873859748707723 0.01804567266199092
0.0067070086357056795 -0.07862879498496056 0.016363575582502843
0.0067251785264724785 -0.07852464249120766 0.014678590334995911
0.0067429788010611395 -0.07844107873136236 0.01300586971196177
0.0067604725360457816 -0.07837514249406358 0.011342662445278873
0.006776620504967401 -0.07837345457728723 0.00973687998678091
0.006791930625405219 -0.07841280300312276 0.00816561380985631
0.0068064616946777925 -0.07849028780641021 0.006626465725769248
0.006820380702639461 -0.07859820510216103 0.0051119903017273205
0.006833359111072335 -0.07875098710856138 0.0036376992316306533
0.009839048334934932 0.08284650526909915 0.03690495907829672
0.00980403850472225 0.08028855268074325 0.036844338157056955
0.0097689960957179 0.07773549318406475 0.03679232895445206
0.009734389193192292 0.07520937015860713 0.03673525415254103
0.009698642396089712 0.07263604867771228 0.036719211943358476
0.00966404267079157 0.07012307822692992 0.03667719924981422
0.00962971925606589 0.06762939292275694 0.03663458864932101
0.009595397944841683 0.06514210948296573 0.03659942797708149
0.009562456418139579 0.06272544703415167 0.03653067578427743
0.009529146451529523 0.06029769366014909 0.03648014954760187
0.009496539522404562 0.057908700301089855 0.03641581668149868
0.009463920692772744 0.05552514386513768 0.03635897890924589
0.009430303752969387 0.05310141834946802 0.03633945076962264
0.009397155773922689 0.05070551169033499 0.03631305354271036
0.009390923200763446 0.049555507610203164 0.03547443557584784
0.0094037435827281 0.04928254229222512 0.03405500375694004
0.009422952825705712 0.04930034172354825 0.032436850123536975
0.009441949202883779 0.04930486662873845 0.030821043037122964
0.009461168666553665 0.04931609696009753 0.029194188393444342
0.00948064286437886 0.049335414529821764 0.027555232079541414
0.009499843285314193 0.04933869534217583 0.025920528721959157
0.00951953644476018 0.04936083040849781 0.024266243422882083
0.009539489947949908 0.04939114981877857 0.02259949344284834
0.009559945613676674 0.049440520997786896 0.020912592639656724
0.009578268875789595 0.04938986779941573 0.019288472206237084
0.009597927411226302 0.04939600793161503 0.01761807978491281
0.009617485342974878 0.049394014413931375 0.015946579832438912
0.009637032044302203 0.04938792510715828 0.014271157140597568
0.009657085245391895 0.0494009259313376 0.012575259193968513
0.009677467044944892 0.0494249276604119 0.010864428180481445
0.009697012600517928 0.04940789460023559 0.009176061010086278
0.009716699009090895 0.049393540216185305 0.007478865405172841
0.009736620497652875 0.04938601037444479 0.0057697406442330235
0.009757433156069736 0.049414317352476755 0.004027269824746715
0.008071156781030243 -0.05496516333407214 0.023543783142526253
0.008010736964331668 -0.05815656384634932 0.024896801788317935
0.007964612135340629 -0.0607584648829983 0.025732387702384618
0.007928664331963976 -0.06294104709324444 0.026199164912553807
0.007894302728008213 -0.06505313794123896 0.02661458013856416
0.007864219355452664 -0.06698699111687739 0.026877295530376932
0.007836070594184289 -0.06883775181380558 0.027073932002710965
0.007808202360758818 -0.07067212098474057 0.027266162171907637
0.007782412504452226 -0.07241842195607595 0.027385973910479533
0.007757697520055151 -0.07411718602266171 0.02747070560617615
0.007733921227868512 -0.07577411934800793 0.027525178842284892
0.007711748354263564 -0.0773631337515504 0.027523754851001003
0.007690669090338657 -0.0789048306677087 0.027485390195850556
0.007674997707104868 -0.08022930534384576 0.027244378540508207
0.007690746447812149 -0.08031420475834056 0.025799161322130504
0.00772971869824666 -0.07949005088624461 0.023455357833743806
0.007750855715986884 -0.07937177427366593 0.021792427013501703
0.007772582699858487 -0.0792343209869073 0.020102000842209755
0.007793935253994556 -0.07911545797495523 0.018421374435605153
0.007815205738737821 -0.07900370900920783 0.01673927385004559
0.007836231216929352 -0.07890537492134736 0.015062095521144403
0.007856966419813321 -0.07882214089847062 0.013391694472691562
0.007877324674778858 -0.07875727474142702 0.011731573153876296
0.007896340937720889 -0.07874785922543842 0.01011989736945973
0.007914855181924566 -0.07876123460122691 0.008523904021789708
0.007932489333088355 -0.07881176169912707 0.006958744368885439
0.00794945831529068 -0.07889097548114254 0.0054161644789803565
0.007964840299047588 -0.07903387551406327 0.003933124781637154
0.007978970285937397 -0.07922726960703091 0.0024967572251694548
0.011244952251814815 0.08285999429804064 0.03689672182776227
0.011204795026327107 0.08029597882403089 0.03683977727749593
0.011164959257845688 0.07775168290814016 0.03678232886505717
0.011125122449936471 0.07521374566262895 0.03673253604148691
0.01108433849013752 0.07264327364767487 0.03671469811126887
0.011045143711714013 0.07014455737805425 0.03666370364557814
0.011005913239836138 0.06765067800239111 0.03662113896660152
0.010966960461566082 0.06517445159717017 0.036578875582453985
0.010929068361574859 0.06274774725734916 0.03651642442554781
0.010890894220737881 0.060315650964289536 0.036468608717081075
0.010853626145036566 0.0579264997178332 0.03640431274612693
0.010816311006378901 0.0555414290961444 0.0363483942898829
0.010777622931734454 0.053106797449375465 0.03633593494208642
0.010740101598541626 0.05072550265936304 0.03629991387295817
0.010734263507288172 0.04962724526474921 0.0354270194031876
0.010749416094487083 0.049374278543909134 0.03399402969227616
0.010771478425610971 0.04939626692490362 0.032372735385635676
0.01079329820275793 0.049404992173538886 0.030753747347444738
0.01081524002473804 0.04941509090151702 0.029127282491227757
0.010837506454648477 0.04943461671240679 0.02748781238149811
0.010859257442987342 0.04943003775425697 0.025858105790743657
0.010881875066030387 0.04945640616663333 0.024200565118518702
0.010904859269020439 0.0494936795401848 0.02252864621006001
0.010928658302194522 0.04955951230140415 0.020829915821934608
0.01094902761340729 0.04948603981806304 0.019221281500720666
0.010971607833758685 0.04949645169923955 0.017547517607744312
0.010993797253810741 0.049487860423581 0.01588028954394266
0.011016284928996157 0.04948741315318517 0.014200495002415658
0.011039108836247917 0.04949652595361148 0.012506985666787318
0.01106248265730613 0.04952347278491265 0.010793665430384791
0.011084549402024902 0.04949566153971896 0.009112692643786668
0.011107022002634442 0.0494801080802737 0.007416020933587231
0.011129869424384924 0.04947550859154404 0.005704413985371692
0.011153771954464388 0.04950815347658327 0.003958403212827366
0.009271352322184534 -0.05179757741887242 0.02379612313991042
0.009203727894713881 -0.054953006181888864 0.02508546595016481
0.009153114097847907 -0.05749258639509097 0.025838484061373235
0.00911159675104552 -0.05970124960347839 0.02630659865721685
0.009072879431183744 -0.061804108358373466 0.026691714807430433
0.00903743306872152 -0.06378520251021985 0.0269776864676472
0.00900506894055689 -0.06565197177335097 0.027169740180036317
0.008973811196001307 -0.06747463627161077 0.027331736996873357
0.008944554717047717 -0.06922206771191913 0.02743394909263136
0.008916034197036614 -0.07093903734722179 0.027517506612079135
0.008888779878927397 -0.07260720536837406 0.02756467033321036
0.008863174761526944 -0.07421353263023073 0.027562379367494783
0.00883825307043553 -0.07579198835808004 0.02754226972128293
0.008812848925297588 -0.07738317127307459 0.027543019535827107
0.008790684524465789 -0.07885817431328335 0.02744030006893089
0.008769093310887757 -0.08030982896252103 0.027322603522252575
0.00877050154900513 -0.080965912164433 0.026435554017075036
0.008821857339999857 -0.07990603965356213 0.023863680340286464
0.008846776089195232 -0.07976066402096049 0.022176130961674645
0.008871475726025875 -0.07962678617399982 0.020491241213734745
0.00889601931721187 -0.07950220154618809 0.018806928905547693
0.008920380355276048 -0.07938777479259024 0.01712414302032772
0.00894450893955683 -0.07928515643327133 0.015444642863835123
0.008968170096874775 -0.07920225076158904 0.013776555027339654
0.008991332231065722 -0.07914001296968415 0.012121100592572764
0.009013359025544253 -0.07911977738926446 0.010500371069192826
0.009034746638119415 -0.07912458131722971 0.008897531363828426
0.009055649416521485 -0.07914909135890319 0.0073074116920262555
0.009075117319108589 -0.07922499409757439 0.005763193567762559
0.009093154853522379 -0.07935179312819668 0.004265131976649239
0.009097083489967664 -0.07995153081267897 0.0032570223452729197
0.012651222502302384 0.08288397672275738 0.036882076648952766
0.01260600056769046 0.08031825868226755 0.036826093761555434
0.012560900150175086 0.07776345796755263 0.036775055631356246
0.012515722919996274 0.07521228715203354 0.03673344208425411
0.012469920346301244 0.07264471866918099 0.036713795327661725
0.012425629615262746 0.07013882940535304 0.03666730259845119
0.01238212025848949 0.06766770751383933 0.036610378305622915
0.0123388371051424 0.06521101786946354 0.03655563886844454
0.01229585550037402 0.06277144368947735 0.036501280794388635
0.012252905033912022 0.06033913578796268 0.03645351545098152
0.012210860256212583 0.05794566992766459 0.036391922853910574
0.012168764106217802 0.055556358287108365 0.036338691031532755
0.012125087509748663 0.05311621119349402 0.036329782035213476
0.012083059835116755 0.05074149676146128 0.03628940126502711
0.012078272036343785 0.04970698168101634 0.03537431631852511
0.012095436600862252 0.04945807173911654 0.033938335115604734
0.012120415789480586 0.04948556889869249 0.03231304749796238
0.012145085722728842 0.04949848453387873 0.030690909907895747
0.012169931617337329 0.04951413018726175 0.029060345942661048
0.012194803738492146 0.04952715706654287 0.027424920189309476
0.012219208142277994 0.04952007465102243 0.02579657504193167
0.012244587317598591 0.04954394215543506 0.024140411629522907
0.012271105990531696 0.049604358258325265 0.02245216808448569
0.01229739364336486 0.04965285811067954 0.0207650578514445
0.01232062784123418 0.04959038741554922 0.019148378916448827
0.012345694001405144 0.049588792527471726 0.017482647780220906
0.01237086236306966 0.04958719113659543 0.015810125009010967
0.012396055396220537 0.04958285565547793 0.014132706242310555
0.012421704397256957 0.04959080163928037 0.012439657925276959
0.012447853799815884 0.04961247571637917 0.010729754686660653
0.012472728677865487 0.049586208517998054 0.009047317069331318
0.01249802095075611 0.04957083540755536 0.007350156874199432
0.01252369520924198 0.049565043864312874 0.005639060278786356
0.012550716878563125 0.04960203033327737 0.003889506707140278
0.010495191431295124 -0.04823681897416254 0.023730435267036554
0.010410747695099701 -0.051674028526354054 0.025239296308704473
0.010353376012007075 -0.05423947334798074 0.025990109627422542
0.010306429774410479 -0.056466396275916764 0.026452342133228335
0.01026443351676444 -0.058530128362733524 0.026780490385210465
0.010225516261090604 -0.060490744274494634 0.02702715111267523
0.010186101343630868 -0.06246146280090331 0.027294805582816273
0.010151625830397503 -0.06427145893469993 0.027426136006852564
0.010119700242018113 -0.06599664758340601 0.027489278300201814
0.010088570114361291 -0.06769241289003636 0.027534685236767276
0.010056010508157168 -0.06942830941504075 0.027627150930344957
0.010027417874949726 -0.07103612942732324 0.027608934332325807
0.009999114508919204 -0.0726308858216661 0.027587085503274378
0.009972184232859293 -0.07417907408216107 0.027529592071804443
0.00994429197055847 -0.0757531400315985 0.027505113099595857
0.009915330041903408 -0.07735619707428198 0.027517085717737422
0.009892057709418159 -0.0787801267794036 0.027364872546747743
0.009864883483983095 -0.08032046095573003 0.02733293201330106
0.009855290415095929 -0.08131869524547253 0.026780046919219147
0.009910531936406723 -0.08033538513485966 0.02428511340980577
0.009938611655261045 -0.0801876000153694 0.022597373814723543
0.009967128841787729 -0.08003052722740073 0.020891664799810916
0.009995174946371919 -0.07989181470283208 0.019195344137929338
0.010022638433512848 -0.07977473615311209 0.017511913824703296
0.010049713853565767 -0.0796732942747948 0.01583560739267781
0.01007652278927672 -0.07958374464806667 0.014162816903156572
0.010102618530329243 -0.0795194502436723 0.012507268522950699
0.010127649758361414 -0.07949078746317179 0.010879915789476502
0.010151809292295548 -0.07949176309913675 0.009275102282118808
0.010175452377233782 -0.07951159422492238 0.007682098293879336
0.010197962643404588 -0.0795685110748619 0.006120090991273752
0.010219350867126253 -0.07966195103455387 0.004589035566518462
0.010224293222992906 -0.08024546531054083 0.003565568688190135
0.014057501852354312 0.08290346426099804 0.03687017633088807
0.014006891816670924 0.08032568577788035 0.03682153229710938
0.013956778637992434 0.07777081768531657 0.03677050967151052
0.013906757171969117 0.07522541408187222 0.03672528749156645
0.01385638983006339 0.07267506623759562 0.03669483554943975
0.013806778676026277 0.07015601375797126 0.036656505466821254
0.013758214661439006 0.06767764198987547 0.03660410087782062
0.013710507360276084 0.06523352315665387 0.0365413374674719
0.01366248888851114 0.0627853839440975 0.036492372023942066
0.013615569301080372 0.06037920387719092 0.03642776442379736
0.013567917438939227 0.05795525565767412 0.03638572750379826
0.013521476669593233 0.05557671791287899 0.036325458250919096
0.013472859528282763 0.053133694939338894 0.03631835450344517
0.013426075858529707 0.05075615905795239 0.03627976402666061
0.013422322456293427 0.04977212155963773 0.03533126105345796
0.01344239246103019 0.04955520606838448 0.03387377312658585
0.013470284185055748 0.04958691132009618 0.03224531198430408
0.01349741619451435 0.049590680862126035 0.030628943548486
0.013525076394903792 0.049607857760270324 0.028996999360589526
0.013552597957448733 0.04961705299909003 0.027363825196541014
0.01357985186852253 0.04961418310651222 0.02573226181098026
0.013608105620777368 0.049639598891235204 0.02407467767845778
0.013637456157831017 0.049696183582472575 0.022388717506189926
0.01366659157581747 0.049742183110788485 0.020702993595254904
0.013692675491670761 0.04968800475733509 0.0190801784340478
0.013720453189958078 0.04968389045674587 0.017415841077401073
0.013748430344783007 0.049682482625778845 0.01574281367278274
0.01377613088267365 0.049668789929742774 0.014071670773174616
0.013805033673247312 0.04968922009530258 0.012369371590896072
0.013833795182479434 0.0497015152828279 0.010665817636286545
0.013861621234531161 0.04968091181270218 0.00897894060429888
0.013889426988925103 0.0496560987895841 0.007288259399361341
0.013918408576805454 0.0496642646815309 0.005566636886584597
0.013948669099882176 0.049708381277462355 0.003811455431363686
0.01183239877420928 -0.03952256167634194 0.023895700996943547
0.011824265083937914 -0.040518735245410054 0.023194412343259474
0.011835155237445827 -0.040964038359417865 0.02201314506019386
0.011716989922925856 -0.04513239132600677 0.024104666579113365
0.011636446256970545 -0.04820305351062726 0.025256855567507508
0.011567650569342726 -0.050926088004790704 0.026121509323291436
0.01151612235418249 -0.05314565564427837 0.026554616296594558
0.011467338132256975 -0.05528017429021881 0.026925155129400635
0.011422667368242089 -0.05729112114816026 0.027197223965016615
0.011382730549742651 -0.059161635374174015 0.02735384897394888
0.011342836432789832 -0.06102580322603912 0.027515486316830762
0.011304741784181544 -0.06283387538384183 0.027636476040755864
0.011271378356500163 -0.0645033501894155 0.02763999750273749
0.011235465795250933 -0.06624040821652433 0.027715261128716917
0.01120420436779656 -0.06784201054275119 0.02767409680689009
0.011173659333600377 -0.06941948750274307 0.027618886793449926
0.011141660652942063 -0.07103374264168305 0.027606686791954105
0.01111114438748425 -0.07260246884413257 0.02756018688878148
0.011080766726781198 -0.07416340856344472 0.027514686336564065
0.011050722417064724 -0.0757111728026077 0.02746497339237819
0.01101872823640413 -0.07730917351720074 0.027471875834594928
0.01099374728497991 -0.07870893087624653 0.02729606664990797
0.010968108339566227 -0.08012364810777134 0.0271417374086384
0.010945686468204109 -0.08144643235896865 0.02690478229147708
0.010994964589757007 -0.08079546297004031 0.024736712466378985
0.0110276278374515 -0.08060646609017352 0.023010654359598204
0.011059365852098713 -0.0804469819405444 0.021304697579783705
0.011091118147556187 -0.08029118815742736 0.0195934896587579
0.011122147208216228 -0.08015917050949867 0.017897152338968825
0.011152069280936249 -0.0800612147036292 0.016226352925482357
0.011181780750034948 -0.07997281339939394 0.014556748316047585
0.011210787911348497 -0.07990727465625624 0.01290197236736601
0.011238615991637875 -0.0798772689613409 0.011275287835773196
0.011265885339250608 -0.0798658758446868 0.009659800270531593
0.011292178195419982 -0.07988420227881554 0.00806722971937529
0.011317245419566779 -0.07993873211464925 0.00650473263627499
0.01134139368513174 -0.08002103579551317 0.004964034367961612
0.011353240982869548 -0.08043429080604031 0.0037637809310867576
0.011362039295223876 -0.0809301348194637 0.0026472475078015423
0.01546374957979059 0.08291845578439272 0.03686102156262194
0.015408272559710187 0.08034648291231866 0.036808759418683445
0.015353241217256088 0.07779437036205455 0.03675596162413358
0.01529806590229321 0.07524437653055055 0.03671350781061805
0.015242512220821595 0.07268951888148362 0.036685806195947746
0.015187744511384898 0.07016460642303946 0.036651106593913185
0.015134417390653198 0.06768899621307628 0.03659692633573752
0.015082031378678548 0.06524759010881587 0.03653239836255712
0.015029113753381907 0.06279653677554292 0.03648524460641028
0.014977032884579777 0.0603764403282146 0.0364295405061158
0.014925219022422314 0.057970319789706515 0.03637599140941766
0.014873946558668718 0.05558621971849037 0.03631928253283345
0.014820191181569829 0.053135039900949144 0.03631747542457592
0.014770135858727917 0.0507988186480588 0.03625172471926258
0.014767095193352113 0.04984659115324375 0.035282039161123935
0.01479018108003451 0.04965904166301066 0.033804757027225796
0.014820282583829354 0.04967362344553605 0.03218735510626902
0.0148502774295697 0.04968157947467988 0.030567849400785774
0.014880900751326628 0.04970430565103129 0.028931814228492336
0.01491104919414387 0.0497096714562244 0.027300879924062937
0.014941041346414947 0.04970698724121331 0.02566883994609881
0.01497171405207277 0.049720468558108355 0.024019105191267764
0.015004105409318012 0.04977994065132618 0.02233084202897856
0.015037672294696741 0.04986946725556679 0.020614554795806206
0.015070302737580369 0.04992816809395478 0.018912388007543246
0.015096812726899162 0.04980758028780119 0.017328948441060588
0.015126510118681399 0.04977509170756722 0.015677397116745484
0.01515814108769206 0.04979434259961968 0.013982496038497827
0.015189232521713827 0.049794522730873536 0.012294168864150745
0.015220644575863512 0.049800186518398515 0.01059496432903484
0.015250880034716838 0.049768789622738285 0.008915492188656782
0.01528162457261907 0.04974827604449328 0.007221342756124516
0.015313371538295439 0.049752499182062204 0.005502232641418359
0.015346916735793694 0.04980372720409765 0.0037414807708563425
0.012963993300601367 -0.04012799596238731 0.025978975005347793
0.012953755271010595 -0.041155744837501895 0.025310167546875983
0.012950892915885213 -0.0419880745155759 0.02447368683746931
0.01286674324880605 -0.044955847811227856 0.02550690818112139
0.01279627382349487 -0.04755514529045124 0.026236302995991168
0.012738749641271387 -0.04980759095237042 0.026676017774131144
0.01268545587339199 -0.051942903608469815 0.027025577076373153
0.012636160074413016 -0.053967877914981977 0.0272895072033823
0.012587641533272183 -0.055966896085052176 0.027542158630894986
0.012545451490674493 -0.05779618499499867 0.027653391707817443
0.012505365250787302 -0.05956612746247969 0.027721095906612092
0.012466245718883795 -0.061306437245711276 0.02777161411526119
0.012428109312237142 -0.06301686109365795 0.027804356542472486
0.012392729511199142 -0.06465201049797592 0.027777099335259958
0.012357741223803058 -0.0662729899093486 0.027745466593020407
0.012323739916095006 -0.0678646399831368 0.027695185411944434
0.012292188410526622 -0.06938981015474638 0.027591085829412887
0.012257076988195025 -0.07100191534307432 0.027576716300536486
0.012223408990371795 -0.07257325708352497 0.027532535957702886
0.012190080039558286 -0.07413207275789108 0.027484870329217925
0.012156317354058598 -0.07569795852450661 0.027452334548527246
0.012122465975914841 -0.07726213548971966 0.027426652039168276
0.012092361330254056 -0.07872807283441391 0.027314566023334985
0.012072859715415005 -0.07992429500868775 0.02694807506716579
0.01203488835672918 -0.08158085513479868 0.02703604621723993
0.012039199475650802 -0.08217638664593735 0.026092187087298213
0.012113177661692546 -0.081035592470584 0.02343405839010848
0.012148758024917237 -0.08085847438138022 0.02171280886154403
0.012183806685364803 -0.08069870802089285 0.019999756541097036
0.012218312612697187 -0.08055647323592624 0.018295286141267908
0.012251733870425911 -0.0804450589160397 0.016612992556045092
0.012284270814788964 -0.08035933848581311 0.014948104272781426
0.012316539124653424 -0.08028402364883369 0.013285404330194539
0.012347581423621367 -0.08024254350000493 0.011648965081633156
0.012376963484896256 -0.08024530557769916 0.010049965686626305
0.012406005332149365 -0.08025980430583218 0.008455455745551232
0.012433671748455383 -0.08031118350855271 0.006891691510671594
0.012460460272554486 -0.0803871180248883 0.005346340754004086
0.012480846316262544 -0.08062131031483866 0.003960097409464236
0.012481364925760212 -0.08133809623679855 0.0030776999169196406
0.01687025065365804 0.08293794620712969 0.036849119483102155
0.01680967131928791 0.08036431051354398 0.036797810324530444
0.016749953583322503 0.07782087000151733 0.036739593293065975
0.01668938353058842 0.07526042290524387 0.036703539626789405
0.01662872253734991 0.07270397244214488 0.03667677626969762
0.016569391069283405 0.07019038637340114 0.036634908746740635
0.016511001433365192 0.06770886748028992 0.03658437001723408
0.016453796389282915 0.06526587846658977 0.0365207766873728
0.01639647357811692 0.06282581561319461 0.03646653343859535
0.016339345104562936 0.06039716778548254 0.03641621934890954
0.016282714478213566 0.05798812418179761 0.03636448425843053
0.0162263243911212 0.055591649506555485 0.03631575343092097
0.01616802971477595 0.05314983502590476 0.03630780519933091
0.016113024040603652 0.05080281841484241 0.03624909575142471
0.01611247934016593 0.04992507791802531 0.03523016205398999
0.016138120140777597 0.049749605682962106 0.03374456210638077
0.016170822278117555 0.049760370339082094 0.032129374989835924
0.016203707297898946 0.04977251629364887 0.030506729574053648
0.01623722918761176 0.049798115670455334 0.028868411924305615
0.016269930715269075 0.04979830013790365 0.027240646179188754
0.016302713536615367 0.0497971395091219 0.025607230353245303
0.016336137727076837 0.04980946011567028 0.023957951456080706
0.016370925988584674 0.04985426842114338 0.022279482123395533
0.016405298052481504 0.04988436710240973 0.02060420217436182
0.016440691132159686 0.049937671559221575 0.018905748399213163
0.016471940838398366 0.04987829194556487 0.01727927319847461
0.01650517990241035 0.04986774043892345 0.015611952553323483
0.016540014273998305 0.04989538350255507 0.013910730971935792
0.016573476528019094 0.04988345446763137 0.01223065754686875
0.016607758321574292 0.049889303374234306 0.010530971779115661
0.0166407560560718 0.04985807706629819 0.00885102600739579
0.01667446849760015 0.04984186924632189 0.007153398197541905
0.016708637297408915 0.049833872246940525 0.005442836704581899
0.016745459767540338 0.04989081888264524 0.003677563927689087
0.014103998760679092 -0.04030691676568232 0.02768435807898334
0.01409251196184839 -0.0413409105675967 0.027023941207179047
0.014093496893959341 -0.04207195729253432 0.02610368042472999
0.014041785365000508 -0.04407512115192602 0.026290765836390895
0.01397397031948306 -0.04646059664683477 0.02682391392790584
0.013912896275105837 -0.04867681179091138 0.027223190313094725
0.013859494306723626 -0.050702524746157496 0.027467558179815443
0.013808864353504448 -0.05265619843289737 0.02765977943014475
0.013762864744050356 -0.054493918820323506 0.027759675297470865
0.0137179960659104 -0.05629977574164524 0.027841243231441215
0.013675487578567486 -0.05804473942085764 0.027877883150071725
0.013634269868674794 -0.05975454485823928 0.02789216405022632
0.013594886000981504 -0.06141655253534578 0.027872113643937546
0.013556394963280753 -0.06305326767489422 0.027837757812603725
0.013518504678612485 -0.06467171194286403 0.027795268974645626
0.013481553561003404 -0.066264030611975 0.027737160709760678
0.013445114199009012 -0.06784039402981629 0.027672590362087746
0.01341051757415448 -0.06936975471259538 0.027572298415320162
0.01337251627444635 -0.07097485703315981 0.027551236574624438
0.013335849029221263 -0.0725448295524661 0.027505627353575757
0.013299348580715254 -0.07410699953498956 0.027461013166939385
0.013263013840098611 -0.07566141901728984 0.02741738620533596
0.013226143024130683 -0.07722434035973169 0.02739031464752517
0.013186855913474443 -0.07883904872053166 0.027421816511541797
0.013161531765153533 -0.0801282103745159 0.027146169440366186
0.01312259415190917 -0.08172722444779534 0.02717897594411478
0.013113830477451377 -0.08263088913342792 0.026538313544314684
0.013195584650048844 -0.08146502066644529 0.023857760211396073
0.013234456151123562 -0.08128560651111066 0.022136431323699746
0.013273389322339622 -0.0811089539743084 0.020408741131612673
0.013311335459399314 -0.08095887036538335 0.018698525003043587
0.013348309623988239 -0.08083485609515567 0.0170056285069205
0.013383849617811276 -0.08074719374719797 0.015340807029282255
0.013419201548801062 -0.0806675761800934 0.013675760516425273
0.013453083571872401 -0.080624786396021 0.012040001021765279
0.013485471976726355 -0.08061911987373321 0.010434356781115262
0.013517075718186326 -0.08063447670821444 0.008842720902371592
0.01354711251767762 -0.08068818909933051 0.007283381974008685
0.013576615095127068 -0.08075701311198097 0.005732628977288434
0.01360388106890578 -0.08087867296667528 0.004230253874953294
0.013604163459709152 -0.0816011165764387 0.0033552206187173472
0.018276987026174484 0.08296043718269663 0.03683538507706652
0.01821129469863476 0.08038511111551355 0.036785035316467096
0.018145956964968932 0.07782528690443813 0.03673686505484214
0.018080568371865273 0.07527063481971052 0.0366971958735996
0.01801519220684789 0.07272276344171591 0.03666503650921438
0.01795108135949764 0.07021330434726375 0.0366205091131912
0.017887988540963223 0.06773583843142883 0.036567327528237326
0.01782567333404241 0.0652841683166685 0.03650915406387578
0.017763568563418288 0.06284394253525122 0.03645494910302144
0.017701453688098442 0.06040960519006694 0.036408226056748094
0.01764010040721759 0.05800045114160607 0.03635651722495903
0.01757895333045355 0.055602509485979335 0.03630869496497452
0.017515689611116003 0.05315790551715127 0.036302530254480825
0.01745674173561415 0.050826818564353005 0.03623332092639603
0.01745808315139945 0.04999693821242457 0.035182664820518794
0.017486569754605576 0.04983887496625433 0.03368522775434396
0.01752206575642634 0.049851158170294674 0.03206869398087714
0.017557706158088632 0.04986349134312923 0.030445584052094243
0.017593709830772724 0.0498812385181131 0.028812232636587498
0.01762904067372755 0.04987890317641874 0.02718586681469848
0.01766462357681489 0.04987925111416475 0.025551115707739436
0.017701453689884933 0.04990658356795563 0.02389120959826585
0.017737939134501512 0.04992186127816023 0.022232775989698694
0.017775298435284977 0.04995481662911072 0.020555252860415263
0.017812256820816486 0.04997433169082888 0.018880135750735327
0.017848640033879426 0.049976238546180274 0.017210465291830623
0.01788489059616313 0.0499713359732919 0.015538775463686538
0.01792134525400263 0.049967779634496 0.01385931107091909
0.017958516619968036 0.049977898924014996 0.012163209276390863
0.017995158319919102 0.04997159766551207 0.010471878339459728
0.018031549132880673 0.0499556485363391 0.008780578698986241
0.0180677425765869 0.04993137118648072 0.007088423715447434
0.01810437014126525 0.049913895939824426 0.005384425703164442
0.01814543523061033 0.04999869524655143 0.0035983931418203108
0.015249099101424211 -0.040985040305595966 0.028265514623307675
0.01523535552805571 -0.04204662368458112 0.027631936487531372
0.015221555120064116 -0.04310811713615642 0.027001077283846375
0.015159518649099975 -0.04524302536109881 0.02730759707258762
0.01509894904671113 -0.04733918703977935 0.027592885180248383
0.015046231707007607 -0.049255174041697825 0.02773205669161144
0.014994356199701287 -0.0511473152568615 0.02786096120440934
0.014945235612273658 -0.05297348716821432 0.027941886149375095
0.014898663051757027 -0.05473865719761434 0.027978419078102224
0.014852845919109382 -0.05648261357604284 0.028005518757393155
0.01480966485065633 -0.05816421558223078 0.027985792617742478
0.014768845953502818 -0.05978984868485243 0.027924217142016705
0.01472817506822889 -0.06140821310699823 0.02786450245187566
0.014686208463789525 -0.06305078567115058 0.02783548069471209
0.014645499882904423 -0.06466186152523312 0.027786184436066452
0.014605767496280427 -0.06624773968182651 0.027722057899979613
0.014566959906244379 -0.06780967713291153 0.027643964974261914
0.014528915441911969 -0.06935130144034851 0.027555011872123725
0.014488333822853756 -0.07094381378050818 0.0275220043878589
0.014448382554769665 -0.07251876640847504 0.02748095680366025
0.014408833772267734 -0.07408113851023906 0.027436406411494085
0.014369355495486104 -0.07563809138421701 0.027395074406722064
0.014329839881397898 -0.07719193709638617 0.027359161161055523
0.014287269837984694 -0.07880691230948922 0.0273907589016944
0.01426283745083739 -0.0800323739030957 0.027053068728418284
0.014216499490904224 -0.08171968311260153 0.027171611825520192
0.014194294524878978 -0.0828921317980123 0.026794741765458374
0.01427455886486998 -0.0819007972553038 0.024287725770605506
0.01431708917165124 -0.08171153277607696 0.022558857829464263
0.014359619539889349 -0.08152647284500647 0.020824976277732443
0.014401526910263912 -0.0813586684696539 0.019099159403004662
0.014441880063992423 -0.08122748709632227 0.017401118917692138
0.014480650777933809 -0.08113328656832303 0.015731725318181122
0.01451885080168227 -0.08105478947883532 0.014069842406742306
0.014555797966942004 -0.08100606538721833 0.012430050883592447
0.014590984286736823 -0.08099744348204002 0.01082338477552569
0.014625173619551707 -0.08101288891438096 0.00923385155793105
0.01465770765722921 -0.08106581528747592 0.007675717207811905
0.01468981685541123 -0.08113068987338662 0.00612286647241328
0.014720197467687879 -0.08123417858230253 0.00460343211155434
0.01472806049953138 -0.08180120540120955 0.0035663403790685
0.014741056709204559 -0.08226427889791882 0.0024172469456318346
0.019684302617808062 0.08299342787457004 0.036815238883041446
0.019613484143456317 0.08041631552006828 0.03676587065381065
0.01954254902253458 0.07784295536271923 0.03672595157901898
0.019472063160204993 0.0752866830333847 0.03668722654737594
0.019401468519662686 0.07273432790402296 0.036657811559999254
0.019332972499632742 0.07023765723427655 0.036605207906768855
0.01926501909835032 0.06775997307125226 0.03655207725650933
0.019198144259371573 0.06531371661193885 0.036490377053160716
0.019130714884412484 0.0628606763870051 0.0364442550340805
0.01906346044389054 0.06041789718076068 0.0364028969461796
0.01899762122391057 0.05801414857186327 0.03634766444316795
0.01893153206501027 0.05561065482348049 0.03630340088612499
0.018863399379875887 0.05316597630705949 0.03629725511442272
0.018800665899830638 0.05085215493654105 0.03621666782854954
0.018804596194411962 0.05007947389942635 0.03512811151221412
0.01883627182126095 0.0499441801018527 0.03361523489950702
0.01887416746416969 0.049948663981389696 0.032003522790888694
0.01891239131873122 0.04995718208847483 0.030382613275385273
0.018950887735222625 0.0499684177280052 0.028753311821750505
0.01898871588141631 0.04996088038041818 0.027130153541098434
0.01902758315247319 0.04997351594399929 0.025486695611370902
0.01906744195665075 0.050005100466694874 0.023823510183826946
0.019107289041504206 0.05003275927211526 0.02215614634625751
0.019147123210816557 0.05005646691787874 0.02048462482172342
0.01918670252085667 0.05007076389334969 0.01881276326741843
0.019225901914719314 0.05007286819005863 0.01714258255293777
0.01926538316520699 0.05007770927619681 0.01546363623332192
0.019304417637660054 0.05006890154076582 0.013787488471125209
0.019343732955459693 0.050062797215559174 0.012102578476548831
0.019383577283345037 0.05006490236016703 0.010404878608888002
0.019422537605714857 0.050043637985873746 0.008717049678817257
0.019461716782593754 0.05002366577858802 0.007021421890552326
