# .PCD v0.7 - Point Cloud Data file format
VERSION 0.7
FIELDS x y z
SIZE 4 4 4
TYPE F F F
COUNT 1 1 1
WIDTH 773
HEIGHT 1
VIEWPOINT 0 0 0 1 0 0 0
POINTS 773
DATA ascii
0.013299173752625664 0.07054903731791479 0.03170965820572169
0.013338319579059158 0.07034375594522158 0.030005500911879812
0.013375819417985631 0.07018116547614728 0.02833240885358068
0.01341291302494082 0.07003207179727561 0.02666345539922621
0.013449936902213817 0.06988857539601001 0.024991302708411323
0.013485223093459477 0.06978940802325145 0.023352828046941665
0.013515118366648694 0.06981895129493848 0.021829338388407893
0.013543047164916769 0.06989716349453762 0.020345744483819095
0.013572075293477495 0.06995300937045307 0.018834077687024442
0.013600593036637527 0.07002371083456571 0.017330115222801756
0.013628274335876695 0.07011667216464879 0.015841265207792943
0.01365745589776846 0.07017823339468737 0.014315148695467184
0.013688370719903946 0.07020331095417953 0.012746224714964671
0.013719856634090574 0.07021867996558778 0.011160440206501698
0.013753219228656285 0.07019473566637141 0.009528080568313557
0.013791894400034933 0.07005381176961428 0.007770655432676021
0.01383224727574742 0.06987905033897623 0.005970035023106834
0.013885843695719486 0.06940950630875603 0.003861418634237279
0.014942393254891488 -0.05498496024329996 0.031885749900512905
0.014901113937145199 -0.052904192437992714 0.03164781184411891
0.014864014549523826 -0.05095028667525359 0.031334055271841355
0.014830164870481546 -0.04909540569054144 0.0309618242017754
0.014796469011566046 -0.0472489536786011 0.0305912846285199
0.014764966877675647 -0.04547010337787982 0.030182171162338123
0.01474842867925999 -0.044128325913440736 0.02948126799582984
0.014744356403635467 -0.0431487956125256 0.02853506533412986
0.01475150679694559 -0.042493464846410645 0.027365739349508977
0.014563141315653283 -0.036208968103916994 0.03010606025287499
0.014701823390569453 -0.03934211738973731 0.026308345817578627
0.014676994921459435 -0.03777117794224405 0.02578457244241522
0.0146518034767805 -0.03619275481236317 0.025271593131043324
0.014626698360158686 -0.03461974074892449 0.02476037173800444
0.014582141228642764 -0.032495377468290176 0.024648492879915385
0.014576745342132614 -0.03148982898385855 0.023743166685325945
0.014551896563790363 -0.029932876335834246 0.023237165168396245
0.014527132359577831 -0.028381222858239907 0.022732885854176044
0.014502496060676806 -0.02683607831438506 0.022229417219289616
0.014477899566195766 -0.025294935596557433 0.02172855605985935
0.014453386362209346 -0.02375901161165167 0.021229390953875937
0.01442891270683479 -0.022227063230243538 0.020732815965086804
0.014404608139163942 -0.020702714166046743 0.02023611455873575
0.014381934505467708 -0.019226821135961913 0.019708586802605066
0.014361649253116178 -0.017820239003347504 0.01913395051929173
0.013057754199639744 0.019335222374573968 0.04566672768429042
0.01303208354662891 0.0208117354923259 0.04530122576763257
0.01301496701409006 0.022047997848824774 0.04475747981222156
0.013003100101554853 0.0231369670605448 0.04410417059418703
0.012986796478203565 0.02434708414662956 0.04354743527802718
0.012971338854187787 0.025531980145029387 0.04297481210889853
0.012958258464215217 0.02664969210148649 0.042353151112322074
0.012943147513350512 0.027821600190595153 0.04177717895462674
0.012929776025575417 0.028944107706593003 0.04116561201217561
0.012915425518891304 0.030091805374376945 0.04057719393805609
0.01290031035944906 0.031258676280853825 0.04000745344842821
0.012885748750875583 0.0324087189382275 0.039427705425450044
0.012874633521017101 0.033463487514966694 0.038774332039944626
0.012865982441238343 0.03445019717029513 0.038068243157285964
0.01287863540171738 0.03485996177527306 0.0368927343218165
0.012899305927371709 0.035054926568159284 0.03553778979462152
0.012941055818843526 0.034684910522903845 0.03371136868653524
0.012993185681482076 0.03404098102678399 0.03164766138355318
0.013057433725844968 0.0330783731967319 0.029305616501900278
0.01262516870949993 0.045400953102582964 0.03809591736044943
0.01257775451682288 0.047403878995912696 0.03828392639191036
0.012542696958656764 0.04907226842443746 0.03819954679626514
0.012507638976041912 0.05073657196248116 0.03812005964636528
0.012472452735832381 0.052400178151014665 0.03804836909801218
0.012437206419890587 0.054061261117502424 0.0379829482679625
0.012401902718947798 0.05571973931856944 0.037923748205553776
0.012366894340186856 0.0573663149238165 0.03786269453796337
0.012331386924999464 0.0590219109788645 0.037817992794700606
0.012295579492208797 0.06068122253501351 0.03778515669890936
0.012260104509692208 0.062327653217289225 0.037749616483051585
0.012225300095542959 0.06395243673869305 0.03770345662044411
0.012189115893402958 0.06560908323051828 0.037694258567925354
0.012148414342741668 0.06737887152813948 0.037795555062329345
0.012115156434060356 0.06895093583439843 0.03772823475151316
0.01211152316344959 0.06975286231486089 0.03696985105781314
0.012129343620036828 0.07000071013753184 0.03570666686168389
0.012146264901596886 0.07027379301368397 0.03446224178820129
0.01216822238590858 0.07041947332080906 0.033096139147933246
0.01220285690729579 0.07024278721103522 0.031425743411334195
0.012237907284836362 0.07005951408994543 0.02974061310905801
0.012273096909295055 0.06987678446593781 0.028047272742050433
0.012306819006709152 0.06973552524293158 0.026384209460656227
0.012340885370032792 0.06958946351363776 0.024708172902362213
0.012372401057906287 0.06951201574535648 0.02308888946613402
0.012399309820923786 0.0695547187889417 0.021576612327361078
0.012424793869812583 0.06963650157965906 0.02009513623355086
0.012451802217698453 0.06968290507211428 0.018573040708611155
0.012478442230623896 0.06974171233357013 0.017056166755474278
0.012503244476384312 0.06984966401198206 0.015580531649940887
0.012530170634387881 0.06990744030952334 0.014049346131162488
0.012558000497438325 0.0699458337736007 0.012492181036829308
0.012587173897695987 0.0699540633519602 0.010897997974220919
0.012618735730688209 0.06990643705970229 0.009240668451907408
0.012653986894797206 0.06977116977878178 0.00748742228674959
0.012691848329356133 0.06957555742775151 0.005664331940015643
0.01274093873880954 0.06910770829119856 0.003555848756414348
0.013573443989794806 -0.054644773031490124 0.03211060228778667
0.013542100936194056 -0.052763672143893825 0.03174121114322087
0.013511194771571191 -0.050900631614794134 0.031367243933898115
0.013480429354881987 -0.04904607544805967 0.03099497978630661
0.013449845130742905 -0.047201270211320256 0.030623511990618912
0.01341952302144936 -0.04536876423779823 0.03025104326433925
0.01339902796035947 -0.04385323247002476 0.029669265529308986
0.013393031177218927 -0.042801298537692045 0.028773860496434878
0.013201456937375285 -0.03586175283427767 0.03194820084944627
0.01320225468960774 -0.03503844359034597 0.030919357177302875
0.01325588927397358 -0.035884754773441385 0.028723837018852727
0.013344067746436789 -0.03781358900700643 0.025754778566609793
0.01332140550558363 -0.036242604144988366 0.025236380986508156
0.013298617714413893 -0.03467058929120981 0.024724256254658072
0.013275867411994586 -0.03310267901526842 0.024214783619727898
0.0132531948153021 -0.03154012407930651 0.023707051134730928
0.013230639592193534 -0.029984147763921387 0.0232001469055777
0.013208121081082116 -0.028432214702094116 0.02269586809267038
0.013185679092172605 -0.026885555405083028 0.022193302915304414
0.0131632735774945 -0.025342912708917475 0.02169334559465419
0.013140983601641457 -0.0238067273181905 0.021194181559568703
0.013118808377880157 -0.022276952647313886 0.02069580229054585
0.013097257508643703 -0.020769277690675547 0.020186461741686867
0.013078634660733147 -0.019354456381921736 0.019612860962003154
0.011856543683572964 0.01900636714739995 0.0469034718562783
0.011810072093897133 0.02119225410506914 0.047074624834986645
0.011796711126229787 0.022359874377369804 0.04648128444644645
0.011782109309389919 0.023563633789269067 0.04591900299112894
0.011767955634618762 0.02475187259164091 0.04534844644528835
0.011752033836810373 0.0259920077952977 0.04482166920809966
0.01174173770611611 0.027059548827657487 0.044164506413734705
0.011731081611227006 0.028136655741546224 0.04351744758192011
0.011715887666435963 0.029349378513210123 0.04297985756489403
0.011703522538818385 0.03047493528341738 0.042377155449468906
0.011689369281249444 0.031652651508108864 0.04181911435564134
0.011674501485558727 0.03284998048316612 0.04128038595251299
0.0116671128845077 0.03382154388213904 0.040563910133754155
0.011661320768346632 0.03474447684867732 0.039810016386530256
0.011665710924681874 0.035363216162026145 0.03881036126710935
0.01168086847724361 0.035662325251486826 0.037548386274655565
0.011710705705737543 0.03552779080919927 0.03592624899818175
0.011756396952597288 0.034927672646456964 0.03391185946628189
0.01180978367310326 0.034106068818067825 0.0317017014340219
0.011863657471246734 0.033276969027342174 0.029471378863666575
0.011474049853839747 0.04550025813636965 0.03817924425179864
0.01143471094509159 0.047392460071710774 0.03827429407723665
0.011402689460180034 0.04906529586792008 0.038193634055623704
0.011370846817931268 0.0507287887368475 0.038113424526835915
0.011338740110152462 0.052395887888939285 0.03804469239846475
0.011306726421615728 0.05405615315050455 0.03797854766954589
0.011274543856312698 0.055717205394371416 0.037921553710761
0.011242283616418833 0.057376370285381395 0.037871449285623415
0.01120971851210259 0.05904019904093488 0.0378339991963223
0.011177055582548126 0.0607026623746737 0.03780402042023612
0.011144895155250113 0.062346468051291404 0.03776625769157377
0.011113343277008724 0.06396866847667504 0.03771788861781167
0.011080030375863748 0.06563725665422065 0.03771943967378927
0.01104189125040887 0.06743949771353414 0.03785002636651752
0.011015749621333183 0.06889471353281124 0.037677455510291724
0.01101666617465333 0.06957671320601433 0.03680992162397889
0.011033943620277717 0.06979438464202625 0.035518358704027864
0.011050352961109126 0.07003886481083138 0.03424670664004581
0.011072588780785429 0.07012080394388742 0.03282069165363283
0.011104106769066285 0.06994389331533335 0.031148648330152018
0.01113577631799737 0.06976677107786755 0.0294678029913934
0.011168226507693915 0.06957181057963868 0.02776158123981859
0.01119882796511791 0.06943278981090811 0.026099135703660403
0.011229280101293333 0.06930187475961486 0.024435950527303463
0.011257577286668777 0.06923494024289517 0.02282525229722787
0.01128150047118107 0.0692932804288664 0.02132655873764766
0.011304735737826066 0.06937378225102941 0.01984254992287321
0.01132959441494459 0.06941233429995364 0.018311552915761753
0.011353706973213633 0.0694746871045982 0.016796764132880504
0.011377092802167548 0.0695601625673321 0.015297833376319903
0.011401170164825081 0.0696296357921547 0.013776661347924102
0.011426365586355213 0.06967154336119513 0.012221548327944809
0.011452813317619734 0.06968242789021062 0.010628594565940064
0.011482430834636365 0.06961019366294363 0.008945335972304846
0.011513506429802195 0.06950206268970971 0.007217752356278473
0.011549908410638595 0.06925322859268801 0.0053396557553204715
0.011592874466047587 0.06883117463395233 0.0032758590006903843
0.012216479596801702 -0.05465837049709105 0.03210161489865099
0.012186493730686986 -0.052713701269002156 0.031774425219828484
0.012158722133594407 -0.05085232949154117 0.03139952831612175
0.012131039399385793 -0.048998089267913825 0.03102723200883184
0.01210351968838605 -0.047153597311651196 0.030655732210488784
0.012077756597767771 -0.04537534337096305 0.0302465720390519
0.012056943970451867 -0.04377600814426208 0.02972204031892023
0.011922559824918036 -0.038167501947405424 0.0319581401451598
0.011869548018700953 -0.035447022290601815 0.03223477650902101
0.011859595852155102 -0.034249133161376566 0.0314677812103526
0.011906819147893499 -0.03506025409333735 0.02929987562727493
0.011933269450222772 -0.0351367160078806 0.027635293591101784
0.011990617971626722 -0.03628990806769494 0.025202966851044617
0.01197025007774187 -0.03472272189569664 0.024687228756336443
0.011949769684855727 -0.03315452706752692 0.024177755994082728
0.011929359253314982 -0.031591689217491725 0.023670023598644174
0.011909018425247395 -0.03003418094311544 0.02316402266754275
0.011888710900387173 -0.02848073087653019 0.02266064755875441
0.011868508337432967 -0.026933807074010163 0.02215808307293371
0.011848374318251587 -0.025392131714018662 0.021657223700584094
0.011828344075110615 -0.02385690204959351 0.021157157647782976
0.011808842447500105 -0.022342679369925678 0.020647038664741768
0.0117911726211798 -0.0208939919781857 0.020093431501794157
0.011774472212302966 -0.01948096740366595 0.019517978285141235
0.010600696644912273 0.0214008353724498 0.04870904793481917
0.010587680925310608 0.022601017985704408 0.04814267049890103
0.010577200280285158 0.02371322485467675 0.04751286695241569
0.010563419146319395 0.024935816678618772 0.04697058945695454
0.010550013532430416 0.02614373721194646 0.04642087050873078
0.010538844602261541 0.027274241891185824 0.04581494705447531
0.010526262007305118 0.02845076958769721 0.0452480108373049
0.0105133158809215 0.029637719343413527 0.044692784357527826
0.01050295381852357 0.030736146452934376 0.044071531745778825
0.010491548330503425 0.031868016999961224 0.04347968263608232
0.010479134203542203 0.033031945589752365 0.0429165790311104
0.010466916585597156 0.034187551838706864 0.042350349867803005
0.01045834222839305 0.035220253251536104 0.04168876298840962
0.010457813690180316 0.03598473412882941 0.040812768727704674
0.010471097276336702 0.0362917787537228 0.039565113490174664
0.010496000673374572 0.0362167840128938 0.038001462718106616
0.010529305490122293 0.035868350425630025 0.03620601963197273
0.010576516505243317 0.03506717785966301 0.03402707314670739
0.010625674365786555 0.03420883926620705 0.03178702798852856
0.010674103192409684 0.03338140258822486 0.029558546664660124
0.010323662167954755 0.04559773301853043 0.03826103546373005
0.010291670398858883 0.04737840496750462 0.03826243802089463
0.010262634356855248 0.04905832302024066 0.03818772106807633
0.010233894864468294 0.050724464520871815 0.03810973821500707
0.010204971577465114 0.05239245557928518 0.03804175097012363
0.010176184981010285 0.054051896373689845 0.03797488039980429
0.010147115168440595 0.05571636067853286 0.037920822204937144
0.010117612174912386 0.05739061435895787 0.0378838509193693
0.010088280244484044 0.05905516044745851 0.03784709399914543
0.010058963499646679 0.060715030174289475 0.03781490219495426
0.010029765484446807 0.06236691646243703 0.03778434374711925
0.010000100650890197 0.06402952305551957 0.0377719955327625
0.009971394577535084 0.06565737743876515 0.03773742344132469
0.009935592299803753 0.06750647852310937 0.03791020715269128
0.009917174545130568 0.06879964421714646 0.037591590098301264
0.009920852557958057 0.06939166201383118 0.03664190979950677
0.009937098621474119 0.06958778697184731 0.03532980213930431
0.00995347356495664 0.06978217664690994 0.03401120778267902
0.009975036703876696 0.0698160017045546 0.032539588132266595
0.01000353461139299 0.06963565803690763 0.030862893145738757
0.010031811904887748 0.06946628057015386 0.029187772903445208
0.01006153660685884 0.0692558053538308 0.027465555866228564
0.01008882292676697 0.0691254419667508 0.025809718622800792
0.010116465858454967 0.06898790631997487 0.02413875797184184
0.010140467427775855 0.06896709359572717 0.02257039638169367
0.010162008843453713 0.06902572547157693 0.021070654906123087
0.010182323456592975 0.06912525365372396 0.019603607015890367
0.010204149178684545 0.06918120775831754 0.018088185236596332
0.0102266803666361 0.06921863247190047 0.01654801893975799
0.010249257844573794 0.06925785848195931 0.015002633314931513
0.010270352323502171 0.06934560303118437 0.013497863101043617
0.010293689110247974 0.06936803664822294 0.011922088911907991
0.0103169156390091 0.06939715545669245 0.010345666237332352
0.010343429567218806 0.06932989305491327 0.008665897264603817
0.010371611856242025 0.06921593972082463 0.006931030950840078
0.010404681334996684 0.06895849336133442 0.005042774132786809
0.0104440338444545 0.06851656768810588 0.0029573201051221187
0.010938855698479744 -0.05875212808557673 0.03102417090222298
0.010862704555384973 -0.05480391513246308 0.032005414866851545
0.01083119738089364 -0.05266374185299877 0.03180763168007156
0.010806517152694652 -0.05080269684384381 0.03143270199784037
0.010782082180757255 -0.048955443845951796 0.031055894637464887
0.01076017504727247 -0.04721319035153365 0.03061545581998948
0.010738356754930643 -0.04547800230857457 0.03017680313686949
0.010600402669267608 -0.03912141730590829 0.03290296398903464
0.01057861851137612 -0.03740392932058517 0.0324828565489127
0.01061079672223374 -0.03783022654309798 0.030588000987685715
0.010543675914642092 -0.03432088004726275 0.03141793054814235
0.010555074522594748 -0.03392398127460616 0.030093734266242178
0.01058743013453907 -0.03435140723333524 0.02818697650736035
0.01065910751877704 -0.03632059744200372 0.02518128878537329
0.010641486013913418 -0.03477232353010418 0.0246519988988832
0.01062330917296822 -0.033205122988879454 0.024141622587936007
0.010605162144181432 -0.03164200903600217 0.023633890295084947
0.010587044939936487 -0.03008297496869977 0.023128793107502765
0.010569021488814665 -0.028530502939172975 0.022624515305025406
0.010551059299428013 -0.02698330776406216 0.02212195154331492
0.010533189802145525 -0.025442593505929978 0.02162018972148988
0.010515760364493042 -0.02392178037730891 0.02110928393405853
0.010499239969330713 -0.02243887349278717 0.02057567078550515
0.010484312143656433 -0.02101999527080889 0.01999943973166496
0.009395889999955368 0.021680200062248745 0.05038869008154706
0.0093775130560211 0.023140394328976965 0.05002078222944084
0.009366656870189007 0.024309615851670296 0.049438033435715845
0.009357253448522633 0.02542157360263847 0.04881504453555657
0.009346943971692645 0.02656657352966041 0.04822033672140591
0.009335734487358048 0.027744167086604377 0.0476539929453112
0.009325397706025607 0.02888681823616851 0.04706412326736714
0.009316350045150936 0.029978957245913762 0.04643818720860465
0.00930605612112986 0.03111676921000417 0.04585088432061718
0.009295488260474922 0.032263263770971995 0.04527369000693515
0.009283785273798873 0.03345080198737993 0.0447323467419673
0.009274399770963341 0.034549383627184516 0.04412396087469328
0.00926834989238188 0.035521394017787256 0.043417330701286894
0.009266212148355884 0.03634606832684473 0.04259415216398671
0.009273562953976437 0.036816168309356856 0.04148498619216723
0.00928970679565645 0.03695989046457637 0.040108166618491925
0.009318013497490032 0.03665409202446962 0.03835880934514563
0.009356826699218385 0.0359631415029138 0.03628389081553107
0.009399931800129841 0.035119580379088966 0.03407035105994621
0.009443742070163156 0.034256903679783735 0.03182693416354987
0.00949113156977487 0.03326937121067586 0.029465037355952406
0.009175504117975464 0.04563759282218888 0.03829448189036222
0.009148582006535686 0.04736259158063327 0.038249098770532786
0.009122769746507655 0.049042633172928285 0.03817441594327037
0.009096984348754052 0.050717545600870106 0.03810383991652627
0.009071132421302851 0.05239073934816735 0.03804028023304867
0.009045473826872947 0.05405274761923229 0.03797561386133097
0.009019541010326294 0.055720583622643816 0.03792447969621626
0.008993131672496974 0.05740150602191163 0.037893333789622785
0.008967014561469056 0.05906762721436637 0.03785800541099049
0.008940888606523482 0.06072987030056548 0.037827959222339946
0.008914664336031318 0.06239145113318684 0.03780604396932369
0.008888412621878458 0.06404980269198118 0.03779002658465286
0.008862854389290438 0.06567910502857482 0.03775684334933255
0.008831168349168698 0.06752321921072707 0.037925248357838726
0.008818379253648067 0.06868865727599066 0.037491348072360986
0.008824189819907272 0.06919054701918237 0.03645931330733748
0.008839096341147946 0.06937060556439528 0.035131586055925035
0.008855242188378855 0.06950918231492476 0.03376074880679669
0.0088757950129122 0.06949468267284353 0.03224325201310374
0.00890142791976206 0.06930444640089639 0.030555837299883815
0.008927368917187008 0.06910749583584208 0.028853417829471206
0.00895286528032233 0.06893031286797213 0.027160643074709723
0.008977031866312714 0.06880377241019409 0.02550681535832916
0.009000355774902801 0.0687105434246515 0.023876215073296347
0.009021448826003961 0.06869878929404105 0.022315105008174685
0.00904060613250328 0.06875771377145073 0.020814314221388464
0.009059210967701015 0.06883887699978236 0.019328275828724484
0.009078246204372718 0.068908137801302 0.01782428215521109
0.009097432638557319 0.06897523811856382 0.01631157262543942
0.00911670034367272 0.0690426226630862 0.014792455479057942
0.00913726788363811 0.06906844168436904 0.013225809635770247
0.00915807240512317 0.06908944229213404 0.011647209651882262
0.009178393398558778 0.06913032223023718 0.01008102560603824
0.00920200150746872 0.06906231612255703 0.00839914311308304
0.009227533717313875 0.06893261084909885 0.006647109487684544
0.009256614268986064 0.06868651449552676 0.00476881460566686
0.009294620008599786 0.06814272832362395 0.0025788084865402405
0.009621030596917182 -0.06280517171580147 0.03162730946866049
0.009597812222504621 -0.060847930589585375 0.03127626115039306
0.009574495821753643 -0.058890429144068945 0.030933268412706882
0.009513766783058993 -0.055213863855965384 0.03173445262313729
0.009476241141596448 -0.052615143689457244 0.03183993336053226
0.009455878474927999 -0.050810744746988934 0.031427322997587104
0.009436622108479769 -0.04906074040743136 0.030985123511708568
0.009417415012614406 -0.04731652399004904 0.030545616968697287
0.009398314825545307 -0.04558071045922757 0.030107000788598792
0.009379291958211796 -0.04385192369938451 0.029670160176629823
0.009260860239535615 -0.037611438683596066 0.03234025912506944
0.009267567119561164 -0.03706506068379456 0.031116724724689793
0.00929584830998885 -0.03749340302040172 0.029213617186190644
0.009259794535141426 -0.03501215314548256 0.02933348158185134
0.009342817313961665 -0.03790229442518944 0.025692462869820742
0.00932737369982167 -0.03635001231295426 0.02516051099458011
0.009311924352312907 -0.034800309186671874 0.02463212195495834
0.009296497840056562 -0.033254465861207005 0.024106384056969077
0.00928061541103283 -0.03169108262328402 0.023598651878616428
0.009264787157089859 -0.030133032096788914 0.023092651578230594
0.009249040772155551 -0.028581531797340798 0.022587470672810805
0.009233319945105834 -0.027034058376067094 0.022084907668915132
0.009217958072473297 -0.025505380429169777 0.02157411029080686
0.009202924147550728 -0.023994027748816982 0.02105597259380637
0.009189733686747378 -0.022566797090283308 0.020480762299604105
0.008204905553919981 0.021651877654102925 0.05183042162780083
0.00818433203416879 0.023309536063630287 0.05161068567181942
0.00817617079124743 0.024419021382172723 0.05098494557905153
0.00816828759060115 0.025514838653215854 0.05035176569360755
0.008156980753406338 0.026758737977703784 0.04983428929117073
0.008147376065893767 0.02792637446914059 0.0492624341520953
0.00813889843872568 0.029043228860112014 0.048654912927842686
0.008128688063786063 0.030233728009044503 0.048107501879751546
0.008119774969261835 0.03136616884628013 0.04751856923505127
0.008110408199956294 0.03251657906513983 0.046946939148487354
0.00810037640930767 0.033693947959556436 0.04639993538626047
0.008091225561696636 0.03483156493451728 0.04582512447967663
0.008083633428071333 0.03590056842963302 0.04519905980461064
0.008080024114561393 0.03679751660998126 0.044438139888673844
0.008087523790815438 0.037218809713957135 0.04329601754352097
0.008097673703978648 0.03752840611375008 0.04206083297795343
0.00811363520401981 0.037592445173709854 0.040622318384998635
0.008144814981992163 0.037012912945707466 0.03865202019190922
0.008188582057761615 0.035905529403434666 0.03623656242030676
0.00822272858084375 0.03521311713965325 0.03414760063421657
0.008262247058680451 0.03430024452552077 0.031862918536406215
0.008066810124069429 0.04328970187159087 0.03782872162216966
0.008027828014514602 0.04566858835931814 0.03832049031510465
0.008005050643245136 0.047360834356800996 0.03824761655401471
0.007982714684157345 0.04903042891693837 0.03816406664852534
0.007960047206176308 0.05070976148389589 0.0380972040371394
0.007937384493045508 0.05238473264680005 0.038035132533072835
0.007914789007833989 0.054052747520373146 0.037975613861321034
0.007891975583776465 0.05572565103145094 0.03792886856117267
0.007868726391050209 0.05741239695628253 0.03790281602553269
0.007845915682721836 0.05907676887417346 0.037866006579293066
0.007822916669318922 0.06074470906031787 0.03784101504739512
0.007800251034287286 0.06239472205450053 0.03780893708136723
0.00777688570864325 0.06406926871337187 0.03780733423770222
0.007753404406770231 0.06574427014502027 0.03781508712219628
0.0077282869366274605 0.06748176249663973 0.037888000551237366
0.007719820620685217 0.06853631909402946 0.03735375808728231
0.007726197786982341 0.06898600063482752 0.036273601383610576
0.007739865176777615 0.06914120829105769 0.0349222208499379
0.007755330868613348 0.06922616344915283 0.033501092807321
0.007774414151533033 0.06916791683181289 0.03194189257878177
0.0077970488111805255 0.06897013199979979 0.030245904977871885
0.007819715684151062 0.06877520955121108 0.02854375693207184
0.007841710395802389 0.06861139991370135 0.026861893817201943
0.007862515111822977 0.06849923268170238 0.025220042568050605
0.007882881890273027 0.06840836475776779 0.0235901823462063
0.007900761500914504 0.06842027385536109 0.022050097740854424
0.007917184963089624 0.06849331530012187 0.020561429422824573
0.007933882659306571 0.06855850359419002 0.019058716348477223
0.007950154915109725 0.06864358189453706 0.017568607313142803
0.00796641105191893 0.06873228456623082 0.016075554529155378
0.007983567331686543 0.06878854319286914 0.014544346789646001
0.008001509362727241 0.0688170976853471 0.012979097732680578
0.008020121062505754 0.0688227121791195 0.011384036427905087
0.008037974442990875 0.06886138323538576 0.009814296509041698
0.008059771331063802 0.06874956553491657 0.008087354195465246
0.008081259662701727 0.06865375397750778 0.0063676693797699024
0.00810715872253239 0.06839071312881839 0.004470859083720913
0.008140108164815502 0.06785945825548112 0.002291998126818462
0.008269308428349094 -0.0649188104394759 0.03188511427080731
0.008249297311144993 -0.06295107761603647 0.031532477697175265
0.008229356976311487 -0.06099145140442397 0.031182454738103382
0.008209461389979727 -0.05903850719726744 0.030835939696742587
0.008189482678805904 -0.05708535865245601 0.0304974575684131
0.008124305511338057 -0.05271235121541379 0.03177532279210982
0.008107019489292945 -0.05091673522385193 0.031356480876092274
0.008090480983422533 -0.04916475447709856 0.030915214365618615
0.008074034685246072 -0.04742123302540546 0.03047484854362681
0.008057630347792185 -0.045683467858321114 0.030037164970182162
0.0080413171999534 -0.04395405942550118 0.029600361223490246
0.008026224794692977 -0.04229283394564537 0.02912327050399366
0.007957204592014246 -0.03778296090336558 0.030620661337318056
0.008017387662174693 -0.0401067332757753 0.027397838765798377
0.008021926383190365 -0.03948687494675451 0.026207211160694854
0.008008839105510963 -0.03793958754436694 0.025666264373138514
0.007995672520650445 -0.03639094417060379 0.025131597914402115
0.007982427620489927 -0.0348410222368149 0.02460320528246296
0.007969178075315787 -0.03329369548870953 0.024078367982123206
0.007955779278305368 -0.03174142657197354 0.023562501247827217
0.007942232955253833 -0.030184353241570094 0.023055597419677
0.007928708703255146 -0.028631328248533316 0.022551320714103706
0.00791546943131806 -0.027095966346983524 0.022039719799326785
0.007902536339512994 -0.0255792720943665 0.02151988105603797
0.007890642857760108 -0.0241189904296521 0.020963762561457544
0.007034568841532901 0.020806131856659194 0.052659834791178584
0.006995466562441067 0.023568962905992252 0.053260466874097356
0.006986889874041078 0.024758174378094522 0.05269715871575886
0.006979077325254037 0.025906447774015573 0.05210655644422141
0.006970411010243266 0.02709664236768622 0.051551000430754224
0.00696270922187036 0.028235832689773976 0.05096019501762461
0.006955282778939627 0.029359372112250093 0.05036062662435209
0.006946675420077056 0.030541240878466325 0.049809122971874786
0.00693900759741633 0.03167369335051118 0.04922296563384587
0.006930990160294171 0.032822167704704364 0.048652523846166806
0.006923594617447331 0.033937568759898395 0.048059577845093016
0.006915722202165722 0.035075377755757864 0.047487407338679954
0.006908013296945762 0.0362032909830321 0.04691075014120927
0.006902102029084683 0.037239494584992594 0.04626440488131994
0.006902138310618098 0.03797710885329797 0.04538173152618896
0.006911892711629185 0.03822995537674184 0.04410918869960184
0.006928773070169518 0.038130186341329364 0.042547374434321605
0.006948994985479658 0.037868060942330584 0.04084634385122782
0.006979206416863556 0.03711516506613799 0.038735575665820754
0.0070137326608788525 0.03615535259522629 0.036441792861232614
0.0070464044142866155 0.035294453203914056 0.03421477398221495
0.00707913344927489 0.03443773350233953 0.03197707058979904
0.0069122567679822415 0.04339540663611818 0.0379169504580289
0.006880904562944359 0.045673015742355716 0.0383242054142528
0.006861507307489551 0.04735907711456977 0.038246134321977154
0.0068424512775354706 0.049024326404614293 0.038158891717511245
0.006823021280733599 0.050703706896474576 0.03809204258268062
0.006803507082757881 0.05238301633551057 0.03803366172729311
0.00678410418879492 0.05405274742151556 0.03797561386131243
0.006764322888613391 0.05573662999392209 0.037938377302390136
0.006744465730911117 0.05741993637691689 0.037909380278824345
0.006724828321183868 0.059088402994489475 0.03787618923133329
0.006704996224463331 0.060762019236097975 0.037856245323904136
0.006685229609516435 0.06242824605169689 0.037838588076912594
0.0066660707425931975 0.06406115802224399 0.037800122972301786
0.006645824929239167 0.0657418569990002 0.0378129303719662
0.0066252495988383606 0.06743391430138485 0.037845010147499636
0.0066198288754155815 0.06840131301633218 0.037231822257038694
0.006627058336200752 0.0687676826233179 0.03607538590690518
0.006639209891122627 0.06890272441562217 0.034704562524058125
0.006653550111135748 0.0689370529717172 0.03323584804963442
0.006670820000572681 0.06883647167394308 0.03163621764860375
0.006690091459120184 0.068645534600066 0.029944980983724667
0.006709354381601421 0.06845912686216205 0.028249196331364246
0.0067281413805480444 0.06829910865221778 0.026569347589212866
0.00674585324795104 0.06819329191043705 0.02493195047200447
0.00676334451018178 0.06810154209890751 0.023299753762581588
0.0067779637031683045 0.06814696342083293 0.021790043033677098
0.006791889476016681 0.06822765597271474 0.02030733867397372
0.006806102301585476 0.06829805861018134 0.01880831666298871
0.006820037598551494 0.06838431004881101 0.01731803914979896
0.006834297328356724 0.06845861462385772 0.015809696873991586
0.006848903100516121 0.0685200842995044 0.014282196583277118
0.00686387694612083 0.06856782098652897 0.012734415031845248
0.006880089917235759 0.06856213102971925 0.011126930172563942
0.006895744728033963 0.06858536614317462 0.00954054747365396
0.006914278290524654 0.06848099723440415 0.007819611724163567
0.006932801735529823 0.06838105852976673 0.006094403584891939
0.006956737577354349 0.06804003121235247 0.004117623329098652
0.006910098987808917 -0.06704269892849712 0.032145257842245534
0.006893331019489872 -0.06506439797464869 0.03179101970536985
0.006876644231340418 -0.06309567473475702 0.03143849657106451
0.006860016493029122 -0.061135065061154625 0.031088587643571752
0.006843576165227016 -0.05919084045365275 0.03073581411939391
0.006826809076270171 -0.05722977053632522 0.03040200624778233
0.006775168734953992 -0.05302857522909166 0.03156513916391229
0.006757480356209169 -0.051021434873058824 0.031286501521501586
0.006743712415679075 -0.049270153116533266 0.030844374632002125
0.006729979729851733 -0.047524666635093527 0.03040494212603201
0.006716323508490536 -0.045787592894307005 0.029966399679555777
0.006702722595700852 -0.04405755441331072 0.029529633357895824
0.006689217621526747 -0.0423371134645239 0.029092842324429213
0.006680176381242274 -0.040903413037315595 0.028464453266719925
0.0066770931809924826 -0.03984936807503614 0.02757665979672108
0.006678807871298752 -0.03909935603264747 0.026477951861234084
0.006674644894559931 -0.037978173583707364 0.02563915759442531
0.006663670708064775 -0.036429325051731465 0.025104486775389012
0.0066526717691619 -0.034881743221958694 0.0245742829740887
0.006641668693763784 -0.03333673002329357 0.024047634601934098
0.006630641577024149 -0.03179304180318704 0.02352543774128779
0.00661933008729219 -0.030234434942711996 0.023019438148521643
0.006608237028915135 -0.028692345298058253 0.022507025092473598
0.006597400249511589 -0.027169041779133596 0.02198638056065555
0.006586996161432112 -0.025675371195334196 0.021449353716218644
0.006577595134151197 -0.02424648238555921 0.020869686173948965
0.005777245789155037 0.026051659476032496 0.05655157603214228
0.005800023783533516 0.02538986965402712 0.054618767994116024
0.005795930412768449 0.02638737417472159 0.053919052151657376
0.005748800230544994 0.030026417050640186 0.05521326621196321
0.005735879328305813 0.0315571864283668 0.05493273427705525
0.005732026363172419 0.032530166328253396 0.05423352243172819
0.00572980120104528 0.03340283134903599 0.053459373026192136
0.005764607151321544 0.0320201439257401 0.05094860965883624
0.005757511944117697 0.03319233049578452 0.05039937220090379
0.005751448541714017 0.034300132741367784 0.04980358605751467
0.005745186357002034 0.035418402982241304 0.04921907496138794
0.005740264839415854 0.036454120933919865 0.04857276436464569
0.0057350656634923645 0.03750530133155411 0.047941200683575214
0.005734147315847455 0.03829779239745801 0.04710646206385294
0.0057387566882542524 0.038758445425961074 0.04600674639199143
0.005748754075010187 0.03889775511821719 0.04464623843959803
0.00576717850395171 0.0385362728467703 0.0428756968460115
0.0057929016555642076 0.03774450016417363 0.04074591154212909
0.005815044943658656 0.037172252516944504 0.038782224798735276
0.005843604091234966 0.036224941733691396 0.03649896059090185
0.005872539863377301 0.03526267108203007 0.03418852606918804
0.005898114654251348 0.034506437291822845 0.03203411286848107
0.005758209147263626 0.04351357473543871 0.03801558208387357
0.005734538038903013 0.04564644899896436 0.038301913356525
0.005718101668197555 0.047348533774726365 0.03823724060386702
0.005702101550989748 0.049020839111863224 0.03815593452916988
0.005685909524890696 0.050700246990569686 0.03808909309568764
0.005669662045407923 0.05237872562804513 0.03802998464605323
0.005653404739188093 0.05405359866265885 0.03797634731904831
0.005636818567527493 0.05574338587451094 0.03794422851837065
0.00562028605331923 0.05742580010752113 0.03791448559899846
0.0056037783577599625 0.0591025290381883 0.03788855289699872
0.005587295896116361 0.06077355828767844 0.037866397932659224
0.0055710805945679695 0.06242497561950566 0.037835695569800654
0.005554507161912526 0.06409278690925618 0.037828244833516655
0.005537835498859264 0.06576196452372285 0.03783090228800445
0.005521752067997675 0.06739323190998664 0.03780845805187044
0.005518501926102389 0.06828845433749942 0.03712988969962672
0.0055263895793467065 0.06854906085139317 0.0358768946397825
0.0055372316625357 0.06864395760184933 0.03446839245540145
0.005549680874673121 0.06865060384543475 0.03297304495276765
0.005564935018254005 0.06850192212143108 0.031327679693252564
0.0055808720012961105 0.06831865757600014 0.02964194362143352
0.005596613751582555 0.06815047459245732 0.027961560214644077
0.005612170603875787 0.0679967177625051 0.026286075771810302
0.005626915427480666 0.06789243739977735 0.024648647904329246
0.00564083472462939 0.06783807451966767 0.023050363733625234
0.005653052428508467 0.06788214845482965 0.021538071762556232
0.005664618030904138 0.06796563231454134 0.02005672527452812
0.005676334298811947 0.06804372950565568 0.018563796971419466
0.00568799546053307 0.06812788984015622 0.017070226896090945
0.00570046316279162 0.06817050130384134 0.015529808142457913
0.0057121640304097325 0.06825857387391737 0.014026831560888076
0.005724738026548934 0.06830165446466535 0.012473153769292866
0.005738196380394549 0.06829946393125547 0.010867765784019101
0.005751491013919356 0.06830969219295335 0.009267138760926663
0.005766521312806613 0.06822858948916488 0.0075679801217341525
0.005782349645218821 0.06810788957821884 0.0058206632958659466
0.005802916590954628 0.06773379891262138 0.0038091609083176214
0.0055569429254615785 -0.0711784631850465 0.03276351500051983
0.005543370665216589 -0.06917833635546805 0.03240684047712861
0.005529882038001314 -0.06718938036438055 0.03205098843741572
0.005516476307061436 -0.06521149503023577 0.0316959495222231
0.0055031527443403895 -0.06324458135037464 0.03134171447834966
0.0054901003391358335 -0.061303894947790816 0.030978238995276575
0.005412548549205956 -0.05415771998173402 0.03404398537908926
0.0054284191869361 -0.054567284993733534 0.03216181974584742
0.005430088912289103 -0.05382929065493808 0.031032930020600813
0.005407440418821417 -0.05113827485743644 0.0312084077770301
0.005396270145670013 -0.04937426804531442 0.03077439769725071
0.005385295273970836 -0.04762947699677189 0.030334105218770113
0.005374348424902831 -0.045890449529135346 0.029896496418708174
0.00536346244927231 -0.044159788574982706 0.029459767134477788
0.005352620483950931 -0.04243612441417849 0.029024803478740424
0.005343308507845214 -0.04083731081662623 0.02851012946770537
0.005339031588845725 -0.03964008577902928 0.027722072151219523
0.005338949961608909 -0.03877567765082551 0.02670409028651788
0.005340206073150717 -0.03801676669740711 0.025612045845958775
0.0053314576173740065 -0.03647027239385292 0.025075562757428504
0.00532272156684504 -0.03492756380341172 0.024541738638469868
0.005313836363563342 -0.03337597515807189 0.024019607452472946
0.005305061292635968 -0.03183585444241677 0.023494695153042755
0.005296234902282707 -0.03029454898812939 0.022976035451407917
0.005287533816922959 -0.028765838789721054 0.022453672120329005
0.00463615377099991 0.022707707039094915 0.05839248771979916
0.004612756898817106 0.02526731283729805 0.05883634551824729
0.004605402660541258 0.026577755941821823 0.058372954728617754
0.004599996169814703 0.027735399703882335 0.057800770016521286
0.004592067078405775 0.02908573554427979 0.05737569041142493
0.004586427016230595 0.030257463805218376 0.05682160403794456
0.004582975083340003 0.03125943243477525 0.05614303556146688
0.004575344066224753 0.03258038024599191 0.055708462389298274
0.004571789188694516 0.03358732682583787 0.05503933608629924
0.00456580512277226 0.03477840902406565 0.05451356111706179
0.00456222931685 0.035784273165755776 0.05384885047244081
0.00455791008651698 0.03684545134589984 0.053229248450660516
0.00455312448447688 0.03794058747954043 0.05263882884438892
0.004550587299512859 0.03886414044715658 0.05191709641236458
0.0045503147229022265 0.039615972249826825 0.05106179745816514
0.004560074341328772 0.03961221757770361 0.049608678154772545
0.004573619254664711 0.03932714698614953 0.04792548995597945
0.004582229361175246 0.039416471265898645 0.04653312126818482
0.004592247178210004 0.03940323032886711 0.04505274555027344
0.004610930200769039 0.03874622443196324 0.043045443502979785
0.004634492719284817 0.03773168130003551 0.04073549222439099
0.0046528651341069685 0.03711056020667003 0.03873181296792283
0.004673357498854558 0.036338080497164194 0.03659190444289978
0.004696692940828541 0.035361736925559384 0.03427034196394535
0.0047170010547384735 0.034616495177636375 0.03212548991036518
0.004605158467014999 0.04361735155438451 0.03810220171844292
0.004587738020711747 0.045638478089797097 0.03829522505453581
0.004574648146846802 0.04733623239108853 0.03822686389323571
0.004561716104793063 0.04901822356958463 0.03815371659738803
0.004548762251967295 0.050697651989009274 0.03808688094013979
0.00453581112496267 0.052372718490163506 0.03802483657198935
0.00452269943749125 0.05405530123058161 0.03797781422313723
0.004509372429810254 0.05574929702891335 0.037949348134197314
0.004496135298832689 0.057432501269358394 0.0379203200254683
0.004483033152711927 0.05910169802479076 0.03788782565238724
0.0044695270033379125 0.06079580993014028 0.03788597591076104
0.004456351970799284 0.06246176294183109 0.03786823287261376
0.004443051050318309 0.06413251690168947 0.03786356952365316
0.0044297731492085575 0.0657973476514207 0.03786252732820955
0.004418282739354364 0.06733019342972785 0.037751819530451314
0.004416797550968973 0.06814607343064988 0.03700129300971505
0.0044245019447143215 0.06830782693097615 0.035657873322420985
0.004433740038820932 0.06836321188064703 0.034212162774377164
0.004444067523802259 0.0683444283109908 0.03269214383295127
0.004456283292828791 0.06819556176632757 0.031045139201817118
0.004469126338902107 0.06800640664466079 0.029352465651867887
0.004481664328640748 0.06784283252766105 0.027674865518391434
0.004493879940125218 0.06770590774846613 0.02601365261726979
0.004505778934744718 0.06759507357039218 0.02436863237177883
0.0045165735440425864 0.06756519810914552 0.022792067601122845
0.004526177091420451 0.06762178885303821 0.021290339769376776
0.004535562589033548 0.06769662544790117 0.019799432759752877
0.0045448452559999795 0.06778161097838553 0.018311788290521103
0.004553964254600101 0.06788090590450085 0.01683153414601507
0.00456419247411256 0.06790655061963513 0.015273392299554711
0.0045736406998606455 0.06798920829310828 0.013763795973904591
0.004584234154890252 0.06799620360133524 0.012173332133380343
0.004594381534306513 0.0680371857242853 0.010608985101345947
0.004605241288962746 0.06803270440738757 0.008992427008457482
0.004617189142366471 0.06795746488295373 0.007297689204583735
0.00463005765334561 0.06782339046035868 0.005535569139274277
0.004646639846484307 0.06744123539148372 0.003514466813061945
0.004179296750475838 -0.07333678083682588 0.03302818615329234
0.0041690741587388 -0.07132726563150965 0.03266895580118134
0.004158914649424468 -0.06932899215479071 0.03231056124626769
0.004148817666015386 -0.0673418594482717 0.03195299299004739
0.0041329621954486195 -0.06473519469411027 0.032003787150653495
0.004129004180392512 -0.06342171289031268 0.031226587536224926
0.004048916852944008 -0.0538949084280238 0.03582081904933171
0.004052622351439286 -0.05342644823340109 0.0345246360067728
0.004070051360549889 -0.054431406213416744 0.032251631129187996
0.004088804055284324 -0.0555708819585084 0.029875351610760215
0.004057577640298493 -0.05135197251700241 0.03106557603881105
0.004048191176771348 -0.049479768911215305 0.030703489255957783
0.004039943519760893 -0.04773301072278019 0.03026413113677362
0.00403174180233422 -0.04599467514590566 0.029825662771529926
0.00402356096713335 -0.04426207169386359 0.029389867453991803
0.004015425564997258 -0.04253778885249743 0.028954941193160333
0.004007555791022853 -0.040845086608959635 0.02850475653638873
0.004002807123494636 -0.03948519539139461 0.027829692245142257
0.00400158500805449 -0.03849881771747443 0.02689751893869391
0.00400323486467903 -0.03781487513673554 0.025753875628541034
0.003999240630982649 -0.036538108941498504 0.025027644928506176
0.0039927107668225595 -0.0349975868132279 0.02449200434312271
0.003986093087687272 -0.033450687849821914 0.023966250858574623
0.0039794489804843985 -0.031903869085673164 0.023445855644267433
0.003972887194572218 -0.030368463106601684 0.022922669000593587
0.003966359014811609 -0.028839358524081538 0.02240030009716526
0.003450287326741077 0.025487668955218368 0.06042164152876012
0.0034436245875533534 0.026915919323060977 0.060046262937222705
0.0034392962852267755 0.028100412271351016 0.05949652479580669
0.0034348888319731172 0.02929120152053849 0.05895504443875654
0.003430142534928882 0.030514923931524496 0.058441790153086315
0.003426672019550423 0.031605778177777766 0.057832834522608845
0.003422368328114047 0.032780410866615595 0.05728994672155607
0.003419903700623027 0.03376538724215433 0.05660686815710231
0.0034154745757595008 0.03494950846678968 0.05607765008396942
0.0034124867110523088 0.035985162453265385 0.05543836902064514
0.0034096016305730508 0.03700910546994962 0.05479257705699209
0.0034060840200520383 0.0380958664557598 0.05419787783640673
0.0034037223303348485 0.039064311457386036 0.05351400261387129
0.00340150514579633 0.040017172817081725 0.052819923826277926
0.003402273239337203 0.040668693617752216 0.05189050767405706
0.0034057474542226944 0.041048822767900006 0.05074565113389179
0.0034128150228579196 0.04107040306014986 0.04931254870696772
0.003426975868201403 0.040385817798189005 0.047308530993331044
0.003442709954425913 0.03955034333918761 0.04517105503884716
0.0034565917085401516 0.038906015829136886 0.04317463547611311
0.0034734922044750618 0.03796775993621826 0.04092738120811279
0.00348945294342081 0.03712989883685042 0.038747615626006926
0.003504136505636501 0.036425202625110176 0.03666347556578675
0.0035203051259351643 0.03558022987138992 0.03445078948338698
0.0035371867505873864 0.034671968042373325 0.032171547045809934
0.0034531126570099043 0.043691566700219286 0.03816414706767074
0.003440874779917606 0.04563139250986453 0.03828927963189366
0.003431056925641564 0.04732920258134787 0.03822093400282889
0.003421330659681167 0.04901386430789667 0.03815001996723144
0.0034116416201801325 0.05069073195242274 0.038080981689785465
0.003401857199080006 0.05237271839102586 0.03802483657198569
0.0033919268386267023 0.0540646654839651 0.03798588192423635
0.003381923387963081 0.05575943001008721 0.03795812418822403
0.003372004791735029 0.05744171495335659 0.03792834196973971
0.0033620234677600204 0.059125792743003336 0.037908914231150226
0.00335201533274683 0.06080817058251853 0.037896851397006825
0.003342100691471719 0.06247729277584507 0.03788196860304788
0.003332397023087225 0.06412197713330559 0.03785419852484301
0.0033219495113518092 0.06583352678077276 0.03789486382374313
0.003314691053081971 0.06723678641359038 0.03766789558599626
0.003314875417928774 0.06792947136323474 0.03680566063197582
0.0033212001751156627 0.06803988689071505 0.035414604951210626
0.0033283433893733423 0.06807556645728685 0.03394963590370981
0.003336281512895715 0.06803925930733046 0.032412166156503275
0.0033455294587566007 0.06788297354180262 0.030756855063194977
0.0033551122047757206 0.06769918554964693 0.029067650686223967
0.0033645945340515155 0.06752891980763126 0.02738232713455624
0.003373713742170901 0.06739668866427112 0.02572398432548073
0.003382463480188423 0.06730285131902713 0.024093458457788097
0.003390249976413369 0.06730246521018513 0.022543372997721522
0.0033975086840023383 0.06735445295947051 0.021035969836709134
0.0034046216598877218 0.06742306002407494 0.01953778019631136
0.003411666796215081 0.0675009891007558 0.01804198992231082
0.003418518237067833 0.06759980903961482 0.016559873615631937
0.003425943401597345 0.06764875164416739 0.015022952558680636
0.0034332030412337735 0.06771607779062588 0.013497083938351695
0.0034411438622165397 0.06772410155723224 0.011906244734192606
0.003448631452485419 0.06777695832889108 0.010352227883267506
0.0034570450337428455 0.06774857650316346 0.008710633805922463
0.0034658296561114856 0.0676900419035556 0.007031088533549001
0.0034755711826239687 0.0675484153862485 0.005260018949837186
0.003488595889529593 0.06711365891144738 0.0031845047673649818
0.0028008643370032284 -0.0775389978882946 0.033656072230411616
0.002793977379955306 -0.07550859996220954 0.033293412010977075
