# .PCD v0.7 - Point Cloud Data file format
VERSION 0.7
FIELDS x y z
SIZE 4 4 4
TYPE F F F
COUNT 1 1 1
WIDTH 782
HEIGHT 1
VIEWPOINT 0 0 0 1 0 0 0
POINTS 782
DATA ascii
0.06800944232671308 -0.07233571121954069 0.036353948945763825
0.06806600667119841 -0.07278298624246715 0.03527588421981159
0.06815591675794143 -0.0730797926932471 0.03405583971017395
0.06829200289049155 -0.07316895428051523 0.032638329714027026
0.06846997171827052 -0.07307134240486851 0.03103984903083945
0.0686732354190259 -0.07286317775834766 0.029329392515027253
0.06890258768920937 -0.07254167061804695 0.027502637205906122
0.06914812451198146 -0.07215215801961061 0.025600982191087973
0.06941853632939299 -0.07165616371423195 0.02358654535491911
0.06973664225781868 -0.0709523463479762 0.021360228155937966
0.0701947407327177 -0.06963011282203724 0.018522019397681166
0.08833318859234435 0.07448822013841871 0.029013464064949035
0.07022630894316999 -0.02001056787059563 0.08809279855642152
0.06973737679622802 -0.023249469733103933 0.08886912773238018
0.06925520569940595 -0.026443583422127437 0.08963472167542641
0.06877501634496443 -0.029617674647563486 0.09040538557873129
0.08230004664562779 0.03904180474929103 0.04397937812539776
0.08140892245908987 0.03364118811005701 0.04599326457804703
0.08066315641228505 0.02900123802968191 0.04753531862559879
0.0799304656528963 0.024443160542627074 0.04905095813541627
0.07928169281215934 0.02032697053790178 0.05029746642880578
0.07250513122274063 -0.014888863010980802 0.07258765987310042
0.07041548353604937 -0.02621716758558068 0.07890220993705716
0.06960863546861695 -0.031015794603951763 0.08083437087346385
0.07767181128730004 0.00896669038399911 0.05202452308272171
0.07744845740052508 0.007049278032551953 0.05185739452741156
0.07742296945314751 0.006130962469911405 0.051004678087786415
0.07746567670596584 0.005555242638658253 0.049913589907027434
0.07779298526724704 0.0064033431869806035 0.04782061099617113
0.07769943730701688 0.005142283893858179 0.04720480800414789
0.07704502557051283 0.001086938355549294 0.048577298797502055
0.07588904995841186 -0.0054504904359383155 0.05174784071857863
0.07512866141290249 -0.010000197230447816 0.053536100507417805
0.07463850956213194 -0.013195389934849977 0.05437608609161937
0.07423751164828266 -0.015939740810591685 0.054907961251754234
0.07482049741896282 -0.013820440613818652 0.051905478264146654
0.07508562380462351 -0.013278271091061833 0.05003754784579989
0.07507456495971795 -0.014098712157096294 0.049164649636288416
0.08065488385779548 0.012500584583447716 0.027949046039497105
0.07034565973843794 -0.055280378947207054 0.04492812082862352
0.06985365186805181 -0.058285368860602815 0.046012381040422434
0.06956483100386321 -0.060337812684745695 0.04630511933519532
0.06943497377143959 -0.06164861373364372 0.0459743393728011
0.06932811865708638 -0.06285053634294274 0.04555519794424806
0.06923778517452159 -0.06397414669995066 0.04507271894033105
0.06915741585132973 -0.06505010047802573 0.044552549628114724
0.06908364762208764 -0.06609413106717832 0.04400782997383712
0.06902422697972925 -0.0670709817488368 0.04340712112735884
0.06898357501689001 -0.0679608997008549 0.04273204054480051
0.06895782473876481 -0.0687820812718638 0.041997571466314165
0.06894348895966675 -0.06955083807962292 0.041217341724369694
0.06894038078244391 -0.07026836738449982 0.040391696733031834
0.06895039702614818 -0.07092642712414915 0.03951247240024197
0.06896974697647722 -0.07154253856667092 0.03859473316550388
0.06900432748520724 -0.07209041633520463 0.03761388778449909
0.06904829474729336 -0.07259679904096966 0.03659348434171156
0.06911678045871997 -0.07299409972260967 0.03547058343225118
0.06922037338820031 -0.0732356802385008 0.03420035815827638
0.06937162545650903 -0.07326656879907195 0.032729297674097324
0.06955709619346685 -0.07314810096942198 0.03111175444816061
0.06976601142483867 -0.07292921274327147 0.029391575013556492
0.06999771747076072 -0.072613520510805 0.02757064804781839
0.0702487124227393 -0.07221721555039845 0.02566288440747011
0.07052318981274834 -0.07172237739963494 0.023649875672640597
0.0708763888824145 -0.07088645418951167 0.02129687742347336
0.07151463989424608 -0.06880529333966323 0.017724888640164693
0.09114098706923002 0.08257040353903039 0.025524296188856155
0.08949376823007961 0.07325677004147735 0.02980044439845031
0.08818753615291722 0.06571130180364382 0.03300092273263072
0.07132718185477585 -0.020797320988621748 0.08728428025758914
0.07083068077239454 -0.024030122811142585 0.08806608799106377
0.07034104409225626 -0.027218229359347423 0.08883708679993099
0.06985376755017243 -0.03038458600951499 0.08961197579368718
0.08323607331547363 0.03633634277419562 0.04421185815056561
0.08246843926486376 0.031640585445495584 0.04578103133951633
0.08185477009581218 0.027732858246322767 0.04685218134822444
0.08134021596275866 0.024333831200821388 0.04760440291246659
0.07144673701102575 -0.025930811005258292 0.08005045489057822
0.07007820111207493 -0.03347460006951347 0.08383449966986489
0.08016560956792095 0.01603589747569334 0.04867948825825347
0.07993301085747676 0.014075227665485135 0.04851400877479978
0.07988665299316175 0.013042581443746315 0.04771606890865282
0.07999841429620899 0.012793207053279243 0.046375657610701504
0.0804798625640245 0.01436700866647228 0.04375723814711274
0.08579769584082518 0.03976341389965826 0.024385018369054934
0.07905527620915491 0.005744768626116947 0.04677922904916504
0.07798745857768001 -0.00028966739911828743 0.04955504346073636
0.07709023737982443 -0.005467145482696001 0.05175973505458886
0.0764208837185558 -0.00951289157817281 0.05318617869984682
0.0759845783513428 -0.012408502411916322 0.05380794759797508
0.07565564058207573 -0.014772743487053819 0.054060772391178014
0.07542422520468148 -0.016656671957534674 0.05397570405688029
0.07534658890942132 -0.017790530048567232 0.05334910817999772
0.07571217893401604 -0.016778804582116225 0.051142292966124214
0.07526526288645288 -0.019696607819911782 0.05183665771824142
0.08189408593246789 0.011479993835744051 0.027115780204310158
0.07141225094894464 -0.055509720211665614 0.04512158094057317
0.0708726898824213 -0.05869608149763322 0.046360671051659974
0.07057592747487783 -0.060762952819770344 0.04666755150712931
0.07045074548968237 -0.06204212674583637 0.04631158273459579
0.07034865369117686 -0.0632138170058612 0.045868176296473495
0.0702593892426786 -0.06432527160632201 0.045376821043954074
0.07017862823852355 -0.06539644687636076 0.04485409476649621
0.07010842212207817 -0.06641833487955218 0.044291583829578485
0.07004958552376025 -0.06738758301896824 0.04368567966320119
0.0700113508398394 -0.06826302656966454 0.04299926212696209
0.06998892055952378 -0.0690668068961166 0.04225072577908401
0.06997420849744047 -0.06983559189268285 0.04147185074868959
0.06997210727968672 -0.0705477651109605 0.04064272906786204
0.06998366554308359 -0.07119903415800177 0.03975868787593406
0.07000486561258744 -0.07180767163355328 0.038835453091492944
0.07004028609767189 -0.07235365930897558 0.037854143201155266
0.07009190278002146 -0.07282868178081742 0.03680622549370738
0.07016876627380157 -0.073193264219585 0.03565426270598038
0.0702938308397287 -0.07334704372620082 0.03430359975074282
0.07045766867662817 -0.07333291154819688 0.0327911231550051
0.07064885846430644 -0.07320212246154606 0.031162360370224018
0.07086352982293075 -0.07297243470501946 0.029432275402538566
0.07109432879000466 -0.07267665778965815 0.02763041180425585
0.07135102449533595 -0.07227273092659364 0.025715707267301324
0.07164407400603409 -0.07171599658411737 0.02364377271867285
0.07204983278970792 -0.07067653891103226 0.021095058467210936
0.0923675663751629 0.08157700603069062 0.02615556900807564
0.09099753685025334 0.07378602180555627 0.029462216539412
0.08971372653765998 0.06645410255337358 0.03252353829361365
0.0886478922137012 0.06023750444038439 0.03491068801923913
0.07242762801137607 -0.021583769120638474 0.08647607538206428
0.07192374603059573 -0.024809568168288665 0.08726276442507508
0.07142574880918598 -0.027996150839017186 0.0880421044522435
0.07093194282288802 -0.031152092736309533 0.08881944019354485
0.08451324071039976 0.03538452692063271 0.043292556767992374
0.0839732156505954 0.03188056526794897 0.04407992604069905
0.07249030057985809 -0.025572168043348165 0.08114687846064175
0.07103022809568615 -0.03347421436813691 0.08514872858834341
0.08280578440296503 0.02365580160657177 0.04500758750196299
0.08266718693852076 0.022157618906349152 0.04449593554621589
0.08261836675537328 0.021101318433509875 0.04368577892918446
0.08296156633991197 0.0219596517205205 0.041554443332930735
0.08482220575727611 0.030203665419582693 0.03427862825602224
0.08020117719004198 0.00531219505185998 0.047084787347705326
0.07930776047623185 0.00020198997835962906 0.049205840084723396
0.07854270727503217 -0.004271547135280052 0.05090588884902797
0.07792119411420913 -0.008039189895605314 0.05212795096500111
0.0774969879940752 -0.010846983491440088 0.05268051962203146
0.07722429958102746 -0.012920229540834383 0.05271592853623125
0.07711295490665798 -0.01421642847015514 0.05219451825223276
0.07721401137325662 -0.014496681082461937 0.050931742579814365
0.08401843043505511 0.01714845952897337 0.026107325163334916
0.08372194617890154 0.014908407475606511 0.02616264374955468
0.08344764865129178 0.012779453491374104 0.026146451469293563
0.08313229076158646 0.010461576658208127 0.026282484703155806
0.07248049508773498 -0.05572454074976707 0.04530279213886451
0.07189115530613072 -0.05909673678856464 0.04670043229394816
0.07158562628492955 -0.06118129544692685 0.047024188800298794
0.0714663705836208 -0.062424189421813214 0.0466390130793885
0.0713656200774084 -0.06358189346207604 0.046185286383846835
0.07127749486465584 -0.0646812175025705 0.04568509850835778
0.0711979753562414 -0.06574044872207752 0.04515359862930174
0.07113038952733881 -0.06674504477598359 0.04457753109263651
0.07107751609776512 -0.06768303176246193 0.043945627355040484
0.07103982284873975 -0.06855277544537997 0.04325553576890362
0.07101761678547887 -0.06935337020376298 0.04250551400688274
0.0710035897117366 -0.07011748188973366 0.04172380013382332
0.07100234707425737 -0.07082510301229811 0.040891910697904654
0.07101655124538929 -0.0714649327324387 0.03999884434976231
0.071039112042627 -0.07206846459730787 0.03907223254594461
0.07107662664968178 -0.07260713444274053 0.03808548374940357
0.07113983313108525 -0.07303459541831686 0.03699514125553616
0.07123315648333205 -0.07333237182394597 0.03578255456586138
0.07137638197297373 -0.0734155353154951 0.0343670961524391
0.07155838944134961 -0.07333369188203909 0.03279185035602855
0.07174531481207876 -0.0732342132684346 0.031192422199479375
0.07196092465266858 -0.07301485909225225 0.0294722247475675
0.07219838577925543 -0.07270585009546227 0.027658044320031216
0.07245737938349231 -0.0723092016624351 0.025750409158909193
0.07278290677884426 -0.07163302217166728 0.02356441154324157
0.0732418523543211 -0.07039379348470837 0.020823218383716258
0.09391200598058996 0.0821882914265682 0.025767116397752254
0.09259836903483751 0.07477911268485338 0.028827563951111856
0.09148031497945688 0.06836056798165202 0.03129828787576572
0.0903880881185006 0.06209098638224925 0.03371276469515644
0.08949378362848608 0.05681541437358334 0.035520364940459515
0.07352783514561889 -0.02236899283422361 0.08566758268253577
0.07301621123833676 -0.025589622539161694 0.08646034085364065
0.0725101994491319 -0.0287728685592179 0.0872468531736289
0.072009894055429 -0.03191843519188192 0.0880266186964308
0.07354996503960244 -0.025125718630708394 0.0821819357237234
0.07197897762785897 -0.03347121264901032 0.08645592976814201
0.08555502215981463 0.03162480532297279 0.04115099919808718
0.08550301731162432 0.03054002960883878 0.0403289346630889
0.0855326903811696 0.02985053236774382 0.039238638339956056
0.08604928865996815 0.03150613977930272 0.03653573338911309
0.08169273941614227 0.0065410640106389195 0.04621674747999399
0.08086594217082263 0.0018107951373394493 0.0480631740359706
0.08021627880240673 -0.0020621315322090217 0.049328016871146296
0.07969397126323416 -0.005318810649882266 0.05017451574729331
0.07928618518717181 -0.008023665742350083 0.05064206374835467
0.07910153355817603 -0.009667395590591099 0.05035451379056938
0.0792554589887601 -0.00971276123895104 0.048907195416390936
0.08592954027880047 0.020886646814946397 0.024963812489704418
0.08559413085897823 0.018476447418975916 0.025127401348675138
0.08527242337051047 0.01613691983779597 0.025251190791704348
0.0849809150030295 0.01394472620660736 0.02527721915252823
0.08470184119082994 0.011816174490304199 0.025266541822391297
0.07358299712477523 -0.055780498245294075 0.04534999491057079
0.07291190048801824 -0.059475134565781296 0.04702131885597843
0.07260641557586411 -0.06153785494378672 0.04732815594483364
0.07248267790195322 -0.06279166035364003 0.04695393819894317
0.07238024824472657 -0.06394912363335664 0.04650166736865219
0.07229496003980866 -0.06502919419743264 0.04598647401034922
0.07221945754117307 -0.06606465586168775 0.04543586830858237
0.07215079151049553 -0.06706870946924276 0.04486081309357026
0.07210370438190428 -0.06797714015866313 0.04420439575540336
0.07206730363945905 -0.06883806536095305 0.04350786560277298
0.07204479683051382 -0.06963784494163555 0.042758445252377375
0.07203219915717733 -0.07039417933169073 0.041971108484948005
0.07203075970413804 -0.07110194904560391 0.04114065039600312
0.07204749690720709 -0.07173115598534985 0.04023929406938054
0.07207576984106914 -0.07231095958085176 0.039292398876677403
0.0721220989347974 -0.0728136514780493 0.03827396679095996
0.07219631334366836 -0.07319757820574341 0.037144670047439265
0.07230619932154976 -0.07343021625617002 0.035872791503278934
0.07245353876354212 -0.0735049957164905 0.03445003208101133
0.07265507710182217 -0.07335163847413811 0.032808574967260584
0.07284338410531392 -0.07325847263616164 0.031215147741189386
0.07306505356259001 -0.07302742705157078 0.0294840594911166
0.07330484388532009 -0.0727239938961119 0.027675218669362844
0.07357379773373016 -0.07230206675737155 0.025743620299391146
0.07394149148474563 -0.0714693372485033 0.023407854509342796
0.07472440185404643 -0.06889829603300507 0.019385401484526443
0.09584495660241363 0.08467716608018439 0.024185514968231903
0.09440639253520276 0.07675161309612943 0.027567002085590042
0.09328899965542937 0.07041473535817144 0.02997811212063406
0.0923688108956746 0.06505592874837418 0.03179649373792859
0.0914665980333577 0.05980180648401329 0.03357935325051792
0.0751539321711556 -0.019894933098918988 0.08405051523756726
0.07462743130324656 -0.023154833707570044 0.08486000216478012
0.07410825605843845 -0.0263693767400916 0.08565822605995671
0.07359514443531032 -0.029544834430849987 0.0864489644579757
0.07287855746516407 -0.03368578649934961 0.08790333635734715
0.08850268876222242 0.04035792602618826 0.036834398965009285
0.08844680095932149 0.039242024545077636 0.036002836420358064
0.08872614126598635 0.03972443123436331 0.034087039896606774
0.09007178893312204 0.045271801418458546 0.028699822960820576
0.08271352106172358 0.004728233565245821 0.0459910412967835
0.08216330292057318 0.0013606189227016174 0.04688363201997636
0.08182683518210428 -0.0009985049402008173 0.0470722139863074
0.08178728396998783 -0.0019678115096970483 0.046269693109357024
0.08838698039062873 0.027932806938106902 0.02305841628012012
0.08798529840017809 0.025221070289231817 0.02340824617556453
0.0875872508472205 0.022533869560752484 0.02375491079368658
0.08719798319182881 0.019894875858182393 0.02408074134715482
0.0868518257547056 0.01746213778840766 0.02426799041207711
0.08652553785287863 0.015127471910386714 0.02439495290291932
0.08623851522966983 0.012979370332690587 0.024394149657715636
0.08595540963681507 0.010854725222981587 0.024386374986048065
0.0747064695180972 -0.05574291696290978 0.045318293336436555
0.07393343793184447 -0.05983877369123236 0.04732968987666458
0.07362457520832245 -0.061895240608464186 0.04763282739783492
0.07350090253430373 -0.06313981768367227 0.04725231142873626
0.07339972325125914 -0.06428434433668823 0.04679047113408724
0.07331516067547296 -0.06535493104925466 0.04626858803891615
0.07324068672529421 -0.06638027897639698 0.045710664340124496
0.07317642344935674 -0.06736015200141093 0.045115893197731405
0.07313163410585719 -0.06825497383511042 0.044448845002517
0.07309584208854857 -0.06911029701889004 0.043748645824125076
0.07307120979278717 -0.0699171147934326 0.043006748746643286
0.0730609968228559 -0.07066181244343045 0.04221031526294555
0.07306099682347394 -0.07136274821347471 0.04137497236011395
0.07307668220347757 -0.07199692465538715 0.04047933321507863
0.07311300327820436 -0.0725437714261099 0.03950377368110641
0.07317386258534485 -0.07298734754723618 0.03843249494035833
0.07326249962417895 -0.07331466470940257 0.037252091228023754
0.07339769883423276 -0.07344729386504684 0.035888541312322
0.07355224368918375 -0.07350110720892267 0.034446427167750204
0.07375386748291651 -0.07336022089164157 0.03281657300919438
0.07395099472654282 -0.0732420392861648 0.031199753408369613
0.07417491899744562 -0.07301564461966198 0.029472964447244232
0.0744210097607319 -0.0727011165812319 0.027653563724783947
0.07472515841344442 -0.07214977734987194 0.025598716984715775
0.0751290504339901 -0.071190277433335 0.023140946744726554
0.09630867314511207 0.07911839493112643 0.02605446758463309
0.09534161735611969 0.07357670162955882 0.02794597430277873
0.09439498895979062 0.06815092640642367 0.029796166786359546
0.09367828073978487 0.06383980780520432 0.03095484599272752
0.09304604049931925 0.05994436776890577 0.03186683817428593
0.07626075280206003 -0.020686646381505358 0.0832377113040674
0.07567298078741796 -0.024194629618340402 0.08422079148435227
0.07395469765560121 -0.03304149398311945 0.0887730788809396
0.07471048404637401 -0.030171055667632063 0.08555415133729918
0.0742268597598539 -0.03315682010772525 0.0862446224245702
0.09206856246469752 0.05006905276967538 0.028685296767889612
0.09009765567997952 0.02972616357396818 0.02175651803725509
0.08967072058725775 0.026922685958694237 0.0221662005800789
0.08926336492632164 0.0242166053907496 0.022519945939046992
0.08886022513967966 0.021537419973811978 0.022868706126312865
0.08846545164854522 0.01890386680994699 0.023198348606634667
0.08810812548295835 0.016447557931603796 0.023410237981208948
0.08777856419553963 0.01412362407315354 0.023535963992666498
0.08749524140468509 0.012014685396049829 0.023511693909871845
0.08719582422041514 0.009838589783056406 0.02354878279566136
0.07582884519361482 -0.055711174934936825 0.0452915174472408
0.07494474070428103 -0.06023579820317132 0.04766637216802194
0.07463653592717272 -0.062268755008845544 0.04795124860587019
0.07451785003524435 -0.0634832115430553 0.047546602331374255
0.07441780397181794 -0.06461567124752698 0.047075920268013605
0.07433531918902511 -0.06567126723238359 0.04654256034049892
0.07426266836145634 -0.06668341381661264 0.045974587504275966
0.0742025741585827 -0.06764081777709086 0.045361541129631644
0.07415812260078698 -0.06853074793058889 0.04469148214742752
0.07412518874462644 -0.0693711020400436 0.04397931954958001
0.07410133922589775 -0.07017248019140387 0.043233798391360934
0.0740902516551431 -0.07091964819466895 0.04244076529547486
0.07409099072396676 -0.0716168990693879 0.041603320971132285
0.07411206036832006 -0.07222890643637714 0.04068885643886022
0.07415923324441684 -0.07273209342527548 0.03967475521213282
0.07423891581978534 -0.07310045549280814 0.03853572579283365
0.07434201542179529 -0.07337278737001285 0.0373054159462991
0.0744956151000832 -0.0734372027785063 0.03587923481706279
0.07465266441169452 -0.07349021886785018 0.034436332928652114
0.07485731193294365 -0.07334929773235704 0.032806393606249706
0.07506346385104422 -0.07320603633072287 0.031166026780586664
0.07529173720391893 -0.07297557765061552 0.0294352349884327
0.07556020147244115 -0.07258431083052125 0.02754299908590868
0.07589121580171186 -0.07194172476357247 0.02540075502612299
0.07644067846713673 -0.07041203490654868 0.022396593878913407
0.09874544384541434 0.0839441738020057 0.022970466799996536
0.09743093473395924 0.07682022730207322 0.025861419751408043
0.09675705151392765 0.07273835104345006 0.026831269828887006
0.09609242611842163 0.06871255170290785 0.027787796081732263
0.0955521186532184 0.06528240138928082 0.028377851928530262
0.077000575569043 -0.022473731045663692 0.08441232681536506
0.07525206421353396 -0.031362014093086255 0.08895819113767559
0.07686824544920276 -0.024525527781294965 0.08311279666607896
0.07636568179208904 -0.027580779447541948 0.08382285571741568
0.07586850134480151 -0.030601661769434074 0.08452726704882627
0.0753769989547497 -0.03358695832927566 0.08522492755902075
0.09141375019591616 0.02883452470814324 0.020770708671625726
0.09095317163550676 0.02591212967669143 0.02127559559837011
0.09054015386296571 0.0232117108259991 0.02163324495149599
0.09013221750953095 0.020541739009129367 0.021983185042578124
0.08973194677142787 0.017913618792590735 0.022316633486694104
0.08936355056290121 0.015435079497749193 0.02255237774257174
0.08903890966349838 0.013158094075432392 0.022649493674542942
0.08875135571923012 0.011051830834948706 0.022628971718429258
0.08843373365762207 0.008817696709964185 0.022716387158539575
0.07595758059486932 -0.06061479034879369 0.047987762762701835
0.07565070112930472 -0.06262210635217474 0.04825248079795946
0.07553185951400777 -0.06382906786557563 0.047843003581881205
0.07543433656530844 -0.06494392235143831 0.047358719492153534
0.07535683839730588 -0.06597270938697497 0.04680363322843284
0.07528871144302443 -0.06696071221748212 0.046216016273465166
0.07523046851588303 -0.06790604473266892 0.045593676497629854
0.07518843935471868 -0.06878252889313463 0.044913009168625506
0.07515544937266161 -0.06962053618987868 0.04419993610191342
0.075136530691985 -0.07039938193798245 0.04343554052774967
0.07512155235716916 -0.07116151719176 0.04265694446372337
0.0751249219625893 -0.07184737438895988 0.04181039766544109
0.07515619882603476 -0.07241795971503157 0.040859607142821164
0.07521864307011744 -0.072860610092016 0.039791438215388164
0.0753124101654374 -0.0731755569338744 0.03860426903923597
0.07543754552642344 -0.07336348921041969 0.0372968853364547
0.0755915179323759 -0.07343565024529747 0.03587780299474225
0.07576230059772397 -0.0734419898617284 0.03439162133153961
0.0759665766056581 -0.07331496278565008 0.032774396521110805
0.07618735734350608 -0.07312460748801108 0.03108974636873646
0.07643305959734235 -0.07283722774776458 0.0293049564301735
0.07671547521853449 -0.07240577553692301 0.02737400320905259
0.0770763694385518 -0.07166256098929757 0.025135130798582317
0.09924809408147055 0.07779356959719191 0.023564033133950557
0.09876668805499997 0.0746514250880464 0.02392781311922121
0.09833385706837258 0.07174276697040621 0.024155299532257368
0.07741222975260811 -0.025724425353814195 0.08654894408561567
0.09805295793471175 0.06864291388715049 0.022858303122250345
0.07856219657777556 -0.02185955139794682 0.08134080998244572
0.07804476334998262 -0.024954932819082176 0.08206778545460788
0.07753390489327786 -0.028010706891592796 0.0827858523501401
0.07702988481895458 -0.031025850137166855 0.08349398067671371
0.0765291197383241 -0.03401689271728603 0.08420305211106327
0.09273015164063753 0.027945550959895704 0.019783261641567296
0.09223460163256712 0.02490237797096634 0.020385699691114867
0.09181593087072139 0.02220761269816318 0.02074724672562961
0.09140322909246237 0.019546825777724097 0.021098346751849628
0.09099746968123355 0.016924130929820425 0.021435595207076275
0.09061784483964307 0.014423513036957103 0.021695290207235485
0.09029839182196113 0.01219322544496304 0.021763630569490433
0.09000660500945759 0.010089639344556256 0.02174685741446375
0.08967040180552731 0.007797827317292838 0.021884826189743356
0.07697230650833309 -0.060975063148848596 0.04829327909277381
0.07667628053269973 -0.06291771047096534 0.04850448345303621
0.07654156910684097 -0.06418295405643809 0.04814628648486369
0.07644992198255485 -0.06526673168409208 0.0476368304496852
0.07637622809316094 -0.06627437043324907 0.04706489569397848
0.07631371894390288 -0.06723437306295188 0.04645427801925922
0.07626043837345241 -0.06815512436735266 0.045811679198494604
0.076221476535741 -0.06901590888736886 0.04511834627754424
0.0761907153311467 -0.0698422693674024 0.04439605202748159
0.07617003194702977 -0.07062673282594939 0.04363768200325585
0.07615466899772404 -0.07138904462773427 0.042860305342770244
0.07617041135882657 -0.07202407359379787 0.041969157776036936
0.07621349902683086 -0.07254799390463262 0.04097705249775713
0.07629296873625001 -0.07292482851168103 0.03984974347851766
0.07638710141579279 -0.07324365871817473 0.03866642387029462
0.07651992901405025 -0.07340765049607878 0.03733740117127232
0.07669089313747873 -0.07342012405636217 0.03586348398130995
0.07688097843985077 -0.07335872057155768 0.034314424987402725
0.07708949247131328 -0.07322674950449809 0.03269218966954657
0.07732513359860267 -0.07298984273470954 0.030963502269687693
0.07758425663569288 -0.07266332933312675 0.029141203263198023
0.0778837786471182 -0.07218033849240141 0.027160611614332364
0.0784044989478152 -0.07082205529100011 0.024335389938817675
0.07922296586864917 -0.025385939913864897 0.08102171209639336
0.07870398342823867 -0.028441317169171754 0.08174720195922139
0.07819195344077676 -0.03145603779106049 0.08246264619095367
0.07768304087395211 -0.03444749893873311 0.08317957983785601
0.09420425140612697 0.027745409873728866 0.018287823130396286
0.09352008646206529 0.0239155114762315 0.01948012932340415
0.09309069715213009 0.021204310060783216 0.019861950426310282
0.09267326102240919 0.018552679391976634 0.02021419046472006
0.09226202149699701 0.015935402346678895 0.020555232988728744
0.09187100984032427 0.013412857317615268 0.020838974331670923
0.091557281787368 0.011230181131618888 0.02087748708529541
0.0912609901686096 0.009128110240171627 0.020865350370258384
0.09090583053021183 0.00677898006609623 0.021054098634484486
0.07796379537818217 -0.061421040388883685 0.04867147397634647
0.0776748712278006 -0.06331607198801925 0.04884408684012265
0.0775523381308154 -0.06452252064403341 0.048437297389219036
0.07746306123334475 -0.06559047181210459 0.04791574331832127
0.0773929074568918 -0.06657861597418796 0.04732839653752041
0.07733984519426818 -0.06749576094477805 0.04668185435721278
0.07729340314448634 -0.06838499631895145 0.0460128707024296
0.07725374998217507 -0.06924581680737574 0.04532062851585961
0.07722605541899763 -0.07005745612471609 0.04458637785310626
0.07720510537340963 -0.07084132234634383 0.04382847713349963
0.07719703591260928 -0.07157284285228116 0.043024581656749994
0.0772237484368988 -0.07216420513858063 0.042095062697726116
0.07729340314839771 -0.07258357951917632 0.041009193007445544
0.07738537783872386 -0.07291477196145613 0.039840612923606855
0.07750970745573156 -0.07311826634371882 0.03855198132036114
0.07762414104890802 -0.07336348921050123 0.03729688533652953
0.07780501195420787 -0.07334635338655188 0.03579544904908527
0.07801379345070622 -0.07322165678141329 0.03418735745156809
0.07822665736642856 -0.07308456578193345 0.03255968721613961
0.07847461853481834 -0.07281258983099653 0.030797456381687904
0.07875513565288061 -0.07241670491823621 0.02890896693674333
0.07910760622548205 -0.07174277054122463 0.026746423595241597
0.08040305351727232 -0.025817636622173512 0.07997396501554632
0.07987592182083092 -0.02887261190834417 0.08070690061770838
0.07935585716188931 -0.03188690478268591 0.08142968305681098
0.07883876658489213 -0.03487877856959759 0.08215450699357132
0.0948278366179286 0.023028444973412887 0.018501241473401986
0.09436445390782912 0.020201801968901922 0.01897735521972138
0.09394259497381151 0.01756049523219838 0.019329813334679202
0.09352588139493562 0.014948615364393125 0.019674649022062063
0.093123047089336 0.012403111110325493 0.01998342907422873
0.09281504360428403 0.010266629957484563 0.019992834229635048
0.09251451208869889 0.008167242838036659 0.01998444995895965
0.09213057685385394 0.005721301062932893 0.02025507471474286
0.07894045632812365 -0.06191494512923096 0.049090312044757556
0.07866684814653874 -0.06373021182163557 0.049197141249754495
0.07855075567323902 -0.064902676598871 0.04876309366086279
0.07847276783636728 -0.06591909025673265 0.04819885901868454
0.07841037170985964 -0.06687124557284907 0.047581837050911624
0.07835958928041824 -0.06777556399207862 0.04692546378703044
0.0783188156849842 -0.06863879872245743 0.046235006926133804
0.0782856818404206 -0.06947070653282961 0.04551849554470133
0.07825958432694648 -0.07027390348035895 0.04477781863775898
0.07824187130708198 -0.07104320239920375 0.04400797206367252
0.0782498509068315 -0.07170996852139294 0.043147142685449946
0.07830029625938029 -0.0722083088196036 0.04213468882554772
0.07838985550478425 -0.07255263596925282 0.04098124515607743
0.0785027297621678 -0.07280642930015124 0.039742246327099495
0.07863676085180403 -0.0729788223714018 0.038424714221113265
0.0787538965046966 -0.07322007188600166 0.037165306906629
0.07894956976535963 -0.07315516269487243 0.03561912360993935
0.07914820913553268 -0.07308213216586595 0.03405800856177599
0.07937908550632616 -0.0728866978283812 0.03237529206299988
0.07963912620414558 -0.07258170064076797 0.030581165422171985
0.07995164464779737 -0.07207725201450732 0.028589317743043685
0.08059153018905378 -0.07030812199477499 0.02538843053851214
0.08158690909187223 -0.026241810913773422 0.07891895801358373
0.08104972450899038 -0.0293045927423477 0.07966494438615135
0.08052160033261611 -0.032318452722498725 0.08039508741338017
0.0799975049834725 -0.03530550043014413 0.08112421402411732
0.0794797918095744 -0.03825563396192566 0.08184510449663093
0.09613532661662783 0.022141554939090036 0.017522548358370582
0.09563748911012994 0.019201293565544564 0.018092550810222707
0.09521067467000827 0.016567876456598185 0.01844701640345081
0.09478849801866471 0.013961399333473956 0.01879563432539566
0.094376192136842 0.01140360984999006 0.019121498149381078
0.09404392939291562 0.009186900333162329 0.01919880958078718
0.09371592550816862 0.006993766191939255 0.019269364537071176
0.093319703405155 0.004523106454894399 0.019567443417827124
0.07989290318616893 -0.06249246500471506 0.04958005690719136
0.07964213612883927 -0.06419981430659077 0.04959747759663469
0.07954877666171851 -0.06527400131023403 0.04908132149602307
0.07948018795889299 -0.06624781840099309 0.04848206922892323
0.0794210114164811 -0.0671829975867751 0.047851839097258486
0.07937456323427429 -0.06806662892832827 0.0471788783364564
0.07933862791414922 -0.06890782017158908 0.04647046335987931
0.07931041583823789 -0.06971786900731441 0.045735959034279516
0.07929030479611196 -0.07049549037538683 0.04497380518112376
0.07928439172508547 -0.07121692056983236 0.044162427793523085
0.07931909434197182 -0.07177887310462294 0.04320872865004366
0.07939906529425983 -0.07216420513864485 0.04209506269778385
0.079505151656309 -0.07244893011514297 0.04088757924496411
0.07961549643197359 -0.07271892606787628 0.039662800289512745
0.07975944326841511 -0.07286019629221929 0.03831644710320309
0.07990631379617925 -0.07299265783952968 0.03695666556377514
0.08009976591144898 -0.07294738349939944 0.035427499438462406
0.08031397158603965 -0.07282535943699386 0.033819962627886835
0.08055434283345625 -0.07260627869551495 0.032113966628436574
0.08083260585691551 -0.07224574881918916 0.030266454535237686
0.08123841211000726 -0.07140087790686456 0.02795240335588628
0.0822256050612798 -0.029736362831506546 0.07862071189115008
0.08168918731704387 -0.03275068322604252 0.07935885538753812
0.08115992683136569 -0.03572505749855087 0.08008682466748221
0.0806310450712852 -0.03868861977970239 0.08082462174842434
0.09757018006505679 0.021784335525928955 0.01614477883134413
0.09690923410713542 0.018200368258432076 0.017209353005500805
0.09646626378697422 0.015528450458123177 0.01760116011365409
0.09601762849431957 0.012840872574264972 0.018020037273318412
0.09557088672222783 0.010168878859113939 0.018442200636927197
0.09523167618522077 0.007946109740548046 0.01853163530024976
0.09490461435515378 0.005779003917246561 0.01858933105615812
0.0945068051706498 0.003328359752817256 0.018880258466846878
0.08082535825160289 -0.06313349929327355 0.050123662872617714
0.08061898179725496 -0.0646505733886632 0.04998174993339016
0.08053925383612442 -0.06566501589700469 0.049416423690023026
0.08047730762341097 -0.06660816049815804 0.04879251590918998
0.08042345787238879 -0.06751846625366936 0.04814238165191925
0.08039126255559607 -0.06834307356033903 0.04741956377512485
0.08035669630597828 -0.0691763816050121 0.046705517172723865
0.08033074122231537 -0.0699755316629449 0.045962661005702066
0.08031876760756167 -0.07071986685549103 0.04517225902354277
0.08033433400446968 -0.07135714979980895 0.044287107946347826
0.08040725700961263 -0.07177268068193421 0.043203193948191
0.08051217823587845 -0.07206589401695418 0.04200673244996683
0.08062823001106315 -0.07231803808075588 0.04076935909467866
0.08076821700026085 -0.07248017084398883 0.03944602936576669
0.08090828598403677 -0.07264442100514695 0.03811951428195037
0.08108258261159978 -0.07268009883290016 0.036669907855199246
0.08127683326754709 -0.07264260428899744 0.035146417092639826
0.08148803356378231 -0.07254390440266112 0.033559034503666374
0.08174805302627308 -0.07226329130366937 0.03179433319862157
0.08212097078918063 -0.0715590018633942 0.029623127933994742
0.08340357743836652 -0.03016792496742332 0.07757418970158231
0.0828586224930739 -0.03318359791398173 0.07832098309390442
0.08232136316169505 -0.03615750397422607 0.07905625440929992
0.08178428966318636 -0.03912141944959391 0.07980195182682687
0.09814821358196853 0.017070769389084584 0.016425537850706773
0.09767718516228589 0.014313518928943503 0.01689145979297424
0.09722248146965769 0.011630608935198683 0.017315945815821965
0.09676913380234488 0.008960985876472816 0.017745465437160213
0.09641975773484394 0.006719400862925995 0.017856935374967575
0.0960906441411267 0.004565534493798984 0.01791154752846874
0.09569273674578634 0.0021404148420482993 0.01819085626117184
0.08174022353199083 -0.06382612756272915 0.05071102124925875
0.08159408503349974 -0.0650961015043468 0.05036156286875437
0.08152141437323147 -0.06607793739708195 0.04977030025961193
0.08146486966443242 -0.0669959703157525 0.04912662694255049
0.08142033772174576 -0.0678665358909552 0.04844383764944393
0.08139303539858297 -0.06866979469658624 0.04770402225575415
0.08136635749243712 -0.06947017926984089 0.04696265856656667
0.08134151427000239 -0.07026305217399559 0.04621563311964738
0.08134959170291262 -0.07092920103239303 0.04535740842840258
0.08140597644221824 -0.07141057415059249 0.044334608429816014
0.08151350556066131 -0.07169757794517406 0.04313606815959775
0.0816369767884182 -0.07192567380298676 0.04188074786108509
0.08176694317883716 -0.07213119042892607 0.04060060048699693
0.08191063070246223 -0.07228688245229614 0.03927053874179459
0.08208236668554131 -0.07233887345186246 0.037840648511399844
0.08227113911127305 -0.07232947091769609 0.03634822377189323
0.08247012085458949 -0.07228483666145741 0.03481646622796075
0.08270386886098721 -0.07211291605335801 0.03315947873870695
0.0831156577968885 -0.07127721729288528 0.030875400824978416
0.08459292146442009 -0.03056067548094027 0.07649853999677383
0.08403012290095355 -0.03361631419777994 0.07728084887729647
0.08348462746440705 -0.03659063107285265 0.0780240621474681
0.08293933171794364 -0.03955489368699938 0.07877768795784995
0.09938035637100352 0.015922494239145935 0.015658405233910988
0.09888581302876098 0.013100888503913777 0.016183103658620634
0.09842358292775279 0.0104168173565104 0.01661771122674144
0.09796507594778008 0.007755416383266989 0.017050070469429357
0.09760512172654437 0.0054940596359251415 0.017184510003419584
0.09726745874926329 0.0033273332427285474 0.017256505304276304
0.09685860954983878 0.0008841666057977648 0.017558611175845673
0.08267768290046602 -0.06441345962884182 0.05120908698540366
0.08256092009370151 -0.06556169771616749 0.050758483865838366
0.08249569326135169 -0.06651023214006418 0.050140779831804816
0.08245021860479569 -0.06738204691851801 0.04945924475379221
0.08241440678745891 -0.06821618241577515 0.04874665935702677
0.08238312250641174 -0.0690324561758246 0.048019772055573784
0.08235901097815054 -0.06982092363935288 0.0472696415921513
0.08235472142333689 -0.07053377033440061 0.0464538218494559
0.08239457020850434 -0.07107943833892538 0.04549028853572129
0.08249774285488992 -0.07138657417213684 0.04431326964772225
0.08263838251886783 -0.07155424024040768 0.04300795489924725
0.08277042339234587 -0.07175662181903725 0.041728858599937246
0.08290826877757482 -0.07193945763403176 0.04042742967539492
0.08308522427038051 -0.07197820965311003 0.03899028817083161
0.08327191542175026 -0.07198359016036299 0.03751639015036018
0.08346385285923429 -0.0719725769900742 0.036020790926514334
0.08369547554986977 -0.0718172487995486 0.03438523375337654
0.08415556017566266 -0.07081828056056683 0.03195926282683309
0.08520348657843245 -0.03404971871616874 0.07623906032881728
0.08464972405844069 -0.03702444040253128 0.07699024404968743
0.08409890835660613 -0.039977896348727227 0.07774390865843514
0.10061090602994535 0.014777173851790393 0.014891535204579531
0.1000903671625508 0.011883503108390814 0.015481548796731637
0.0996232504118513 0.00920885374410102 0.0159181109805705
0.09916018115351073 0.006557905031205791 0.016351516379306485
0.09877732418193004 0.004229155753495695 0.01654658394371583
0.09843599193869614 0.002069247483200587 0.016620702331252457
0.09802126831850716 -0.00037146376071472975 0.016929573492866612
0.0836322761788788 -0.06492036615437141 0.05163895074793512
0.08352845293471886 -0.06601255228115382 0.05114283760182442
0.08346793930342757 -0.06693899659662866 0.050508233924222656
0.08342074985941161 -0.0678140846913079 0.04983145963894642
0.08338621950186208 -0.06864065780576056 0.04911428881505853
0.08336018557203831 -0.06943469221993093 0.048369977295660394
0.0833451098585499 -0.07018716041508488 0.04759018408197374
0.08336948153943097 -0.07079164078708161 0.04668070664908419
0.08347705218889542 -0.07108563058651729 0.04549576538127681
0.08360941293256759 -0.0712889878105894 0.04422650398215183
0.08375824792201066 -0.07143326907420805 0.04289983254208035
0.08390719519591763 -0.07157961848202754 0.041569825233684965
0.08407263771010737 -0.07166736615368141 0.04018167984157944
0.0842672192104199 -0.07165020584924703 0.03869248657136126
0.08447012603411647 -0.07160560120247444 0.03717140888355541
0.08472412432717896 -0.07137645144576332 0.03547387469154967
0.08529140369916233 -0.07000179715583527 0.032710935148595244
0.0863866005473247 -0.03445200690225214 0.07517314645003992
0.08581665727635014 -0.037458933576438425 0.07595479627158044
0.08526250382603356 -0.040393014859636533 0.07670232644229846
0.10183865993222543 0.013630049847742132 0.014128593138054923
0.10129440773162116 0.010675483529983765 0.014775877027109696
0.10082181825254942 0.008007826073835655 0.015216224550873625
0.10035391354685143 0.0053660886560020216 0.01565158194124122
0.09994657951105684 0.0029659837374644282 0.01591099814128638
0.09960188856433573 0.0008140003451136968 0.015986333921757967
0.09918128101859496 -0.0016242364667038434 0.01630196742240514
0.0845609599210318 -0.06551156056984397 0.052140291809893435
0.08447920823766816 -0.0665147047484489 0.0515709228244845
0.0844241674391629 -0.06741664735119463 0.05091758391073514
0.08437838968432172 -0.06828313078543907 0.050235558421633186
0.08435144793225824 -0.06907875493329346 0.049493715781521175
0.08432640127897668 -0.06986689737699692 0.0487462750268427
0.08434059255706891 -0.07050923599598197 0.047872075239423495
0.08441622070919001 -0.07092466851950818 0.0467977498004139
0.08457648964727726 -0.07102911721250887 0.045445781103892524
0.0847228325706349 -0.07118746415037575 0.04413623759851071
0.08489061235258528 -0.07126949823587325 0.04275345642922429
0.08506224261915364 -0.07134018881313214 0.041354703265543635
0.08524352273720547 -0.0713784290330452 0.03992071522303259
0.08546413892227459 -0.07127617156455446 0.03835289292358535
0.08581925059309915 -0.07068806170989667 0.036333993054635416
0.08648130379733084 -0.06899123825883169 0.03328555743483347
0.08698565068125073 -0.037893242435961205 0.0749170937984644
0.08642329054834826 -0.04082768063311726 0.07567253308267546
0.08585811598045552 -0.04376408839263529 0.0764469078905515
0.10249586996087093 0.009468579929024723 0.014072450602921227
0.1020184274600379 0.00681021542851451 0.014514754648815631
0.10154511360198998 0.004175363161080026 0.014953858692404176
0.101113479875717 0.001706802889375858 0.015275956707640537
0.10076486336877434 -0.0004395346712683379 0.015354288670803296
0.10033836498730041 -0.002875266351833883 0.015676676808702328
0.08562064281524905 -0.0649054801520052 0.05304734508162812
0.08548154044378457 -0.0661178289806007 0.0526544158288722
0.08541575185581406 -0.06705671562470855 0.052032987360177474
0.08536484058812269 -0.06793961932051329 0.05136577449044344
0.08532664421394799 -0.06877486716612169 0.05065920563951415
0.08530302600363118 -0.06955592249613662 0.04990698085331813
0.08529923143989665 -0.07026390806052735 0.04909193082716168
0.08535175289973969 -0.07076580164376445 0.04809662994553876
0.08548132874752401 -0.07098727604771049 0.046852834422726086
0.08565442637238548 -0.07105234436506214 0.04546632477972923
0.08584124720266836 -0.07107035862215766 0.04403211711551802
0.086018379390369 -0.07112654327014811 0.04262568525574145
0.08621562156194036 -0.0711128568546961 0.041150450807835304
0.0864923748498851 -0.07081537317899916 0.039412169779483586
0.08700977131923462 -0.06965571438852558 0.036881645538002605
0.08793771647381046 -0.06702922062643996 0.03299465838449339
0.08816249936797652 -0.0383047645931297 0.07386089117591557
0.0875858981364444 -0.041263028244203415 0.07464112433975092
0.0870124576547394 -0.04419971827815755 0.07542346512461298
0.10369536574365944 0.008265121543773957 0.013369441777933533
0.10321248459588135 0.005613706350476977 0.013815510395153496
0.10273438185370523 0.002988005105763525 0.014256541085398311
0.10227744493720275 0.00044934442612026837 0.014643247431072204
0.10192194395896895 -0.0017024719323677218 0.01473350665759876
0.10149310955613101 -0.004122348049985847 0.015051920145427056
0.08647941522385971 -0.06573112214208932 0.053743812820258086
0.08639903920789813 -0.06672022282623635 0.05316525416290274
0.08634098792758681 -0.06762648166634866 0.05251871318785983
0.08629750063515397 -0.06847872373828323 0.05182779068958776
0.08626257201437425 -0.0692991404699469 0.05111088449692652
0.08624511830513099 -0.07005558287348124 0.05033972649195101
0.08628088471751916 -0.07061904700451244 0.04940113116105693
0.08639839851502322 -0.07088775427376998 0.04820336690439336
0.08655929784555098 -0.07100195812736676 0.0468657523071378
0.08672983528106941 -0.07108408254775406 0.04549439619034984
0.08692806145865853 -0.07106958279571685 0.044031427315258664
0.08714566023600144 -0.07098890303592165 0.042502664315850536
0.08757360928251924 -0.07016023095673896 0.04029453867707744
0.0884066737500647 -0.06789439157132188 0.03677397345029115
0.08934633643898536 -0.03869787187411328 0.07278906285244754
0.0887505534462702 -0.04169820332797686 0.07360747501254208
0.08817320696454672 -0.04461832061605031 0.07438550821071624
0.10490286090078872 0.00710208958316183 0.012637558894375955
0.10440460230870362 0.004420592321527084 0.013116672788813899
0.10392112386418195 0.0018017345339425006 0.013561429733152275
0.10343907912034898 -0.0008041521514480787 0.014011071088801452
0.10307634193868923 -0.00296248116170017 0.01411416388410236
0.10264523501690279 -0.005366601207682786 0.01442858050999879
0.08749892551775496 -0.06525955412704665 0.05475925594098402
0.08737621939089629 -0.06639856288894275 0.05430683039108569
0.08731951949322521 -0.06729696232351873 0.05365433725380053
0.08726375382224848 -0.06819109134356666 0.053000043212363845
0.08721923553466895 -0.06904384610843095 0.05231210445312007
0.0871870042789292 -0.06985176002911692 0.05158698459443001
0.08720698485183413 -0.07047203497657062 0.05070040714521623
0.08729539586770096 -0.07084791507575416 0.04960039425299456
0.08745611209366276 -0.07096720376175292 0.04827290371331233
0.0876345613500887 -0.07102591013347886 0.0468868262458188
0.08782681596234813 -0.07103840848862925 0.04545399894136909
0.08804203236848382 -0.0709725740880649 0.043945175251424384
0.08868538872869254 -0.06939608539841058 0.0410790259157664
0.08992088099898649 -0.042119519281493545 0.07256157978358771
0.08933699777388855 -0.04503340416038365 0.07334273490839635
0.10611648903822371 0.005970975237465592 0.01188307785372128
0.10559417414103461 0.0032285763925256616 0.012420055830888344
0.10510317788214812 0.0006086805870788026 0.01287486030423185
0.10459778971982009 -0.0020559357287462943 0.013381218867295985
0.10422867307629802 -0.004217368470423533 0.013494463852303129
0.10379444956385729 -0.006609125956308248 0.013807544205187094
0.0883554632630097 -0.06606202520057242 0.05543260897699903
0.08828013367420148 -0.06702427399351801 0.05483464705166369
0.08822448111167146 -0.06791506228879202 0.054178494595068405
0.08817714476428513 -0.06877534063675328 0.053498116019035535
0.08813289435041811 -0.06962390335594276 0.052809217509418305
0.0881283416825606 -0.07033091933227675 0.05199979624245915
0.08819060222785931 -0.07080132531575867 0.05098559877654957
0.08833258954917779 -0.07099107590715814 0.04972503667146361
0.08851984825800742 -0.07102348813587361 0.048322165651528914
0.08870592585877689 -0.07106298985639181 0.046919450477931945
0.08891860039336377 -0.0710120817691352 0.04543071379740282
0.08922486287716462 -0.07063684692399991 0.04364667461692728
0.09110047765454876 -0.04251416476634612 0.07149385758814267
0.09049800904432295 -0.04546687909210567 0.07231125664471486
0.10732793889782953 0.0048404470673528155 0.011130671789478852
0.10678182561438822 0.0020399336933890067 0.011723835720434395
0.10628265467521437 -0.000583207417046705 0.012190513097974753
0.10575419330709067 -0.003303786450294499 0.012751888257729549
0.10537773972374123 -0.005471561939860425 0.012877983072347776
0.1049413604913208 -0.007847746008288914 0.013187024988026708
0.08933602828192629 -0.0657137369666243 0.05654541942370711
0.08924017600880364 -0.06674530433817649 0.05600594812520032
0.08918070169217163 -0.06764674133751342 0.055359727448070495
0.08912787780467997 -0.06852379030700884 0.05469470439527885
0.08907752329160816 -0.06939132673357107 0.054023244466242404
0.08905630387737695 -0.07015572778809276 0.05326499471074497
0.08909240478935795 -0.07071887023834156 0.052334028828221024
0.08920922191520785 -0.07100025536553811 0.05115788802608451
0.08938138795171535 -0.07109028778275073 0.04981141510328346
0.08958320076614643 -0.07107975220998808 0.04837140982251137
0.08978414859367545 -0.07107534780554553 0.04693032349881665
0.09004834238959636 -0.07085480326197074 0.045291605972633375
0.09166200334862105 -0.04589683049137783 0.07127502169830413
0.09105932261004861 -0.0488102484892281 0.07208913822547541
0.10867347333150973 0.004196057142915599 0.009989864918788116
0.10796693735420754 0.0008523856608752545 0.01102983128945667
0.1074595513082233 -0.0017739223681171312 0.011508387723120517
0.10690799634802899 -0.004548830977144258 0.01212397290095829
0.10652415155751122 -0.006722857709692109 0.012262926615000724
0.10608567890616731 -0.009083566245535302 0.012567908411525108
0.09032224927130413 -0.06533884098287163 0.05763310239398467
0.09018774299100758 -0.06650206700384664 0.05720341595674722
0.09012639406617964 -0.06740704344776766 0.056561213047754244
0.09007175978055977 -0.06828761824801605 0.05590033717717652
0.09002050365875407 -0.06915557854945259 0.05523046958539207
0.08998518858470472 -0.06996729612154023 0.054514258649688174
