# .PCD v0.7 - Point Cloud Data file format
VERSION 0.7
FIELDS x y z
SIZE 4 4 4
TYPE F F F
COUNT 1 1 1
WIDTH 768
HEIGHT 1
VIEWPOINT 0 0 0 1 0 0 0
POINTS 768
DATA ascii
0.0011273094206770873 -0.07170106606076893 0.01895958740462217
0.001130307477204606 -0.07159966123035738 0.017289404045875367
0.0011335714582856144 -0.07142901396272644 0.01554287783297642
0.0011368277222032336 -0.07126467910140499 0.01379343900352964
0.0011395972126780644 -0.0712377076718394 0.012171094254653736
0.0011429001962331706 -0.07106868017928503 0.010399337668801356
0.0011458676566091354 -0.07099526399625161 0.008714076811552673
0.0011485787514710923 -0.07099530786285535 0.0070944219016412235
0.0011511904661100287 -0.07102577114567155 0.005497884081433535
0.0011534302854409107 -0.07116014427090123 0.003999680818212614
0.0011552082666213051 -0.07142197083587459 0.0026254856130257798
0.002750179351159062 0.07185737001894865 0.04202247803230835
0.002740140965636814 0.06931635701680128 0.04199267170939641
0.0027329336265812395 0.06724823184055256 0.041680800530219275
0.00272750825808589 0.06547775921014276 0.041191385097381406
0.002723181750683973 0.06389111287699778 0.040592816654289876
0.002719571281524636 0.06242452963106143 0.03992345395190122
0.00271673878033489 0.061087442834514394 0.03917604088850374
0.002714797491658978 0.05989757825830622 0.038337876187964304
0.0027132885813709404 0.058779365186639676 0.03745595145253211
0.00271203383970231 0.05770342631520603 0.03654848724599857
0.0027111671461226175 0.05669122996114745 0.03560107885455166
0.0027108307154206624 0.055765421523054304 0.03459823460421396
0.002710258974794111 0.054801816606510956 0.03362063309389446
0.002710729802529843 0.05400666401287957 0.03253237116264013
0.00271140269741139 0.053243721475927486 0.03142213843643382
0.002712749489861163 0.052588560259991424 0.03023906198603643
0.002714552917620694 0.05200571265947296 0.029005769055691133
0.0027174738180442016 0.051600430269490294 0.027650302183472197
0.002719952217107303 0.051122640552710985 0.026340599138426346
0.0027233005676504983 0.05078183536968761 0.024934294303366855
0.002727516772020166 0.050576842461073246 0.02343061720074563
0.0027322329181304183 0.050448455543206594 0.021868903485521007
0.00273817468093392 0.05051108820386263 0.0201687476101014
0.002744857796778514 0.05068704123064616 0.018382200306703733
0.0027526397516265465 0.051031970546868255 0.01646880903742315
0.0027622460879551344 0.05165899176554184 0.014346660958570734
0.0027754061258014532 0.05283792474814203 0.011820768766370116
0.002795731792966223 0.05513141290173096 0.008482785692092432
0.0024181900877590762 -0.011809723063870126 0.041476758327440466
0.002399326340870705 -0.01547659544625024 0.042741331349620715
0.002386567653630172 -0.01819808867840783 0.04330898841370162
0.002375111852017844 -0.020712633096885702 0.04373410689142915
0.0023769854895122813 -0.021190768803360904 0.042604633185777785
0.0023556917323112937 -0.025189269601884223 0.04419982841164288
0.002347212575890859 -0.027231645190521014 0.044298534973612524
0.00233880050069682 -0.029258423866976135 0.0443957921205691
0.002332071805977566 -0.03102571052309422 0.04429947582059335
0.0023280394958580973 -0.03238255374480137 0.0438868996854167
0.0023231622676869353 -0.033863791564283485 0.04357845198488325
0.0023164617164081664 -0.03561534374992087 0.04349248088311991
0.0023097997059286506 -0.03735682120912781 0.04340700427721472
0.0023031698341006244 -0.03908921713683772 0.04332275083840442
0.0022965779130922717 -0.04081169645573973 0.04323897968447671
0.002290029619450927 -0.04252345172562705 0.04315495750640547
0.0022835125948868127 -0.04422635856262125 0.04307214044023133
0.002277358950354114 -0.04587127984244943 0.04294988663373178
0.0022087869269640723 -0.056732896200551386 0.05048790820714283
0.0022017744062866203 -0.05847644563498605 0.05050465936133686
0.0021949606400297568 -0.060186254601343525 0.05050225310194506
0.0021881943959727456 -0.061884709446371255 0.05049918332684861
0.002181464293367452 -0.06357352256125226 0.050496808705327356
0.0021747808752094863 -0.06525118828877896 0.05049377442793057
0.0021681490436253436 -0.06691703693586531 0.05048941434369991
0.0021615361478188313 -0.06857586806921406 0.05048776131064686
0.0021549953553272896 -0.07021998256258305 0.050482109701981526
0.0021485204413692538 -0.07185035147661051 0.05047316158843662
0.002142100073406178 -0.07346867598836587 0.050462274603599255
0.002136140860898519 -0.0750163804871321 0.050397802618637966
0.0021318101777580843 -0.076325963493029 0.05013067274932692
0.002130827670824952 -0.07715214814073201 0.04943953785619004
0.002133908181614959 -0.07739578035078021 0.04822904275068074
0.002138728881932671 -0.07739271537960757 0.046792757092433857
0.002145081633893468 -0.07717430759860272 0.04515548476622666
0.0021505138672333187 -0.07709093592814686 0.04363224062512738
0.0021553036457469038 -0.07710224493609746 0.04218806103390388
0.002160579476737679 -0.07704779953548696 0.04067706112435315
0.002166090588350091 -0.07696350129154156 0.039131360369876134
0.0021719375567360137 -0.07683539842920001 0.037537543856332845
0.002178701258152554 -0.07658211298232653 0.035819086932222244
0.0021856001457730544 -0.07631420430659042 0.0340776773137767
0.0021929995742669775 -0.07598064948389771 0.032264990686398876
0.002199219827642726 -0.07581656810446152 0.030602551856820148
0.0022056981498903843 -0.07562051871885056 0.028901126108259345
0.0022128702115545166 -0.07533217203854031 0.027102476747477677
0.002219818355725757 -0.07507949826769905 0.025328197990284684
0.002226781896819542 -0.07482915969835263 0.023546537202417228
0.0022342518971662164 -0.07451336454597535 0.02169160567807027
0.0022413581728763336 -0.07425247776617466 0.01987988107381733
0.002249609644972907 -0.07383876447898374 0.01790821903506129
0.0022549097451278455 -0.0738350393830165 0.01632952383256525
0.0022613871947009243 -0.07367366450634621 0.014587035271757698
0.002266678323429124 -0.07367835585095767 0.013000989500029536
0.0022722778576505648 -0.07364445788729806 0.011368812273233997
0.0022797117433449956 -0.07336499604988805 0.00948136779156239
0.002284605148948473 -0.0734345740026146 0.007936792653695957
0.0022898615908636065 -0.07345821887034121 0.006338519864235115
0.002294533578007808 -0.0735640665116859 0.004816857657278628
0.002299424328739885 -0.07364348344243721 0.003261349886968634
0.004172970205285068 0.07801133049525649 0.03985762128716547
0.00412497042889897 0.07182444463382326 0.0420426996615228
0.004110662607585976 0.06936600815877819 0.0419620031287577
0.004100529010164256 0.06737219189163451 0.04160379518787832
0.004092245934980599 0.06558557953003424 0.04112402387341002
0.004085982314895504 0.06402346445900753 0.04050965859275907
0.004080703149247006 0.06257153134572913 0.039830566048474125
0.004076236079825116 0.06121036361121818 0.03909792860756989
0.004073411146878134 0.0600297200867726 0.038253428575759585
0.004071159076152386 0.05891247277480921 0.03737040564320121
0.004069162132291703 0.05782383054053519 0.036470668829437836
0.00406797500628003 0.05682360481644 0.035515041545291504
0.004067823508162695 0.05593564217131586 0.03448697687472696
0.004066864281884454 0.05496075575435633 0.0335161655260417
0.00406748267864433 0.0541558452749083 0.032433767374674294
0.004068934756821819 0.053440096285309935 0.03129161456930574
0.004070779759097747 0.05276578863657899 0.030120605618439267
0.004073284560301834 0.0521611822566137 0.028901275903774393
0.004077364614062577 0.051723462539208565 0.02756714977142327
0.004081796024618944 0.05132138226889704 0.02620553047214591
0.004086835895337423 0.05098201886164677 0.024797489942015638
0.0040933833529469416 0.0508002719212427 0.02327707964713338
0.004100426387840933 0.050668135024961924 0.021717106687780097
0.004109644418185173 0.05076255704671928 0.019994023550009343
0.004119706635824773 0.05094195443485977 0.01820410486608126
0.004131666793962367 0.05131655968250137 0.016268883950146085
0.004146449364897958 0.051982139292051144 0.014118398266964372
0.0041664572311888035 0.053188450836442136 0.011571804957379972
0.004196726210144919 0.055458285649146954 0.008249346882407138
0.003619212474134126 -0.012635870298632945 0.042099723985365545
0.003595958278375881 -0.015786159140204425 0.04297602511831894
0.0035768621470907693 -0.0185027328895343 0.04354120142080975
0.0035613609729915506 -0.020845530144698032 0.04383595389284173
0.003546338962442612 -0.023133058335008616 0.04410115637072842
0.0035331851760299236 -0.025224958586942514 0.04422747474551936
0.0035204784293246115 -0.027266047244436542 0.0443253278251074
0.003508426119809887 -0.029235697882390055 0.04437799761739614
0.003499303101168366 -0.03090542437071281 0.04420478567044117
0.003495560888094591 -0.03203095160799746 0.04360863112149471
0.0034854476544742084 -0.033793228012540755 0.04352230660354739
0.003475383555604786 -0.035546258050143775 0.04343721714504628
0.0034653865707646547 -0.037288279551096704 0.0433518825569123
0.0034554378244016437 -0.03902121478331383 0.04326777070797233
0.003445555095429197 -0.040743328609643414 0.04318340909218599
0.003435719729659527 -0.042456512561701965 0.04310025812760149
0.0034259403543321627 -0.04415994375729565 0.04301758052203963
0.0033242974648746634 -0.054925789751417875 0.050427761608003385
0.0033129040441877626 -0.0567601113929308 0.050510503963832165
0.003302453579166956 -0.058496888343550435 0.05052172230544172
0.0032922424846097763 -0.06020571585064255 0.05051858302551798
0.0032821025586839627 -0.06190320454997994 0.05051478481410426
0.003271975894177401 -0.06359505338916371 0.05051506714594767
0.0032619358805975897 -0.06527412195411197 0.05051332538878395
0.0032519814985300754 -0.06694056502662127 0.050509578079528994
0.0032420876867841125 -0.06859686814348731 0.0505058535718475
0.0032322937482079984 -0.07023926697590788 0.05049881153814528
0.0032225746499236047 -0.0718702427419991 0.0504904798409232
0.0032129217002404395 -0.07349068090208771 0.05048153402892219
0.0032033342357314235 -0.07510068774781598 0.05047197953867122
0.003194216329286568 -0.07666155030994848 0.05042748858872287
0.0031864045685985067 -0.07809351164514267 0.05027651988634996
0.0031838194437724494 -0.0790230729639676 0.04968349440776243
0.0031872181251388666 -0.0793814595675652 0.04857959731911404
0.003194115137916414 -0.07940877213553016 0.0471736269289636
0.003202895888116645 -0.07926038705010335 0.045601931239939
0.0032114417616819686 -0.07913799005303934 0.044046035756914736
0.0032190843752125673 -0.07910453306752774 0.04256401425092943
0.0032264616210449302 -0.07909934796554097 0.04110114299597212
0.0032347905674408577 -0.07900788080450705 0.03955158404728071
0.0032433712795444875 -0.07889637512701597 0.03797577130134061
0.0032530953052574973 -0.0786815847319764 0.036295377428879005
0.003263584620646881 -0.07839952924985372 0.03454275280995284
0.00327357757020278 -0.07816819309512812 0.032828525888759674
0.003283179529783778 -0.07797746659227417 0.031143761134447168
0.0032923169108101855 -0.07783391986795885 0.02949528246327343
0.003302536788903394 -0.07759417630709836 0.027745886216333948
0.0033129794076133725 -0.07733826025361978 0.025971408667078366
0.0033232776127655843 -0.07710011301855973 0.024204512516760923
0.0033340301006108677 -0.07682465746309164 0.02239161617748503
0.0033450999477047734 -0.07652473131699677 0.020544686165796966
0.0033569054136029365 -0.07616230481845443 0.018625755456659843
0.0033650150512564625 -0.07614198678684703 0.017035075793830734
0.0033741973001539622 -0.07602755451680715 0.015342965201174286
0.003382932048392417 -0.07595767615336291 0.013686869317788564
0.0033918262360491404 -0.07587710289041011 0.012011769525781979
0.003402338618856242 -0.0756541528670368 0.01018411227292032
0.0034085408760379634 -0.07582416195849245 0.008746431285641454
0.0034164925346987533 -0.07583953718072778 0.007144672828170606
0.0034242398295837744 -0.07587665079815936 0.005557703057915364
0.003431797694726156 -0.07593403510334212 0.003984297267052295
0.005541747466102241 0.07617076196238237 0.040981588341934716
0.005499683645541605 0.07180154282916607 0.04205676515537665
0.005481450769226696 0.06941283207715093 0.041933080871197015
0.005468398461667092 0.06745674924813772 0.0415512672312654
0.005457827425174825 0.06570886624831385 0.0410469999483179
0.005449573300827122 0.06415450004644985 0.04042732738615179
0.005442750637214028 0.06272001830307206 0.03973673964525809
0.005436536886721143 0.06133749932852606 0.039017137864675255
0.00543273437731766 0.06015367468014171 0.038174213163400694
0.0054296624590373386 0.059030552784624823 0.03729451778327986
0.005427301807928395 0.05796621128787227 0.03637864677393088
0.0054255326662387676 0.05695059577651418 0.03543250350979371
0.005425094771237096 0.05604328974716127 0.034416617461837495
0.005424404388077547 0.05511573057468888 0.03341430363249287
0.005424774815799782 0.054273906241144976 0.03235573305371786
0.005426745667871971 0.05356071737004192 0.03121144170759338
0.005429544378026965 0.05291336342276365 0.030021969195441145
0.005432937043945558 0.05231270297479729 0.028799436845110382
0.005437839413265489 0.05183168032523561 0.02749400985491729
0.005444378377462333 0.051479694545018606 0.026097938425534317
0.00545176629030337 0.05119322318374886 0.024653154002438338
0.005460265891373152 0.050992741104054884 0.02314481755666281
0.005470298407945726 0.050911126375419224 0.02154920157172907
0.005481605506694133 0.05092718912355493 0.01987963488635086
0.0054951356634305865 0.05111524823270619 0.018083032929537945
0.005511842693001202 0.051549433865578254 0.016105288838643872
0.0055325370916878835 0.05229198641168592 0.013899530623822154
0.005558951744353395 0.05347705296245869 0.011366823111594426
0.005602720804514835 0.05601354178731288 0.007852806231684384
0.004856108118656399 -0.009515159009768681 0.04126495544237918
0.004816294166089805 -0.013351408791657693 0.04263928387169241
0.004790589328093699 -0.016094196006403938 0.04320956133215231
0.004766938083425697 -0.018671759931091658 0.04367004114980866
0.004746727275900112 -0.020979313070897343 0.04393847979614729
0.00472755658365561 -0.023201205932716684 0.0441536637123513
0.004710456461322026 -0.025259676172524503 0.04425436858855858
0.004693517414188087 -0.027300442646197687 0.04435211549580159
0.004679517297576756 -0.029113495672558498 0.04428231297929569
0.004670538061543264 -0.030543130159769394 0.04391958498395865
0.004661680259513321 -0.03196073383249043 0.043553058650491694
0.0046481905600634236 -0.03372356496222306 0.04346687772520286
0.004634778706763926 -0.0354762231731624 0.04338119413145586
0.0046214318068589205 -0.03721971070555824 0.04329673897221065
0.004608173707855135 -0.03895227829522235 0.043212035326615716
0.00459497938034476 -0.04067583355452059 0.043128547919807025
0.004581860394282031 -0.04238954707326226 0.04304553723770416
0.004568923605840595 -0.04408552825522877 0.04295644801272852
0.004431531193463852 -0.05498985065380391 0.050480667775603616
0.004416825829349167 -0.05678814654013431 0.050533780498354774
0.004402994100145906 -0.05851732847695901 0.05053878310013771
0.004389403068583552 -0.06022436401295839 0.05053423068825097
0.004375873770262731 -0.06192250151735712 0.05053106271105362
0.0043623840602857265 -0.06361339217568784 0.050530618691210005
0.0043489772654177515 -0.06529388969855682 0.050530177400539944
0.004335706404842087 -0.06696016909360242 0.05052637889995609
0.004322559054281383 -0.0686131995954663 0.050519923659940735
0.004309491197231828 -0.07025623529283576 0.050513507450565764
0.004296544366316392 -0.07188630690764097 0.050504466043969465
0.004283706593240357 -0.07350433755092678 0.050493486777831
0.0042709348709148755 -0.07511348035141718 0.05048323498602714
0.004258301332724262 -0.07670857835913397 0.0504690833987404
0.004245969249074284 -0.07827797984920015 0.05044053365064888
0.004235011332227986 -0.07974501117923471 0.05032875281119675
0.004229446079784748 -0.0808232083059427 0.04987497490367093
0.004231945045614441 -0.08132471453587631 0.04890408363374127
0.004240992583608185 -0.08136122518252653 0.047509326668576435
0.004251547070205709 -0.08129369683594023 0.04601349655518494
0.004263870011022933 -0.08110433918177234 0.0443987392364632
0.0042738802515623914 -0.08108232905872176 0.042929945481082254
0.004283748593782774 -0.08107353815541013 0.04146659011256937
0.004295076617140254 -0.0809652648555213 0.03990379062669486
0.004306103940688861 -0.08088173110469071 0.03835641705381171
0.004318404152828854 -0.08071263297967113 0.036720909879924934
0.004331740926330018 -0.08047509022422927 0.035012161937923836
0.0043447066389960395 -0.08026769065874162 0.0333229084830976
0.004357587217670334 -0.08007037694990993 0.03163434988881336
0.004369429826257061 -0.07994919881627233 0.030010076742239655
0.004382073030769343 -0.07977642442117838 0.028327725038560958
0.004395895048214764 -0.07952632733595005 0.02656146782761415
0.0044096042565077275 -0.07928844286205455 0.024797504180526286
0.004422805936999351 -0.07908984142942915 0.0230625238406465
0.004436897786868138 -0.07883445410926732 0.021262271950409972
0.00445121576382595 -0.078568129187989 0.019441283020996458
0.004464976134487195 -0.07834445550795427 0.01765274253167637
0.004476114623284474 -0.07830369306417306 0.016037793615130802
0.0044889916320672235 -0.07814843734863403 0.01429964540724249
0.004498744437037625 -0.0782090012208575 0.012770891648826332
0.004510331605232859 -0.07814870674625779 0.011112210062004357
0.0045220488204424985 -0.07808336675238309 0.009440119035787342
0.004531793180581626 -0.07815451265749485 0.007900015330330024
0.0045420163480274734 -0.07819665643435009 0.006322965391543367
0.004552499195505927 -0.07822469985443348 0.0047239365244890474
0.0045651164276550625 -0.07811355470846021 0.0029720168857679807
0.006917708013484761 0.07554259049923534 0.04136518939601824
0.006874885807569491 0.0718201503697945 0.04204533704950192
0.006852845164425132 0.06948095690043155 0.04189100144355257
0.006836952794437652 0.0675526193088864 0.04149171169878729
0.006824159701828286 0.06583222074871187 0.04096993367604612
0.006813857630408305 0.06427863647202542 0.04034933100439747
0.0068054517702873804 0.06285193547843204 0.03965338340772767
0.006797891516695619 0.06148268882555846 0.03892487451355625
0.006792628334737958 0.06026529313074874 0.0381028813849536
0.006788934185357681 0.059151444176557266 0.037216823099556595
0.0067857709682031375 0.05807305721822498 0.03630959121468219
0.006783853386000781 0.057076293413414136 0.03535080607235114
0.006783179328953042 0.05616053575430574 0.03433998442889158
0.006784021921323034 0.0553429532007742 0.033264954680834014
0.006784759361388822 0.05451837286388611 0.03219414885268834
0.006785981757925246 0.05372481480984442 0.03110237154479506
0.006790073666011827 0.05311525586568633 0.029887027794439747
0.006794910160003361 0.052552375075369806 0.02863835008811144
0.006800600264098275 0.05204286004288028 0.027351282236072527
0.00680990683952972 0.05176277907723259 0.025905548770536246
0.00681860037999719 0.0514412442569015 0.02448365768592281
0.006829962981071103 0.05128719667338477 0.02294247186899878
0.0068414492162805025 0.051138073452179855 0.02139238292287915
0.006856480093552635 0.05121048525537092 0.0196827967818885
0.006873804201591799 0.05142397185016495 0.0178673427739357
0.006894739506688256 0.05186077901451375 0.0158865675373695
0.006920096584265341 0.05257053653475663 0.013702770334408143
0.006955216062874056 0.053887023979353854 0.011075638091852302
0.0070183409333146535 0.05695011002755718 0.007183948466942702
0.006056570855247028 -0.010349796049372195 0.041890929837373914
0.006015295017456596 -0.013662889040329973 0.042874159072963935
0.005983217949377409 -0.016401716544335643 0.0434427060949551
0.005956479244452455 -0.01880587566107983 0.0437722699656653
0.005931298706700227 -0.021108084089049017 0.044037164772852855
0.005908806372519254 -0.023240135830896846 0.04418365898044346
0.0058874993041287795 -0.025294387021363218 0.04428125721300569
0.005866707698397326 -0.02731190630219449 0.04436104356833653
0.00585140210015883 -0.02899215729688359 0.04418730472551574
0.0058452646617545186 -0.03011494620746885 0.04358251540501368
0.00582826630171961 -0.03189048795644239 0.04349746393987075
0.005811397438424713 -0.03365387411405013 0.04341142672890724
0.005794625941073231 -0.03540708212547333 0.043325886118915635
0.005777935686989587 -0.03715111465633314 0.043241573510098164
0.005761356497071606 -0.038884221774532546 0.04315701140184863
0.005744857071837572 -0.04060831187502362 0.04307366510666677
0.005728451879148444 -0.04232255524477635 0.042990794824022016
0.0057131260609872055 -0.04396852355155545 0.04286032837450687
0.005538683676041136 -0.05503309841247972 0.050516384930429925
0.005520627670080713 -0.05681205506452941 0.050553630852249065
0.005503437588686695 -0.05853531366457643 0.050553794821801945
0.00548643690039488 -0.06024301002089966 0.05054987654324933
0.005469527228183438 -0.06194099226826855 0.050546660526605
0.005452653419833409 -0.06363252605585806 0.050546844486909104
0.0054359104572515 -0.06531207385126847 0.050545679399572996
0.005419337221359264 -0.06697741866109214 0.05054116189810226
0.005402904824231462 -0.06863030691609623 0.05053466218463604
0.005386585059756823 -0.07027243060529731 0.05052753387962006
0.0053704428018457 -0.07190007487232714 0.0505164530686259
0.005354397003546892 -0.07351799299474637 0.05050543847206712
0.005338512032039023 -0.07512250978459839 0.05049117944463716
0.005322721034114566 -0.07671753444586088 0.05047700477188599
0.005307010285806413 -0.07830389122544545 0.0504635718884735
0.005291110056678972 -0.07989706380211287 0.05046465534496142
0.005276744708781378 -0.08139841289427557 0.050391782798435814
0.00526720260077186 -0.0826209874423206 0.05007486211944773
0.0052685491241480425 -0.08322150349068935 0.04919831273857439
0.005280456362967514 -0.08322277800973554 0.04777412170895273
0.005293199784349585 -0.08317974704397718 0.04630282515401157
0.005307654988962499 -0.08304324572937621 0.04473839907285826
0.005320841202847542 -0.08298201897361679 0.0432358827499737
0.005333415915485863 -0.08295858630305997 0.041761387104431724
0.005347070863092953 -0.08287775048175117 0.04022623584372237
0.005360598590837614 -0.08280755036727555 0.038693609616645475
0.005375570274915143 -0.08266014680697836 0.03708046756948602
0.005391330918032682 -0.08247261072148682 0.03542088910388835
0.0054071708664523415 -0.08228471610951738 0.03375226254792041
0.0054232118698686 -0.0820897377004236 0.03206805616407027
0.005437737133162947 -0.08198279681003295 0.03046003075062914
0.0054528303546162804 -0.08184822077386555 0.02881708021540047
0.005469184896043809 -0.081648021595009 0.027101634308189237
0.0054869054278727306 -0.08137693142182623 0.025307465030780463
0.005502356369587624 -0.08123487752026276 0.023630685997047318
0.005519428122826815 -0.08100810811406695 0.021861213080871467
0.00553621326796904 -0.08080137399567727 0.02010210685389724
0.005554060861260361 -0.08054109332457798 0.01827987405829745
0.00556806150197701 -0.08049441686924913 0.01666270996789404
0.005582774854390009 -0.08041270826026947 0.015002141073695296
0.005595745222285502 -0.08042903558764597 0.013432988566457527
0.005607480265804764 -0.08051533987304399 0.011928036811435783
0.005624617804605515 -0.08031390736787136 0.010120508513607462
0.0056352239734808645 -0.08046754988039079 0.008670183657184527
0.005648454087736076 -0.08048337732028488 0.00707059250193276
0.005661937233982681 -0.08048908621318773 0.005452828003130072
0.005677845075069776 -0.08036901530241986 0.0036952605019752727
0.008295470480508129 0.07522334839188305 0.041560138730829865
0.008250667890066688 0.07186452834219398 0.042018081638525495
0.008224781636825426 0.06955620189592099 0.04184452401886607
0.008206192510125084 0.06765417327185996 0.041428625263951246
0.008191192194567883 0.065952837280216 0.04089457796200746
0.00817889962195346 0.06440284183737077 0.040271291306971824
0.00816878153569156 0.06297420212350036 0.03957612517747411
0.00816011065083726 0.06162658912269775 0.03883343040835263
0.008152928544526794 0.06036179881986775 0.038041207688555956
0.008148721598778571 0.05926002801414415 0.03714703825562421
0.008145050407905025 0.058188179983448274 0.0362351862569219
0.008143026338956371 0.0572061652819123 0.03526639558450223
0.00814214112512705 0.05628603105830138 0.034257959582162156
0.00814241931453808 0.055428733152838916 0.033208573209785486
0.008144139452613998 0.05464886685920983 0.03210789671840064
0.00814664507094468 0.05391076005205364 0.03097877986741271
0.008150545765359084 0.053246789728088995 0.02979911284618908
0.008156606842893188 0.052697389629401625 0.02854088390756382
0.008163998829480698 0.05221764442089971 0.027233152718881104
0.008173620820282326 0.05185496268347134 0.025842899031032485
0.008185514112276887 0.051610820487804576 0.024367770168215952
0.00819974975460602 0.05148825279581393 0.022804308955508668
0.008214472561634673 0.05138839794862432 0.02121941066050509
0.008232478735496051 0.051458672969223185 0.019510352496001526
0.008253083597293783 0.05166196103967752 0.017701071318126316
0.008278102831316692 0.05209286327813645 0.015723527347668742
0.008309696362819134 0.05286325991245394 0.01349599844043431
0.008353094111219681 0.05424481338263787 0.010821515458384723
0.008441073576632046 0.0579460521885653 0.006472688337675392
0.007251740638884916 -0.011177625387914225 0.04251179848417985
0.007212277042177103 -0.01397384483180436 0.0431086388013589
0.007175636111798382 -0.016617476758328364 0.043606283344955754
0.007145144998511835 -0.018939892692637794 0.04387442354930543
0.007115742368668681 -0.021200428233957125 0.04410793364553833
0.007089896458292937 -0.023274192582277753 0.04420989951627252
0.007064294734111127 -0.025330055042471322 0.04430888730723953
0.007042470079771759 -0.02718958919911807 0.04426578111726154
0.007027611981391231 -0.028693196515751362 0.043953217680868295
0.00701570672856873 -0.03004505548898756 0.043527496913722596
0.00699533796179541 -0.03181927678637725 0.043441105266373015
0.006975068567324161 -0.033584155451380104 0.043355953601419195
0.006954934748836839 -0.035337913562374035 0.04327055609596758
0.0069349168299692 -0.037081576226349 0.04318565017824477
0.0069149955721700814 -0.03881613832556202 0.043101965705476475
0.006895188438239461 -0.04054076355539593 0.04301876063995791
0.006875512483162647 -0.04225464330679585 0.04293530054230271
0.006668789607602026 -0.05321478215374448 0.05045615148113752
0.006645830670905741 -0.05506220106055992 0.050540420020782906
0.006624301213651918 -0.05683431157523133 0.05057210960094077
0.006603725832193228 -0.05855493159569114 0.05057016934776115
0.006583344002007553 -0.06026165387483817 0.05056552059082525
0.006563021873655505 -0.06196108849528453 0.05056361263654241
0.006542808494013981 -0.0636508605400361 0.05056239238372223
0.0065227354718467205 -0.0653294654411058 0.05056050573837012
0.006502865893849141 -0.06699388240101373 0.050555271436610094
0.006483165102078065 -0.06864585741035684 0.05054805945172669
0.006463615192891815 -0.07028631096682719 0.050539555376995116
0.006444293725444445 -0.07191154724548227 0.05052644144548579
0.006425055932745882 -0.07352861306249814 0.050514733505184484
0.006406026581539504 -0.07513153868821726 0.05049912343731694
0.006387062931933085 -0.07672723628216382 0.05048558573675338
0.0063681648167720544 -0.07831573495850119 0.05047410234954536
0.006348901501377006 -0.07991761960078636 0.050483027833843286
0.006329846078980486 -0.08150547403263447 0.05048797473196465
0.006311314932504522 -0.0830643283356346 0.050475282414545686
0.006297321214709806 -0.08440404779625943 0.05027196975564496
0.006296731297198891 -0.08510659832548434 0.049493438385793675
0.006311801204213217 -0.08506979080917249 0.04803684851510426
0.0063262716018680975 -0.0850644481907536 0.04660245117955214
0.006344092353821574 -0.08490476835599375 0.04501840332516599
0.006360300420419273 -0.08482451633730098 0.043500266231824736
0.0063749788063647145 -0.08481929110917669 0.042045020364683106
0.006391127130741616 -0.08474860894278885 0.040521426676893735
0.006408140607963578 -0.08464110279413045 0.03895557801580157
0.006425292153693856 -0.08453082792704569 0.03737928201055207
0.0064438343450536765 -0.08435977356373386 0.03573695871860039
0.006462213041838459 -0.08420025232037048 0.034097169341823
0.00648060074892197 -0.0840442532587865 0.03245228526897859
0.0064977402330572 -0.08394964616482303 0.030858518063688556
0.006515521165797284 -0.08382925607407443 0.02923161115893791
0.006533806780006876 -0.08368955484441248 0.027577469095286633
0.006554030035760636 -0.08346521012295549 0.025831277376340778
0.0065728293724146465 -0.0833101272702832 0.024144316961399737
0.006591919196782971 -0.08314585768437516 0.02243938207479701
0.006612354241143862 -0.08292462635169656 0.020668392947974012
0.006630835961258456 -0.0827962146379439 0.01898127101465169
0.006649252624708206 -0.0826747014812938 0.017292405152905532
0.0066674496569686555 -0.08256703156318912 0.015608909430409434
0.006683377282238798 -0.08256528372689864 0.014025137190448289
0.006696968018550537 -0.08267175507957736 0.012545069778804041
0.006714464288879556 -0.0826063985913873 0.010880919158952285
0.006728285492433998 -0.0827088255371804 0.009382724906680906
0.00674370734494714 -0.08274294121831166 0.007806570120423129
0.006761047924283791 -0.08269513099020798 0.006137010258775222
0.006779231678174594 -0.08261367254401253 0.004423598992477518
0.009673763209147045 0.0750204256538119 0.04168405613362247
0.009626476056180087 0.07189745953096055 0.04199785644491605
0.009597776808658472 0.06965988220958802 0.041780482630617066
0.00957640939910844 0.06777271076885077 0.041354988471643206
0.009558810204593699 0.06606650051830765 0.04082356634892648
0.009544431827179057 0.06451454599207207 0.04020110626778428
0.009532859204806144 0.06309653584234626 0.0394988245644321
0.009523034139748907 0.06176227276803625 0.03874720772649998
0.009513850765348919 0.060459726095316524 0.03797862550184533
0.009509236150249215 0.05937141619534664 0.03707545111140581
0.009505423598617177 0.058321194151779776 0.03614921791211173
0.009502972177426225 0.05733474554379664 0.03518282457902655
0.009502086432701538 0.05642115505559403 0.03416964133586525
0.00950244071088828 0.055564960763678894 0.03311903348737111
0.009504271568788827 0.05477671767429493 0.03202339163719631
0.009507551157793993 0.05405473877463063 0.030883081953235192
0.009512489580577608 0.053408264422976914 0.029691185965722344
0.00951924014760523 0.05284385740891839 0.028442440995139595
0.009528404248560256 0.05238849967499759 0.027117678733706352
0.009539608968994214 0.05202451985407158 0.02572766473935606
0.009553734051374186 0.05179139501221114 0.024244366473705592
0.009569397881823089 0.051625566912568255 0.022709948643547584
0.009587907716846675 0.051585867996978896 0.021082960406933582
0.009609145376281502 0.05166616813706881 0.01936618195875478
0.00963399634507527 0.05190569119673022 0.017530788927901775
0.00966382891803101 0.05236508796982403 0.015532288335246391
0.009701318914261804 0.05316329487866711 0.013284061837658345
0.009754414472986061 0.054654832611567894 0.01053029619567969
0.008513850201265563 -0.008045037307373437 0.041680429177534006
0.008452460971890285 -0.011524977788747837 0.04277231137618509
0.008407245334784085 -0.014284277489552688 0.043342724054856285
0.0083684830568876 -0.016752824357072094 0.04370889627616764
0.008332959015793971 -0.01907281950839307 0.04397574612326044
0.008300798158329958 -0.021239709323356726 0.04413803710707809
0.008270718229754018 -0.023310188423681544 0.044237634110083024
0.008240877722882066 -0.025364752236715304 0.0443357653542078
0.008219063439222522 -0.02706623135413383 0.0441697081202973
0.008209003704044702 -0.02825571070668398 0.04361066519043155
0.008186678224131893 -0.029972301968090975 0.043470224803164426
0.00816286130624646 -0.03174897428338053 0.043385465739472384
0.008139225885523627 -0.03351347881621691 0.04329971824286977
0.008115705405641641 -0.03526871746743582 0.043215204049469935
0.008092341883505298 -0.037012925357903514 0.04313044063010024
0.008069091204015695 -0.03874802793232529 0.043046898224574914
0.008045994915482949 -0.04047228740004788 0.042963102011995324
0.008024209260577826 -0.04213662662383777 0.042838863137534045
0.00777904739847294 -0.053265953360682905 0.05049818874753681
0.0077527025974229065 -0.05509462364249401 0.05056719695476214
0.007727843692195907 -0.056855740900537854 0.05058990156852605
0.007703900446304352 -0.05857372988720394 0.05058585974398916
0.007680124395380204 -0.06028029557515002 0.05058116283129421
0.007656398812852562 -0.06198037850667215 0.05057988466578828
0.007632838415240486 -0.06366919291936096 0.050577938495590724
0.007609441506429636 -0.06534685512700295 0.05057533045405732
0.007586300501347652 -0.06700956055868112 0.05056870772571531
0.007563355929384424 -0.06865985153998466 0.05056011585901399
0.007540549729461775 -0.07030019009634292 0.05055157580734804
0.007518028495782719 -0.07192454824563094 0.050537760715464564
0.007495623018402993 -0.07353999089778346 0.050524691761407836
0.007473442000584021 -0.07514207173986265 0.05050839083994946
0.0074513192542011416 -0.07673768372626993 0.05049482616794898
0.007429236861453465 -0.07832757777091337 0.050484631992057605
0.007406800613281784 -0.07992789645469967 0.05049221314389918
0.007384606453221523 -0.08151421036211881 0.05049582412006126
0.007362279051200834 -0.08310187616851944 0.050509195176825894
0.007340879069096476 -0.08464774592007746 0.05049322844291082
0.00732284539494228 -0.08605316896778725 0.05035735023424004
0.007316188721053689 -0.08699494438531968 0.049803083422572336
0.00733561447775194 -0.08688254619420904 0.04827919038716588
0.0073540117762152316 -0.08681514016436104 0.04678944904016824
0.007372412726005224 -0.08675096613022143 0.04529554433625932
0.0073909952969756065 -0.08668288945891289 0.04379079059679125
0.007408523047360993 -0.08666042134313406 0.042321703786213416
0.0074280098906147765 -0.0865629829156655 0.04077476911132788
0.007447581381832233 -0.08646575270514661 0.03922036221828051
0.0074673656731168965 -0.08636366288805425 0.03765358587529122
0.007488080282413614 -0.08622833289360254 0.03604702791081643
0.007509260433959701 -0.08607839795382927 0.03441814487378664
0.007529466905471897 -0.0859707663140789 0.03282194307339048
0.007548981107275767 -0.08589409342455367 0.031247926139877702
0.007569814373383299 -0.08576920709718155 0.029618795417782118
0.007590970191856314 -0.08563551043936468 0.027972636992840083
0.007613116242263047 -0.08546699634984928 0.02628346343724519
0.007635391889430874 -0.08529749613054982 0.024584404984882735
0.00765576635064788 -0.08520604475875843 0.0229545836147384
0.00767883244334875 -0.0850138755053515 0.02121508241720843
0.0076982381369928455 -0.08496766299597053 0.019614024573894606
0.007722107149772701 -0.08475261683543783 0.017833263754848172
0.007742653623446958 -0.0846699836747778 0.016178253262435105
0.007760926008908217 -0.08467854391539081 0.014608639217401131
0.007778493428098514 -0.08471749535887663 0.013062969973280991
0.007792684150730121 -0.08488885915970251 0.011647673757796073
0.0078118321753054025 -0.08487362733345138 0.010031684707002442
0.007827366720064871 -0.0849994934004511 0.00855592535587446
0.007847893868553578 -0.08493858020959794 0.006876679266995311
0.007871526215528616 -0.08476377843050459 0.0050681547198731525
0.007896667149275494 -0.08453629377689231 0.003193668517884385
0.01105415596980743 0.07495523864987685 0.04172386342333406
0.011003037604442113 0.07195331027123653 0.041963554857951724
0.010971573392195082 0.0697707164232555 0.041712022412300764
0.010947175835772293 0.0678842493752913 0.04128569946685329
0.010926984204986301 0.06617460412734688 0.04075602813880119
0.010910611982458449 0.06462490859301456 0.04013176414266184
0.010897447559162582 0.06320919780028811 0.039427635373932735
0.0108862471499152 0.06187586762922492 0.03867502177105975
0.010875712665676324 0.06057149878304985 0.03790719515538865
0.010869861467493044 0.05945946629665094 0.03701886292375001
0.010866110545140946 0.058433701691419926 0.036076503199965915
0.010863847727523065 0.05746887730331934 0.03509564536625115
0.010862801071131837 0.05655362992136764 0.03408305458548805
0.01086334125583554 0.055702636604011535 0.03302854187226806
0.010865671417619491 0.054923702341205194 0.031926239724595795
0.010869658649269911 0.05421104945903843 0.030779187390248708
0.010875441951851016 0.05356985869422248 0.02958317916249581
0.010883738703454963 0.05302843845001742 0.028318381660560832
0.010894017109480604 0.05256491955749315 0.026998443846822817
0.01090642449552854 0.05218470318821883 0.02561880108597303
0.010923637553713762 0.05199387107664427 0.024105995380202416
0.010942001046939907 0.05184599465126527 0.022558473830324
0.010962901540289697 0.05179579149032437 0.020937904920614148
0.010987231167571124 0.051877962796745836 0.019219024074604185
0.01101604188983283 0.052133236539953554 0.017371814078842973
0.011050940611875776 0.05262387938474755 0.015350486257313833
0.011094999460957839 0.053469285280776435 0.013067918475690887
0.011158365298440958 0.055065621500827666 0.01023853027589633
0.009708412568755263 -0.008881382609062627 0.042304298898930226
0.009651792927898618 -0.011838885531090915 0.04300774090995074
0.009601470805895046 -0.014545609320341657 0.043539784274940374
0.009560449067197526 -0.016888071999647536 0.04381143342623883
0.00952034681545427 -0.019188803126179044 0.044064153858177746
0.009485673892731831 -0.021276036738265114 0.04416587699019359
0.009451329278921243 -0.023345204491197535 0.04426461379361096
0.009421116065853255 -0.02525196173574723 0.044248392630025
0.009399404033872537 -0.026831711444106843 0.043987060388351706
0.0093854216620511 -0.02811567759121497 0.0435010189083046
0.0093580573617499 -0.029902354733289616 0.04341516182180749
0.009330877074488856 -0.03167770569664785 0.04332906162468764
0.009303829453966248 -0.03344370410315778 0.043244200517704945
0.009276938187293951 -0.035199493824217554 0.043159829966270935
0.009250226403145118 -0.03694424723693984 0.04307520916527424
0.00922366800383275 -0.038678981898573606 0.04299107427518539
0.009197213270156893 -0.04040558693265933 0.04290888669455467
0.0091745447406737 -0.04198720045719423 0.042716759453932385
0.008889186782435134 -0.05330872365911882 0.050533324647917044
0.008859512882563283 -0.055121221999041625 0.05058916381843376
0.008831218869980681 -0.05687799145069011 0.05060837536839624
0.00880385888789591 -0.05859579466763981 0.050604276585088204
0.008776756063758833 -0.0602997454884569 0.050597483242842356
0.008749644375295964 -0.06199966620023245 0.05059615473983814
0.0087227432050635 -0.06368752319419818 0.05059348282282444
0.008696136757379703 -0.0653602913077147 0.05058678480465062
0.008669692128136912 -0.06702288576967136 0.050580127523312146
0.008643450593887082 -0.06867384442380076 0.05057217119299312
0.008617388682193755 -0.07031406799401019 0.050563595170822095
0.008591673529300571 -0.07193754815922809 0.0505490790394415
0.008566132386516694 -0.07355060945598046 0.05053398547331317
0.00854080525837074 -0.0751518517853943 0.050516995717506175
0.008515502977316444 -0.07674813045769363 0.05050406596879964
0.00849026767601804 -0.07833793947664375 0.0504938447578569
0.00846483298583152 -0.0799308325706794 0.05049483740380023
0.008439468722161907 -0.08151712235944669 0.050498440481681284
0.008414134475999093 -0.08309826620846239 0.05050593470324194
0.008388951875192435 -0.08466994567001279 0.050513384065988154
0.008364980445557677 -0.08619460049040784 0.050486431321984826
0.008344092645207952 -0.08760622971412052 0.050363908023543624
0.00833470129297111 -0.08860840337709985 0.04987086058304918
0.008355502094469877 -0.08854499027382501 0.04839313875676887
0.00837169226073139 -0.08864704432651643 0.047062518841701206
0.008390603197435195 -0.08865624779543202 0.04563938111613003
0.008411927242308163 -0.08858402544875693 0.04413308467176519
0.008433644829379128 -0.08850148648142836 0.04260969543475801
0.008456354489293447 -0.08838787188654362 0.041049257905501235
0.008478734275534203 -0.08828937354169647 0.039495438761029455
0.008501770460212426 -0.0881717069550011 0.03791544705372002
0.008524516339443193 -0.0880677869907987 0.03634075124272235
0.008547614180972213 -0.08795537234667017 0.03474989630280623
0.008570543310379684 -0.08785247990412504 0.033160291777933004
0.008593722558605027 -0.08774467809818454 0.03155786044574754
0.008616071660177077 -0.08766905799877805 0.02997906743430223
0.008639925279829774 -0.08754557633943821 0.028344964110427806
0.008665135625032698 -0.0873796382567924 0.026660145251926837
0.008689586099735656 -0.08724361608872833 0.02499641712630496
0.008712306957650967 -0.08717025725766536 0.02338716842791344
0.008737177623671594 -0.0870277192779837 0.021699827864547105
0.008760324015476917 -0.08694745365050344 0.020067033730798545
0.008786773034190416 -0.08675955325438417 0.0183158909099862
0.008808296121062967 -0.08674159446410673 0.01673006225236895
0.008829434192655618 -0.08674001401537251 0.015153465562760982
0.008849553532331675 -0.08677593330432254 0.01360825196708143
0.008861444542049145 -0.08708987490395392 0.012346152690604295
0.00888609071926929 -0.0869807870094148 0.010635711504617895
0.008899575480866591 -0.0872466071327373 0.009311948160473538
0.008921154461914273 -0.08724623478081339 0.007700986913860619
0.008950899580599074 -0.08697924239758259 0.005797966833796908
0.008982551628837763 -0.08665411318968741 0.0038218320516772986
0.012435178246561086 0.07492772081878502 0.04174066754391609
0.01238118456598931 0.07205502247609491 0.041901086750581296
0.012345771521599196 0.0698716511728737 0.041649676907551725
0.012318504995517423 0.06799160444182839 0.04121900932290312
0.012295740154870567 0.06627994989691105 0.04069021290114294
0.012277581106653486 0.06473951976413289 0.04005975259073896
0.012262572343183202 0.0633163489746359 0.03935992835461383
0.012250118484787836 0.06198813416719973 0.03860367992317271
0.012238870671411039 0.060705424182711076 0.03782160771993226
0.012231941639163586 0.059580592430738155 0.03694101737554273
0.012227719541327954 0.058554505317771566 0.03599842664665737
0.012225134470394647 0.05758802194520646 0.0350182070613852
0.012224298357986184 0.05668481773136125 0.03399730906621451
0.012225096463003925 0.055840398906461364 0.032937993427320233
0.012228061765417627 0.05507351043552694 0.031827221621603674
0.012232816853594423 0.054370193367331066 0.03067340967667359
0.012239365903514517 0.05373021323456845 0.029476000973862437
0.012248515840186219 0.05318192253234927 0.028215222999144918
0.012260240095779007 0.05272381973033152 0.026891049805594813
0.012275166508026196 0.052377622638333954 0.025487689342919506
0.012294509943458742 0.052185649675145995 0.02397493487949831
0.012315302818067822 0.05204211819699317 0.022423700513528766
0.012339030699736263 0.051999092400262514 0.020797425587451845
0.012366932767653376 0.052099543067244736 0.019065067011541925
0.01240004262613077 0.05237886864288194 0.01720020289166646
0.012439977748147648 0.05289263189435539 0.015161686467681179
0.012490716107594156 0.05377848029370674 0.012849511463125685
0.012566921662443432 0.055545850864454294 0.009897443733273448
0.010991295740739258 -0.005721364065150281 0.04146820099855841
0.01090769430107916 -0.009370207674669562 0.04266893675470068
0.010849099772193352 -0.012152263229815663 0.043242772913152094
0.01079759113862431 -0.014684228032685764 0.043644311281389736
0.010751564515485297 -0.01702221906873963 0.04391313618344167
0.0107093983910574 -0.0192224939061878 0.04408983442932246
0.010652303381529372 -0.021922815736531487 0.04466154263991595
0.010631710497972105 -0.02338021374212018 0.04429158822499196
0.010602413492701919 -0.025128485485699292 0.044152742231755915
0.010587454854840406 -0.02638959229103821 0.04364273115614098
0.010560754528760088 -0.02804323615770954 0.04344429708340475
0.010529957140728172 -0.02983048817677142 0.043358587936178083
0.010499338853760913 -0.03160734649820207 0.04327337722729413
0.010468898110054671 -0.03337390152537406 0.0431886606213831
0.010438661080864279 -0.03512931908053579 0.04310369506908207
0.010408570662536204 -0.0368755418472268 0.04301995577071366
0.010378680615986237 -0.03861081720900572 0.04293596289551832
0.01035029652823678 -0.04029195607844016 0.0428165255301769
0.010036068226456488 -0.05141381025461894 0.05041971942403639
0.009999089080075818 -0.0533498062415082 0.050567074085610675
0.009966118375423383 -0.05514864703543626 0.05061181341464449
0.009934443517104263 -0.05690023896525803 0.050626846647934154
0.009903742560770883 -0.05861540528649872 0.050620645007716625
0.009873230773540858 -0.060320003322139604 0.05061448157993309
0.009842783222308873 -0.06201814806530587 0.050611745059768454
0.00981264531880459 -0.06370186715894266 0.0506056467038245
0.009782740087982548 -0.06537372635189975 0.05059823818635434
0.009753016582990314 -0.06703542611821306 0.05059087468838486
0.009723521240700393 -0.06868550420877301 0.05058221648485811
0.009694203761770282 -0.07032563196785663 0.05057361049217679
0.00966522883724709 -0.07195054698641001 0.05056039641753529
0.009636521065176309 -0.07356274405885976 0.05054460607746236
0.009608077230339426 -0.07516238344727333 0.05052626189736642
0.009579614108707276 -0.07675857647651074 0.05051330513937263
0.009551272728070522 -0.07834682037780061 0.05050174091555276
0.00952277567433287 -0.07993597063676605 0.05049942973628757
0.009494264767474234 -0.08152149024997357 0.05050236492935356
0.009465855711587654 -0.08309971020291912 0.05050723890209935
0.009437570859591349 -0.08466994567001729 0.050513384065992206
0.00941022014952355 -0.08620667633488727 0.05049745264956412
0.009385132624172352 -0.08766827682762379 0.050420833236749896
0.009360557299806036 -0.08911021118313683 0.05033365236955889
0.009377567574879175 -0.08924585944883895 0.04904289256058286
0.009398232401220908 -0.08926971029704406 0.04764278757612289
0.00941610148437616 -0.08938369743074265 0.046320836923848974
0.009435487440071017 -0.0894530420948566 0.04495140281600807
0.009453748615461869 -0.08956007118214077 0.04361171831840083
0.00947411174518353 -0.08960461022489602 0.042206983982544743
0.009494150150708437 -0.08966209163815159 0.0408083799251025
0.009514020281817432 -0.08972762287090036 0.039411352108623565
0.009534551693615537 -0.08977565390412767 0.03799128602694085
0.009557958990879637 -0.08973837176324911 0.03648199800298668
0.009580080889641683 -0.08974378352691686 0.03500715096384205
0.009602750970848053 -0.08973561266468705 0.033512104061023285
0.009625622847701958 -0.08972453121674873 0.03200713115823911
0.009654028603292118 -0.08954849190661812 0.030331422082096104
0.009680075881768948 -0.08944803725339778 0.028722184644653315
0.009705545378705376 -0.0893687847430516 0.02712603119787338
0.009735293125591344 -0.08916403206937878 0.025395463282185837
0.009758486673903709 -0.0891608979097328 0.023859667403156093
0.009783908455992705 -0.08909413617101891 0.022251795226190918
0.009810760180416886 -0.08898814953170714 0.020595753399415717
0.009841477600255416 -0.08877041742410707 0.01881628925436618
0.00986456176536118 -0.0887847557115512 0.017266931109176875
0.009888773980318104 -0.08876882477864823 0.015678769232750467
0.009909932500678125 -0.08884700094459463 0.014181151640335399
0.009926744186158248 -0.08905692428593559 0.012815056116170065
0.009945448938033188 -0.08921332397919118 0.011387090486774554
0.009967002523763875 -0.08928843857150798 0.009866898063176477
0.009994539824726348 -0.08919071543839513 0.008155501276844945
0.010023047192623764 -0.08906847586487265 0.006408931381371108
0.010059226130739014 -0.08872586607957123 0.004415768459459846
0.013816558864235209 0.07491758350407118 0.04174685802667111
0.013759211190967083 0.07213241150666694 0.04185355709297728
