# .PCD v0.7 - Point Cloud Data file format
VERSION 0.7
FIELDS x y z
SIZE 4 4 4
TYPE F F F
COUNT 1 1 1
WIDTH 754
HEIGHT 1
VIEWPOINT 0 0 0 1 0 0 0
POINTS 754
DATA ascii
-0.03626970385591838 -0.062107259392546826 0.031666308775235685
-0.03385560089463735 -0.061875018553048236 0.031741212010676256
-0.03203637621226607 -0.061730307241653175 0.0314125112691544
-0.03030001720117026 -0.06159735549379879 0.031033094949939
-0.02857112148803692 -0.061464975205251224 0.030655309455295265
-0.026954949354393132 -0.06134892101702117 0.030204348257049263
-0.025372878309490365 -0.06123750418555296 0.02973508359413579
-0.023997666555826136 -0.06115671105671882 0.029123098780969525
-0.02292309710562812 -0.0611208511771394 0.028298277220813517
-0.02186664903700486 -0.061087577371966836 0.027462181340122793
-0.020810149911260234 -0.061054158248325684 0.026627871695915184
-0.020724214759346826 -0.061167641215971916 0.02508302230268361
-0.020656029855622093 -0.0612842901742863 0.023519085209523116
-0.020587584392692537 -0.061401384890444076 0.02194917174725558
-0.02052008582025211 -0.06151911222553813 0.02037234578289321
-0.020451116849996787 -0.06163710686466673 0.01879036987384236
-0.020381882804118123 -0.06175555500481475 0.017202313792863744
-0.020313597462156274 -0.06187464570298723 0.015607221039239005
-0.02024383079366665 -0.061994009443945605 0.01400689237365832
-0.02017379442803252 -0.06211383460948306 0.012400377315289535
-0.020103486798369596 -0.06223412388037516 0.01078763992254439
-0.020032906325634647 -0.06235487995820441 0.00916864397487549
-0.04688065908728334 -0.06194764609992685 0.02922352834151093
-0.04312921331624259 -0.06153097079307752 0.030164054712594923
-0.03787526430860172 -0.06089522931363123 0.032158960416955595
-0.03563406154143378 -0.060693677640628656 0.032105532748571974
-0.03372500470545564 -0.060539557499239526 0.031831952090106586
-0.03185428908438864 -0.060390391422570175 0.03153972671255395
-0.03012032091893363 -0.06026056313962855 0.031159332393309813
-0.028392561268957395 -0.06013111196593324 0.030781439610040096
-0.026732151492634637 -0.06001099473681901 0.03036259216955728
-0.02557149048516877 -0.059963726164854105 0.02959324306735467
-0.024440595512145835 -0.05992064065678255 0.028805042663591462
-0.023317377557101615 -0.059878508999377834 0.028013603799438846
-0.022054634399577944 -0.059815600507869604 0.027325712176370254
-0.020609736690096803 -0.059725478431631826 0.026774157623633776
-0.020089013410479584 -0.059772016460527586 0.025549198598461942
-0.02007858147882008 -0.05989456917354955 0.023945185157334903
-0.02006810668130382 -0.060017625467537826 0.02233458066959232
-0.020058794936952673 -0.060141368420427097 0.020716444676656898
-0.02004823606800621 -0.06026544197619169 0.0190925289085625
-0.020037633542393907 -0.060390028525656295 0.017461898909070295
-0.020025773504705024 -0.06051494904544108 0.015825433022395807
-0.02001508036256744 -0.060640570415859 0.014181255902946777
-0.020004342732819536 -0.06076671441930238 0.012530238376759206
-0.0199923392688951 -0.060893199827639674 0.01087327849335179
-0.023358517235601117 -0.06153172436602868 0.006592471687541568
-0.05189527466051291 -0.06118464109564352 0.027451025853349686
-0.04565448593793037 -0.06042811150192121 0.030056859268362768
-0.03984344497754405 -0.059729230446919 0.03240953240421618
-0.03753121764234757 -0.059522725585383005 0.03239538446879686
-0.03550261560634266 -0.05935560807265319 0.03219636088347427
-0.03359574487175693 -0.059205111192424165 0.031921763650845536
-0.0316972737848808 -0.059055198172466905 0.0316494256856788
-0.029939543152793346 -0.05892475604973884 0.031286329583968375
-0.028375329172833974 -0.05882145004179245 0.030793611901056672
-0.027164502286596004 -0.05876835174179741 0.03005551165867454
-0.02601571519761875 -0.058723942468091435 0.029275996317461972
-0.024855272274606377 -0.05867767385779541 0.02850727373439116
-0.023282272495926015 -0.058571741632618864 0.02803894991496414
-0.021795597473234674 -0.05847784226104797 0.02751376167253966
-0.02035201238262896 -0.058389791995613866 0.026962276147924236
-0.019341110108807735 -0.058364138937283906 0.026098087216843424
-0.019329166969302425 -0.05848358255429485 0.02449817914991198
-0.019317174845665752 -0.05860351606235605 0.02289170915302219
-0.01930513343592416 -0.058723942481550946 0.02127863677315195
-0.0192930424356077 -0.05884486485683703 0.01965892122408791
-0.01928090153774248 -0.0589662862583052 0.018032521382974176
-0.0192687104328067 -0.05908820978143691 0.01639939578684596
-0.019255257318503527 -0.05921046023041787 0.014760426079636957
-0.019242962382317375 -0.059333396644974556 0.013113730093227804
-0.01923061628485717 -0.059456844618008625 0.011460181936123637
-0.019216999757926623 -0.059580626795697866 0.009800683003399202
-0.04894593209548931 -0.05941928622166823 0.02944436482066587
-0.04224177925670547 -0.05861488521241471 0.03237620056468715
-0.039571275112263715 -0.058364324874981575 0.0325955319324302
-0.0374599302296858 -0.0581901329515171 0.032444372180639225
-0.03537125218577791 -0.058018378471060256 0.03228713200147054
-0.03346531141765463 -0.057871318208655695 0.0320123906596409
-0.031567763360553724 -0.057724828241280744 0.03173990833674639
-0.03009307030597086 -0.057636736722892656 0.031178476071008043
-0.02887811437077875 -0.057584597214158505 0.030438457907927152
-0.02766535460270858 -0.05753255195335205 0.029699777409410155
-0.0262112845597543 -0.057446419145173025 0.029136328841121217
-0.024633844225245727 -0.057342578569668706 0.028666275634477878
-0.023063305493686015 -0.05723928315097177 0.028197045720786795
-0.02153689163096817 -0.057141793849416395 0.027701570816128063
-0.020093420565457154 -0.05705564084050903 0.0271510278862368
-0.018655485960951623 -0.05696991605516031 0.02660126896561299
-0.01858134140572215 -0.0570776631304719 0.02505000065710644
-0.018567840891412335 -0.057194495490563914 0.02344765214238953
-0.0185542849952558 -0.057311807120358646 0.02183873047361745
-0.01854067337576837 -0.057429600975007246 0.020223195121073345
-0.01852820774191566 -0.057548052305829066 0.018600098799056497
-0.018513281586786945 -0.05766664730145008 0.016972119572883637
-0.01849950072014639 -0.05778590580628079 0.015336496634518026
-0.018484453341124918 -0.05790548418306882 0.013695021352071624
-0.018470555413732936 -0.05802573362502835 0.012045804729877707
-0.018456599643908667 -0.058146483538368696 0.010389724161265268
-0.04525662077096565 -0.05757289916324909 0.031937818145805374
-0.041833728241108925 -0.057227764576909625 0.032653519906746864
-0.03949943967179764 -0.057028167245371346 0.032644623914093784
-0.037388666980588736 -0.05685799201283571 0.032493343287618215
-0.0352904541371159 -0.0566888293834233 0.03234296283457033
-0.0333349596093927 -0.05653836012300395 0.03210296093975157
-0.03192535887936854 -0.056461558039678665 0.03149007369431989
-0.03062634828677796 -0.056399521457842904 0.03080384590022689
-0.029382130019822816 -0.056344717473797795 0.03008243475710748
-0.027728047155533175 -0.05623357684961191 0.029655249536629957
-0.0260120500568935 -0.0561134866660997 0.029278613808003118
-0.024413871124221775 -0.05600909906104423 0.02882423277284296
-0.022843366572515456 -0.05590809370646409 0.02835584325931323
-0.02127971722050309 -0.055807617773935586 0.027888268207107547
-0.01983635497558145 -0.055723364439485445 0.02733866559836573
-0.018399721949864944 -0.055639694678500766 0.026788974989056413
-0.017836290558929546 -0.05567696020152506 0.02559977469698449
-0.017821292931094523 -0.055790713601394676 0.024001528157761964
-0.017807426641943847 -0.055905099127817014 0.022395847777420708
-0.017792308220584696 -0.05601978761738019 0.020784466104988797
-0.01777712764123529 -0.056134947637779924 0.019166459389748924
-0.017761884519766014 -0.056250582102987154 0.017541786690189576
-0.017745376055864348 -0.056366524835955376 0.015911323258257448
-0.017730004244137842 -0.056483116328843924 0.014273201230628862
-0.0177145687088322 -0.05660019114945417 0.012628288400573728
-0.017697859294534324 -0.05671758108129372 0.010977479588541061
-0.05192193180305871 -0.0569946337863845 0.02906207618930734
-0.04424579967794151 -0.05610127140225093 0.03262099042209676
-0.04183372824083986 -0.055896886330899585 0.03265351990692972
-0.0394891794593939 -0.055700578172135244 0.03265163569206753
-0.037317427882775256 -0.05552630253971833 0.0325422977981733
-0.03521978143937271 -0.05536112983327795 0.03239179712769685
-0.03380410608517681 -0.05528573975920988 0.031776991332645554
-0.03249979698073885 -0.055224844094963164 0.031088741658259533
-0.03113237193927082 -0.05515529469374762 0.030448362017194974
-0.02927331645968817 -0.05501985429730194 0.030159297740636914
-0.0275510821415601 -0.054902155360268566 0.029780940312865933
-0.025836200530922615 -0.054784958913433025 0.029404198200363385
-0.02419292194040945 -0.05467689496264449 0.028982890811651507
-0.02262487226091925 -0.05457850777582329 0.02851359777897189
-0.021061255941467794 -0.054480312286800996 0.028046861555303282
-0.019579617036622088 -0.054392786132629746 0.027526064151032037
-0.018144283441554943 -0.054311166232544124 0.02697644212497402
-0.01709518259162679 -0.05428160535747027 0.026146639280688944
-0.01707870139803036 -0.05439230245782477 0.024552468835716268
-0.0170621528464574 -0.05450345197252042 0.022951783083888733
-0.017045536523132232 -0.05461505668073419 0.02134454200174335
-0.01702885201087695 -0.05472711938445217 0.019730705237331114
-0.017012098889082228 -0.05483964290870483 0.01811023210683521
-0.016995276733679343 -0.05495263010180548 0.016483081591147086
-0.01697718478557142 -0.05506591859194807 0.014850132218905798
-0.01696022084439547 -0.05517984107758126 0.013209509353548754
-0.016943186566356017 -0.05529423591484821 0.011562084047984367
-0.016924873862329437 -0.05540893873883964 0.009908754444687418
-0.04699621288736522 -0.05500752568229884 0.03237271730533747
-0.04433725768963398 -0.05477724957171843 0.03255917772500899
-0.041835022401600086 -0.0545661742993497 0.03265264037031096
-0.039489179459138934 -0.05437437392990874 0.03265163569224172
-0.037246212923965016 -0.05419506430269908 0.03259123572074335
-0.035836447357469436 -0.0541226899858057 0.03196568569899638
-0.03444177872912124 -0.05405197654852823 0.031333927360223335
-0.03289658631672987 -0.05396144643723263 0.030811524197021434
-0.031004194922934325 -0.05382540976765953 0.03053840694544735
-0.029121320963588715 -0.0536900572694992 0.03026666328679478
-0.027373042214077492 -0.05357172040687894 0.02990739455477437
-0.025659282540551887 -0.053457413445796305 0.02953054564540558
-0.023973424301364066 -0.05334629383316528 0.029140506532756072
-0.022405407872408745 -0.053250194322808635 0.028672052701384898
-0.020844229018734672 -0.05315459814865136 0.028204413623463154
-0.01932320612255156 -0.05306390267547175 0.02771322400118681
-0.01788916981503308 -0.05298432748753672 0.027163670829111086
-0.016459428059336423 -0.05290499060582262 0.02661576342046107
-0.016337674626109577 -0.052998906243981125 0.02510224859205107
-0.0163196453244826 -0.0531070073876289 0.02350565489487111
-0.01630154232425951 -0.053215550417427336 0.021902534785261163
-0.016283365172622133 -0.05332453804837866 0.020292848164144006
-0.01626511341304404 -0.05343397301777368 0.01867655460326334
-0.01624678658523654 -0.053543858085418825 0.01705361334181088
-0.0162283842251173 -0.053654196033869145 0.015423983282994658
-0.016209905864777274 -0.053764989668664 0.013787622990565185
-0.016190150360405053 -0.053876079780743935 0.01214542078148978
-0.016171516146888498 -0.05398779262529584 0.01049548123891042
-0.050849652700240555 -0.05403841118569355 0.031401314863957475
-0.0470860243761852 -0.05367708710019397 0.032312353810654115
-0.044428754863441 -0.053452660798075646 0.03249733855986359
-0.04183631657025072 -0.0532354541607678 0.03265176082832971
-0.03949046195815625 -0.05304833071112433 0.032650759238811056
-0.037930108894557724 -0.05295927321725888 0.032121271985399324
-0.03649428525671844 -0.05288555346510593 0.03151112474649964
-0.03485409473572204 -0.05278571900366219 0.03104744436693102
-0.03277258652801984 -0.052629618207526714 0.030898156834298363
-0.030876097221255727 -0.05249634776106105 0.03062839615479729
-0.028994126371741258 -0.05236437814000176 0.0303565101386587
-0.027195156629205575 -0.05224243880598824 0.030033739173644325
-0.02548251759307446 -0.052131016371243524 0.02965678379360065
-0.02377716842662564 -0.05202006820750319 0.029281432928832285
-0.022187384722491987 -0.051923471655780436 0.02882946703880318
-0.02062623798441826 -0.051830153572856086 0.028362665594528935
-0.01907069263861949 -0.051737170315084055 0.027897539033119423
-0.01763438045088328 -0.05165917522193442 0.02735066155605914
-0.01620592724327774 -0.05158187166295518 0.026802822019692196
-0.015599387690581723 -0.0516106619056129 0.025649995619419053
-0.01558106823722305 -0.05171588949683033 0.024056594806944442
-0.015561492039576519 -0.05182139339412483 0.022457569648327458
-0.015541835805086779 -0.051927328641508334 0.020852006914632404
-0.015522099041909654 -0.05203369788974653 0.01923986643065595
-0.01550228125415537 -0.05214050381136833 0.017621107691341065
-0.015481190572019632 -0.052247592900957006 0.015996602876989785
-0.015461206835432673 -0.052355279630565084 0.01436449154662861
-0.01544114055230894 -0.05246341117998355 0.012725638480672707
-0.015419792631541696 -0.05257183216638164 0.01108093529249149
-0.050341795515426835 -0.052625779011095594 0.03174075787862224
-0.047289559735189224 -0.05235992591062091 0.03217555499212271
-0.04451767535586226 -0.052127185781080554 0.03243724086736827
-0.04188161744947366 -0.051910102172568744 0.03262097347689408
-0.040185437429539894 -0.051807198248288666 0.0321758164685505
-0.03868151334077985 -0.05172746093896976 0.03160491737083038
-0.03689710351575837 -0.05161292563627626 0.031232780413159578
-0.03478468798378609 -0.05145752782170868 0.031095669159883488
-0.03270372969932955 -0.051305380024990015 0.030946263760334436
-0.03074807876064395 -0.05116810791036751 0.03071832969694266
-0.028867010264555848 -0.05103951701285931 0.03044630155106004
-0.027018650393014487 -0.05091446119146315 0.03015910409939576
-0.025307122981534647 -0.05080591768530457 0.02978204330506007
-0.02360287758681756 -0.05069783599800596 0.02940658678705943
-0.021968393332546077 -0.050598024892416556 0.028987580452731032
-0.020408482148923046 -0.050507137990683 0.028520746821521892
-0.018855353986084178 -0.05041672618846584 0.028054719354741575
-0.017379914731269597 -0.05033570622237825 0.02753741475924998
-0.01595274795343332 -0.0502604308899143 0.02698964336428955
-0.01486499827910892 -0.05022768897949967 0.026194851010605313
-0.014844042898854715 -0.05032975915239116 0.02460637719543296
-0.014823002176206912 -0.05043224501372034 0.02301143420141899
-0.01480187558875179 -0.05053514910805158 0.021409982428605867
-0.014780662609811923 -0.05063847400076098 0.019801981953162906
-0.014759362708384904 -0.05074222227824731 0.018187392524081802
-0.014737975349116694 -0.0508463965481501 0.016566173559804553
-0.014715310691641947 -0.050950847088157336 0.0149392004945198
-0.01469374440585125 -0.05105588062307939 0.013304606162789223
-0.014672089019931722 -0.05116134809906972 0.011663258582048697
-0.014649147497051762 -0.05126709796233994 0.010016052664434671
-0.05419744444235436 -0.0516292729705584 0.03078822699143513
-0.050573466663180466 -0.05130381180385927 0.03158591286479584
-0.0474985820279078 -0.05104214519613561 0.03203506833255382
-0.04460794132602486 -0.05080131462871722 0.032376233821973965
-0.042575278147361895 -0.0506616448670963 0.032149548284948815
-0.040960175252087005 -0.05057121671291614 0.031646364505399094
-0.039219875264363546 -0.05046545963657277 0.031234962594879345
-0.03689710351553449 -0.050289517286601346 0.031232780413314287
-0.0347140429756122 -0.05012962641480998 0.03114475431078423
-0.032633644355883784 -0.04998142989795389 0.03099522899003626
-0.030620139467589624 -0.0498406894529374 0.030808207623524264
-0.028738739577836903 -0.04971532426186509 0.030536908527510287
-0.026868004886501262 -0.049590736278369865 0.03026610124094936
-0.02513066247264245 -0.04948180891927449 0.029908064035923332
-0.023427527235992562 -0.04937658946114638 0.02953250145343772
-0.02175083982192899 -0.049274156241609475 0.029144655707078526
-0.02019215566135818 -0.04918569480415634 0.02867779040433821
-0.018639058053899482 -0.04909755042549977 0.028212598415402912
-0.017125772039922216 -0.04901391728366724 0.02772393089096592
-0.015699889578482285 -0.048940665095978754 0.027176227905347794
-0.01427709337296007 -0.04886748769996763 0.026631027176296007
-0.01410973807896615 -0.04894874531211736 0.025154130219298743
-0.014087243777692937 -0.04904823469974711 0.02356325016638955
-0.01406465784983607 -0.049148129339737216 0.021965889945930628
-0.014043157551348218 -0.04924857779951895 0.020361116928655
-0.014019208865871713 -0.049349144321649246 0.018751569979734595
-0.013996344673990857 -0.049450269686943014 0.017134529908020668
-0.013973386583885083 -0.049551810351759255 0.015510849010112293
-0.013950334015939203 -0.04965376887967751 0.013880486293224192
-0.01392599677748757 -0.049755998742399325 0.012244326912048742
-0.013902751107766287 -0.04985880015524261 0.010600483073844313
-0.05455531844082179 -0.050311755500689954 0.030550359865548105
-0.05094358243320929 -0.04999635180771996 0.03133853384464935
-0.04770780748286935 -0.04972308364565481 0.03189444512494266
-0.045090004288538155 -0.04952019866633325 0.03205042735267022
-0.04344456743999803 -0.04942919777495794 0.031558762511897875
-0.0417533095560817 -0.0493325081174364 0.03110434047859717
-0.039219875264138115 -0.04913742122505778 0.031234962595034277
-0.03689710351531622 -0.04896610893692848 0.03123278041346511
-0.0346434218534703 -0.048802173989223804 0.031193822865332177
-0.03256358263919734 -0.04865792609311374 0.031044177712867493
-0.03049600223451404 -0.04851452841056274 0.03089541458593631
-0.02861178098243211 -0.048392100876707984 0.03062658867780993
-0.026741939715143603 -0.04827086622597481 0.030355640008463414
-0.024954354413538993 -0.04815884409247535 0.030033975893509923
-0.02325353580684908 -0.04805662482449453 0.029657440312414685
-0.021558721861573982 -0.047954696311816286 0.029283366304769576
-0.019974867795909124 -0.04786552629243311 0.028835531905514244
-0.018424181348767554 -0.04777993511470381 0.028369441551663377
-0.01687785090207322 -0.0476945087759557 0.027905881004727018
-0.015446177660389748 -0.047622430807566556 0.02736344227705867
-0.014025832473926025 -0.04755140958462372 0.02681744170419409
-0.01337930528178266 -0.047572959697824414 0.02569899491656269
-0.013355370553199242 -0.04766947456587263 0.024112152265809372
-0.013331338510753743 -0.04776638184408027 0.02251885783001195
-0.013307208559753314 -0.04786368393051476 0.02091907218151251
-0.013282980100640163 -0.04796138324282213 0.019312755570741302
-0.013257474418136794 -0.048059339341494804 0.01770077078034099
-0.013233044782632541 -0.04815783985154003 0.016081278367094054
-0.013208514801408056 -0.04825674495627566 0.014455133825489519
-0.013183883854924972 -0.04835605715366406 0.01282229608536739
-0.013157963791338156 -0.048455633719312115 0.011183653574816266
-0.01313312665582067 -0.048555767077621576 0.00953731173504141
-0.055171742434615145 -0.049020937929649046 0.030140643025656555
-0.05131567504436263 -0.04868680852236728 0.031089833537867817
-0.04791856254443477 -0.04840288834265511 0.03175279384841384
-0.04610087554237524 -0.048295583246186984 0.03136722117475471
-0.04435276997486454 -0.048195692818221704 0.03094153054873766
-0.041842771529177536 -0.048009306198025334 0.031043202612464238
-0.0392288596086765 -0.04781040008771947 0.03122878867926282
-0.03689710351510345 -0.04764270058725763 0.03123278041361216
-0.03459047167973561 -0.047477176562036226 0.03123061339498423
-0.03249354453732728 -0.04733486838481559 0.031093109937172014
-0.030427758510487568 -0.04719553488260355 0.03094335610781962
-0.028484900653399037 -0.047069693221149025 0.03071621354284154
-0.026615952064744486 -0.046951807798136354 0.030445123716114353
-0.024779412953447932 -0.04683716119424369 0.03015891178311697
-0.02307848655748934 -0.04673765091501993 0.02978313876542149
-0.02138477241824882 -0.046638562578619584 0.02940895909790081
-0.019759005957000808 -0.046546917611345 0.028992238173697504
-0.018208349168841564 -0.04646359156327948 0.028526982109560284
-0.01666441286477166 -0.04638070008054851 0.028062523861019595
-0.01519396077299845 -0.04630600939637862 0.027549553463568355
-0.013774889179965999 -0.04623699505118747 0.027003620595746902
-0.01265039221744102 -0.04620208995867942 0.026242725972541625
-0.012625025513387345 -0.046295650930539 0.024659908232603944
-0.012599555863764378 -0.04638959160027845 0.02307066695374177
-0.012573982640627035 -0.04648391428398605 0.021474962953536292
-0.012548305210903332 -0.046578621316624345 0.019872756730252072
-0.012522522936360747 -0.046673715052224965 0.018264008459563774
-0.012496635173535053 -0.04676919786408151 0.016648677991270344
-0.012469462878108684 -0.04686493250755058 0.015027637685757433
-0.012443359844510116 -0.046961200095581454 0.013399027789006424
-0.012417149351056422 -0.04705786399376635 0.01176371330292525
-0.012389645288274576 -0.047154785284404054 0.010122585931342742
-0.05578990561539865 -0.04772647842847827 0.02972977020513351
-0.051687059534513136 -0.04737487087300737 0.030841606526995358
-0.0489461224609225 -0.047170572327883784 0.031062157178531946
-0.047113884158574926 -0.04706488123054947 0.03068257044179329
-0.044761740285228224 -0.04690176262813714 0.030663586436219692
-0.041932271193386994 -0.04668554680209803 0.03098203898841234
-0.039317440041199914 -0.04649208454870927 0.031167917446301763
-0.036897103514896445 -0.046319292237588745 0.031232780413755212
-0.03458921112475244 -0.04615822677393789 0.031231489246416166
-0.03242478009033106 -0.0460123949957499 0.031141152320599774
-0.03035829713042426 -0.04587683900052916 0.030992153038524428
-0.028358098518384278 -0.045748100541109164 0.030805783173713575
-0.026490041863826252 -0.04563356024644957 0.03053455241466968
-0.02463131601784868 -0.04551959207232413 0.030264676433689464
-0.022903588087708815 -0.04541981311053323 0.029908728947413588
-0.021210972489658864 -0.04532356010157762 0.029534443940280097
-0.01954218455467488 -0.04522958699802804 0.02914964104301704
-0.01799393292623741 -0.04514879597952945 0.0286834891443018
-0.01645002521609379 -0.04506816024612164 0.028219863640129794
-0.014942062972990056 -0.044991253430615975 0.02773542919506128
-0.013524262889261784 -0.0449242409473879 0.027189564297453284
-0.012110680025322618 -0.0448574277915388 0.026645323064706905
-0.011897366916383045 -0.04492688065823539 0.025205649377640194
-0.011870470399415078 -0.04501787588886185 0.023620442235872285
-0.011844629518534155 -0.04510937353964205 0.022027917588038626
-0.011816349177530772 -0.0452009766621789 0.020430685459170927
-0.011789123135059976 -0.04529308673003374 0.0188260569923851
-0.011761785904091604 -0.045385572966262264 0.017214875382175476
-0.011734336802112166 -0.045478437679931434 0.015597100402818864
-0.011706775141001047 -0.04557168319904443 0.013972691498696566
-0.011677921555908688 -0.045665175503362854 0.012342530683564945
-0.011650130346067211 -0.045759189132025445 0.010704737727401548
-0.0623502192018322 -0.046962191667833435 0.027017557702945227
-0.056411188777528654 -0.04642850667190939 0.02931682363519339
-0.05206042873621347 -0.046060830556042175 0.03059205296903078
-0.050128598843385164 -0.04594827779921935 0.030267399093972358
-0.04813700739794152 -0.04582892049533463 0.029991083652302686
-0.0449665190994748 -0.04558352251339759 0.030524414803595246
-0.04202180857253701 -0.04536122957727591 0.030920849590158117
-0.039406057646588555 -0.04517321577742016 0.03110702066866816
-0.03689583157834636 -0.044995747595312226 0.031233659312174367
-0.034589211124557595 -0.044839420294661606 0.031231489246551558
-0.032354788761120856 -0.044690224803205156 0.03119005186711571
-0.030288859086068654 -0.0445585861372218 0.031040933575789964
-0.02823506439190898 -0.04442772069828662 0.03089269118430643
-0.02636420904099135 -0.04431612282342855 0.030623926154840053
-0.024506367075405433 -0.044205478825480427 0.030353909753632502
-0.022730044845367947 -0.044103240882403395 0.03003334597474633
-0.021038518962590014 -0.04400981780727494 0.029658956670737202
-0.01935414418746567 -0.04391678968825081 0.02928615013773328
-0.017778563008696013 -0.04383527553665376 0.02884069228692543
-0.016237043498366244 -0.04375715661328155 0.028376171602031652
-0.014699839048409824 -0.04367918719282107 0.027914166560631504
-0.013273953001512684 -0.043613144128912984 0.027375273254685972
-0.011861633136023675 -0.04354832177192433 0.026831099029950567
-0.011173535970444404 -0.04356326367028312 0.025748519799120073
-0.011145225490661215 -0.043651334975134286 0.02416732150287243
-0.0111168003090647 -0.04373976310668255 0.02257971687745214
-0.011088259727154215 -0.04382855023788992 0.020985666910332823
-0.011059603040752597 -0.043917698559398484 0.019385132271573735
-0.01102966217863488 -0.04400707991067797 0.01777897275616791
-0.011000768849310005 -0.04409695672327744 0.016165356125465713
-0.010971757259208625 -0.04418720140271585 0.014545134943081073
-0.010942626680781553 -0.044277816212150066 0.012918268577097325
-0.010912199778195242 -0.04436867091310769 0.011285642291913922
-0.010882826681583135 -0.04446003230028465 0.009645369140130589
-0.06418958011867248 -0.04576919727383311 0.025801801762428633
-0.05733883324797451 -0.04515809032763541 0.028700248737394407
-0.05343540628132809 -0.044847383480595325 0.0296730416072416
-0.051349900964443584 -0.044722602142534984 0.02944654571474503
-0.04850311324442347 -0.04451878077730138 0.029743647814021557
-0.04517149406155124 -0.0442640197195576 0.030385109865121718
-0.04218021340854 -0.04404348371750923 0.03081259651543572
-0.03949471244824171 -0.043853793425531806 0.031046098330282434
-0.036899647410312986 -0.043672740108667576 0.031231022601496405
-0.03458921112436808 -0.0435206138153871 0.03123148924668323
-0.0322985628159288 -0.04336993502386746 0.03122933420756202
-0.030219444365665482 -0.043240776069469467 0.0310896977278744
-0.02816619742113513 -0.043113802212109635 0.03094133696736656
-0.02623845352493054 -0.0429994947825059 0.030713244987273458
-0.024381494705119633 -0.04289217090342467 0.030443088388936446
-0.022555446314385164 -0.04278766692817318 0.03015872077824916
-0.020865016457914887 -0.04269706952786335 0.029784226770835642
-0.019181730013339893 -0.042606854973697685 0.029411315298679686
-0.01756460575011043 -0.04252329063007694 0.028996864299343672
-0.016023113954629686 -0.04244742521149637 0.028533175176464365
-0.014487112686768167 -0.04237183001244077 0.028071137634125054
-0.013023958917932676 -0.042303701459384724 0.02756074791169394
-0.011612899990712244 -0.04224086493627226 0.027016640958574534
-0.010451201749261951 -0.0422045126246801 0.026290267682797797
-0.010421485598326674 -0.042289680293583834 0.024713065894927222
-0.010391649271917214 -0.04237519239005383 0.023129485726804955
-0.010361692039555725 -0.04246105100767918 0.02153948840770825
-0.010331613164825726 -0.04254725825705047 0.01994303485205956
-0.010301411905317748 -0.04263381626593334 0.018340085656219363
-0.01027108751257566 -0.04272072717944439 0.01673060109523844
-0.010239471617370044 -0.042807866061420174 0.015115450476174186
-0.010208896389235111 -0.042895488768978134 0.013492781397416942
-0.01017819573647788 -0.04298347091918794 0.011863455865125494
-0.010146194353853721 -0.04307168605810741 0.010228362396633994
-0.058359065076677485 -0.04389111557248268 0.028022134054932646
-0.054842328992113554 -0.04362855678168838 0.0287326786457045
-0.05274754869983922 -0.04350691182830973 0.028507168105562974
-0.04886984135475292 -0.043206414237215905 0.02949579141327685
-0.04537666545341079 -0.04294325243155778 0.03024567142917811
-0.04238293594624987 -0.04272919486279091 0.030674056944445582
-0.03958340446958575 -0.042533817144432245 0.030985150415046236
-0.036987430694372214 -0.04235817672848083 0.031170365024210556
-0.03458921112418417 -0.04220180733611436 0.031231489246811017
-0.03229856281575094 -0.042055694568580736 0.03122933420768631
-0.030151291885386677 -0.04192353428468214 0.03113757515061627
-0.028098582664090488 -0.0418004486693437 0.030989098220197908
-0.026112775244429065 -0.041683675378032005 0.030802508962550712
-0.02425669883662207 -0.041579667566095525 0.03053221238985604
-0.02240865908127382 -0.041476054454501525 0.03026412498986808
-0.020691662892232954 -0.04138544814514603 0.029909389335872172
-0.01900946353137145 -0.041298042365705695 0.029536373241569713
-0.01734969661145458 -0.04121258423171681 0.029153731109531955
-0.01580941354191534 -0.041139096608431604 0.0286900105909092
-0.01427578071769825 -0.04106599121572908 0.028227079783430864
-0.01277428004124792 -0.040995909810334415 0.027745988711604497
-0.011364479996885002 -0.040935054170133406 0.027201949292555316
-0.009957710363068861 -0.04087425943696955 0.02666038432166562
-0.009700398585838876 -0.04093301677847007 0.02525680985241363
-0.009670313669492336 -0.04101575394943408 0.023676361927523593
-0.009638952624676012 -0.04109870545489063 0.022090391829086564
-0.00960630797019868 -0.04118187186489264 0.02049887999922867
-0.009574689679601234 -0.04126549733982718 0.018900021203852202
-0.0095429427170724 -0.041349463131957115 0.017294655788985147
-0.009511066295554593 -0.04143377132291933 0.015682743955227008
-0.009479059621564867 -0.0415184240113633 0.014064245577917689
-0.009445754036479126 -0.0416032995150663 0.012440039551034454
-0.009413482151425068 -0.0416886470548849 0.010808253146596503
-0.05959851851785364 -0.042638918296599916 0.02719830994648681
-0.056501900293078666 -0.04242535559703287 0.027623449708326475
-0.053517782101279665 -0.04222181722304816 0.02798948400474588
-0.049235856359369 -0.04189168562356059 0.02924841697126529
-0.045717737119954194 -0.04163439683278924 0.030013872544857823
-0.042585851879047454 -0.041413652190878454 0.03053538520821719
-0.03967213373406714 -0.04121328658521674 0.03092417690684751
-0.03707652371122944 -0.04104318799608551 0.03110880243158759
-0.03458921112400576 -0.040883000856843314 0.031231489246934974
-0.03229731352302112 -0.04074133156225167 0.03123020702791479
-0.03008068484971399 -0.040606483428529176 0.0311871769095195
-0.02802976139093699 -0.04048740595629553 0.03103771172368336
-0.0259896122507961 -0.04036890450459987 0.03088998643578522
-0.024131979399637238 -0.04026796807433893 0.030621281806579026
-0.0222848148481678 -0.04016765426153628 0.030353054411571823
-0.020519652080883966 -0.040075070783559305 0.03003358242228349
-0.018838531074620246 -0.039990468497809004 0.02966046274041001
-0.017164493128058456 -0.039906222666498174 0.02928891512198406
-0.015597114189102257 -0.03983228569406426 0.02884581776302403
-0.014063507618438331 -0.03976142342747776 0.028383716393992342
-0.012536507145963605 -0.03969092915587367 0.027922396271203964
-0.01111521930481979 -0.039630770405998154 0.027387884743490187
-0.009710854856082807 -0.039572065492070554 0.026845525001093773
-0.008983095479013326 -0.03958143270887376 0.025797700512303623
-0.008950470600411986 -0.03966117538493317 0.02422210657316276
-0.008917714001075994 -0.03974124001654991 0.02264015128206659
-0.008884824881666586 -0.03982162855747761 0.02105179603581009
-0.008851802436373402 -0.03990234297731104 0.01945700191820221
-0.008817489119429034 -0.039983267228735915 0.017856625756185684
-0.008784195323026767 -0.04006463889841325 0.01624884245901065
-0.00875076573495015 -0.04014634244949379 0.014634501678342127
-0.008717199522741803 -0.04022837991653689 0.013013563214306134
-0.008682330045121367 -0.040310633377134676 0.01138690918897678
-0.00864848576883337 -0.040393344353770684 0.009752660205172736
-0.06142724783185649 -0.04143395323374619 0.02598281346501541
-0.05826151297352006 -0.0412211645535136 0.026447354832144943
-0.05442871839594765 -0.04094508608646759 0.02737723162030642
-0.04981687399435464 -0.040594833032367925 0.028855731121120443
-0.046080473806599354 -0.04032544038900637 0.029767349694928613
-0.042788961483815335 -0.04009685390672424 0.030396581117530463
-0.03982009866790909 -0.03989778713401596 0.030822497476059196
-0.03716438096942554 -0.03972752085888841 0.031048093738739457
-0.03459047167861551 -0.03956431380159074 0.031230613395762497
-0.032297313522853865 -0.03942709506022768 0.031230207028031587
-0.03002248316355871 -0.039291060405120176 0.031228063854806642
-0.02796096315517499 -0.03917480277414132 0.031086308954172637
-0.025921355807885627 -0.03906016227839796 0.030938466104731666
-0.024007336323965622 -0.03895707168990491 0.030710296689239136
-0.022161046251685468 -0.03886005316082511 0.030441929520522937
-0.020346594794550088 -0.03876569492208523 0.03015853107142491
-0.01866655839290643 -0.03868389187517022 0.029785307397145633
-0.016993597458409837 -0.038602433341490446 0.02941365555294223
-0.015383869681532436 -0.03852675203567549 0.029002318587229237
-0.013852625700939425 -0.03845836177553774 0.028539326449627755
-0.012325650483817785 -0.038390101448102475 0.02807883424177232
-0.010867425292080901 -0.03832824634859984 0.02757272612829026
-0.009464309285470762 -0.03827150650063321 0.027030433229435102
-0.008267266473831303 -0.038234665409143394 0.02633747960889049
-0.00823326178524253 -0.038311553878478746 0.02476585407521764
-0.008199120056745723 -0.03838875221055379 0.02318789484546302
-0.008164840458251221 -0.038466262282283656 0.021603563554859206
-0.00813042215296056 -0.03854408598577362 0.020012821528158475
-0.008095864297280597 -0.03862222522847129 0.01841562977649963
-0.008061166040772727 -0.038700681933324224 0.01681194899420818
-0.008025169570085422 -0.03877934330605588 0.015202645455275332
-0.007990185676720885 -0.03885844029833516 0.013585874052214897
-0.007955058780569235 -0.0389378606133167 0.011962493815013353
-0.007918624259219242 -0.039017490091141936 0.010333390096134931
-0.06030683774226048 -0.04003181487571002 0.025080294906184797
-0.05542856000125079 -0.03967071484137619 0.02670522479557913
-0.050420963316692824 -0.03929643933883423 0.028447452069295
-0.04644250241075476 -0.039014147046062736 0.029521308071519314
-0.04299356889208561 -0.03877891689771347 0.030256753435402017
-0.04002098196897452 -0.03858618365836385 0.03068445328425745
-0.037252274983333555 -0.03841130330306535 0.03098735964797572
-0.03467494618784961 -0.03825323962493557 0.031171919311916985
-0.03229731352269205 -0.03811285855820524 0.031230207028144663
-0.03002248316340239 -0.0379813583916018 0.0312280638549165
-0.027892187945241287 -0.03786263890222384 0.031134889919833764
-0.025854340401263165 -0.03775196927162993 0.03098606431801143
-0.023881560526959666 -0.03764686581722688 0.030800120514202056
-0.022037353222554235 -0.037553250420534895 0.030530750366464188
-0.020202295043661722 -0.03746009945049275 0.030262716565875314
-0.018495917336987855 -0.03737854331827659 0.029909185351707168
-0.016824024770425827 -0.037299866886164726 0.029537430311081803
-0.01517202300343412 -0.03722272379249828 0.029157793539927257
-0.01364080441692933 -0.03715657446973298 0.02869562966509781
-0.012116175205931279 -0.037090768418111396 0.028234247340999608
-0.01061994265952726 -0.03702735905463244 0.027757335239743552
-0.00921807306789374 -0.03697257938547092 0.0272151094441917
-0.007820345306042364 -0.036917961563081775 0.026674485657050495
-0.007519812224805578 -0.03696697012314929 0.025306751521156134
-0.007484297894189529 -0.037041322996689614 0.023732763392717737
-0.007448640413346641 -0.03711597556974417 0.02215243087624552
-0.007411692891497956 -0.037190820493420304 0.02056659854002857
-0.007375744288118213 -0.037266077485025764 0.018973468098956114
-0.007339649903067791 -0.037341639664761776 0.017373877068719235
-0.007303408847761761 -0.03741750889283443 0.015767786070233658
-0.007265865305041197 -0.03749357609544887 0.014156064566603566
-0.007229325966718325 -0.03757006460841971 0.012536860864315214
-0.0071926372399439 -0.03764686583907776 0.01091103716614783
-0.05669516283047621 -0.03841340871113274 0.025853924208622425
-0.051026741183030744 -0.03799441638917939 0.02803803180023945
-0.04680646703409369 -0.03770075537536714 0.029273950692124462
-0.043315865492353944 -0.037470038898585224 0.03003649754655424
-0.04022334578559644 -0.03727344692668665 0.03054539170289483
-0.037340205776018764 -0.03709453498313627 0.030926600143358518
-0.034761978052057 -0.03694185804126436 0.031111448341664072
-0.032298562815092746 -0.03679873274744983 0.03122933420814611
-0.030022483163251068 -0.03667165637808485 0.031228063855022803
-0.02782343574957863 -0.03655091412003334 0.03118345462883043
-0.02578612909582917 -0.03644409638476043 0.031034511927714503
-0.023759487256279688 -0.03633779323013307 0.030887300149388064
-0.02191373569159316 -0.036247245309726575 0.030619516999072838
-0.020079542693974384 -0.03615736126141196 0.030351344676238623
-0.01832423770455971 -0.036074196962416503 0.03003381726745913
-0.016653419702210792 -0.03599829838886837 0.029661958625793017
-0.014989617598561322 -0.03592271851951616 0.02929166144830808
-0.013430371114889317 -0.0358562811047126 0.028850908686771926
-0.011905766311073485 -0.03579270684121241 0.028390353105769428
-0.01038655827889906 -0.03572935761687331 0.027931427791977603
-0.008972145621478078 -0.03567528107711465 0.02739955408176664
-0.007575655984852159 -0.03562261268545878 0.02685899645471357
-0.006807824571143262 -0.03562717735027529 0.02584654063136288
-0.006770945687809227 -0.03569870455446565 0.02427651147543164
-0.006733918426138186 -0.035770519540814616 0.022700165472809564
-0.0066967418888518315 -0.03584262404961519 0.021117464423898613
-0.0066594151714142735 -0.03591501983521996 0.01952836982048123
-0.006620791136599635 -0.03598760280029621 0.017933735540868967
-0.006583159102267033 -0.03606058602969286 0.016331743586212033
-0.006545374121412428 -0.03613386588212343 0.01472324071498815
-0.006507435259709926 -0.03620744416960075 0.013108187153259898
-0.006468186450681035 -0.03628121511853174 0.011487461901956375
-0.006429934745655175 -0.03635539533100226 0.009859193053655124
-0.05188174052974942 -0.036709642260110094 0.027460173013994782
-0.04735689217984074 -0.03640085400337195 0.02889987114462339
-0.043673963906482094 -0.03616217178752981 0.02979177487671192
-0.04042461250864182 -0.03595934407738135 0.030407084028876985
-0.03747663501549786 -0.03578133928052667 0.03083232858327234
-0.03484904619195062 -0.0356299298617389 0.031050952166551293
-0.032298562814941645 -0.03548449229217085 0.03122933420825169
-0.030022483163105074 -0.03536195436456933 0.031228063855125332
-0.02776206929881392 -0.03524025984029306 0.03122680224551122
-0.02571794054546145 -0.03513665979992191 0.03108294337545492
-0.023691834625459318 -0.03503418732968796 0.030935614834834257
-0.021790193589698248 -0.03494203709835239 0.030708229467970583
-0.019956865059758966 -0.034855416007785044 0.030439918841474956
-0.01815270482166509 -0.03477096554496955 0.030158342649458436
-0.01648296015831424 -0.03469784011571869 0.02978638071916906
-0.014820223902582585 -0.03462502161532425 0.029415980022033383
-0.013219000205157372 -0.03455726540956868 0.029006879570445565
-0.011695581379980946 -0.03449602694904231 0.028546292708196697
-0.010178700041377275 -0.03443510566249134 0.028086479175346235
-0.008726526365801512 -0.03437960851378795 0.027583767577474272
-0.007331272850396087 -0.03432888471485705 0.02704327636874726
-0.0060984282080240315 -0.03429226077479178 0.02638436517040138
-0.006060194941173935 -0.03436098238619849 0.024818276612363743
-0.006021808127825157 -0.03442997998658453 0.023245898574541957
-0.0059832668411397005 -0.034499255241870475 0.02166719309246823
-0.0059445701468051615 -0.03456880983141167 0.02008212189551134
-0.005905717102965891 -0.03463864544813453 0.018490646403778788
-0.005865562547745784 -0.03470866167646027 0.016893623646418776
-0.005826391743308734 -0.0347790640665882 0.0152892291201695
-0.00578706170921911 -0.03484975264294901 0.013678312718335361
-0.005747571472598634 -0.034920729154120735 0.012060834592713565
-0.005706766974227284 -0.034991891567262755 0.010437676952300634
-0.052873309994260986 -0.03543062299923763 0.026790012119207063
-0.04795533400384755 -0.03510141494210187 0.02849315853626977
-0.04403397461906927 -0.034852212698083564 0.029545745351642172
-0.040626070740211184 -0.03464399083810312 0.03026864475288288
-0.03767697661010666 -0.03447252068672679 0.030693894075053796
-0.03493615063021033 -0.03431745474454822 0.030990430770820365
-0.032377283400671475 -0.034176728522776256 0.031174335953652155
-0.030022483162964297 -0.03405225235105515 0.031228063855224253
-0.027762069298677916 -0.033935065031382085 0.031226802245607255
-0.025649774738777775 -0.033829659298827607 0.031131358669317044
-0.02362541197746415 -0.033731115127304 0.030983051117880134
-0.021666726847850537 -0.033637625057255316 0.030796887822718222
-0.019834262072818465 -0.03355426296587998 0.03052843911082298
-0.018010857417912196 -0.03347131303553324 0.03026131766999013
-0.01631382003606474 -0.03339858884162657 0.029909839738260058
-0.014652141078326408 -0.033328526623170325 0.02953933654282076
-0.013009014088569859 -0.03325973151125465 0.029161828613362084
-0.011486773078630164 -0.03320082357210101 0.0287012109667365
-0.009969914766370713 -0.03314212393349169 0.028242222080235302
-0.00848121472190283 -0.03308555864138407 0.027767750365533306
-0.007087195328323304 -0.03303677461074809 0.027227325832247462
-0.005696151968203611 -0.032988038434460146 0.026689348455480932
-0.005353160645537425 -0.0330282257860647 0.02535720890867804
-0.0053134265727768915 -0.033094426422461395 0.023788774115258482
-0.005273532896866218 -0.03316089297238655 0.02221403926105564
-0.00523234299114167 -0.033227529849131535 0.020633846047969473
-0.0051921250382641615 -0.03329453266289187 0.01904640308606137
-0.005151744559821703 -0.03336180624297552 0.01745254507866989
-0.005111200568645946 -0.033429352234004193 0.0158522330611211
-0.005069347674503399 -0.033497073518582964 0.014246333461637228
-0.00502847145857277 -0.03356516891688048 0.012633001869978233
-0.00498742871150093 -0.03363354173814851 0.01101309751044477
-0.05402516453608336 -0.03415793122098033 0.0260115211530767
-0.04855410698401674 -0.03379825252893505 0.028086220867799827
-0.04439459333877871 -0.03354004127322708 0.029299300317538135
-0.04092991162777737 -0.0333354207073673 0.030059849549210205
-0.03787623131380141 -0.03316235367321709 0.030556210600136358
-0.03502329138954241 -0.03300443234759697 0.03092988413869463
-0.03246478572502298 -0.03286916126978736 0.031113202324270284
-0.030022483162828684 -0.032742550337542274 0.03122806385531951
-0.027762069298547076 -0.03262987022247238 0.03122680224569968
-0.02558041503031183 -0.03252299782453835 0.031180621941196918
-0.023557803932221122 -0.0324283722026943 0.03103133396216773
-0.021544533010647238 -0.0323341041747843 0.030884632136730428
-0.019711733665038922 -0.03225390141284527 0.03061690553346158
-0.017889185038482913 -0.0321741903147017 0.0303496465039228
-0.01614364998236323 -0.03210034290228945 0.03003405052650615
-0.014483034459319144 -0.03203303272711424 0.029663444429841146
-0.012829368546334763 -0.03196600424235322 0.029294389304925395
-0.011277033777966128 -0.03190689660815889 0.028856819948735957
-0.009762496448363689 -0.03185060746883515 0.028396945306634336
-0.008252154566581904 -0.031794424038137925 0.027939544599754784
-0.006843422845718317 -0.03174627934020328 0.027411145277227655
-0.005453606833715152 -0.03169947613689901 0.026873232574337602
-0.004647566208420717 -0.03170021212660655 0.025895043682194196
-0.004606492773781612 -0.03176363527094395 0.02433054015313091
-0.004565254657006024 -0.031827312707535124 0.022759763817259415
-0.004523850865679746 -0.03189124596881257 0.02118267687298858
-0.004481146727990659 -0.03195534311169081 0.019600124135436603
-0.004439406414169456 -0.0320197922916299 0.01801030779038426
-0.004397497392024496 -0.03208450196578726 0.016414065638679143
-0.004355418636639907 -0.03214947371668047 0.01481135864316746
-0.004313169114787796 -0.03221470913967219 0.013202147449844381
-0.004269603216744078 -0.032280114445297 0.011587307959472604
-0.00422700682275956 -0.03234588166148307 0.009964975694653544
-0.05579264943994455 -0.03292422815737585 0.024816951022502087
-0.049355510681198145 -0.032506572726951795 0.02754157145502556
-0.044913639906973224 -0.03223754077393021 0.028944586482096246
-0.041286023997189336 -0.032028885002212557 0.029815134115098174
-0.038075674851951735 -0.03185094500940223 0.03041839664205581
-0.035150910795916146 -0.03169392750734087 0.03084121237006371
-0.03255107410154412 -0.031560948038399726 0.031052916821350196
-0.030023721325686537 -0.0314329425486732 0.031227194040364503
-0.027762069298421232 -0.03132467541356389 0.031226802245788554
-0.025518376297227974 -0.03121733741798965 0.03122468543342588
-0.023490218363877435 -0.03112606238653111 0.03107960075439198
-0.021477477570582104 -0.031035595120154188 0.03093278295778623
-0.01958927976839625 -0.03095433062670913 0.030705318158504635
-0.017766406259718648 -0.030877763516255787 0.030438778535455346
-0.01597362489685933 -0.03080320294116367 0.0301581554993417
-0.014314071600618317 -0.030738640151608244 0.029787446810714158
-0.01266261802170332 -0.03067443717222367 0.029417434745344806
-0.011068667953804123 -0.030614434117832493 0.029011409926287424
-0.009554152821209028 -0.030560364524105897 0.028552358765304597
-0.008046115703447654 -0.030506574336026025 0.028094072953507188
-0.00659882313219512 -0.03045730741113548 0.027595588505198554
-0.00521136418793855 -0.03041252086206402 0.02705688736321671
-0.003944530948151059 -0.030377015146005104 0.02643092773979272
-0.003902128130057192 -0.03043768051160808 0.024870337292255185
-0.003859555609272869 -0.03049858866940492 0.02330350111986751
-0.003816812364994593 -0.030559741079856397 0.021730381652908692
-0.0037738973682062693 -0.03062113921515954 0.02015094101973658
-0.0037308095816144804 -0.03068278455936718 0.018565141043734967
-0.0036864141253599714 -0.030744588465016945 0.01697383580316092
-0.00364297544949882 -0.030806732362428247 0.015375207877188046
-0.003599360813131336 -0.030869127991016123 0.013770104263196636
-0.0035555691449192794 -0.030931776883445537 0.012158485533964591
-0.003510456830900621 -0.030994588969388927 0.010541230776212829
-0.05033621258108806 -0.03122279021889068 0.026875067524783858
-0.04550649706901094 -0.030937110511563108 0.028539430855025805
-0.041642735125869745 -0.030720152517552838 0.029570007222000427
-0.038275307493121136 -0.030538292929370055 0.03028045201523666
-0.03534817910845384 -0.030387675467972684 0.03070414755629758
-0.032637398326270606 -0.030252191314469257 0.030992606273028023
-0.030096786083189553 -0.03012856518585656 0.031175865720864004
-0.02776206929830055 -0.030019480604656573 0.03122680224587382
-0.025517160039683073 -0.029916525961453062 0.031225549289797816
-0.023421448981352233 -0.029824096948241494 0.03112871297729808
-0.021410444355221603 -0.029737516440320234 0.03098091781984197
-0.01946690031493936 -0.029655549886376815 0.030793677035013345
-0.017644882144292995 -0.029582217618115865 0.030526999736196214
-0.015833023980384886 -0.02950933378304886 0.030260783137304625
-0.014146416098624603 -0.029445433773594556 0.02991048971833027
-0.012494851399581619 -0.029383871855580047 0.0295412299654933
-0.01085937286784483 -0.029323251332374664 0.02916668933820732
-0.009347173027593692 -0.0292715748780341 0.028706754875422902
-0.007839157183446466 -0.029219995277300764 0.02824929104636753
-0.0063556604276511774 -0.02917003653111862 0.027778948140016635
-0.0049694234653516745 -0.02912716960554517 0.027240313250865456
-0.003587254822887964 -0.029084428485566947 0.026703259144074842
