# .PCD v0.7 - Point Cloud Data file format
VERSION 0.7
FIELDS x y z
SIZE 4 4 4
TYPE F F F
COUNT 1 1 1
WIDTH 760
HEIGHT 1
VIEWPOINT 0 0 0 1 0 0 0
POINTS 760
DATA ascii
-0.03548651338512265 -0.04391045567791618 0.014824232508429902
-0.03556049760680956 -0.04392140021116503 0.013137351743769676
-0.035635573474519636 -0.04394176603465466 0.011436616236933539
-0.03571635645070139 -0.044026657824677295 0.009681648316464786
-0.03583624143116059 -0.044574119014221925 0.0075795075913532295
-0.03605931645800384 -0.0463443613168662 0.004563636684164263
-0.038576966608129794 -0.08594346672310016 0.026737063619935997
-0.03836606215423583 -0.08246619820074785 0.027259463095187952
-0.038233632565968324 -0.07994922552284572 0.027189973716698124
-0.03810039120086589 -0.07742874785323478 0.027134268510648707
-0.03796172181835244 -0.07484914481093258 0.027128200037285777
-0.03783024432160321 -0.07236271742348416 0.02707404722785739
-0.03769943344703053 -0.06989055886972373 0.027022149743600954
-0.037566174188860144 -0.06739527266149031 0.026996862404861155
-0.03742684652828222 -0.06483371586969716 0.027026865543630874
-0.03729314594043895 -0.062345993626871155 0.02702035736794528
-0.03715103486189793 -0.0597643964219336 0.027088062797547274
-0.037013602599424614 -0.057245219084022136 0.02712663443030261
-0.036876261166818275 -0.05473366368548832 0.02717227983458248
-0.03673512998963401 -0.0521837500127037 0.02725606301846123
-0.036643727877864796 -0.050228519689551665 0.02694826328226152
-0.036587243548068485 -0.0486896548252565 0.026364082203557793
-0.03654994823181545 -0.047379443928137976 0.02562782665481722
-0.03653330897541751 -0.04631375710575236 0.02472595021784746
-0.03653376162439931 -0.04544931828764803 0.02368573850730854
-0.03654711757890499 -0.04473588211294538 0.022539987858621935
-0.036575559693467756 -0.04419802383758087 0.021269688364065897
-0.03662393337268537 -0.04389114736563687 0.019833659027922224
-0.03669125558787305 -0.04380239370882072 0.018238325473637795
-0.03676799143586025 -0.04381971814178015 0.016561126041126584
-0.036845509253278896 -0.04384244820357558 0.014873067037917631
-0.03692243008534499 -0.04385458531377928 0.013185592674511248
-0.037000601167434685 -0.04387748487161863 0.011483281632441389
-0.03708458247586089 -0.043963560450903716 0.009727704528071923
-0.037209511038048745 -0.0445161229171353 0.007622071192558255
-0.03744633226735936 -0.046345724391121335 0.004562630959458247
-0.03999920320772522 -0.08586679932164631 0.02678523473654898
-0.039784051726951694 -0.08243138105144765 0.027281463545044182
-0.03964455365857554 -0.07988921244951763 0.027228110216395096
-0.03950449956492917 -0.07734696899890081 0.027186530842236267
-0.03936429153008344 -0.0748093654892501 0.0271537655602897
-0.03922520099025722 -0.07229117095463189 0.027120288486936428
-0.03908396800952753 -0.06975454295847155 0.027110553652375913
-0.03895007202543645 -0.06730922814958573 0.027053101947852376
-0.03881290309841572 -0.06483229509146538 0.027027799472886582
-0.03867033951023597 -0.06229953578484765 0.02705106451895145
-0.03852639265407631 -0.05975742431024872 0.02709269701090644
-0.03838134584905293 -0.057209305588391934 0.02715063846913085
-0.03823786518230215 -0.05468577404197783 0.027204467174282265
-0.038096165060843123 -0.052189171203269435 0.02725239914048816
-0.03799653609625673 -0.050178730733764054 0.026982100891342786
-0.037935502684191526 -0.04861200934538634 0.026417144808101922
-0.03789496171124073 -0.04728078517516404 0.025695623637021714
-0.03787865233705568 -0.046226019827189824 0.024786576076016642
-0.03787900426995942 -0.04536043015873842 0.023747499307122555
-0.03789496194700356 -0.044670955310718796 0.022585349139979782
-0.03792609453068041 -0.04415166784489083 0.021302253733722354
-0.037975187963553036 -0.043832837709086026 0.019874847483138558
-0.03804462956150652 -0.04374000746314066 0.018282635865505492
-0.03812216454480463 -0.04373459002881891 0.01662192106028121
-0.0382026405951496 -0.04375846884954082 0.014933370569406967
-0.03828405616359008 -0.04378912700298532 0.01323285413978853
-0.03836581949074891 -0.04381991610967412 0.011525074118769185
-0.0384517999348361 -0.04389377230066005 0.009778644480637977
-0.03858435518824047 -0.04447971484801483 0.0076487912740893504
-0.03883841162283881 -0.0464029763431123 0.004520384762957297
-0.04141176905907311 -0.08568596343293805 0.02689885614980997
-0.04119660461397062 -0.08233755185427533 0.027340752715926897
-0.041052714649533466 -0.07980222106789275 0.02728339058267476
-0.040909826334967425 -0.07728453927978163 0.0272264277597406
-0.0407676669022523 -0.07478137681299257 0.027171753450665637
-0.04062271471212413 -0.0722532167085454 0.02714481876512631
-0.0404789189658174 -0.06974441749574428 0.02711713479762079
-0.0403351103924702 -0.06724184960036161 0.027097141250459145
-0.0401858187962244 -0.06468457083359586 0.027124895803459947
-0.04004155064586392 -0.062189764694488114 0.027123619597846593
-0.03989555082060584 -0.05968213830936481 0.02714273722035887
-0.039748367192852636 -0.057167874200939106 0.027178330571310638
-0.03959768624980687 -0.05462148153132246 0.027247679096768784
-0.03945145978099008 -0.05213090188408298 0.027291781042390995
-0.03934585643730546 -0.050093981186249914 0.02703969838847703
-0.039280232323732 -0.04850094450509873 0.026493046032493472
-0.03924081702020216 -0.047198159974363774 0.025752402588711032
-0.03922563168464891 -0.04616223344953313 0.024830652048094537
-0.03922660327776001 -0.045303402023751604 0.023787123336652893
-0.03924251875477951 -0.044607372655335153 0.022629771331292847
-0.03927499710718832 -0.04409075808560131 0.02134504318768654
-0.03932497498349681 -0.043762622198275036 0.019924445913224564
-0.03939699545629057 -0.043671005617354375 0.018331645037851285
-0.039478257573114565 -0.04367608418257446 0.016663703571138888
-0.0395618319441557 -0.043702501008452854 0.014973559743324094
-0.03964576091507082 -0.043729029918883444 0.013276244760172584
-0.039729050135984226 -0.04374496607537037 0.011579484647411264
-0.03982144886069616 -0.043854861947362545 0.009807046068144254
-0.03995820909962969 -0.04443522449008713 0.007681442972041097
-0.04022728586144083 -0.04642206380116165 0.004506300193610868
-0.04283052225123399 -0.08558487880515997 0.02696236889940057
-0.04261274380354385 -0.08228913874152621 0.027371344226498118
-0.0424647484638578 -0.07976323561236498 0.027308164692420978
-0.04231613811208228 -0.07723698517261118 0.02725681814894837
-0.042164359143280185 -0.07468270689457951 0.02723516688529387
-0.04201528116841056 -0.07216419487555598 0.027202354522263716
-0.04186658500503622 -0.0696561995401796 0.027174472323861165
-0.04171867206157794 -0.06716302793895518 0.02714865987363091
-0.04156837274024924 -0.06465049455231925 0.027147293552933882
-0.04141928338044178 -0.06215740671226033 0.027145007215668426
-0.0412624248480484 -0.05958737009513532 0.027205726616446324
-0.04111023097523303 -0.05707399176920391 0.027241080043393984
-0.040955828136540987 -0.05454353507559451 0.02730006801534407
-0.04080702684704356 -0.05207942106658986 0.027326574876903598
-0.04069654420239198 -0.05002943238459179 0.027083567071601866
-0.04062628475219594 -0.048411331460275764 0.026554287209612393
-0.04058678394894686 -0.04712222609645211 0.025804583357838917
-0.040571959596865444 -0.046095809456755954 0.02487655059166083
-0.04057283878880251 -0.04523578366180342 0.023834105604258915
-0.04059068053606572 -0.04455440156847257 0.02266677973580533
-0.040623515063878075 -0.0440298656938532 0.021387820440853633
-0.04067633761934113 -0.04371361754951514 0.019959061561422076
-0.040748544056567054 -0.04359804716636145 0.018383464419235995
-0.0408341060395262 -0.04361892351421259 0.016704525412249982
-0.040921177869620746 -0.0436518760966102 0.01500991229513704
-0.041005029664610566 -0.04364759195473056 0.013335043651944378
-0.0410925750766851 -0.04367806865342466 0.011628049332201129
-0.041187871110361624 -0.04378510932195978 0.009857960090317475
-0.04133060412312619 -0.044378613756481 0.007722989850692974
-0.04162725351994228 -0.04655435851752565 0.004408679848818209
-0.04424490540321856 -0.0854440456378287 0.02705085612802749
-0.04402086099416359 -0.0821590781901051 0.027453527381001652
-0.043873559723074204 -0.07969277846861339 0.027352938070397792
-0.04371849003149888 -0.07715081829183829 0.027311884727946656
-0.04356325158403458 -0.07461351609924494 0.02727963462554256
-0.043408276961566995 -0.07208541772220262 0.02725326904311043
-0.04325509175359046 -0.06958246994605871 0.027222393108888743
-0.043101886574516815 -0.06708566624475326 0.027199224249137177
-0.042947719988043725 -0.0645851960655136 0.02719021304435243
-0.042792353789901205 -0.06207864155037529 0.02719706841852737
-0.042632739220580626 -0.059534429110273956 0.027240914828368323
-0.042469649527885886 -0.05696083382492961 0.02731671293430571
-0.042313354134662834 -0.05446424963119756 0.02735335688579038
-0.0421543997942659 -0.05194671075661378 0.02741626836386335
-0.0420434359164489 -0.04992995727042088 0.027151172345950603
-0.0419735992210805 -0.04834046991593799 0.026602713707239045
-0.04193110748655797 -0.04703433612060354 0.02586498018847988
-0.04191553581013325 -0.046005505772668154 0.02493894981597483
-0.041918260111137605 -0.04516421100842294 0.02388383536893829
-0.041936690418093565 -0.04448291137294702 0.022716726540741916
-0.041971128315780655 -0.04396369799105332 0.021434303622949402
-0.0420241299665677 -0.0436315267948465 0.020017048343980826
-0.0421017243822889 -0.04354632814315518 0.018420198334796578
-0.042187488707069176 -0.04354051863338415 0.01676051898041675
-0.04227571434113444 -0.04355598803787997 0.015078767165566886
-0.04236470728717887 -0.04357552527661218 0.01338707640665826
-0.042455140290166074 -0.04360584298090325 0.011680482093472944
-0.04255344579152208 -0.04371135730153003 0.009911793356510712
-0.04270344350363443 -0.04433010222093042 0.007758592703140221
-0.04301387252669132 -0.046544808877744315 0.0044157266292937924
-0.04565918421321758 -0.08531094430668523 0.027134485352183324
-0.04543439157981778 -0.08209256375492274 0.02749555681287358
-0.04527915573829181 -0.07959387480751212 0.027415788315625134
-0.045119588914482284 -0.07705725976876643 0.0273716750693207
-0.04495825122291028 -0.07450903343135817 0.027346783808098407
-0.04480107779615779 -0.07200958401261437 0.02730228118754785
-0.044642148445884516 -0.06949864976981335 0.027276872289095033
-0.04448193669242685 -0.06698112690932606 0.02726755217427118
-0.044323573333856094 -0.06448870269544454 0.027253636319310826
-0.04416382234396378 -0.06198865832694228 0.02725654438276831
-0.04399857153879649 -0.059439724118059256 0.027303862202800344
-0.0438342779221303 -0.056907035282741714 0.027352671028526843
-0.04367257085458559 -0.054406854000736415 0.027391933324290796
-0.043498244260971194 -0.05178702407044694 0.027524194067078567
-0.04339159427554761 -0.04984933533793784 0.027205964636722757
-0.04331939738080278 -0.04825894107923684 0.026658430177841475
-0.04327568546199466 -0.04695446731485009 0.02591986498435289
-0.04326082213302385 -0.045937802977491726 0.024985732001987226
-0.04326349954926323 -0.04509531180537407 0.023931707582836803
-0.043283054235099656 -0.04441938461205569 0.02276110968121875
-0.043318324031670005 -0.04389755078925084 0.02148077240297963
-0.04337651713251457 -0.04359975827999418 0.020039488851222087
-0.0434549818406143 -0.04349859864425998 0.018454098660226737
-0.04354186562335331 -0.043476752889883175 0.016806057889595882
-0.043631139838177825 -0.043474783280359586 0.015137078329493903
-0.043722695050107487 -0.04349147822869537 0.01344775907591661
-0.04381669502061087 -0.043528294479237895 0.011736778995501407
-0.04392144596027464 -0.04366577793655968 0.009945062798343507
-0.0440758323241429 -0.04428025461363866 0.007795176102697199
-0.04707465758096984 -0.08519779121047144 0.027205580863582823
-0.046844930429496 -0.08200038197100362 0.027553805010895827
-0.04668037234994774 -0.07945757690788541 0.027502401423532774
-0.04651861726340164 -0.0769488982358783 0.027440925541227457
-0.04635455134877687 -0.07442371681426752 0.02740161531959956
-0.04618971491933058 -0.07189733813607885 0.027374826870197155
-0.04602619357846178 -0.06939030759339104 0.027347289595173796
-0.045860762414349554 -0.06687091199506084 0.027339589708515355
-0.04569854391736003 -0.06438941472865378 0.02731889642772528
-0.045533154670999866 -0.06188325550524154 0.027326212182854914
-0.045365674970157775 -0.05936315416015414 0.02735475581615754
-0.04519630569706272 -0.056831187850350406 0.027403366219197922
-0.04503100904723367 -0.05434537538344192 0.027433253991933637
-0.04485602941700609 -0.05177214410589476 0.027534250899655388
-0.04474133311818753 -0.04978888862013614 0.027247045464973807
-0.04466399510976083 -0.04817076424529243 0.026718689855701416
-0.044620316455356475 -0.04687994986478283 0.02597107240419405
-0.04460278616382523 -0.04584225888075999 0.025051752310570885
-0.044608030106136815 -0.04502378609321217 0.023981404732045353
-0.044627498458606085 -0.04434132546904457 0.022815645890190472
-0.04466524077200095 -0.04383274641474594 0.02152629784096899
-0.04472717660438253 -0.04355343762085817 0.020072208601355113
-0.0448057085681202 -0.043429674835544996 0.018503052406044385
-0.04489597747463917 -0.04341433407191919 0.016850634880925586
-0.04498913755484565 -0.04342288172776754 0.015174347604597294
-0.04508310795703445 -0.043435465299522635 0.013488200906477787
-0.045180019939893616 -0.04347215629762674 0.011777532943045843
-0.0452888694104705 -0.04361752803684765 0.009980281520634904
-0.04544890385409685 -0.04423984619361698 0.00782483205388046
-0.0458131132466229 -0.04677138930572372 0.004248532831356677
-0.04848786439887587 -0.08506941338020874 0.027286242256001292
-0.048253029334787895 -0.08189011405820246 0.027623481529678473
-0.04808621092061495 -0.07937374123702762 0.02755567643470519
-0.04791636850067839 -0.07683465438067538 0.027513935217326313
-0.047749256423151594 -0.07432814115155711 0.027463040132436334
-0.04757629572131221 -0.07177203804348953 0.02745580961981975
-0.04740655018178681 -0.06925314858908488 0.027436436459467084
-0.04723831202426542 -0.06675502987683257 0.027415331377973418
-0.04706828082276903 -0.06424623394252549 0.027413006423426867
-0.04690095000002795 -0.061769476515516564 0.02740141634826715
-0.04672921820137668 -0.05925739195514296 0.02742505255631633
-0.0465542161963535 -0.05672091093319592 0.027477073481357972
-0.04638443027914858 -0.05424021862710532 0.027503931311394225
-0.04620955267648027 -0.05171804341349784 0.02757081539909212
-0.04608540443935989 -0.049678784567827705 0.02732187436924821
-0.046011605750993216 -0.04811600592630272 0.026756111491468004
-0.04596561928324135 -0.046816098336134315 0.026014950353542288
-0.045946426206353065 -0.045767976252331755 0.025103081110070313
-0.04595069004582718 -0.04493904579900393 0.024040283558002973
-0.045974012676624196 -0.04428709780393114 0.0228535322047132
-0.046014314103276326 -0.043791757932163944 0.02155509251131299
-0.04607425578373513 -0.04347669973467927 0.020126414261660452
-0.0461574329828281 -0.04337402188804951 0.01854258042130924
-0.04625127702245055 -0.043366536296622016 0.016884770135728866
-0.04634752780403755 -0.043377644541288396 0.015206831367278961
-0.046444325232945984 -0.043390132296920125 0.013520931751964338
-0.04654109038568222 -0.04339866431633205 0.011830884988928425
-0.04665642324852365 -0.04357330855724362 0.010012558352989476
-0.046820830262337604 -0.04419136615250735 0.007860411792402489
-0.04990127349756113 -0.08495026842286585 0.027361102524767256
-0.0496615895430383 -0.08179046479619101 0.027686448301503686
-0.04948897719627261 -0.07926599713281168 0.027624144503434922
-0.04931453879509646 -0.07673084557648707 0.027580276185723285
-0.049139746662455436 -0.07419880998253392 0.027546158993013936
-0.04896477812194666 -0.07167155649311757 0.02752075190378117
-0.04878949445826277 -0.0691478092444614 0.02750490206858458
-0.04861407030784878 -0.06662920088374075 0.027497574413861026
-0.04844067034927053 -0.06413572140858625 0.027485644219099492
-0.04826286638353119 -0.061608038319902025 0.02750812164588623
-0.04809210961618196 -0.05915168030779844 0.027495315692418143
-0.04791324739352378 -0.056627219038683674 0.027539695601493663
-0.04773913823210449 -0.054152854102359926 0.02756265023790866
-0.047556378768771466 -0.0516058272896911 0.02764665771357694
-0.04743202858566757 -0.04959825614363561 0.027376603109902364
-0.047354034545309856 -0.04801720893865785 0.026823628927943488
-0.047310083437607245 -0.046748276858709914 0.026061556395559793
-0.04729091707924218 -0.04570565178125369 0.025146146915925538
-0.047294281134031564 -0.04486757228787047 0.024089944437148125
-0.04731989236284748 -0.04423023966425471 0.022893256303842535
-0.04736019462489416 -0.043724342315926035 0.02160245235792646
-0.04742187979136382 -0.04340924614035424 0.020174061748154226
-0.0475101330752599 -0.04333030478686861 0.018573630910560135
-0.04760790310847797 -0.04333334973723879 0.01690847067187007
-0.04770711819106474 -0.04334571822283195 0.015229756932974847
-0.047805850939751385 -0.043350140605915355 0.013549806131416042
-0.04790484313090891 -0.04335324562227333 0.011863857058046101
-0.04802309037269748 -0.043523740025194935 0.010048739573212562
-0.048191534114708216 -0.04413481998761892 0.007901911283766438
-0.05131379585184663 -0.08482965777273854 0.02743688370566094
-0.051069877694200044 -0.08169387599968314 0.027747481216594594
-0.050889443353637244 -0.07914334969276549 0.027702083173402225
-0.05070651947140735 -0.07657670180712589 0.027678784621919417
-0.0505288014042123 -0.07406367830359073 0.027633005735395788
-0.05034910110099977 -0.0715391051804512 0.027606356556522604
-0.05016987429742904 -0.06902521563770492 0.02758458212183823
-0.04999001231104785 -0.0665120144988034 0.02757416856363404
-0.04981127760412939 -0.06401535323863933 0.027564759930538696
-0.0496306841530016 -0.06150842632522441 0.027573961903940347
-0.049451240000465746 -0.05901822198302997 0.027584021132662617
-0.04926923016707739 -0.05651153706991796 0.027617015506490317
-0.04909207913100307 -0.05405461071688766 0.02762868098979393
-0.04890646318655934 -0.05152879678883321 0.027698719521580928
-0.04877830286499893 -0.049519099085067075 0.027430399844171505
-0.04869976832751623 -0.047953148655070554 0.026867407478649186
-0.04865231742705636 -0.04666452690141554 0.0261191082638062
-0.04863381412165238 -0.045632741871442506 0.02519652717749521
-0.048635618789467906 -0.04478024816213777 0.024150618545391744
-0.04866420937975087 -0.04416282285663059 0.022940357230656072
-0.04870776163784077 -0.04367544630826764 0.02163680209897595
-0.04876998489813133 -0.04334974599341762 0.020216091133538283
-0.048863314804201086 -0.043293218536261224 0.01859997178753925
-0.048963708330364 -0.04329485978059394 0.016935958672271212
-0.04906420913637117 -0.043293848076223496 0.015267003656180278
-0.049164969678262234 -0.04329149963718815 0.013592145425682378
-0.04926629923791197 -0.04329047684025533 0.011909424530949786
-0.049388354353889975 -0.043464808632408536 0.010091754945896925
-0.04956359309817639 -0.04409309316496646 0.007932534814609205
-0.05272318284998479 -0.08468775270951939 0.02752604441892481
-0.05247672892056616 -0.08158978615302731 0.027813253919136194
-0.0522874753299414 -0.07900582267614786 0.027789477346337854
-0.05210294028746565 -0.0764700474628266 0.027746944083994474
-0.051916368389216906 -0.07392275646389346 0.027723573708358873
-0.05173278336598815 -0.071408185254551 0.027690971459032876
-0.05155114970539731 -0.06891710001434326 0.027654852179117173
-0.05136637980232638 -0.06640488530987698 0.027644189240009054
-0.05118114716329347 -0.06389504985392186 0.027643833059877443
-0.050994993460970424 -0.061383623577299706 0.027656452402645915
-0.05080795328164015 -0.05887095529223679 0.027681904539737956
-0.0506221216260325 -0.05637527571536621 0.027708090316589218
-0.05044157887831913 -0.053931868530921634 0.027711177707725576
-0.05025513172851399 -0.05144368956274492 0.027756240053893322
-0.050123307503258586 -0.04943326653784125 0.027488733368412288
-0.05004045477804109 -0.047849091221272455 0.0269385198770285
-0.049992791531972405 -0.0465701811267466 0.02618394142797137
-0.04997640899393728 -0.04556118172058504 0.025245974766110735
-0.04997795414440118 -0.04470618292866918 0.02420208018947273
-0.050005936535913544 -0.04407693027342324 0.023000366283151608
-0.05005269515712918 -0.043606746483097814 0.021685064107897778
-0.050116004761718735 -0.04327572452151779 0.020268377991853548
-0.05021470129932869 -0.04324289747218274 0.018635712791832848
-0.05032020857317103 -0.04326433822910403 0.016957755971330757
-0.050419869106004586 -0.04323268410132819 0.015310924041904983
-0.05052782047597371 -0.04326751486964803 0.013609462689358476
-0.05063242876629176 -0.0432704482220827 0.01192396451719957
-0.050753241137972624 -0.04340589352128005 0.010134758434226454
-0.05093426065264722 -0.044041955249224884 0.007970065175374907
-0.05413100917727315 -0.08453983588479225 0.027618982393227243
-0.05388032707152537 -0.08146313097100316 0.027893285277696855
-0.05368554348811296 -0.0788758452361163 0.027872074000710623
-0.05349423140612605 -0.07632495852049781 0.027839665869478503
-0.053305989429289845 -0.07380685471375564 0.027798061726413692
-0.05311872772552108 -0.07130350362368115 0.027758628295819432
-0.05292771475178121 -0.06877446651459995 0.027747557203119777
-0.05274008094791222 -0.06628067938188015 0.027725371425890877
-0.052548450044863075 -0.06375925561824258 0.027733088020986285
-0.0523560602448074 -0.061237875397551655 0.027752787127306833
-0.05216540186309008 -0.05873766634693256 0.0277704973989229
-0.051978567895675266 -0.056276229634690256 0.027774291081938463
-0.051789674678855334 -0.053803744712034474 0.02779729149189053
-0.05160054560926608 -0.05133566489440966 0.027829249536971634
-0.051468576204352745 -0.049354169839024686 0.027542489080977395
-0.051381766073960826 -0.047755749130074854 0.02700230946509241
-0.05133474045757054 -0.04649314069317123 0.026236882606278877
-0.05131776255832965 -0.045483022927445826 0.025299981965131113
-0.051320617960442516 -0.04463875298287051 0.024248931542679708
-0.051351571082130884 -0.04402805304818824 0.023034514505493375
-0.05139671833686323 -0.043534107268615396 0.021736093554909075
-0.05146426916625798 -0.04322418907021719 0.020304781330648836
-0.05156897214409534 -0.04321906538744552 0.01865263979626436
-0.05167619290634982 -0.04323116757578216 0.016981445147988716
-0.051782729880342944 -0.04323401368848656 0.015309969384610267
-0.051888247501054904 -0.04322488185285045 0.013640244125289025
-0.05199549869402391 -0.04322639174186266 0.011955947678691403
-0.052119386974616336 -0.04336037938279591 0.010167980265731902
-0.05230361137180699 -0.0439827582028019 0.00801351015672086
-0.05554011761491128 -0.08441029495696017 0.027700374573431163
-0.05528100792935569 -0.08131846670276499 0.027984696275024312
-0.055081934957084744 -0.0787384773530157 0.027959367049208095
-0.05488818009039351 -0.0762095450608386 0.02791342300220656
-0.054692799017968786 -0.07367342046513364 0.027883817561174695
-0.05449897828610195 -0.07115673976108294 0.027853483288871828
-0.05430462262101261 -0.06864199890435868 0.02783365488569084
-0.05411147642448171 -0.06614370420060173 0.027814899709994623
-0.05391492227782555 -0.0636235438787846 0.027822288758902303
-0.053720976434357984 -0.06113142758743412 0.02782314562934396
-0.053523376748434257 -0.05861555544080793 0.027851660582953852
-0.05333089729807141 -0.05614836114705668 0.027859756245015466
-0.053137477252219414 -0.05367978151307773 0.027880608868623646
-0.052945126102825604 -0.051226344631976284 0.02790313465844385
-0.05281220706697671 -0.049265723051711896 0.027602599292809227
-0.05272820651449816 -0.04770909330816092 0.027034193895710212
-0.05267506827352593 -0.04640683509085852 0.026296190677566667
-0.05265895245036974 -0.04540754065802016 0.025352139707078614
-0.0526617192056355 -0.0445620937631952 0.024302195524667558
-0.05269706064625251 -0.04398050756866334 0.02306773230186754
-0.05274273263466312 -0.043481294315869 0.021773194966843212
-0.052813844532057064 -0.04318587594446843 0.020331844774681862
-0.05291783212651135 -0.04315287892057834 0.018699649323996315
-0.053029490582595096 -0.04317810519501264 0.017019340163506314
-0.05313797534270777 -0.043174195974715446 0.015352923054306744
-0.05324840244139296 -0.04318225736264614 0.0136710194049397
-0.05335828690911651 -0.043182344367031 0.011987924230052183
-0.05348389817423201 -0.043304169419035476 0.01020900920904494
-0.05367325877888271 -0.04392895695627863 0.008052995144030517
-0.056950672405095555 -0.08429909945926484 0.027770240102171606
-0.05668191958021785 -0.08118292577488384 0.028070342386914693
-0.056481511709239283 -0.07863401306348683 0.028025750898642954
-0.05628396608406731 -0.07611489016714973 0.027973913998718347
-0.05608149803407423 -0.0735620406136146 0.027955399437445627
-0.05588191087195847 -0.07103910657098439 0.027929510844470817
-0.05568019110399827 -0.0685052931898828 0.027922507133025132
-0.05548256440086429 -0.06601108911697257 0.02790157819519201
-0.05528318765072 -0.06350910123039244 0.02789750974133498
-0.055081939977905545 -0.06099843950773687 0.027911046356925096
-0.05488197984943646 -0.058504604103438385 0.027925406368520644
-0.054682439672207636 -0.05602056707630643 0.02794517166908972
-0.05448383564425848 -0.05355044441874335 0.027967538111082824
-0.05428953588806315 -0.051121125268654255 0.027974248151879655
-0.054155120522264726 -0.04917597316398098 0.027663595116620365
-0.05406649276772444 -0.047599824788246314 0.02710886752355729
-0.05401519144553347 -0.046323218142428735 0.02635365114387339
-0.05400067104188729 -0.045340026440863934 0.025398791586930647
-0.05400434223013505 -0.04450131463531187 0.024344425796345714
-0.054041916417352946 -0.043930332151209894 0.023102787507927824
-0.05408975289899598 -0.043439053392525406 0.02180286948214971
-0.05416049163101966 -0.04312643811089323 0.020373830143494753
-0.054267621327732114 -0.04309729819016356 0.01873912604640743
-0.05438177447685579 -0.043119751820889674 0.01706101378491992
-0.05449385998181856 -0.0431223675506891 0.01539013981750742
-0.05460606723566236 -0.04312233104582014 0.013714286729846148
-0.054721992885156015 -0.043147646811419804 0.012013113222235305
-0.054849943203929226 -0.043262690649387314 0.010239285538416243
-0.05504516157996458 -0.043895338106640036 0.008077668208661293
-0.05835751425336883 -0.08416360386484634 0.027855373669958217
-0.0580927500839071 -0.08113324733770222 0.028101733434437226
-0.05788419598124018 -0.07855942468305882 0.028073149547302834
-0.057677691078955394 -0.0760084500263048 0.028041936570058434
-0.05746970423111237 -0.07345217953488187 0.028026005226131745
-0.05726339505665615 -0.07091572983306182 0.028009250510935058
-0.05705583577658034 -0.0683758588328211 0.028006633346184695
-0.05685392564192123 -0.06588710072681808 0.027982618196257192
-0.056649677107041975 -0.06338624664564274 0.02797825972412543
-0.0564426222923483 -0.060869726939215496 0.027996121115367367
-0.05623901765951513 -0.05838677936692138 0.02800372067645912
-0.05603196882461059 -0.055883237043270084 0.028036960765195074
-0.05583392113707824 -0.053456552896802956 0.028030643918044273
-0.05563243043912527 -0.051009217049726 0.02804988236596495
-0.05549592908212119 -0.049074212406930995 0.027732753757319317
-0.05541026980353153 -0.04753855213538977 0.027150741021555957
-0.055354108622388175 -0.04623432789663323 0.02641473534556732
-0.05534179585491247 -0.04527121031815451 0.02544634307335525
-0.055348464713217374 -0.04445508124893155 0.024376549483000054
-0.055387654941835916 -0.043889408328490864 0.02313137907474766
-0.055435477033717116 -0.04338890313996663 0.021838100335589916
-0.05550538725979768 -0.04305645478765707 0.020423264562225985
-0.055619130723884996 -0.04305760657762753 0.018767317401506223
-0.05573420834024396 -0.04306539147412963 0.017099835753357995
-0.0558502855270161 -0.043077194095543 0.015422577816210259
-0.0559666723718147 -0.04308771468272882 0.013739280083156502
-0.056083369721414734 -0.043096945105229434 0.01204992052661602
-0.056213958337569196 -0.0432078439877191 0.01027931937830645
-0.05641329495310631 -0.04383483742083094 0.008122069934863196
-0.05976139958167715 -0.0840114553162043 0.02795097048641676
-0.05949980579661304 -0.08105649241423746 0.028150233658401247
-0.05928470322713006 -0.07847144136598339 0.02812906025695011
-0.059070770018188896 -0.0759020592253819 0.028109927609794583
-0.058859885588037494 -0.07336286485935295 0.028083406216495743
-0.058644878369120176 -0.07079822143788289 0.028085197410279095
-0.05843441331448725 -0.06827523898565252 0.028072031507669737
-0.05822360605935355 -0.06575606102636639 0.028068266996814417
-0.058014314349429344 -0.06325499405692836 0.02806452954978167
-0.05780579350698356 -0.06076625142621023 0.028064515028856263
-0.0575953313907457 -0.058269017498526365 0.028081993197981547
-0.05738711409946498 -0.055795390943055134 0.0280956756573712
-0.05717897149024489 -0.05332870763025044 0.028116570483339987
-0.05697374838630663 -0.05089063035807645 0.02813003028333394
-0.05683698660801775 -0.048979189728742656 0.0277973330704836
-0.05675015415077313 -0.04745066959765648 0.02721079957860817
-0.056697376106111384 -0.04618260280896441 0.02645028017584866
-0.056683015102286814 -0.04520638459411097 0.025491137225352456
-0.05668896889449936 -0.04438376928643689 0.02442609811569868
-0.05673120616884363 -0.04383397562038943 0.023170107294018527
-0.056779654855637844 -0.043329529913270715 0.0218798103684264
-0.05685547772865712 -0.043028731975838175 0.020442847293607347
-0.0569679122838787 -0.04299940553066822 0.018808655223708504
-0.05708718517265329 -0.04301767188623995 0.017133915169843028
-0.057205710177909354 -0.04302671743450204 0.015458823912632702
-0.05732490745101758 -0.04303713159656708 0.013775801527197873
-0.057444962151632216 -0.04305025684664737 0.01208381424383409
-0.05757979053795096 -0.04316905856371572 0.01030762977700217
-0.05778140449227111 -0.043777041679103346 0.008164486494326162
-0.06117154029757566 -0.08391413228734984 0.02801211977827467
-0.060908963230390946 -0.08099931900480417 0.02818636065284086
-0.060687617080680045 -0.07840584855161331 0.028170742506209823
-0.0604608683604965 -0.07577799891809683 0.028189210666376474
-0.0602435339050208 -0.07322822678370344 0.028169935728743656
-0.06002468772829472 -0.07067352599876431 0.028165789366086713
-0.05980837777407448 -0.06814450019064316 0.028157005542945646
-0.05959324318451173 -0.06563079027535912 0.028150145160324103
-0.05938133990601651 -0.0631477911937372 0.028134991963603584
-0.05916516164284121 -0.0606390706042339 0.028148577354261517
-0.05895129158032505 -0.05815408711895287 0.028158383721943847
-0.05873675842721118 -0.05567054524774517 0.02817912043821902
-0.058525421862452964 -0.053217244197082236 0.02819148660289378
-0.05831505760563168 -0.050777494409877666 0.028206494268739668
-0.058178355228651356 -0.04889089627113313 0.02785733907637572
-0.05808787518058497 -0.047350846598789575 0.027279018185626225
-0.058032789974636206 -0.04607521347428939 0.026524076689894316
-0.05802114044511785 -0.04512174377282918 0.025549623455194848
-0.05803207309990981 -0.044334921158217244 0.024460038561577524
-0.05807566518413647 -0.04378779271208455 0.02320237312808615
-0.05812687520987619 -0.043295232968152075 0.021903904204451596
-0.058202868029310746 -0.04298253522624207 0.020475479517175044
-0.05831813563854566 -0.0429544429105993 0.01884059035211577
-0.05843913185703744 -0.04296466264326104 0.01717177223649069
-0.05856026612513693 -0.042972269175428346 0.015497921912917045
-0.05868208691120347 -0.04298123793270503 0.01381615724712798
-0.05880386341923773 -0.042986243824575665 0.012130284980357509
-0.05893964151498437 -0.043088835136014414 0.010366186661577792
-0.0591519370904084 -0.04373941569774015 0.008192100405101876
-0.0625749823315984 -0.08377126254497858 0.0281018866105755
-0.0623006071750622 -0.08081435398492326 0.028303237017360094
-0.06208371560238062 -0.07829259568857627 0.028242711217606742
-0.061851807319185256 -0.07566581167215086 0.02826090602882303
-0.06163367647091666 -0.07314777461372524 0.028221640948500215
-0.061405504259051454 -0.07056193822411544 0.02823790971062956
-0.06118699885161687 -0.0680540331195767 0.028215804886064344
-0.06096269585078737 -0.06550985650434143 0.02822918863484397
-0.06074425374864156 -0.06301526937443924 0.028222096029480837
-0.060525656412241446 -0.06052592701389248 0.028223361541624747
-0.06030559975547952 -0.05803229858062986 0.028239332638481274
-0.0600863862213081 -0.05555125368576119 0.028258852932478595
-0.05987062514297681 -0.05310176292182117 0.028269103166924936
-0.05965844451187923 -0.05068460545621545 0.02826927414842223
-0.05951733295733342 -0.04878926969652686 0.027926406524005132
-0.05943030350971086 -0.04728964477413683 0.027320843279911966
-0.059375970493298 -0.04602882736792313 0.02655595264763705
-0.059360019934096 -0.04504638871926986 0.02560169329182882
-0.05937285318748571 -0.0442715672142579 0.024504057851450045
-0.05941505850559664 -0.04370732629406565 0.023258591182720723
-0.05946707178748524 -0.04321215154234659 0.021962269350150998
-0.059549966165572024 -0.042936348493831045 0.020508104664854754
-0.059667518424371666 -0.042905523772670096 0.018875335627521972
-0.05979111407989335 -0.042914316085301274 0.017207727724966315
-0.05991540956851423 -0.04292447243577957 0.015532243625672959
-0.06003984788175554 -0.04293201043958378 0.013851699943045692
-0.060163674413015907 -0.04293158128203861 0.012169967678343552
-0.06030522278038992 -0.04305274451209784 0.010392530067967143
-0.06052241860050907 -0.04370313978816226 0.008218723494060443
-0.06399276692311182 -0.08373935688077161 0.028121933396042298
-0.0637086845816261 -0.08075724021815739 0.028339326324540837
-0.06349040344157013 -0.07826131202658076 0.02826259107940743
-0.06324959386641481 -0.07560826325975528 0.02829768345872663
-0.06302130871831468 -0.07305273132632317 0.02828272361304296
-0.0627866442418305 -0.0704576460653843 0.02830531482750487
-0.06255650729335703 -0.06790190044732802 0.028314683916990324
-0.062334572362261025 -0.06541173469184597 0.028293322009023625
-0.0621145990776218 -0.06294199330070288 0.0282702590314996
-0.061886821019582566 -0.060422611706562934 0.028291649564432975
-0.061662254489470686 -0.057932703437153954 0.028305530335168305
-0.06143451235464688 -0.055426546848645175 0.028342204902824186
-0.06120997077344482 -0.05294969264518834 0.028371311679993683
-0.06100163475895923 -0.05059444699909876 0.028330208598457918
-0.06085116034113639 -0.04865562332185086 0.02801723524120986
-0.06076427370300387 -0.04717128184250213 0.027401731981976984
-0.0607107984671559 -0.04592548854154127 0.02662696570956541
-0.06069617959821886 -0.044955204901372836 0.025664700681309716
-0.06071061115984948 -0.04418976279767389 0.024560896788178188
-0.0607522573301846 -0.04361502514167337 0.023323077590551744
-0.060807310293839865 -0.04313305648082255 0.02201783405758745
-0.06089545193614426 -0.04288093760926964 0.020547245505212475
-0.06101621259967017 -0.042853972512308935 0.018911950387960952
-0.06114296690894168 -0.04286530587369741 0.01724272885080913
-0.06127005801216262 -0.04287535918100821 0.015567510694549924
-0.06139652817636813 -0.04287747432925476 0.013891075499360639
-0.06152332900574364 -0.04287826549233431 0.012208672692750278
-0.06166844495566636 -0.04300196060751377 0.010429598414410213
-0.061894420727832467 -0.04367895931465987 0.008236469705573679
-0.06538631072180766 -0.0835358703475948 0.028249786477075434
-0.06510734462853117 -0.0806355445061756 0.028416223877055002
-0.0648667386917153 -0.07801565853278175 0.028418696227935414
-0.06463289262532855 -0.07545044794244515 0.028398538263433637
-0.06438628441905164 -0.07280142291637193 0.02844423501923876
-0.06416018448064201 -0.0703041920226028 0.028404493748847126
-0.06393037916675842 -0.06778715129847546 0.028389265447815892
-0.06371109946905337 -0.06535060807226178 0.028333274993915913
-0.0634720636665162 -0.06278143367357175 0.028375791797165595
-0.06324177912139893 -0.06028028294270832 0.02838572416981361
-0.06301039374125765 -0.05777786696377463 0.028408445127387327
-0.06278285264063999 -0.05530875720661932 0.02842093353970293
-0.06254974537042338 -0.05280722305143554 0.028467067447766337
-0.06235180994064968 -0.050556780012126545 0.02835566623617869
-0.062196285995325215 -0.04860619520303988 0.028050827618108898
-0.06210633732135786 -0.04711411864560322 0.027440797098680914
-0.06204862309369002 -0.045847355083789454 0.02668065799839925
-0.06203559957588871 -0.04489047479503949 0.025709428762104358
-0.06204824012846972 -0.044110627054818774 0.024615881492979275
-0.06209233062391927 -0.043546484445809386 0.02337096372315961
-0.062147243656057484 -0.043055308292214156 0.022072452580917223
-0.062243093557984845 -0.04284268616241943 0.02057426538081253
-0.06236612853622932 -0.0428130047947583 0.01894104810630115
-0.0624954803212573 -0.04282292777435287 0.017272993599753872
-0.06262536979103972 -0.042832892001342104 0.015598005385331348
-0.06275442864906258 -0.04283358957692884 0.013922760697341718
-0.06288382378046138 -0.04283295758196942 0.012241564337551691
-0.06302916780232214 -0.0429364939310512 0.010477384030308068
-0.06325332488310148 -0.043567495471472484 0.00831827344830982
-0.06679971138024393 -0.08347971511270674 0.028285069555439413
-0.06650634780697219 -0.08052141894272613 0.028488337979950318
-0.06626020447492864 -0.07789962254670535 0.02849243352637737
-0.06601439083075586 -0.07528684771662242 0.028503090018254684
-0.06577861083170256 -0.07275031858399628 0.028477078919394605
-0.06553969761810742 -0.0701985718221419 0.028472757191946196
-0.06530521341966365 -0.0676839269988242 0.0284563563785053
-0.06506662781670984 -0.06514744604597816 0.02846606359202347
-0.06482752785179367 -0.06261395523516683 0.02848587216140136
-0.0646019642233247 -0.06017987061132446 0.02845209342307803
-0.0643666643890202 -0.05768529359193769 0.028469975683271975
-0.06412446081563664 -0.055149978331918204 0.028527058669889693
-0.06389063239981785 -0.05267840221261377 0.028553649707779405
-0.06367982327332522 -0.05036988669232123 0.028481979776404154
-0.06353540229742793 -0.04851805413128735 0.028110730059517808
-0.06344922058895652 -0.04706494388367444 0.027474402959814626
-0.06339085223355423 -0.04580234200019023 0.0267115904342346
-0.06337050739198864 -0.044798037122531664 0.0257733025552907
-0.06338576493854635 -0.04403415703730529 0.024669014014435386
-0.06342550801724335 -0.04343449410331279 0.023449206010297374
-0.06348786588618786 -0.04298549089535414 0.02212149968855276
-0.06358438914788227 -0.04276356692064298 0.020630153166251997
-0.06371440092499858 -0.04276279702667096 0.01897670864105766
-0.0638459379834619 -0.04276864312471723 0.01731176150835123
-0.06397781994812106 -0.042773186808068187 0.01564087825673438
-0.06410964742294242 -0.04277376126199384 0.013965957264011453
-0.06423920572462283 -0.04275568977693689 0.012297657465727418
-0.06439068394014105 -0.042879060170490424 0.010519306248921168
-0.064620668886125 -0.04351648332929753 0.008355711503256924
-0.0681897052524367 -0.08326584163924738 0.028419448874165698
-0.06790378298170607 -0.08040134744386884 0.0285642092194191
-0.06764096780025722 -0.07770190087694911 0.028618079507928662
-0.06738927281995302 -0.07508508760071075 0.02863202853933322
-0.06714460303432779 -0.07252267813954288 0.02862337935608633
-0.06689700850275968 -0.06994701774855866 0.028635339118567082
-0.06665970743421097 -0.06744754935551855 0.02860999060626007
-0.06642176978871799 -0.06495014325589415 0.028595022540831794
-0.06618928471803115 -0.062495810939402485 0.02856352616353458
-0.0659521986229649 -0.06001679748063471 0.02855987935713189
-0.06570465733336657 -0.05747404025276015 0.02861038891099371
-0.06546244088009495 -0.05497354029521623 0.028644986878110956
-0.06522646649074834 -0.05252120838878965 0.02865930182414178
-0.06501334250552142 -0.05022747200513589 0.028578232049562335
-0.06487035974061459 -0.0484059266025752 0.028186934156600507
-0.0647873933367446 -0.046986553258763275 0.027527974792067755
-0.0647331992679989 -0.04575998538273851 0.02674069738406526
-0.06471402316201703 -0.044766353477065035 0.025795195788972214
-0.06472321041332661 -0.04396034989762265 0.024720296331038616
-0.06476118515994682 -0.04334362755086446 0.023512690132825642
-0.064831255348947 -0.04293676404502511 0.0221557305955854
-0.06493161902115475 -0.042726654731096214 0.02065622702651837
-0.0650682095438711 -0.04275090753810179 0.01898515332525086
-0.06520497047232272 -0.04277261483099082 0.017308925166845235
-0.06533192610912804 -0.04272676103516565 0.015674215512941736
-0.06547000340690522 -0.042749834714562895 0.013983232492185305
-0.06560394512396682 -0.0427423706747182 0.012307326637180427
-0.06575410068645901 -0.042836328848799454 0.010550496842683277
-0.0659968229207863 -0.04352453720665811 0.008349800826314258
-0.06951697190899135 -0.08264051624549801 0.02881234831552043
-0.0692693268280831 -0.080072969491985 0.02877170580411126
-0.06903835315000607 -0.07762315686946097 0.028668118926639674
-0.06878172315864978 -0.07500855369667797 0.02868093899009716
-0.0685212914190781 -0.07237541681912962 0.028718021597019194
-0.0682689194463212 -0.06980257281250862 0.02872869536631506
-0.06801839968447153 -0.06724861144821453 0.028739290798402872
-0.06776456356025981 -0.06467931249546599 0.028772040029140966
-0.06752283582514872 -0.06219651120264874 0.028760250075420157
-0.06728705590700496 -0.05975919148083364 0.02873014833810089
-0.06703465073053029 -0.05721887352383026 0.028779989924844762
-0.06678725724371327 -0.05471802561142364 0.02881576854786383
-0.06655637072593454 -0.0523316426694051 0.02878671151721901
-0.06634516320176585 -0.050079782101490666 0.028678049623152402
-0.06620953758762431 -0.0483258712125581 0.0282413414137197
-0.06611997273103531 -0.04687499550848362 0.0276042128679021
-0.06606590153781083 -0.045656776003980104 0.02681162149128763
-0.06605387514246787 -0.04471223802047963 0.025832589229397962
-0.06605978599384345 -0.04388393367447285 0.024773391475359008
-0.06610139520506328 -0.04328570392188996 0.02355315863716173
-0.06617024687501365 -0.042861720101919965 0.022208449374616024
-0.06628128291170868 -0.0427068830315564 0.020670193306192408
-0.06641287631706667 -0.04268090454534862 0.01903487356940392
-0.06654664807473476 -0.04266540810123948 0.017385487809066957
-0.06667867531265441 -0.0426352654703106 0.015739916244326357
-0.06681852582738189 -0.042651497891672496 0.014054232482930973
-0.06696210573403232 -0.04268777069477131 0.012346963917361453
-0.0671159813994165 -0.04278559651739294 0.010587527544674014
-0.06735946218927331 -0.043446697083427466 0.008406928018338866
-0.07106421664167963 -0.08439785208457112 0.029370976179467156
-0.07078077671834612 -0.08162360351284825 0.02945128672715347
-0.0705278119667572 -0.07905630753949061 0.02941411747595718
-0.0702694151674044 -0.07645999623359856 0.029407271009838643
-0.0700178416729312 -0.07391485768171863 0.029379885241016535
-0.06977185119488054 -0.07141255053401518 0.02933683825950878
-0.06953023863696516 -0.06894502597978813 0.029282936315017494
-0.06929161234846826 -0.06650308691640383 0.029223846121985697
-0.06905483666471754 -0.06407926520876667 0.029164236385705145
-0.06881967363941209 -0.06167195193835623 0.029105032645943885
-0.06858416891743252 -0.05926848151130948 0.029054491202727184
-0.06835198139452486 -0.05689241584073046 0.028996975691634008
-0.06812029857899658 -0.05452556188853036 0.028944408047083148
-0.06788216459527847 -0.05212331086505889 0.028926734142743993
-0.06768236646364204 -0.049972434523663956 0.028750601488286953
-0.06754842739816344 -0.048247179047166744 0.028294822197236003
-0.06746144261343827 -0.046824547985414466 0.027638688527407917
-0.0673840335364626 -0.04546504428841197 0.026943376897034355
-0.06739421982381787 -0.04466341388371303 0.02586632640902481
-0.0673987943049757 -0.04382598101831575 0.024813657874637574
-0.06743749369888385 -0.043204110922257066 0.023610163779378135
-0.06751189613946022 -0.04280644151387969 0.022247282905812293
-0.06761491264762523 -0.042586973472178546 0.020754894273493196
-0.06773420149332669 -0.04246707552811696 0.01918674734530368
-0.06786487323994393 -0.04241546872512303 0.017563984130725352
-0.0680036701466833 -0.042411333493457215 0.015900716206175614
-0.06813665977369265 -0.042367373656070295 0.014259372343085885
-0.0682851085529333 -0.04241631007529434 0.012544032521205173
-0.06845350518808709 -0.04258545493339577 0.010733615258058826
-0.06868292907364812 -0.0431289208695706 0.008640145038867342
-0.06922157368553042 -0.045581109361094385 0.005126843387190383
-0.07234923112020189 -0.08351911968338566 0.02991996827944471
-0.07204652739889623 -0.08065909309747893 0.03005730014085156
-0.07177477194760723 -0.0780054856362229 0.030078114245986887
-0.07148739470228993 -0.07525858248421674 0.030170731743290602
-0.07122393074953987 -0.0726719218427303 0.030174205893894634
-0.07097370304330049 -0.07017642180291062 0.03013127570713775
-0.0707198402048127 -0.06766406321929919 0.030110835101283095
-0.07049676972298868 -0.06535395065062655 0.029970729744540847
-0.07028640730860106 -0.06313012730417439 0.02978460149452128
-0.07005614557801797 -0.06078554381794449 0.029687651355227496
-0.06979938981358788 -0.05827925796930139 0.029708334771455458
-0.06954581152984825 -0.05579949361313036 0.029723405237822853
-0.06929557752535537 -0.05334718097300006 0.02973201752493837
-0.06905227317624983 -0.05094472631890534 0.02971887639670323
-0.06885447316909596 -0.04883380863401715 0.029520151683354923
-0.06873404628645839 -0.0472121871584284 0.02899822259393464
-0.06865653391487467 -0.045861680012669714 0.028296707648876096
-0.06862376035438676 -0.04479203761087641 0.027405857653501897
-0.06861382880235199 -0.04386533518480279 0.02641779265467087
-0.06863390642618479 -0.043125209969059664 0.02530056349888482
-0.068683410818571 -0.04256691846012872 0.024055339239238804
-0.06875928662211207 -0.04217045431525934 0.02269406675874336
-0.0688666035745666 -0.04196610669349987 0.021193457930373083
-0.06899069994611763 -0.04186239131368047 0.01961622900842913
-0.06911610189449705 -0.04176357183722523 0.018029541676203242
-0.0692441122854267 -0.041677589861740194 0.016427598994651904
-0.06937497358972328 -0.041605830867418536 0.014809211886629037
-0.0695113175050138 -0.0415642619059976 0.01316258225058431
-0.06965864951262854 -0.041586234682448375 0.011462967593647955
-0.06983592421606344 -0.041786633807250506 0.00962525369473044
-0.07010463730725017 -0.0425376278347504 0.007372632232986065
-0.0715776469833488 -0.06258896826747917 0.030138307963316235
-0.07127293799806653 -0.05981095544677034 0.03032822920932582
-0.07100363890772994 -0.05726004707628701 0.030381998970236634
-0.07074583863870829 -0.054786956747346294 0.030396405276897964
-0.07047875148951134 -0.052262883018652395 0.030456743580335677
-0.07021475841262555 -0.04976448350738072 0.030512133192195423
-0.07006577908627884 -0.047980106065676875 0.03009713399715902
-0.06994885902927404 -0.046396224847428946 0.029552766292989086
-0.0698791520584092 -0.045104493499472376 0.028814165114047052
-0.06984306240961931 -0.04402003239015434 0.027936368809178547
-0.06984306248970279 -0.043156681368634764 0.02690746700264035
-0.06986668853476823 -0.04243720284379243 0.025778600569663912
-0.06990968589089597 -0.04183486415675275 0.024566790052822807
-0.06998441194428495 -0.0414238928810835 0.02321852949226022
-0.07008825929950539 -0.041187331108863856 0.0217435641152397
-0.07022778164824259 -0.041163684169724324 0.020112491174688774
-0.07036633498958145 -0.041130746904707916 0.01848147882948431
-0.07050302939394067 -0.04108320194420656 0.01685441397687726
-0.07063849885775138 -0.04102492414558595 0.015228630869861481
