# .PCD v0.7 - Point Cloud Data file format
VERSION 0.7
FIELDS x y z
SIZE 4 4 4
TYPE F F F
COUNT 1 1 1
WIDTH 767
HEIGHT 1
VIEWPOINT 0 0 0 1 0 0 0
POINTS 767
DATA ascii
-0.01769754751632341 0.024425738125959405 0.06191913112033065
-0.018246118827102975 0.02443907561346459 0.06088595090821253
-0.018794318856369563 0.02445249284235364 0.05985094472761954
-0.07280198574135877 0.02348047762975052 0.02313853926086651
-0.07534116666311153 0.023342366933255608 0.02404136812834562
-0.07732024628363571 0.023246204564137944 0.024418373853345
-0.07906911058269261 0.023167140388549293 0.024583338312883785
-0.08061891829881507 0.023102913900721854 0.024563433751409458
-0.08188037135360471 0.023060467593993612 0.024267584757129035
-0.08289550230401105 0.02303672870275699 0.023733111440335575
-0.08379371523762791 0.02302187337487849 0.023085260244267214
-0.08466383721388321 0.0230091142619307 0.02241125443145947
-0.0854718417540879 0.023001096542119202 0.021676396420434396
-0.08626887199207978 0.02299389113284708 0.02093150885320294
-0.08701052421310307 0.022990952622763326 0.020131235536939907
-0.0877312713092741 0.022989627658410575 0.019309974603984092
-0.08842757780074145 0.0229902037120433 0.01846376160247737
-0.08886888920700536 0.02301073002269412 0.017353904576032253
-0.08904754789178981 0.02305195071534601 0.015968361030073486
-0.08912624582167777 0.023101227015886284 0.014472784007301454
-0.08914002679393013 0.02315585600362723 0.012902301326564669
-0.08891504392123073 0.02322960753230642 0.011072377452142068
0.0826095108078781 0.02704814320550926 0.06838687378070402
0.006901274420685666 0.022692683514197284 0.10825844013129649
0.006380264577966088 0.022704829934937745 0.10727471251306142
0.005857685706508964 0.02271693030774261 0.10629049044631378
0.005335559688831981 0.022729102705852506 0.10530465668136382
0.004811864489095152 0.022741228971388933 0.10431833081330319
0.004288618709871295 0.022753427430293384 0.10333038413540818
0.0037638035969220773 0.022765579671759215 0.10234194770856786
0.003239434454189394 0.022777804275241297 0.10135188132248543
0.0027134958277246213 0.0227899825761912 0.10036132755042218
0.0021869945074284303 0.02280217390652385 0.09936971399971853
0.0016609339483233398 0.022814437852740885 0.09837645669888423
0.001133303687428533 0.022826655368460486 0.09738271557450684
0.0006061106944527106 0.02283894567018604 0.09638732145536591
7.734785388519017e-05 0.02285118945574761 0.09539144589777271
-0.0004509812293942983 0.022863506198030778 0.09439390806235112
-0.0009808803043761527 0.022875776338252576 0.09339589118247851
-0.0015103491501403665 0.022888119606509105 0.09239620270308202
-0.0020413881300243575 0.022900416186574925 0.09139603758218245
-0.002572998015107575 0.022912725986352415 0.09039479721161123
-0.0031041829973995627 0.022925109172049908 0.0893918711907227
-0.003636938320395411 0.022937445540032544 0.08838847215100648
-0.004169272312681438 0.022949855466752645 0.08738337804189311
-0.004703176783802554 0.02296221848904627 0.08637781333940053
-0.00523666351406693 0.02297465524350174 0.08537054410912273
-0.005771720859566232 0.022987045006585004 0.08436280671997065
-0.006306364071933912 0.02299950867586391 0.08335335530514304
-0.006842578034202407 0.023011925266589617 0.08234343817503953
-0.007379371273673052 0.02302435527108092 0.08133243002153037
-0.007915755826668813 0.02303685944375522 0.08031969352573867
-0.008453711324447555 0.023049316406768425 0.07930649499859865
-0.008991261788546256 0.0230618477135349 0.07829155853167952
-0.009530383327725822 0.02307433172286752 0.07727616249989228
-0.010069103504222354 0.023086890252143465 0.07625901889062395
-0.010609394884330492 0.023099401395975026 0.0752414181921757
-0.011149288591057793 0.0231119872365623 0.07422206023814007
-0.011690753628158135 0.02312452560345572 0.07320224767985875
-0.012231824699571625 0.0231371388445432 0.07218066814726778
-0.012774467226347896 0.023149704523447223 0.07115863650464938
-0.013317699486964096 0.023162283858498806 0.07013549413696651
-0.013860543379468515 0.02317493833486385 0.06911057014521593
-0.01440495890758764 0.023187545115968197 0.0680851978036251
-0.014948989821706504 0.02320022721740049 0.06705803401684712
-0.015494592491943238 0.023212861534479903 0.06603042439779294
-0.016039814321038126 0.02322557135153759 0.06500101347109799
-0.01658660802494688 0.02323823329490763 0.06397115923909069
-0.017133024679420072 0.023250970918545097 0.06293949379544522
-0.01768101332559341 0.023263660578916354 0.06190738758288994
-0.018228628732980756 0.023276426100486417 0.06087346021294027
-0.01877781624713143 0.023289143568967406 0.05983909461995324
-0.0735286185081962 0.022361787377861826 0.022289665741179188
-0.07606580364806331 0.02223009043165491 0.02319974037449385
-0.07803951488880212 0.022138681534883166 0.023577937206477717
-0.07975908861765357 0.022065336098058226 0.023719449661902037
-0.08130404185912349 0.02200438194336351 0.023698940402387736
-0.08247896438813257 0.021970191207609412 0.02331999603495738
-0.08344417976489982 0.021951205464173833 0.022736799381263828
-0.08433425940470096 0.02193764856067286 0.022080987128082097
-0.08516793912021381 0.02192817969310559 0.02137028047934819
-0.08599866433223718 0.021918883938254714 0.020657924011890316
-0.08676554642097323 0.02191426649495659 0.019881912136767932
-0.08751950975949574 0.021910584928813023 0.019093341675403275
-0.08823774632848552 0.021909541128163238 0.018268558939218804
-0.08871388627282706 0.021926528986578462 0.017193691945843192
-0.08890345163468683 0.02196499998810308 0.015818651992327182
-0.08898928687088059 0.02201142138769044 0.014329755226400842
-0.0889901292180908 0.02206444464905079 0.012744952117591635
-0.088875573722627 0.02212640478653526 0.011030731243153014
0.081621432939255 0.025641209288395556 0.06892375850286891
0.006919502253227017 0.02155905711698743 0.10824847664862253
0.006397465908445643 0.02157054124572223 0.10726525408984755
0.005875884179151414 0.021582093725649263 0.10628042422286316
0.005352733211572203 0.021593602416437773 0.10529510102849882
0.004830033434440828 0.02160517961782539 0.10430816143205243
0.0043057642663622 0.021616712949551115 0.10332073085810561
0.0037819428466989713 0.021628314951837264 0.10233167475051957
0.0032565518850928843 0.021639873003722183 0.10134213002408951
0.0027305990912148137 0.021651443415330967 0.10035152711770742
0.0022050888491996767 0.021663082738291293 0.0993592849137235
0.001678008845681922 0.0216746779894327 0.0983665576468487
0.001151367909121126 0.02168634231328339 0.0973721818558139
0.0006231570642507012 0.021697962484032 0.09637732338263508
9.538178412737963e-05 0.021709651889411444 0.0953808071203889
-0.00043396354943131543 0.021721297060186377 0.09438381056564357
-0.0009628768378540653 0.021733011628079793 0.09338514691838623
-0.0014933603231372383 0.02174468187964691 0.09238600537719854
-0.0020244138354260643 0.021756364671395304 0.0913857902160152
-0.0025550406162357375 0.021768117104861633 0.09038389393905588
-0.003087237802023801 0.021779825099105154 0.0893815233842524
-0.003619011819849971 0.021791602898980012 0.08837746231307453
-0.00415235638180439 0.021803336177357947 0.08737292938508218
-0.004685281357035109 0.021815139425856323 0.08636669650089687
-0.005219777013827531 0.021826898070360985 0.08535999418997386
-0.005753856682956138 0.02183872685005321 0.08435158244362617
-0.006289507169346564 0.021850510943032003 0.08334270370969268
-0.006825736037700092 0.021862307760179892 0.08233273561376986
-0.007361554351977995 0.02187417496100327 0.08132104379396832
-0.00789894367995847 0.021885997350714732 0.08030888866380853
-0.008435926097884738 0.02189789029062502 0.0792950002311689
-0.008974479660848633 0.02190973833614283 0.0782806509501591
-0.009512629975941433 0.02192165709897002 0.07726455874796082
-0.010052351565649875 0.021933530883898295 0.07624800816857596
-0.01059167358791785 0.021945475553837128 0.07522970500897708
-0.01113256701262011 0.021957375162143647 0.07421094595260855
-0.011673064568663516 0.021969345823754947 0.07319042461648387
-0.01221513365318122 0.021981271339773432 0.07216944987326651
-0.012757791554911024 0.02199320980976675 0.07114736610626449
-0.013300059172105028 0.022005219586417907 0.07012350543868257
-0.013843898499618756 0.022017184091209882 0.06909919511735951
-0.014387351287683758 0.022029220072447703 0.06807309809376222
-0.014932375907636408 0.022041210697294086 0.06704655392940762
-0.015477017751919286 0.022053272968977525 0.06601821321984258
-0.016023231547862282 0.022065289799506727 0.06498942789189233
-0.016569066350712258 0.022077378447869906 0.06395883613434833
-0.01711647322318044 0.02208942157008537 0.06292780229020672
-0.01766447763815271 0.022101477838422638 0.06189564298239886
-0.018212108770652435 0.022113606182021524 0.06086166234530682
-0.01876131214240534 0.022125688871651263 0.05982724343841478
-0.013143130508656231 0.023181491602845283 0.03332618742729904
-0.015347357373396597 0.023092308154308627 0.033503397825733805
-0.0174769501244727 0.02300744238128959 0.033633797361087625
-0.01958291860260447 0.02292370451027792 0.033756887717896644
-0.021510485619430253 0.02285088512690465 0.033749289613811795
-0.023463336687731873 0.022776152027342806 0.0337717302065626
-0.025305629812859276 0.022708116233101747 0.033715351978892305
-0.027153449074515668 0.022639436022583337 0.033672649691681655
-0.028810988729227605 0.02258259074034158 0.03348460004380116
-0.030495619573088384 0.022523768790552515 0.033326414746368715
-0.07413111247319565 0.021251692565447622 0.021320276642893432
-0.07675377391779825 0.02112041274649569 0.022322410010249594
-0.07866853134377144 0.021037450488089148 0.022648990002252067
-0.08042546509150444 0.020965033927946925 0.0228320791296307
-0.08194225536724142 0.020908954218319717 0.022787696918158074
-0.08306289607807782 0.020880186371166176 0.022356687910682238
-0.08399418248820129 0.02086449478743616 0.021740198752699835
-0.08484319120364797 0.020854483405880676 0.021043167440451316
-0.08568093287110534 0.020845214416082017 0.020336221394635146
-0.08649336909346567 0.020837679619298367 0.019604906714546122
-0.08728072914363788 0.020831875263582617 0.01884906813209114
-0.08806099076838975 0.020826544381590414 0.018086802164821003
-0.08860824312934507 0.02083767962108009 0.01708449810400775
-0.08880434972574575 0.02087378094009285 0.015715689904867935
-0.08890112146813062 0.02091712041032305 0.0142376824556944
-0.08896562646798184 0.020962969190548443 0.012719231299054612
-0.0888547172650318 0.021021574975568398 0.011008724959361504
0.080638968755469 0.024240308514570052 0.06945759295772203
0.006936718993287017 0.020425271678821924 0.10823906583738646
0.006415680738405871 0.020436205445537776 0.10725523837793863
0.005893073189568776 0.020447097762632795 0.10627091636892644
0.005370918597133623 0.02045805491536246 0.10528498235720052
0.004847194557097534 0.02046897054227981 0.1042985561415049
0.004323920039675078 0.02047995115613354 0.10331050880934767
0.003799075922657269 0.02049089016777856 0.1023219716275833
0.0032736708332132824 0.02050184087143743 0.10133237786137961
0.002748710082271011 0.02051285678978782 0.10034114924161691
0.00222217951067899 0.020523830991043678 0.09934943432172447
0.0016960898010395242 0.020534870559613214 0.09835607533974153
0.001168430122934383 0.02054586833417744 0.09736223243404268
0.000641207812966893 0.020556931629210223 0.09636673621946495
0.00011241538840656151 0.020567953053120144 0.09537075846646065
-0.00041694435541811403 0.020578986301455587 0.09437371217056933
-0.0009458720058249104 0.020590085300808345 0.09337499862800325
-0.001476369983023862 0.020601142313066225 0.09237580714309004
-0.0020064394041846567 0.020612265230837902 0.09137493906826868
-0.00253807929401928 0.020623346083876535 0.09037359545872775
-0.003069294182778015 0.020634492997467186 0.08937056587711162
-0.003602079680387893 0.020645597768476714 0.08836706317740126
-0.004134443749566841 0.020656768755620388 0.08736186508432389
-0.004668378566050901 0.020667897522124837 0.0863561962988019
-0.005202889003905753 0.02067903828626653 0.08534944332764396
-0.0057369834070442605 0.020690245500750194 0.08434098076207072
-0.006272648758090915 0.02070141037720684 0.08333205116094003
-0.006807901691682106 0.020712641860957524 0.08232140244546435
-0.007344725707302546 0.020723830928094312 0.0813102891427937
-0.007881140940736775 0.020735086760030365 0.08029744716602821
-0.00841912738858186 0.020746300096552452 0.07928414305957909
-0.008956708707620553 0.020757580355934443 0.07826910067926834
-0.009495861371695002 0.02076881804088898 0.07725359863596196
-0.010034612578551927 0.020780122807321978 0.0762363486788099
-0.01057493525930664 0.020791384920099777 0.07521864153456209
-0.01111584393030901 0.020802659246853993 0.07419983066750166
-0.011656356687166247 0.020814000893872205 0.07317925735562061
-0.012198441104029956 0.020825299768086752 0.07215823058923965
-0.01274013332427748 0.020836666122589498 0.07113543163665315
-0.013283397328952229 0.020847989624521883 0.07011218172864625
-0.013826272873084466 0.02085938076733424 0.06908714985211134
-0.014370720324281827 0.020870728977592238 0.06806166952857279
-0.014914783069660542 0.020882144989891868 0.06703439741304307
-0.01546041784294 0.020893517989435714 0.0660066793682903
-0.01600567168388012 0.020904958952755143 0.06497715966673784
-0.016552497671752042 0.020916356822898854 0.06394719656314551
-0.017099920269416813 0.020927767128590992 0.06291610972715739
-0.017646967631622712 0.020939245641541315 0.06188320636420386
-0.01819558731201326 0.020950680940372862 0.06084986340907056
-0.01874383557772763 0.020962184609639476 0.05981469395790062
-0.00944752041288427 0.02208717588393497 0.03355653128213132
-0.011603805106582599 0.02200615044082974 0.03367590638786794
-0.01363619428483176 0.02193213764604685 0.0337101932227048
-0.015557930558972421 0.021864394255861983 0.03366827720460458
-0.017563045435664337 0.021791390719213866 0.03370157224592346
-0.019397153682257473 0.02172829406721782 0.03360986770291713
-0.021397005458032914 0.021655002432003214 0.0336589967008597
-0.023354787265755517 0.02158392131873752 0.03368489822192283
-0.02528018625794337 0.021514482387445202 0.03369489007395926
-0.02729315049255221 0.02143946708096333 0.0337855987857526
-0.02924407123897821 0.021367875546698823 0.033836617246846445
-0.031218208146934268 0.021294569250810805 0.03391687859850756
-0.03307874942323702 0.021227836156732544 0.03391436144671767
-0.03453758183654915 0.02118523418286597 0.033589699995516364
-0.03577959189774238 0.02115565667439435 0.03309117133104711
-0.07472695416699043 0.02014122615929777 0.02034321872959477
-0.07732129807512589 0.020018438118340066 0.021326584567194384
-0.07931944516536615 0.019934207167915562 0.021740807568392917
-0.08111185729673215 0.019863116024600395 0.021964121866652364
-0.08260725107380701 0.019811277328844787 0.021902443738632482
-0.08366161625610763 0.019788346789495474 0.021406936774472363
-0.08454926124370771 0.01977635435848417 0.02074709680376896
-0.08542012473247601 0.019765419595079818 0.02007215355413977
-0.08625200757154644 0.019757027917565624 0.019359263732819543
-0.08707203673042802 0.019749387266143597 0.018635574942729993
-0.08789143187342818 0.019741752522187087 0.017912445681766143
-0.08854615164952911 0.019745122980734657 0.01702031971057033
-0.08883024099572467 0.019773420669903487 0.015742589681395858
-0.0889248350084701 0.019814621651602173 0.014262446947141294
-0.08903689585779945 0.019854841712766563 0.01279404359704539
-0.08903115890419483 0.019903231171822258 0.0111948939080595
0.07965922743496745 0.02284524923340191 0.0699899479100538
0.006954950139947624 0.019291436223827695 0.10822910054318777
0.006432885198040916 0.019301713365648714 0.10724577823410919
0.005911274974527758 0.019312051675926315 0.10626084831331553
0.005388095247310543 0.01932235080032034 0.10527542496417422
0.004865366812922545 0.019332711235840305 0.10428838490733827
0.00434106872185136 0.01934303241341331 0.10330085377222428
0.003816210516475349 0.01935336461723247 0.10231226764502438
0.003291798432229931 0.019363758346937952 0.10132205109983403
0.002765816468747573 0.019374112710326175 0.10033134701938298
0.0022402771581720438 0.01938452874351422 0.09933900333040141
0.0017131678195487776 0.0193949053378366 0.09834617447824082
0.0011864976483912937 0.019405343746374634 0.09735169678883865
0.0006582573020481597 0.019415742643303018 0.09635673631720554
0.00012945050740770236 0.019426152691288223 0.09536070891895068
-0.0003989223818495202 0.019436624770882142 0.09436301877292824
-0.0009288656600052181 0.019447057229472257 0.09336484943420731
-0.0014583785616682499 0.019457551865351617 0.09236500802278372
-0.0019894619951322245 0.01946800680699229 0.09136468982190826
-0.00252011859853829 0.019478524072113 0.09036269018455576
-0.0030523458749365795 0.019489001569562757 0.0893602161699732
-0.003584149885355048 0.019499541537195672 0.08835605131610888
-0.0041175247082436695 0.019510041663527034 0.08735141450624809
-0.004650479846956601 0.01952060440725996 0.08634507741506808
-0.005185005935901599 0.019531127235861437 0.08533827079817355
-0.005720108621747377 0.019541661415510128 0.08433037813215058
-0.006254797030960435 0.01955225843417835 0.08332077095246168
-0.006791056589952715 0.019562815426686198 0.08231069791092016
-0.007326905498851732 0.019573435406729366 0.08129890081477065
-0.00786432569094453 0.019584015286282223 0.08028664030980362
-0.008401338877553288 0.019594658302409352 0.07927264616936672
-0.008939923479021727 0.019605261143514796 0.07825819108231019
-0.009478104737771165 0.01961592727075965 0.07724199273879437
-0.010017857541295194 0.019626553148249 0.07622533592005729
-0.010558195426063732 0.01963719054397775 0.07520757706563597
-0.011098135497870476 0.019647891451001688 0.0741880604524367
-0.011639647302140677 0.019658551995880565 0.07316808908982486
-0.012180765002034077 0.019669276202944678 0.07214635024628052
-0.012723454559871505 0.019679959972621924 0.07112415914785808
-0.013265753740422381 0.019690707555908953 0.0701001908055125
-0.013809624902611617 0.01970141462636279 0.0690757727121386
-0.014353109433209166 0.01971218566238794 0.06804956757080849
-0.014898166067350782 0.019722916109928063 0.0670229151916536
-0.015442839834294508 0.01973371067554084 0.06599446591925545
-0.015989085824885896 0.01974446457681082 0.06496557193162056
-0.01653592749445898 0.01975523020516579 0.06393555593935718
-0.017082391980010936 0.019766060181175688 0.06290372821314166
-0.017630428862079495 0.019776849378761025 0.061871459574625476
-0.018178092371708976 0.019787703077862182 0.060837369252857376
-0.018727328393416176 0.019798515922163116 0.05980284056498952
-0.005491794552555773 0.020992351215274718 0.033623705519102876
-0.0076361338437441195 0.02091709387379555 0.03371280384621533
-0.00954087455002639 0.020854897737152076 0.03362846014030396
-0.011322981267986698 0.02079930068251373 0.033458367231845365
-0.013055313924059342 0.02074625899358962 0.03325779449509153
-0.014986983937583132 0.02068179010916878 0.03322122444218567
-0.016647348792707017 0.020632325168868506 0.0329807288728991
-0.01857349015950377 0.020567650038371958 0.03295799530834903
-0.020509609237234938 0.020502134005856286 0.03295292095394603
-0.022464187674266334 0.020435290952083452 0.03297248051724622
-0.024561381321313358 0.020360060453367683 0.033116821548261066
-0.02660912110592828 0.020287321081023206 0.03323255859029178
-0.028858198038614002 0.020202782937648284 0.03352297261409376
-0.03083007798936155 0.02013372581586076 0.03359971771848991
-0.03300600175490637 0.020052679691808434 0.03385459905091864
-0.03497261948942515 0.01998329900236242 0.033948985928112796
-0.03676042229988685 0.01992390542869292 0.0339055183567788
-0.03820470912685181 0.019884061861342405 0.033584429362004176
-0.03893996558760998 0.019885020074107664 0.032674512289192936
-0.07538081106042277 0.019026313541733564 0.019421858314789653
-0.0780035557448771 0.018908324136367536 0.02044246504455871
-0.08005203879542894 0.018825462838016394 0.020913011432036166
-0.08187822252864202 0.018756056665804124 0.021175656514378693
-0.08328149666144996 0.018712724944334427 0.021026021949533125
-0.08427655886631308 0.01869473301678076 0.020472408349021365
-0.08518732822569969 0.01868194308464093 0.019836447447948546
-0.08600801250372114 0.018674756435679337 0.01911094048928591
-0.08689356075453497 0.018663447496195123 0.01845299329190858
-0.08774986021392411 0.01865393233122431 0.01776686831965274
-0.08850400322760266 0.01865084082079569 0.016976754667295813
-0.08889162208066503 0.018671000913512377 0.015806361658177115
-0.08903964337317977 0.01870650392803919 0.014382343458804348
-0.08917117442580069 0.018743230019380757 0.012934997353893807
-0.08923042458229785 0.018784755257363717 0.011405145195567346
0.0786836178772849 0.021456073192977543 0.07052005781631826
0.006972170010437095 0.01815744758437236 0.10821968802083326
0.006451103341675535 0.018167168255756934 0.10723576070012414
0.005928467113670288 0.018176852077273747 0.10625133872876943
0.00540527341683672 0.0181865462280195 0.105265866725755
0.004882531062571638 0.01819629808891845 0.1042787778665748
0.004358218922526358 0.018206012998352127 0.10329119788015695
0.003834354682225094 0.018215785752702236 0.10230199190287073
0.0033089205046669123 0.018225521487572945 0.10131229715729256
0.002783930766945053 0.018235315202592944 0.10032096724824974
0.002257370942150949 0.018245071829936274 0.09932915093867864
0.0017312520801059383 0.018254886573133282 0.09833569025496733
0.0012035629828536232 0.018264664160273107 0.09734174554733557
0.0006753083065188514 0.018274452227067136 0.09634673552613673
0.00014748934346020537 0.01828429861399392 0.0953500672474765
-0.00038190007003618964 0.018294107742030816 0.09435291852789698
-0.0009108572906900703 0.018303975327092364 0.09335410224418386
-0.0014413851056917504 0.018313805584422208 0.09235480791841824
-0.0019714842657787557 0.018323694436148105 0.09135383668309449
-0.0025031541624278564 0.01833354589111448 0.09035238981355101
-0.003034398959683826 0.018343456078329733 0.08934925665008242
-0.0035672146340029465 0.01835332879957146 0.0883456502692202
-0.004100604155822418 0.018363212153827954 0.08734096299479502
-0.004633573946120906 0.01837315444785104 0.08633457528109875
-0.005168114817173108 0.018383059171813397 0.08532771799360225
-0.005702239556611699 0.018393022974608 0.0843191507842869
-0.006237935512991233 0.018402949137659438 0.08331011644062855
-0.0067732189555936295 0.018412934519097816 0.08229936265297688
-0.007310073749587642 0.018422882190921953 0.08128814417955227
-0.007846519665654361 0.018432889221179617 0.0802751967001267
-0.008384537065824649 0.018442858471762393 0.07926178699264849
-0.008923136743960502 0.018452838511727333 0.07824728050622345
-0.009461333033297659 0.018462878120950783 0.07723103060045897
-0.010001100998652646 0.018472879845137964 0.07621432217184401
-0.010540469256519858 0.018482941279868752 0.07519586066146086
-0.011081409318710878 0.01849296475902702 0.07417694310895603
-0.011621953373088745 0.01850304809051342 0.07315626277172155
-0.012164069358324536 0.018513093395699447 0.07213512888235996
-0.012705793053872705 0.018523198695500467 0.07111222246456245
-0.013249088805038445 0.018533265898080714 0.07008886499393624
-0.013791996003197637 0.01854339323806724 0.06906372521022075
-0.01433647537994065 0.01855348240971992 0.06803813688230598
-0.014881547564728093 0.01856358256607187 0.06701143193355935
-0.015426236837850826 0.018573743074792894 0.06598292992248922
-0.015972498466754692 0.01858386530823401 0.06495398314912898
-0.016518380967493418 0.018594048038106218 0.06392322942554957
-0.017065835942469743 0.0186041924211004 0.0628920334717945
-0.01761291559168915 0.018614397445100375 0.06185902063824833
-0.01816156783179007 0.018624564050428716 0.06082556811609974
-0.01870984856754676 0.01863479144185294 0.05979028874269582
-0.003474079574872946 0.019821427457152634 0.033641703737999906
-0.0054480418113465046 0.019759796762374094 0.03359035527649723
-0.007136493820192602 0.019712879613649786 0.033329899539890406
-0.008892727998465744 0.019662202088507608 0.03312906672497712
-0.01053859170792526 0.019617122857364538 0.032850742737636385
-0.012231947224754014 0.01956934596998493 0.032616543607164206
-0.013868622538968145 0.019524363840129774 0.03234554441553622
-0.015465016057543635 0.0194813251696365 0.03204998753688232
-0.017194766797301475 0.01943101951855708 0.03186683165384968
-0.018914597780576747 0.019381026734645368 0.03168381603868836
-0.020551427647714504 0.019335247201806162 0.03144240558712558
-0.02279384619462449 0.01925689779627312 0.031695356039697586
-0.024645519222021905 0.019199144361862142 0.031644979473197665
-0.02719348761155016 0.01910375903687347 0.03216986623084889
-0.029725870600623594 0.01900879991248298 0.0326974137354028
-0.03212591605158405 0.018920565112364122 0.033131606392240165
-0.03458075912695613 0.01882898607083002 0.03362535896192609
-0.03683749818182819 0.018747736924309425 0.0339695115966675
-0.03866840798583088 0.018689244660013735 0.033971465638178266
-0.040330835341204296 0.01863966085931829 0.033841590640976194
-0.04152584626148764 0.018615339266477713 0.03332553645704539
-0.07613244706589406 0.01790523811369412 0.01859630690481462
-0.07882072153157471 0.017790091675606284 0.01969181136545045
-0.08086570520500114 0.017712111965478696 0.020166252067819912
-0.08273830688680611 0.01764389282057589 0.020481695793172827
-0.083981510176665 0.017612420143926315 0.020175210834980473
-0.08490764132122092 0.01759951687537135 0.019553264885975252
-0.08582269656374891 0.017587207687573044 0.018922337269956402
-0.08677296772993859 0.017572750914497295 0.018329626136199373
-0.08763709876651543 0.017563346893422475 0.01765091634085031
-0.08845592451094775 0.017556598101683266 0.01692706001027383
-0.10489313050785815 0.016616703463236397 0.032431154538203
-0.10468803747557937 0.016668965375277567 0.030724252611082692
-0.10449031155758692 0.016721037106526233 0.029015671749986816
-0.10458397181182078 0.01675582561062146 0.027605140616512425
-0.10484840069347784 0.016780481331769043 0.02636942682277915
-0.10508153705180345 0.016807149114944995 0.02509588090216136
0.07771211400073141 0.020072743255422274 0.0710479368483346
0.0069904044721229575 0.0170234030143055 0.10820972091461462
0.006468310931319887 0.01703247272995837 0.10722629883520965
0.005945660772788908 0.017041552115076252 0.10624182830347045
0.005423463723194577 0.017050685545817828 0.10525574531643825
0.004899696831354328 0.017059784363670494 0.10426916997553368
0.0043763796138792666 0.017068937353287034 0.1032809730624481
0.003851492401683365 0.017078055666329396 0.10229228615014099
0.003327051412235049 0.01708722827771492 0.10130196851096221
0.0028010402772596366 0.017096366148670057 0.10031116323600861
0.002274466243081419 0.017105513798317026 0.09931929767262626
0.0017483332206215119 0.01711471593684862 0.09832578758350533
0.0012206298333690135 0.017123883238921285 0.09733179342178247
0.0006933639632074606 0.017133105157563683 0.09633614548433228
0.0001645275816424263 0.017142292175460646 0.09534001585986443
-0.0003638747948170873 0.017151533938058964 0.09434222317121066
-0.0008938478276071526 0.01716074073545183 0.09334395119004066
-0.0014233903847339913 0.017170002406125966 0.09234400681756799
-0.0019545037414148703 0.01717922904696106 0.09134358555602343
-0.002485190169429774 0.01718851069010748 0.09034148253721108
-0.0030174475385171817 0.017197757238606805 0.08933890504175102
-0.0035502778708496607 0.017207013740811194 0.08833524829383535
-0.004082686629511889 0.01721632543956324 0.08732989567105859
-0.0046166665344760105 0.017225601946206853 0.08632407220859792
-0.005150228457035666 0.017234933779563033 0.08531654340735631
-0.005685361663120003 0.01724423035556393 0.08430854620145067
-0.00622008049594347 0.01725358238890008 0.08329883415330641
-0.006756370747778351 0.017262899099457687 0.08228865614461237
-0.007292250253471522 0.01727227139843306 0.08127675375048696
-0.007829701311920623 0.01728160830902954 0.08026438784905515
-0.008367733746893147 0.017290955319635672 0.0792509268418102
-0.0089053609116726 0.01730035811598976 0.07823572706417681
-0.009444559822689325 0.017309725425310982 0.0772200674777001
-0.00998335713598214 0.01731914865262111 0.0762026594774593
-0.010523726324867144 0.0173285363268526 0.07518479414458965
-0.011063697606803369 0.017337980051781682 0.07416517071413545
-0.011605240891924884 0.01734738815740674 0.07314509243652023
-0.012146389979282524 0.01735685244690776 0.07212324633685457
-0.012689111195636982 0.017366281050699664 0.07110094788477545
-0.013231441941926436 0.01737576597201751 0.07007687184533329
-0.013775344941240775 0.01738521514104056 0.06905234595754323
-0.014319839825569003 0.017394674592819383 0.06802670516226639
-0.014863949867608195 0.017404190563325254 0.06699927205956352
-0.01540963234147058 0.017413670681399134 0.06597139288354587
-0.015954933747435285 0.01742320745303914 0.0649417115317859
-0.016501807704757676 0.01743270830520721 0.06391158663422392
-0.017048304387432045 0.01744226594626018 0.062879649651024
-0.017596373739181548 0.01745178760061871 0.06184727165897058
-0.01814406962849824 0.017461366179662624 0.06081307162959704
-0.018693338302787743 0.01747090870460616 0.05977843313779302
0.001530338359506056 0.018748931030914955 0.03298088086469414
-0.0013031909203891079 0.01864974636514961 0.03355419310999014
-0.0032490225854311383 0.0185936069787104 0.03347107814996941
-0.004832295396344999 0.018555019647803258 0.03312100657385014
-0.006463270297309309 0.018513924394017514 0.032813967721220305
-0.007918923631521801 0.018481293680546997 0.03237875572278581
-0.009372610334333287 0.01844862198732417 0.031947519545412306
-0.01051551278636953 0.01843118898236439 0.031279757569288635
-0.0117845541631999 0.018407427428903434 0.030713713190771097
-0.012877970871750577 0.01839229138962544 0.03001344585876642
-0.013600811485182274 0.018395543795945605 0.029022465974707756
-0.014967640257261383 0.018366673790388817 0.028543335026942174
-0.015963521009097092 0.01835623077921896 0.027772399505841372
-0.017376905050790092 0.018324819159824427 0.02733900980271875
-0.018651205077816535 0.01830025771918843 0.02679855513706375
-0.020176066631472145 0.01826297892127484 0.026465981057973764
-0.022056115278086597 0.018207622842556313 0.02643006681542015
-0.025239857840745006 0.01808612438572462 0.027474691940755525
-0.03313320290457583 0.017725508180059597 0.032429861092016565
-0.03603161621511375 0.01761691847142651 0.03330041775409304
-0.03844362840988469 0.017532603944042807 0.03378384850617633
-0.04051805209402837 0.017465135409889306 0.0339986841565606
-0.04206516320477943 0.017424319230395172 0.03378047571060072
-0.043568143269727355 0.01738558411769661 0.03353197893169452
-0.0771079970091682 0.01677211311638296 0.017993159553927274
-0.0797800571064734 0.01666476709575317 0.01908394167918237
-0.0819053413279644 0.01658703345545847 0.019646987626359358
-0.08365643376941484 0.016529593099584863 0.019847766913018483
-0.08473191260957741 0.016509273009501214 0.019375339834860672
-0.08569253840807256 0.01649522810904357 0.01878987026692236
-0.08661575168557784 0.016483196784145792 0.01816879348199274
-0.08750048278299088 0.016473253090396517 0.017510434873205583
-0.10529305618622598 0.015518512037243349 0.03433009282921007
-0.10370867515285354 0.015644501476837058 0.031200562744798988
-0.10361070452097909 0.015687642217080664 0.029599173759180974
-0.10367043928926672 0.015722115277153715 0.028155042402535746
-0.10382105904548 0.01575162758392324 0.02680016811494379
-0.10419716825478537 0.015768530718083654 0.02567874552599131
-0.1047697874416118 0.01577437565550829 0.02476354104583861
-0.1053889576838854 0.015777603613765973 0.02389708437184984
0.07674609517653186 0.018695279734952303 0.07157283550714083
0.007007627473895883 0.015889211118402753 0.1082003066806749
0.006485520041563109 0.0158976769341979 0.10721683613416985
0.00596386748057437 0.01590619313885889 0.10623175752486891
0.005440645021428991 0.015914677065292565 0.10524618533715024
0.00491787400727739 0.015923211498135848 0.10425899598752791
0.004393532941509792 0.015931713593385362 0.10327131540984483
0.003869639877388087 0.01594026631299746 0.10228200853343195
0.0033441766098439296 0.01594878663548957 0.10129221278810199
0.0028181513051770413 0.015957316071345904 0.10030135835415777
0.0022925688036060654 0.015965896309120504 0.09930886384956553
0.0017654158778495632 0.01597444406025873 0.09831588403273991
0.0012387022689450133 0.015983042732298367 0.09732125491335994
0.0007104180882337996 0.015991608857774436 0.0963261428629886
0.000182569720809711 0.016000226023550668 0.09532937223977991
-0.0003468493643508652 0.016008810582674927 0.09433212107571637
-0.000875836157207488 0.016017446301915397 0.09333320202996753
-0.001406393812037221 0.016026049354253488 0.09233380484243109
-0.001936522713045341 0.01603470368694356 0.09133273042559667
-0.002468222618567939 0.016043325292318052 0.09033118027500908
-0.003000494604854298 0.016051956174081384 0.08932855250979391
-0.0035323431794723748 0.0160606385171937 0.08832423342537721
-0.004065762965369701 0.016069288042138728 0.0873194422375532
-0.004598762922243815 0.01607798914972523 0.08631295028519231
-0.005133334228641873 0.016086657378322815 0.08530598866000724
-0.005667489306500739 0.01609537731128045 0.08429731678550842
-0.0062032158704000695 0.016104064304263 0.08328817767784902
-0.006739521030980744 0.01611276067939306 0.0822779486773369
-0.007275415398759866 0.016121508942115927 0.08126599513067587
-0.007812881450248 0.016130224173149167 0.08025357802885863
-0.008349940354404395 0.01613899141456809 0.07923942679666196
-0.008888571074432916 0.016147725562897335 0.07822481447182225
-0.009426798310767592 0.0161565118448385 0.07720845839222881
-0.009966597493377805 0.016165264972123554 0.07619164369170164
-0.010505996874199452 0.016174070356682058 0.07517307557170166
-0.011046968329935014 0.016182842524850978 0.07415405131170918
-0.011587543684152157 0.016191667074392225 0.07313326392697625
-0.012129691240153895 0.01620045834564254 0.07211202289246174
-0.012672427834373112 0.01620925916852681 0.0710896722891538
-0.01321477391345044 0.016218112559604373 0.070065543931632
-0.013758692377395076 0.016226932579299278 0.06904096567848234
-0.014302224072794911 0.016235805292388543 0.06801459986360903
-0.014847328275466365 0.016244644571772122 0.06698778666663524
-0.015392049474900582 0.01625353667019577 0.0659591760591563
-0.015938343302205782 0.016262395272421196 0.06493012059248848
-0.01648425791039715 0.01627130681977892 0.06389925782505668
-0.01703174526525153 0.016280184808275543 0.06286795273077028
-0.017578857204021803 0.016289115868445798 0.061834830403765584
-0.018127542006437347 0.01629801330692088 0.06080126829170224
-0.01867682654149988 0.016306920470623293 0.059766576458270604
0.00371454999770654 0.01756170314583823 0.03290839731784223
0.0006807113823401045 0.017460340156519216 0.03361809782506692
-0.0010466620723731945 0.017418127684678073 0.033360754580916696
-0.0025625153273559076 0.01738540366611796 0.03295060684673706
-0.004017847851195688 0.017355313402265368 0.0325001992262523
-0.005353691048576581 0.017330579510801913 0.03196363017314202
-0.006459868499334276 0.017316302405946747 0.03125456162831941
-0.0073655197021806895 0.017311205639865393 0.0303927341526824
-0.008350142309831221 0.017302440343382 0.02959333310987916
-0.00896468001573364 0.017310764715591453 0.028505744039064584
-0.009701367527322424 0.017313459610362507 0.02751279950697605
-0.010484688199200898 0.01731399869041424 0.02655627111225861
-0.011359586497457164 0.017310274826470354 0.025672510029437046
-0.012755823307938896 0.017282201502291275 0.025206464538664375
-0.013762141705842612 0.0172722461425773 0.02443198898096688
-0.01499268382529495 0.017251737228448104 0.023840627673481662
-0.016405175281374473 0.017222592398248592 0.023400933183347572
-0.017902191575238147 0.0171893422610607 0.02303568461806499
-0.01967980568533423 0.01714270929913777 0.022907094858952926
-0.021841505926201987 0.017077713113651263 0.023104351328318506
-0.023859006512963632 0.017019267139037196 0.023193952370612225
-0.037298611744053745 0.016418139613463927 0.03282813559483516
-0.0401370104273534 0.016318927956634945 0.03367895221965239
-0.04227624859417434 0.0162526297656717 0.03395853618261491
-0.044101303878842535 0.016201059093626253 0.033984106639912026
-0.04553076485848134 0.01616821330283154 0.03368211337998106
-0.04654348101955397 0.01615523171793409 0.0330291461625149
-0.07828607308266355 0.015630411487922182 0.017594550750739957
-0.08084993879163543 0.015535492317431508 0.018589377132145812
-0.08309437274539194 0.015456585674076123 0.01928161242753973
-0.08450706865246171 0.015420269477019927 0.019147685673008175
-0.08549708727432892 0.015405666573449755 0.018590952067812305
-0.08644344219525596 0.015393260338556616 0.0179925201710458
-0.10564478425292834 0.01443104713632326 0.03616812070267433
-0.10399077263058193 0.014551860384512507 0.03298403912507997
-0.10393319259954459 0.014589797725219898 0.0314338255066301
-0.10397607775402284 0.014622653013468637 0.029980739825449687
-0.10403118874670286 0.014655024573592216 0.02853372525612552
-0.10412270770985904 0.014685635571268594 0.027118446810324215
-0.10423473194380256 0.01471531260288827 0.025718584661607202
-0.10433377367368413 0.01474582074971771 0.024298729709270384
-0.1049276736340014 0.014750230037020478 0.02340279742172824
-0.10573596443083955 0.014743261728955851 0.022736860640423462
-0.1062227337051671 0.014753396393828761 0.021724292544338053
0.07578271940835335 0.01732352753036191 0.07209629802772097
0.007024851996886461 0.01475491904599058 0.10819089161522516
0.00650374311004126 0.014762819226004599 0.10720681589218178
0.005981064269689695 0.014770689458545618 0.10622224536825722
0.005458838640985841 0.014778606539922075 0.10523606208431077
0.004935042904322617 0.014786493618766907 0.10424938634555994
0.004411696944208454 0.014794427655801011 0.10326108872778478
0.003886780723342087 0.014802331635097185 0.10227230101004686
0.0033613033257026137 0.014810244064370478 0.10128245620033935
0.0028362705185145942 0.014818203616444082 0.10029097576657378
0.002309667228309664 0.014826133027759324 0.09929900878305542
0.0017835050506630479 0.01483410967218306 0.09830539696162027
0.0012557722413817363 0.014842056120270376 0.09731130096733309
0.0007284770494943027 0.014850049912159706 0.09631555088297966
0.0001996110790299377 0.014858013451984658 0.09531931901156021
-0.00032882078657386904 0.014866024446692034 0.09432142375944641
-0.0008588235760039198 0.014874005133457033 0.09332304911496539
-0.001388395790569652 0.014882033386573481 0.09232300176049205
-0.0019195390725122996 0.014890031275718904 0.09132247741729713
-0.0024512535545168634 0.014898037765924122 0.09032087709403736
-0.002982542790999576 0.01490609199028051 0.08931758999850739
-0.003515403303156084 0.014914115766407608 0.08831382953799513
-0.004047842143842184 0.01492218738913392 0.08730837287842233
-0.004581852399472175 0.014930228507223421 0.08630244528002487
-0.005115444575465922 0.014938317584755445 0.08529481201642028
-0.005650608303955418 0.014946376101090376 0.08428671024921655
-0.0061863497351533625 0.014954443316495977 0.08327752024843527
-0.006721678509406248 0.014962558661215448 0.08226661031372126
-0.007258579035377577 0.014970643359679625 0.0812552355467214
-0.007795070541115778 0.014978776301296199 0.0802421312804249
-0.008333133931769932 0.014986878539713934 0.07922856463986983
-0.00887079195703111 0.014995029135523894 0.07821325889460842
-0.009410021998654428 0.015003148971037059 0.07719749324229824
-0.009948850347938076 0.015011317278585944 0.07617997883961683
-0.010489250843276565 0.015019454768584914 0.07516200700631673
-0.011029253337645706 0.015027640845668386 0.07414227673652626
-0.011570828105989472 0.015035796047793582 0.07312209152179411
-0.012112990997225348 0.015043960106057352 0.07210079843734499
-0.012654761460438813 0.01505217292460186 0.07107773231582137
-0.013198104382304565 0.015060354781852869 0.07005421499668729
-0.013741058613733481 0.015068585515454438 0.06902891485236201
-0.014285585427277092 0.015076785229963278 0.06800316601937706
-0.014829727306633456 0.01508503393730445 0.0669756245319107
-0.015375441889775965 0.015093251567596116 0.0659476368741097
-0.015920775313740143 0.015101518307615977 0.06491784669115158
-0.01646768156135675 0.015109753912471723 0.0638876128655882
-0.01701518464450652 0.015117998504794289 0.06285625475197071
-0.017562312267687674 0.015126292382825864 0.061823079234176015
-0.018111012887024824 0.015134555038295174 0.06078946388446138
-0.018659341868742796 0.01514286709741229 0.05975402115554901
0.002922274087744703 0.01627388835845336 0.033499393745570316
0.0011665365452382948 0.0162337012987043 0.03325373082414235
-0.000359077076963088 0.016203090091125315 0.03284227320483052
-0.0017497589093217747 0.01617807583432303 0.03233442051057123
-0.002929690027767773 0.016161917727519716 0.031670757998080556
-0.003839951959544119 0.016157182298728735 0.030803560545967335
-0.004496712966565675 0.016163251505490677 0.029741960899415776
-0.005336750103756449 0.016161503842893183 0.028821155228285933
-0.005953463093888389 0.016169325274055037 0.027726761779514553
-0.006746531555340218 0.016169601463337093 0.02676892774219025
-0.007531075261007936 0.016170245941057603 0.025804328901857077
-0.008326349347873852 0.016170430087324175 0.024848096018380395
-0.009199334008220705 0.016167254160592195 0.02395365902003327
-0.010191871709538947 0.016158883059642762 0.02315548166140996
-0.011284856763232598 0.01614611315302027 0.022439737145270477
-0.012734774803444482 0.016117751815412043 0.022015100187096848
-0.014126313895172216 0.01609181471476388 0.02154863392572881
-0.01520542209382636 0.016079423667852463 0.02083201720072697
-0.017343157491689076 0.016020599900219572 0.02098753238504575
-0.018305038622603853 0.016013147382727213 0.02018367780760094
-0.02016176549398291 0.01596628816853654 0.020124270577880965
-0.022698449836525747 0.015889240445405652 0.02064179485492096
-0.024176761594404905 0.01585862916631313 0.020286712684733976
-0.04159312691173073 0.01512198327651718 0.033382290855699215
-0.04406090354211856 0.015045633855510537 0.03394984658517064
-0.045935283678778804 0.014995345864076842 0.03402696596156202
-0.04738915939721572 0.014963583577824381 0.033753898546796
-0.04790743843344475 0.014973484960758683 0.032681232660934534
-0.07957906639751622 0.014486486203977085 0.017315846005811875
-0.08217755689804723 0.014396416524291578 0.01835811945765342
-0.08417331480155427 0.014334830767202295 0.018809760410670395
-0.08531488439726953 0.01431402228776687 0.018405517133344984
-0.10595161776098078 0.013353536828518874 0.037949463291715835
-0.1044004345266063 0.013460373282130381 0.03488856269410795
-0.10432758634301253 0.013496131166360717 0.03333217324936816
-0.10431145589819474 0.013529307483308757 0.03182682276828125
-0.10434714995058053 0.013560121700976976 0.030368257425364475
-0.10439634122696101 0.013590426203366139 0.028917030013400125
-0.10449317675435932 0.013618547690643388 0.02750933998535321
-0.10459710349400009 0.013646457918681883 0.02610290712059271
-0.1046927459075157 0.01367491078026474 0.02468141111997718
-0.10478811670131927 0.013703515599968647 0.023253255787585192
-0.1053256625836485 0.013710429020338697 0.022294936458647385
-0.10621472190631043 0.013699978892079821 0.021715618785582147
0.0748233724182828 0.015957511908962687 0.07261757146029107
0.00704309138541781 0.0136205621684261 0.10818092181595237
0.006520955351563218 0.013627819901971946 0.10719735146935891
0.005999274292040502 0.013635120834540462 0.1062121727562515
0.005476023068779479 0.013642394095728986 0.10522650036368048
0.004953223392975159 0.013649710656721773 0.10423921050337889
0.004428853399649768 0.013656999495437408 0.10325142931416398
0.003903923088188599 0.01366429612267843 0.10226259262645426
0.003379439150506258 0.01367163620143087 0.10127212475280417
0.0028533846715434463 0.013678948481365985 0.10028116909398607
0.0023277730968088717 0.013686304314473608 0.09928857305336819
0.001800590831169735 0.013693632297523916 0.098295491600156
0.0012738479829740301 0.013701003935762554 0.09730076053108624
0.0007455342959328259 0.013708347672566143 0.09630554643085873
0.00021765652221933385 0.013715735166930062 0.09530867344233007
-0.0003117922365954984 0.013723094708342782 0.09431131981297927
-0.000841809479973199 0.013730462151910365 0.09331289529593162
-0.0013713961002949082 0.013737873507142884 0.0923127979140689
-0.0019025539181017348 0.013745256831952301 0.09131222349507107
-0.0024332846606712755 0.01375268417169661 0.09030996684202838
-0.0029655867427367255 0.013760083429153483 0.08930723556457884
-0.003497465315033088 0.013767526805177399 0.08830281264478951
-0.0040309153671205245 0.013774942046909582 0.08729791752233432
-0.0045639454926519885 0.013782401511204781 0.08629132130998451
-0.005098547236548123 0.01378983278906343 0.08528425532575692
-0.005633725790988087 0.013797272084927505 0.08427610276390837
-0.00616848982854884 0.013804755759907144 0.0832662348714838
-0.006704825685247939 0.013812211170032014 0.08225590087181536
-0.00724075065304941 0.013819711064184986 0.08124384199503354
-0.007778247574224684 0.01382718264098494 0.08023131946456075
-0.008315337252554955 0.013834698807095605 0.07921706247047797
-0.008853999016752934 0.0138421866032125 0.07820234428542702
-0.009392257202331666 0.0138497190942943 0.07718588201011262
-0.009932087604511586 0.013857223162598992 0.07616896101574938
-0.0104725033066832 0.013864735367035443 0.075150937445734
-0.011012520962207839 0.013872292425489093 0.07413115527458239
-0.011554111023259372 0.01387982098178626 0.07311091811098497
-0.012095306747745949 0.013887394498690768 0.07208891261835396
-0.012638075004066052 0.013894939460296477 0.07106645462834327
-0.01318045265241341 0.013902529489477606 0.07004221854052733
-0.01372440295712396 0.013910090910072864 0.0690175324597217
-0.014267966401069088 0.013917697505591124 0.06799105847126169
-0.01481310262411073 0.013925275439091615 0.06696413700355286
-0.01535785575231502 0.013932898655243768 0.06593541777705886
-0.01590418178055042 0.013940493155800702 0.06490625359444613
-0.016451103712942894 0.013948095940045865 0.06387596685280311
-0.016997648235987317 0.013955744169122883 0.06284386750283089
-0.017545765833183624 0.013963363602029868 0.06181132700049968
-0.018093509834178123 0.013971028588458077 0.06077696393460902
-0.018642827025726172 0.013978664724772757 0.05974216226311485
0.004931877393062667 0.015068852792494982 0.03356439417328977
0.003279780983750369 0.015035965971537299 0.033232712283000454
0.0018430321506044955 0.015011341179610954 0.032746361725770556
0.0005217130858751196 0.014991124941892144 0.03217810324952319
-0.0004792748353217302 0.014983370545234612 0.031371210735361255
-0.001308049487185825 0.01498234294066028 0.030434673036253745
-0.0018251866813682738 0.014993568597741624 0.029259524310111196
-0.00247596835392927 0.014999573939392222 0.028184988095691255
-0.003102262418749835 0.015006571936645273 0.027090217543046913
-0.0037942981999232184 0.015010997351904636 0.026045170325057154
-0.004598371787839728 0.01501099735234454 0.025086912782820547
-0.0054121755656230675 0.015010610561986267 0.024136314920077506
-0.006308982597189761 0.015006915566479557 0.023251490537912034
-0.007283839010341409 0.015000088909411208 0.022429554533628326
-0.008036904933821976 0.01500210620593439 0.0214316581848647
-0.009374010836143032 0.01498071619201816 0.020903019975397286
-0.01048834538045662 0.01496818492339173 0.02019885399728044
-0.01180942038102295 0.014947274975371636 0.019665421474886258
-0.01298669716719375 0.01493207733454552 0.019018984287622276
-0.014370307249186365 0.014908469628046523 0.018545328299050368
