# .PCD v0.7 - Point Cloud Data file format
VERSION 0.7
FIELDS x y z
SIZE 4 4 4
TYPE F F F
COUNT 1 1 1
WIDTH 784
HEIGHT 1
VIEWPOINT 0 0 0 1 0 0 0
POINTS 784
DATA ascii
0.02441111216674189 0.15813557542277018 0.02851267542295466
0.024475384253140057 0.15814856643296898 0.027020423614465494
0.02454694236250329 0.15809797345863724 0.025436538568459677
0.02464338084278749 0.1578235546136415 0.02354772687663559
0.03499905768378193 -0.05848807558885982 0.011230860389585373
0.034874683750055924 -0.05602243041589139 0.01126444282331629
0.034751190644344704 -0.053574247176144174 0.011297787422891559
0.03461046426319524 -0.05091634739365708 0.011493006055049104
0.034468371148102625 -0.04824858350426364 0.011709128442744965
0.034331324188197704 -0.04565113451493974 0.011888466508946927
0.03420457181319531 -0.04318900998494435 0.011983079726212376
0.034073223947406854 -0.040676258827166245 0.012127171837526707
0.033942986469523324 -0.03818404099688616 0.012269200922281398
0.033813950164403 -0.03571339507987897 0.01240823533356028
0.0336867223415889 -0.03327173343062351 0.012538596568693161
0.03356034522423094 -0.03084710517008532 0.01266892905546918
0.033438290514157136 -0.02848216873005982 0.012767111724778735
0.03332189745928585 -0.02619303755215935 0.012820345305533054
0.033206513783945055 -0.02392226153189908 0.01287133370104393
0.03309834407216455 -0.021745640137346367 0.012862147135085933
0.03300493271081444 -0.01975468503882316 0.012721565120656808
0.03173336731197723 -0.0034211930831893334 0.023641254028436032
0.03147984887084008 0.0004755006104224524 0.02505540265697126
0.031339399005024554 0.002988043927306394 0.025417243107344167
0.031234367714457038 0.00506477608789313 0.02545210465684844
0.031157477050393383 0.006796310077989864 0.02522591202140978
0.031094589995781616 0.00835515704987655 0.02487089103663309
0.031043068787159202 0.00977411243040166 0.024410989342093292
0.03100042597902381 0.011083896873681776 0.02386903521412559
0.03097062806957519 0.0122377078086513 0.023206022772113977
0.0323529717227977 -0.0034800365203909722 0.008905365031704748
0.030936856122774335 0.014232894193873358 0.021635259556129827
0.030929847776233997 0.015111690653013932 0.020755419681689258
0.030946935955104376 0.01570411840873076 0.019641052772629675
0.030968344716979297 0.016246253786789844 0.018483377798728162
0.03101979403747879 0.01643447515168628 0.017029635174060365
0.031104418046430438 0.016234141558591375 0.015246215535939522
0.0312874216213169 0.014880583257490365 0.012486288081926422
0.029182046674837203 0.04040364479470038 0.032378898783008536
0.029092119224451443 0.042207459150698956 0.03237809157771787
0.02900274431154468 0.04400019040555797 0.032377289331986026
0.028913916859314118 0.04578194039258504 0.03237649200024312
0.02882563185296223 0.04755280970135073 0.03237569953747721
0.028737808729322276 0.04931377568556128 0.03237567230757615
0.028650519121073675 0.05106404400372716 0.03237564524297781
0.028563758181371236 0.052803711841293455 0.032375618342181556
0.028477521121902275 0.054532875210054066 0.0323755916037044
0.028391877011710313 0.056250779581695165 0.03237481377283513
0.02830674649303805 0.05795838200604664 0.03237404060635812
0.028222052039965327 0.05965661038233255 0.032374018828030815
0.028137935375109856 0.06134387814745529 0.0323732526415636
0.02805424658837447 0.06302193981375842 0.03237323333609898
0.027971125772992336 0.06468923401803006 0.032372474018877495
0.02475748169994484 0.10189949348827698 0.06481990703399687
0.0246932285688179 0.10326399044324563 0.06472914745429442
0.024629252550583212 0.10462205093846938 0.06463943669573546
0.024565551928607016 0.10597371570889624 0.0645507672327495
0.02450217996398432 0.1073184066924458 0.06446255525141109
0.024439188801232213 0.10865556383996927 0.06437422215243377
0.024376466286133363 0.10998647273890477 0.06428691585752261
0.024314119020672095 0.11130996282686584 0.0641994840389068
0.024252036022461294 0.1126273004305759 0.0641130695704012
0.02419026925809827 0.11393792787615903 0.06402709527353034
0.02412876301608342 0.11524248783856444 0.06394212651412712
0.024067568751996594 0.11654043068542802 0.06385758874142972
0.024006789625276213 0.11783064092919371 0.06377234625471412
0.023946264204012226 0.11911492969972953 0.06368809819315402
0.023886095439897084 0.12039218460361356 0.06360371013285437
0.023826176311315256 0.12166360711163132 0.06352030759379573
0.023766557048400853 0.12292866677752701 0.06343732244321093
0.02370728686110251 0.124186849459341 0.06335419149586258
0.023648260359774485 0.12543933001221047 0.06327203299366796
0.023589578002282997 0.12668503560429262 0.06318972495725783
0.02353113546602963 0.1279251237232074 0.06310838082831327
0.023473032236542547 0.12915853692078433 0.06302688352879554
0.023415165042047433 0.13038641560921133 0.06294634173972363
0.02335763240967214 0.13160771748002176 0.06286564324208438
0.023300332102572426 0.13282356615584318 0.06278589199534851
0.023243312241938548 0.1340334640701708 0.06270653107726498
0.02318661999391951 0.1352369288116589 0.06262700832592194
0.023130154645182425 0.1364350593390084 0.06254842068846517
0.023074012385922552 0.13762685015902884 0.06246966791421199
0.023018093499383843 0.13881338412946248 0.06239184232460088
0.022962493264116035 0.139993670080066 0.06231384838410098
0.022907112945133812 0.14116877503299008 0.06223677382599502
0.022851999112320574 0.1423382254642317 0.06216007014514302
0.02279719742741655 0.14350156218077498 0.06208319345828278
0.022742610601177424 0.144659828934672 0.0620072246836631
0.022688331688341185 0.14581206939798255 0.0619310799022606
0.02263426434568303 0.1469593121267881 0.061855835536205606
0.02258045407973294 0.14810110000304683 0.061780948938264246
0.022526945520519627 0.14923698968521484 0.06170588198778537
0.022473643718236718 0.15036798739416668 0.06163170442799848
0.02242063958021491 0.15149317031529727 0.06155734371443716
0.022367839068640073 0.15261353008075193 0.06148386518364213
0.022315332252569948 0.1537281569225717 0.06141020077403292
0.022263025993032176 0.15483802811843803 0.06133741145051558
0.02221091920212779 0.15594317026053447 0.06126549151804672
0.022159100708108462 0.15704269286139194 0.06119337958761045
0.02216998496650494 0.15750171832085305 0.06038624400719894
0.022224929003296066 0.15751424614273937 0.05905837572244266
0.022280191499902173 0.15752637625054425 0.05772337152620899
0.022335729502824312 0.15753856683204576 0.0563817117838471
0.022379754356249757 0.1576695447079214 0.055173603871338295
0.022435836538431418 0.15768168551914682 0.05381899978019511
0.022492154187049574 0.15769435132733428 0.05245814333431009
0.02254880182952703 0.15770661574489467 0.05108987974191842
0.0226056887475168 0.1577194083817993 0.049715268933130274
0.022662910445665728 0.15773179829064243 0.048333138198702996
0.022720375308281117 0.1577447196829496 0.04694456342771747
0.022778179832571358 0.15775723700648303 0.04554835368059729
0.022836231492239168 0.1577702891201612 0.04414560106759796
0.022894627792715817 0.15778293582123973 0.042735096099000336
0.022953275283581515 0.1577961206625504 0.04131794737381711
0.023012272494485134 0.15780889874448611 0.03989292652522264
0.023071525037099427 0.1578222183610247 0.0384611589141009
0.02313113248162873 0.15783512986863754 0.03702139696219475
0.023190999487780757 0.15784858635039847 0.03557478307103307
0.023251226683004014 0.15786163337109757 0.03412005010905306
0.023311717760704797 0.1578752288515818 0.03265835780299908
0.02337252440995965 0.15788889525746835 0.031189040099305954
0.023433699381248514 0.15790215017383064 0.02971141139761707
0.023495144891220645 0.15791595886904364 0.028226657956682666
0.023558285289738416 0.1579167321985251 0.0267169385708258
0.02363403270985618 0.15780061335442797 0.025045269756236943
0.03368392946725441 -0.06050498712280428 0.011522876820943218
0.03356382042757528 -0.05802454154091791 0.011556495164785185
0.033444138225363296 -0.055556127094645635 0.011593827025544678
0.033310379640261185 -0.05290990637538251 0.011769640643874035
0.03317348822429983 -0.05022993516175578 0.01198321302591554
0.033045734339297236 -0.04767638967834009 0.012120006420408724
0.03292981543467042 -0.04528362042668227 0.012153814458119472
0.03281316663865598 -0.042887586558170265 0.012201900020136547
0.03268735252036807 -0.04037908216402997 0.012344087536190596
0.03256249952271162 -0.03788974076481599 0.012485188851608042
0.032439399499460196 -0.035429699641323475 0.012617574637809381
0.032317326311139545 -0.032989470568596635 0.012748012006669696
0.03220279316530578 -0.030652639175979934 0.012813990588097457
0.03209034561349467 -0.02834867831868615 0.012867229089951415
0.03197975344344288 -0.026074475466351388 0.01290974848313925
0.03188581437796714 -0.024018782912831216 0.012798156703350494
0.031796185332665025 -0.022023026680548008 0.012650711169177042
0.0317268214401649 -0.020289682188857627 0.01231156467143385
0.03166330400183773 -0.018634216774708168 0.011919703532891734
0.030286644139002304 -0.00035982009126456216 0.024408324734130182
0.030104134373718124 0.002756741269154095 0.025237101087946412
0.02997804932643887 0.00515229995805061 0.02552063616011313
0.0298958277875703 0.0069893856409054544 0.025377902635879968
0.029822450555106423 0.008711059472886973 0.025152563091662417
0.029770632679491916 0.010158782105531006 0.024717060016575254
0.029721521664176225 0.01156989944723158 0.02425780347898676
0.029687694105604383 0.012787786758854891 0.023648400560075833
0.02965914376796814 0.013938191411203615 0.022988062123252995
0.02964153712656245 0.014951174561006586 0.02221909066586958
0.02963399778206813 0.015838474638974642 0.021349311809014004
0.029635337750334338 0.016615588567821027 0.020389827807990146
0.029651679111497863 0.01720770139967337 0.019277411561549218
0.029682735448392027 0.01761954434130686 0.01801355400241439
0.029732139643453205 0.01780767527448368 0.016559599342039044
0.0298315279902732 0.017385811924779726 0.014588424379184506
0.028014764666556415 0.04040364469264557 0.032378898783001986
0.02792843430787894 0.04220745904895096 0.03237809157770477
0.027842634385220055 0.044000190304114895 0.03237728933196632
0.027757360024848726 0.045781940291444945 0.032376492000216806
0.02767260641255896 0.04755280960051189 0.03237569953744435
0.02758829620770728 0.049313775585022146 0.032375672307536685
0.0275044981776687 0.05106404390348607 0.03237564524293185
0.027421207669471506 0.052803711741348514 0.03237561834212904
0.02733842008633518 0.054532875110403556 0.03237559160364528
0.027256201734544135 0.05625077948233714 0.03237481377276952
0.02717440600715146 0.05795922431901107 0.03237478960898155
0.02709316974976025 0.05965661028355451 0.0323740188279521
0.027012348159556103 0.06134470671589409 0.03237399717944334
0.026932076504465934 0.06302193971555375 0.032373233336007334
0.02379998065912063 0.10087411599476603 0.06522549796350724
0.02373812750853565 0.10224315586950278 0.06513355938473048
0.023676488099939923 0.1036063600982704 0.06504325509516395
0.023615167972456313 0.10496250317302175 0.06495341856557679
0.023554217561172146 0.10631101824481815 0.06486346993245046
0.023493528326154364 0.10765320722088917 0.06477455937075344
0.023433203394701504 0.10898788508883878 0.06468553212444594
0.023373135365584493 0.11031633422120013 0.06459753330494228
0.023313374501843814 0.11163799016291642 0.06450998447831979
0.023253970022522948 0.11295230596855188 0.06442231233019813
0.023194764894067375 0.1142611298409999 0.06433622306739462
0.023135860474463796 0.11556330606432641 0.06425057106060783
0.023077305267065192 0.1168582993834531 0.06416478687807364
0.023019096241442223 0.11814617272744482 0.06407887095588793
0.022961129844611582 0.11942814269941865 0.06399395099763078
0.02290345465427451 0.12070367242329855 0.06390945765272604
0.02284611825757566 0.12197224154571612 0.06382482653608312
0.022789018686883804 0.12323503968340227 0.06374117805054613
0.022732253104315807 0.12449098085308413 0.0636573879043405
0.02267572057872655 0.1257412370633702 0.06357457168511577
0.022619517328388575 0.12698473791635084 0.06349161002092629
0.022563543442821674 0.12822263810965678 0.06340961372391773
0.022507845896877935 0.1294544268660618 0.063328022237506
0.02245247072470297 0.130679609013361 0.06324627982340253
0.02239731951806696 0.13189931382354025 0.06316549020152684
0.022342486194274896 0.13311250879037886 0.0630845461170117
0.022287873327597258 0.1343203065904037 0.06300454661152566
0.022233573937906627 0.1355216894562863 0.06292438920355203
0.02217949156724497 0.13671775374475026 0.06284516829461856
0.022125671664348485 0.13790801340012887 0.06276633185351466
0.022072158783819462 0.13909199711722425 0.06268733252647973
0.022018857892586865 0.14027077727497222 0.06260925782302007
0.021965859821817833 0.14144337195349788 0.0625310170205447
0.02191307047066048 0.1426108378761322 0.06245369308181076
0.021860579816291508 0.1437722070720704 0.06237619991751342
0.02180829467634835 0.1449285208650894 0.062299615980266676
0.021756259045455383 0.14607931663225587 0.06222339750790573
0.021704516067661817 0.14722414570447084 0.062147005280862144
0.0216529739133783 0.1483640267725785 0.062071511052016026
0.021601720476208564 0.14949802580484167 0.061995840148405756
0.021550664811891426 0.15062714670988905 0.06192105990248564
0.021499894000744226 0.15175046866734643 0.06184610014055841
0.02144931797101993 0.15286898104175722 0.06177202380982094
0.02139897933085663 0.1539822434358698 0.06169829517235731
0.02134891987860152 0.15508982866283239 0.06162438290365585
0.021299007565009416 0.15619316544399722 0.06155187123115785
0.021250189350423533 0.15728220608984375 0.06146916320762641
0.021302815281959247 0.15729371268485726 0.06014550752168596
0.021355659022452296 0.15730573611203685 0.0588158142886977
0.021408809292973854 0.15731735852111528 0.05747896895436533
0.021450941102379013 0.15744769609121853 0.05627491104878024
0.02145076552574315 0.1580240541553602 0.05559240333295601
0.021497469180768475 0.15810994044278315 0.05432752003837277
0.02153986252409633 0.15824330856777932 0.05311334045845523
0.021667156362076626 0.15749524481649044 0.05083630494146679
0.021721870443979902 0.1575075157293286 0.049459761011411696
0.02177690678015414 0.15751938045164893 0.04807567974301652
0.021832177257780756 0.15753177493511614 0.04668513897776272
0.02188777469320041 0.15754376183986554 0.04528694545046413
0.02194361009701797 0.15755628178229755 0.04388219326275167
0.02199977725630158 0.15756839275378723 0.042469670550520144
0.022056186292054487 0.1575810400822589 0.041050487944005176
0.022112931977488537 0.1575932770436811 0.03962341465203861
0.022169923530723574 0.15760605372499967 0.03818957810746004
0.022227256726860847 0.15761841863943823 0.036747728256519285
0.022284839867592873 0.15763132668117627 0.03529900961433163
0.0223427697459952 0.15764382155263987 0.03384215252145384
0.022400953733518927 0.15765686300420031 0.032378318860785904
0.02245948965764797 0.15766948987869683 0.03090621901626539
0.02251828394550189 0.15768266683240353 0.029427032530059294
0.022577386863604828 0.15769591295632407 0.027940081315024123
0.022641493172312933 0.15766252431335517 0.026384165054154418
0.022724023322386468 0.15744968350466265 0.024583513423520165
0.032362039135092995 -0.06253067448139527 0.011817368573237619
0.03224635295836426 -0.06003673932843906 0.011850018869680734
0.03212974444033327 -0.0575366233741042 0.01189925988959728
0.0320001115662194 -0.05486480108879627 0.012082161195710206
0.03187050972414767 -0.052200648328024846 0.012273396682510318
0.03175318702081463 -0.049711079857673035 0.012353757852230418
0.03164160612111471 -0.04730615798147925 0.01238586050927376
0.03153060879739732 -0.04491539321556898 0.012419677287066166
0.031419699809739264 -0.04253202901721703 0.01246001931003421
0.03130342379617549 -0.040082322080636335 0.012560699164255618
0.03118423065769063 -0.03759976733115816 0.012698001330199327
0.031068727158048103 -0.035173538569391205 0.012806596298564898
0.030959321200837314 -0.03283567033392104 0.012862118958167468
0.030850967207863008 -0.030518018266275815 0.012914410822497724
0.030753906806058776 -0.028357491176730587 0.012860619569148635
0.03066531376143191 -0.026315416089736587 0.012728064552672946
0.030594638302948944 -0.024516965755345288 0.01242046256228374
0.030531150650184555 -0.02281801074760914 0.01204473992139915
0.02889533852264506 0.0021564441267113432 0.02476958042997751
0.02874630451754401 0.004924220498664755 0.02534204943636087
0.02863547279400442 0.00718226313627951 0.02552973733001046
0.028565224970959015 0.00890258287952217 0.02530414060883107
0.028500897452906265 0.01054160328668563 0.025021659897431214
0.028453768103166212 0.011952744732080467 0.024564053104088324
0.02840864141929514 0.01333519087117585 0.02408862722268723
0.028381361483748382 0.014483370591274858 0.023428841446674897
0.028354213894258507 0.015628310673429235 0.022769478995314563
0.028344136831662432 0.016551022827737738 0.02193157114442501
0.028336783481390165 0.017438032069770626 0.02106546722815622
0.028345575829248664 0.01811677964613645 0.020028194875491956
0.028361255777065667 0.018707544061953685 0.018916879671366682
0.028401254161917338 0.018987482256294597 0.01754435067164606
0.028459488929036807 0.019036420158212775 0.015973449068235834
0.026847410930773318 0.04040455995186931 0.03237967093323818
0.026764749391306283 0.04220745894720351 0.03237809157769217
0.026682524458895206 0.04400019020267265 0.03237728933194739
0.02660080319038302 0.045781940190306125 0.03237649200019155
0.02651958097215531 0.04755280949967461 0.03237569953741276
0.026438783686091826 0.0493137754844849 0.03237567230749888
0.026358477234263197 0.05106404380324703 0.03237564524288772
0.02627865715757117 0.052803711641406015 0.03237561834207858
0.026199319050767403 0.05453287501075571 0.03237559160358855
0.02612045856164297 0.05625162876710271 0.0323755650259529
0.026042138879069903 0.0579592242199472 0.03237478960891221
0.025964287459554272 0.05965661018478002 0.032374018827876605
0.025886833429460087 0.06134470661740743 0.03237399717936151
0.02580990642055637 0.06302193961735297 0.03237323333591918
0.022780238690013728 0.10122142373993331 0.0655408261298196
0.02272115977402614 0.10258724720657247 0.06544760323280513
0.022662233174729988 0.10394789278973326 0.06535659486234485
0.022603611432559335 0.10530149906463865 0.06526605732416219
0.0225453427694594 0.10664750045746146 0.06517541213593064
0.02248732342682714 0.10798719560636033 0.06508580664555308
0.022429601936878152 0.10932001319042345 0.06499666116091762
0.02237222581966769 0.11064539963690978 0.06490740112809817
0.022315092941143783 0.11196462450545658 0.06481916635369539
0.022258201822199886 0.11327772611467102 0.06473194958933393
0.02220160004652962 0.11458414940358791 0.06464517640175615
0.022145334215031155 0.11588335648600245 0.06455827741653686
0.022089401408950136 0.11717541065528869 0.0644712530146323
0.022033702118933067 0.11846153464909642 0.06438523062956986
0.02197833108697242 0.11974061311935646 0.06429907867224466
0.021923189824541434 0.12101385064191028 0.0642139197058541
0.021868372145540976 0.12228014791597808 0.06412862712292866
0.021813780566544153 0.12354069166456011 0.06404431865660792
0.02175946086986579 0.1247949575299987 0.06396043007148067
0.02170545791264028 0.12604243722616426 0.06387640200926864
0.021651675690519897 0.12728429125901158 0.06379334503009043
0.02159820575531266 0.12851945933485748 0.06371014479473808
0.021544953069846978 0.12974908485055048 0.06362790713194655
0.021492008303843256 0.1309721226822005 0.06354552253500467
0.021439277372675043 0.1321896994039814 0.06346409213993104
0.021386850076562824 0.1334007848221759 0.06338251123112948
0.02133463326908948 0.1346064889686522 0.06330187629012585
0.021282670818587226 0.13580631992473569 0.06322163413560411
0.021231005727019556 0.1369998007151102 0.06314123628032026
0.0211795462292294 0.13818801706863654 0.06306177229244853
0.02112838000503985 0.13936997510135438 0.06298214925885226
0.02107741619290427 0.1405467446752832 0.06290345218689075
0.021026741645379623 0.1417173460342882 0.06282459281377101
0.02097626639117008 0.14288283343390482 0.06274665162275539
0.020926032890386796 0.14404273868095546 0.06266908373441088
0.020876082779126278 0.14519660771620188 0.0625913488279089
0.020826327397182844 0.14634547185965052 0.06251452066604085
0.02077685157891283 0.14748838572648706 0.06243752244417544
0.020727567522098592 0.14862636565787116 0.06236142349100304
0.020678516721414037 0.14975895965291872 0.062285684705925826
0.020629739876102015 0.15088572929997815 0.06220977145368256
0.020581150447811586 0.15200766892217563 0.06213474647563527
0.020532831321741263 0.15312386620000012 0.06205954418846277
0.020484696786813486 0.15423530107374372 0.06198522298690229
0.020436787404322913 0.1553415371381662 0.06191124942758214
0.02038906022916892 0.15644307050916004 0.0618381477099047
0.020383518247478534 0.15707432107558703 0.06122979754822527
0.020434002926510726 0.1570857824235191 0.05990485827165232
0.020484780059353096 0.1570968401380318 0.0585728038839346
0.020535810176238223 0.15710795294488028 0.057234112876701215
0.020576261522810748 0.15723799919236614 0.056028453348185514
0.020576092946831756 0.1578148947590022 0.05534531318873431
0.020627748964067303 0.1578260049308885 0.053990368296448044
0.020679664997427072 0.1578371710271317 0.05262860314303652
0.020723548635953274 0.15793848070112076 0.05136804085117186
0.02083638815051641 0.15729522414053151 0.04920377203765813
0.02088923077983856 0.15730656167330812 0.04781773533367534
0.020942298471593564 0.157318427232308 0.04642522361937407
0.020995680346837443 0.15732988168487186 0.04502504129709867
0.021049290966323093 0.15734186740978678 0.043618284465257284
0.021103220384113674 0.1573534405872937 0.042203738878310804
0.021157382306076996 0.15736554832538188 0.04078251720324666
0.021211867734114737 0.1573772420702712 0.03935338621733292
0.021266589506434834 0.15738947370691694 0.03791747543102414
0.021321639587927713 0.15740128989988167 0.0364735323076571
0.021376929936113485 0.157413647359579 0.03502270348174752
0.02143255349434749 0.15742558792056596 0.03356371675834513
0.02148842132617554 0.15743807316794156 0.03209773618246148
0.02154462736922962 0.1574501400571742 0.030623469548662408
0.021601081779528183 0.15746275509804278 0.029142098604898692
0.02165839297495566 0.15746960299989804 0.02764534669755958
0.02172539892349797 0.1573789632637605 0.02601296645541068
0.021830648197072786 0.1568959372307439 0.02385488953822351
0.031033448270610685 -0.06456662985055345 0.012113353075183797
0.030922330786874182 -0.062060532040467964 0.01214403021963334
0.03080874712885024 -0.059525502423434296 0.01220719531927067
0.030683550394013374 -0.056830635212776925 0.012395219735846008
0.0305592699004825 -0.0541561915391684 0.012582703995755118
0.03045431418601736 -0.05176490400121919 0.01258288750909825
0.03034662743260459 -0.049340839164379924 0.012618168344027791
0.030239889828161375 -0.04693656224590048 0.012651257930304527
0.030133805972856663 -0.044547798612424694 0.01268508336827906
0.030027807156520158 -0.04216643813001586 0.012725422369751604
0.029921433692793473 -0.039785977701662034 0.012777007360639303
0.029813221828043177 -0.037385809219255994 0.01285502593111254
0.029707993331561718 -0.035033946546891626 0.01290960151268672
0.029608885291876795 -0.032774182147561115 0.012907738118429879
0.029520043214565632 -0.030664073534289127 0.012805461330760992
0.02944579797004633 -0.028763285970644925 0.012556275175900578
0.029385574067458665 -0.027062508862338797 0.012164710835678882
0.027721441570404782 0.0010206682014360924 0.023885020574792137
0.027516222318310635 0.00465254441466012 0.02512932644238014
0.027398181524607622 0.007076204837840716 0.025446247529142596
0.027309285296126255 0.00909391039311891 0.02545556309022151
0.027242566087632925 0.01080341406665164 0.025229975285122663
0.02718870203278219 0.01233375312442897 0.02486883334306722
0.027143939422937906 0.013737122367839583 0.024411863694466462
0.027107348492468004 0.015026941563075935 0.023868320527939524
0.027081457735567537 0.016169675372112058 0.02320950991137566
0.027059348509633287 0.017259781190325618 0.02251073362040401
0.027052342043167407 0.018144891876575975 0.021646154362071568
0.027046176301192486 0.01901827817330798 0.020772718303098348
0.02706102428887039 0.019609102881445684 0.019665410414957674
0.027079015994520336 0.02015866891522794 0.018521906863019855
0.027123870579192435 0.020350104306328387 0.017075760913895344
0.025680132041075953 0.04040455984981539 0.032379670933232185
0.025600996288012736 0.042208366581638235 0.03237886135062512
0.025522346764162405 0.04400109028859117 0.03237805674216743
0.025444179001984556 0.04578283280301676 0.03237725706215966
0.02536648858850324 0.04755369471352877 0.03237646226545626
0.02528927116447593 0.04931377538394943 0.03237567230746263
0.02521245629085718 0.0510640437030101 0.03237564524284542
0.025136106645670245 0.0528037115414659 0.03237561834203034
0.02506021801519897 0.054532874911110585 0.03237559160353426
0.024984786236460534 0.05625162866775085 0.032375565025892505
0.024909807196444273 0.05796006652855096 0.03237553860765785
0.024835341000189907 0.059657445589697766 0.03237476558953234
0.02476131869936314 0.06134470651892454 0.03237399717928313
0.02181986738763581 0.10019495908055137 0.06594747191390771
0.0217631519444675 0.10156596573589943 0.06585364321342346
0.02170663253252093 0.10293112874059779 0.06576145559856605
0.021650454690001906 0.1042885915829741 0.06566916956813834
0.021594518363553906 0.10563966939043279 0.06557793470516066
0.021538870326834093 0.10698378389024366 0.06548717005663207
0.02148355637401706 0.10832037480036655 0.0653962998263507
0.02142847802468231 0.10965072775560641 0.06530646603310503
0.02137372889356132 0.11097367186432472 0.0652165220373625
0.021319164242722382 0.11229107400139943 0.06512817325890263
0.021264830431598852 0.11360236297592208 0.06504084155294165
0.02121091328280522 0.11490521013024568 0.06495225620006456
0.021157222286854432 0.11620205455544885 0.0648646835794317
0.021103848753813062 0.11749176720493792 0.06477698976433793
0.021050697732389465 0.1187755678145207 0.06469029947753996
0.020997859634901483 0.1200523435972295 0.06460348379269942
0.020945240482925453 0.12132329618711452 0.06451766258775571
0.02089288439080916 0.12258789488123761 0.06443227043020977
0.020840834577892237 0.12384562526261739 0.06434674678213004
0.020788998497287527 0.12509766238468362 0.064262204326482
0.020737464373375793 0.1263429329803637 0.06417752645108582
0.02068614059528542 0.1275825947579946 0.06409382109303641
0.020635114534303584 0.12881558981842423 0.06400997649063073
0.02058429550135855 0.13004305881626682 0.06392709587387085
0.020533726161501217 0.13126449679573832 0.0638446224807932
0.02048344832961053 0.13247941418617087 0.06376200430008278
0.020433372673482678 0.1336889265919652 0.06368033757048036
0.020383584484439613 0.1348920134811821 0.06359852247799586
0.0203339953177795 0.13608977410624123 0.06351765064931308
0.02028468965349666 0.13728120247170872 0.06343662697763114
0.0202355799211522 0.13846738174842063 0.06335653851482675
0.020186707405601603 0.1396478313738169 0.06327683690661451
0.02013811258342966 0.1408220853313263 0.06319697841158645
0.02008970917152787 0.14199120316180347 0.06311804328604126
0.02004157967096438 0.14315421422886468 0.063038948020472
0.019993638640931635 0.1443121626434278 0.06296076838767778
0.019945967810274762 0.1454640915296183 0.0628824254482741
0.01989848256814235 0.1466110298196662 0.06280499052734884
0.019851222884052895 0.147752520076969 0.06272792342737177
0.01980422795845601 0.14888811862841964 0.06265068843172716
0.019757414402988806 0.1500188320959297 0.06257435025795433
0.019710862062219017 0.15114373708743706 0.06249784122865276
0.019664488347917414 0.1522638256520464 0.06242222170140094
0.019618372369078953 0.15337818743321094 0.06234642843772037
0.01957243232608235 0.1544878001409772 0.06227151746963222
0.019526667265841034 0.1555926902972716 0.062197483070013604
0.019481155208546846 0.15669196680987477 0.062123268607858995
0.01951524943120167 0.15686605282408406 0.06098999061682353
0.019563628298001127 0.1568770084600903 0.05966323255809031
0.019612287642622683 0.15688755714818242 0.05832934326045647
0.01965081924566474 0.15701742859656057 0.0571282636132982
0.019648368879426177 0.15761968863900902 0.056477054916312
0.019699267799483815 0.1576113518417926 0.055104858066514106
0.0197492948668211 0.15761594010584876 0.053740932379538864
0.01979904648558392 0.15762658745777267 0.05237726539301624
0.0198490494017253 0.1576372885900018 0.05100671047090172
0.019899305524035443 0.15764804391103587 0.04962921529421144
0.019940422048039388 0.15776498138912612 0.04837335767237477
0.02005073417452185 0.1571046754296735 0.046164815957811745
0.02010189198197137 0.15711559538794126 0.044762639807923166
0.020153269251991866 0.15712704484027246 0.04335387324444556
0.020204952290933772 0.15713807815051156 0.041937299633343916
0.020256858403026982 0.15714964421170335 0.04051403368390599
0.020309074803924684 0.1571607926349627 0.03908283973457255
0.02036151796561995 0.15717247710832577 0.037644849379106504
0.020414276027617036 0.157183742442259 0.036198807590481386
0.020467264617165665 0.15719554716854736 0.034745863128435084
0.020520572812483574 0.15720693124836296 0.03328474125486719
0.02057411538332075 0.15721885810675376 0.03181660818287568
0.020627982361794122 0.15723036280620262 0.030340169109792203
0.020682087647142133 0.15724241371529946 0.028856607995482786
0.020739206748161532 0.1572248135098377 0.027326545263543
0.020810735442661273 0.15705408835780946 0.025587685499489143
0.029698105797845712 -0.06661293149996367 0.012410841705519482
0.029591118628380726 -0.06408737531605341 0.012444514317097977
0.029480825767508097 -0.06151852223916887 0.01252062631564238
0.029360543313208885 -0.058806094098309836 0.012709811016435923
0.02924888213820695 -0.056230501540401656 0.012816816341973847
0.02914852735600398 -0.05383119506419887 0.012812272844335892
0.029045180530353418 -0.051393281493599785 0.012846835323066241
0.028942472653792066 -0.04897123147542254 0.012882126770477564
0.028840669907369037 -0.046568951186303 0.012915230205643391
0.028739310751145903 -0.04417949685833922 0.01295100001749977
0.02864000246936522 -0.041826670360032514 0.012972078977151136
0.028546350947648135 -0.03956366303256931 0.012939279686051242
0.028448722285297028 -0.037247635034286575 0.012956432475764224
0.028362363766900232 -0.03510373108418374 0.012858107502969174
0.02828114737443196 -0.03304076298895653 0.012709957598276755
0.028226682072070373 -0.03137550079266366 0.012274773949948636
0.02632252723316565 0.0038308174241231674 0.02448591215991114
0.02616862293843241 0.006848888768743122 0.02526730270347638
0.026059735693142537 0.009211798135008498 0.025548863109460695
0.025990934418525423 0.010994261469067457 0.02538182715584658
0.025927623213796647 0.01269409755626838 0.025157083854022266
0.025883590785140166 0.014115286672507943 0.02471598640840833
0.02584109040074597 0.015511991625835164 0.024260485253392472
0.025812374320368103 0.01671047753434196 0.023649083587572894
0.025787780213301876 0.017848835499695126 0.022992079845896518
0.02577271318396507 0.018851069427285427 0.022226281020607586
0.02576612685579382 0.019732807520531914 0.02136282892332425
0.0257672122043119 0.020506210593561502 0.020410245569706276
0.026782859359886883 0.007036996193193423 0.007569620972944335
0.02580772720255787 0.021516102429078587 0.01805414948405576
0.02451285315137852 0.040404559747761803 0.03237967093322641
0.02443731447083258 0.04220836647989229 0.032378861350613575
0.0243622399182157 0.044001090187151204 0.03237805674215016
0.024287625229057117 0.045782832701880605 0.03237725706213651
0.024213466190970256 0.04755369461269482 0.03237646226542734
0.02413975864285961 0.049313775283415906 0.032375672307427994
0.024066435347450666 0.05106404360277539 0.03237564524280506
0.023993556133768766 0.05280371144152818 0.0323756183419841
0.02392111697962991 0.05453287481146818 0.0323755916034823
0.023849113911277395 0.056251628568402046 0.032375565025834885
0.02377754300265523 0.05796006642949397 0.032375538607594456
0.02370646162675881 0.05965744549093055 0.03237476558946317
0.0236358039692653 0.061344706420445594 0.03237399717920825
0.02080246006459576 0.10054251367940653 0.06626137926031367
0.02074845539093047 0.10191093766127701 0.06616685063889033
0.02069463703578001 0.10327353696656111 0.06607396331180798
0.02064114358696866 0.10462845952838146 0.0659809820111289
0.020587879777349008 0.10597701716252039 0.06588905348649449
0.020534890150595064 0.10731863290881066 0.06579759817663428
0.02048221831877394 0.10865274774012695 0.06570604165037147
0.02042977051054573 0.1099806440799122 0.06561552313383351
0.020377590616612908 0.11130175724952274 0.06552546700458989
0.02032558653459933 0.11261733714825783 0.0654370037717345
0.020273936804329363 0.1139250301540694 0.0653478593634313
0.020222593476140183 0.11522550377594942 0.06525860232076913
0.020171465195169255 0.11651999311393646 0.06517035952504285
0.02012059479423943 0.11780795332647748 0.06508256180690025
0.020070024229136195 0.11908885634984673 0.06499464495144885
0.02001966354938953 0.12036390986669832 0.0649077285633346
0.019969598434966828 0.12163201165182602 0.06482068884356168
0.01991973985349984 0.12289435149988864 0.06473464059718542
0.01987017264951359 0.12414984300725757 0.0646484649360109
0.019820808694669723 0.12539965838349515 0.06456327190483185
0.01977173201011289 0.12664272679415406 0.06447794748391655
0.019722855357749938 0.12788020316011378 0.06439359699668251
0.019674219759597177 0.12911157643040772 0.06430966251659576
0.019625865417045696 0.1303363511422701 0.06422559088454016
0.01957770640232357 0.1315556568230551 0.06414248041143328
0.01952982472923441 0.13276846049176927 0.0640592290693332
0.019482135326998794 0.1339758751008675 0.06397693054308395
0.019434719426490377 0.13517688239380612 0.06389448752920585
0.019387492801088476 0.1363725790231399 0.06381298912382577
0.019340495141304568 0.1375624786383334 0.06373188584152967
0.01929376535761332 0.13874610962431633 0.0636506328259357
0.019247220466306177 0.13992454468452203 0.0635703123569148
0.019200939788760977 0.14109680137576158 0.06348983877062392
0.01915484115444863 0.14226393676421298 0.06341028984978886
0.019108963341440792 0.1434254813502315 0.06333112198349428
0.01906334437514577 0.1445809797961599 0.06325179609459497
0.01901790328261649 0.14573146618741756 0.06317338328503802
0.018972717541796125 0.14687599252050254 0.06309480928841765
0.01892770696344334 0.1480155778724364 0.06301714079854653
0.01888294830601133 0.14914928764493093 0.06293930804097869
0.018838362152576664 0.15027812614915403 0.06286237333629413
0.01879398605495804 0.15140164643072 0.06278580108898241
0.018749856848529423 0.1525194149405714 0.06270906010872707
0.018705896254136937 0.15363241428301946 0.0626332062186647
0.01866214131548774 0.15474020680994174 0.06255770718700221
0.018618552811106942 0.15584328997582206 0.06248308592302626
0.01859930405561343 0.1566474627287553 0.0620722874662854
0.018645340588930016 0.15665786028462875 0.06075027086296647
0.018691643663281264 0.15666784830966282 0.05942115988884661
0.018738139015702735 0.15667834832364105 0.058085968914291075
0.01874889859576572 0.15712226376093236 0.05725084657538032
0.01878898229040731 0.15721441842396552 0.05600073893943386
0.018823906723426435 0.15737087340514988 0.05482076920681578
0.0188678422798054 0.15742172165412321 0.053510312826421214
0.018916779398234832 0.15741560966220042 0.052125457122291385
0.01896459896320884 0.1574257875077815 0.050752979529404496
0.019012660906045902 0.15743601694082157 0.04937354540747663
0.019060967074199662 0.1574462983545319 0.04798710173241927
0.019109519333947382 0.1574566321461272 0.04659359493988752
0.01920640476880069 0.15690090179112404 0.04449973956498543
0.019255540087384032 0.15691181290697226 0.04308895816419933
0.01930496807287694 0.15692230426772202 0.04167035136105923
0.019354609641425182 0.1569333265564826 0.040245035912720994
0.01940454820742755 0.15694392754389797 0.03881177371151989
0.019454703890417657 0.15695506272616433 0.03737169844022725
0.01950516098927027 0.15696577505419534 0.03592355257397284
0.01955583881492424 0.15697702488631468 0.03446848700357347
0.01960682256497383 0.15698785030476117 0.033005224440091074
0.01965803072954235 0.15699921657977223 0.03153493327070628
0.01970954941949657 0.1570101568752192 0.03005631608763626
0.019761551665529755 0.15701872083870258 0.028566774941079065
0.01982020656176793 0.15695458880785526 0.02697461828683917
0.01990210783527775 0.15662961321013624 0.02503202175350322
0.028472562643271682 -0.0714421472521532 0.012531071500201663
0.02835605213728165 -0.06867112426387323 0.012708844261220598
0.028252361190676843 -0.06611138534773181 0.01275549722340602
0.028146252344532507 -0.0635199514387263 0.012836599889109845
0.028030952949063846 -0.060789824913968504 0.013026935520962901
0.027931317972819 -0.05831461955530959 0.013053180464313696
0.027835669217989994 -0.055908675840898425 0.01304290038399919
0.027736622836721476 -0.05345541356723793 0.01307771486546061
0.027638366237230608 -0.05102092086065957 0.01311130739604105
0.027540803324260732 -0.04860361554679632 0.013144662764923543
0.02744384058524491 -0.046201968198472165 0.013178751478410411
0.027352351988427913 -0.04389199352561113 0.01315857961484762
0.027262577047686087 -0.04161459116118321 0.013126039273954393
0.027183956301238685 -0.039516336356407666 0.01297382452738216
0.027106964903253587 -0.037448408842662206 0.012809084049598407
0.027053170740706494 -0.03574450898360676 0.012385276781586463
0.025204654233298547 0.0017800447311566714 0.02288015190055609
0.0249580185662079 0.00631275180296309 0.024845251756159148
0.024833678561891222 0.008987641219262765 0.02537145861568929
0.02474065563666831 0.01118386047702935 0.025532685714950265
0.024680350904359216 0.012883416195151987 0.025308525653324587
0.024625890213044666 0.014491638672178786 0.025018651652627844
0.024585426955061107 0.015887336693669485 0.024563953114205672
0.024547096038081914 0.017248660062135324 0.024086527978183003
0.0245236729910106 0.018385858473026206 0.02343090862877184
0.024500431991290653 0.019518850325727755 0.022774864735870592
0.024491848058635055 0.020433358434993 0.021941395132301922
0.024485602719735627 0.02131276834680046 0.021079900471278168
0.024493083630276802 0.02198944952128884 0.020050007398666858
0.024506615832397473 0.022577608958219697 0.01894485920631095
0.023345574261681018 0.04040455964570844 0.03237967093322086
0.023273632653652284 0.042208366378147066 0.032378861350602584
0.023202133072268805 0.04400109008571196 0.032378056742133565
0.023131071456129394 0.04578283260074589 0.032377257062114584
0.023073901115269756 0.04735792630443891 0.032207801438528805
0.02299018563400114 0.0493146531672089 0.03237643271174517
0.02292041440404369 0.051064043502542844 0.03237564524276654
0.022851005621866753 0.05280371134159295 0.03237561834194014
0.022782015944060253 0.05453287471182855 0.032375591603432785
0.022713441586093612 0.05625162846905607 0.03237556502577976
0.022645278808865466 0.05796006633044015 0.032375538607533894
0.022577582253326924 0.059657445392167 0.03237476558939717
0.01983921472719907 0.0995149580403552 0.06666908063078175
0.019787594980361783 0.1008885762488021 0.06657393902288711
0.019736243155011764 0.10225506497963843 0.06647929122749424
0.01968511282463713 0.10361510903414589 0.06638570788350429
0.019634246733829363 0.10496812443373588 0.0662926081745212
0.019583686729525145 0.1063135453783825 0.06619941643258881
0.019533342784222085 0.10765267053287936 0.06610727407801031
0.019483257013702317 0.10898492836021673 0.06601560424953029
0.019433470656377207 0.11030976504991175 0.06592383516716804
0.01938380909480078 0.11162965428431504 0.06583423460957938
0.019334486262455413 0.11294161969539085 0.06574395951097067
0.01928541379994114 0.11424692538034509 0.0656541426617378
0.019236589805713928 0.11554562191940199 0.06556478058150489
0.019188054532038826 0.11683717487329687 0.06547530786060907
0.019139721634343763 0.1181228071123081 0.06538684623919405
0.0190916733285644 0.11940140290042078 0.06529826962112928
0.01904382415494327 0.12067416697052935 0.06521069493257786
0.018996255524826956 0.12193999961673851 0.06512300100640689
0.01894888284965602 0.12320008774275026 0.06503629999423638
0.018901745861079313 0.12445390672996248 0.06495003033331931
0.018854883488698293 0.12570094801345488 0.064863635285906
0.01880821242601348 0.12694237231395145 0.06477821991234639
0.01876181212324974 0.12817711889207917 0.06469267518541261
0.0187156001122694 0.12940633138126612 0.0646081014875663
0.01866965507855266 0.13062896419660014 0.06452339457400053
0.018623895379654764 0.13184614416995033 0.06443965018717734
0.01857835944752581 0.1330573720843072 0.06435631531371033
0.018533084952065283 0.1342621638919615 0.06427284162447783
0.01848799146634493 0.135461621742618 0.0641903179697133
0.018443155811077538 0.13665473690363464 0.06410765188609624
0.018398498354456467 0.13784259541145624 0.06402592767673876
0.018354095189727308 0.13902420287120948 0.06394405752056398
0.018309867468402415 0.14020062947134448 0.06386312120997384
0.018265852384451737 0.14137140006539142 0.06378257402370452
0.018222086407184826 0.14253605385213022 0.06370187578998193
0.01817849184163758 0.14369563773111946 0.06362209960026122
0.018135143006481568 0.14484919218687625 0.06354216907207655
0.018091962961572484 0.14599774891035366 0.06346315287544407
0.018049025333026908 0.1471403619613661 0.0633839791359988
0.01800625392451067 0.1482780480688328 0.0633057121373225
0.017963684749956684 0.14941035491067545 0.06322781520462406
0.017921353133629324 0.15053684374140075 0.06314975608346068
0.01787918397489128 0.1516585092960997 0.06307259254034481
0.01783724920979818 0.15277443867116833 0.06299526381130366
0.017795474454922612 0.15388561223434907 0.0629188233622423
0.017753858843294897 0.15499205654879086 0.06284326543265639
0.01771247332076531 0.15609287801358127 0.06276753583180072
0.01772993956972383 0.1564389326895943 0.06183340793607456
0.017773864800782534 0.1564488232225187 0.06050957869768414
0.01781804455096705 0.1564583008996991 0.059178639022613944
0.017862407965804083 0.1564682889269549 0.0578416050903538
0.01787223555760216 0.15691804538503337 0.05701205584751495
0.017915877729392987 0.1569417280503686 0.0556802446998238
0.017959401352460515 0.15696970813115343 0.05434685311842247
0.017999613953441858 0.15704205474612012 0.053059487330106014
0.018033268465849777 0.15719911024423858 0.05186705862882446
0.01807788860843216 0.1572213636570985 0.0505077389148072
0.018124384039916935 0.15722312231401 0.04911682926842609
0.018170476900934637 0.15723287203476136 0.04772842095991431
0.018216766823697314 0.15724314215998178 0.046333506242052014
0.018263331370348804 0.1572529928772081 0.044930888368992505
0.018308983631119033 0.1572770849373468 0.04353854817141262
0.018403262807303134 0.15670611775870538 0.04140289260132807
0.01845067001927381 0.15671611632787127 0.039974928198382165
0.01849828294598987 0.15672664559862598 0.03854018665019593
0.018546181606443154 0.15673674908036386 0.03709741770140729
0.01859428939668803 0.15674738651863424 0.03564776572120015
0.018642687187353686 0.15675759655938487 0.03418996081193476
0.018691297596440493 0.15676834385370442 0.032725164736980894
0.018740162169271476 0.15677914734130316 0.03125270984843792
0.018789323306125323 0.15678952100877397 0.029771908863876206
0.018840245909484226 0.15678190241360498 0.028259935448117002
0.018902274652065593 0.15664454778357184 0.026570836531401243
0.02711759052027008 -0.07351308059322448 0.012840447251443288
0.02700704697790619 -0.07073836695192193 0.01300937416933462
0.02690699109935292 -0.0681469869887768 0.013067037082028277
0.02680481732187635 -0.0655269362974889 0.01315712244183731
0.02669646057882218 -0.06281054301162187 0.01332679568068923
0.026606702319817162 -0.06041144773229762 0.013289837377819191
0.026515682175484875 -0.057997437472625424 0.013274780245962459
0.02642107738592931 -0.05553008584025776 0.013308861594828358
0.026327228767594326 -0.05308166108879436 0.01334172364236802
0.02623396159001355 -0.05064919802141532 0.013375326471018856
0.026143575749882547 -0.048270579172211725 0.013382503489179298
0.02605732719990736 -0.04596618915100026 0.013348058525355921
0.025977985327910205 -0.04378110744428676 0.013238640263632973
0.025906480266793125 -0.041729883137927526 0.013042342434642917
0.02585516255308297 -0.04001379714629194 0.012610717328904508
0.02376775223847675 0.005397046361384827 0.02412440166350971
0.023606217257347014 0.008762151038569588 0.02519299893571675
0.023508215394731167 0.011111203553697324 0.02547487477855509
0.023434419356424253 0.013071497006308108 0.02545897727665075
0.023377532144453282 0.014760436160825952 0.025234820736042607
0.023332325758147324 0.016261915849708597 0.02486680173252981
0.02329415521566867 0.017649978711502645 0.024412726980900967
0.02326334348715053 0.01892028393084927 0.02386761484979072
0.023241199036130904 0.020053143490315173 0.023213787953836384
0.02322253929054682 0.021130200353858597 0.022516898181434042
0.02321656406393464 0.022008752913665885 0.021657750580955037
0.023211370704804894 0.022874769750994894 0.020788959033245513
0.023223968387479407 0.023464991795091483 0.019689461819339726
0.023238921524605886 0.02401967843455699 0.01855825396040911
0.023277041523487477 0.024218271735683417 0.01712301022757201
0.022347740044927056 0.03929901339112618 0.028369533765815358
0.022327904186254344 0.040359474493932845 0.027729401442094292
0.022308043560325914 0.041418972734578174 0.027091195347520025
0.021840676136742287 0.04931465306667926 0.032376432711713754
0.02177439346063627 0.0510640434023123 0.03237564524272979
0.021708455109964244 0.052803711241660056 0.032375618341898116
0.021642914908490032 0.05453287461219153 0.0323755916033856
0.021577769260909187 0.05625162836971326 0.032375565025727415
0.021513014615075012 0.05796006623138972 0.03237553860747627
0.02144870287989429 0.05965744529340694 0.03237476558933433
0.01882404675733379 0.09986404249613562 0.06698272497353835
0.01877517098828466 0.10123442926577686 0.06688630951996177
0.018726463880022328 0.10259898338199563 0.0667915421366233
0.01867805085783965 0.10395584800245605 0.06669669210562518
0.018629845701822224 0.10530633825632213 0.06660290303962668
0.018581888724652044 0.1066498756624325 0.06650959683604218
0.018534219395765397 0.10798589970809502 0.06641620049157648
0.018486752849207443 0.10931569607233071 0.06632385014509351
0.018439446888117002 0.1106399086550705 0.06623310517829567
0.018392463912772952 0.11195616032161004 0.0661416923676591
0.018345719749734937 0.1132657215414456 0.06605074420405793
0.01829925292134903 0.11456805142167636 0.06595969408059238
0.018252980748971876 0.11586438822483763 0.06586966587158616
0.01820698192950612 0.11715360253246726 0.06577953118097174
0.018161174634951732 0.11843691421603453 0.06569040905481865
0.018115597256159695 0.11971378470756128 0.06560173424995436
0.018070287401877227 0.1209836919755708 0.0655129464066278
0.018025164495689885 0.12224782888810659 0.0654251574000651
0.017980305322921077 0.1235051061468812 0.06533725112459104
0.01793563012544453 0.12475669900025155 0.0652503347251921
0.01789121494331476 0.12600153374996365 0.06516329693749523
0.017846980824214587 0.12724076832168085 0.06507724021467115
0.017803003073641365 0.12847334436931768 0.06499105809224531
0.017759203532862256 0.12970040278649714 0.06490584836955565
0.017715618976689215 0.1309214383398915 0.0648210568881395
0.017672285447908234 0.13213596116492127 0.06473613419008772
0.017629125955947737 0.13334508713623658 0.06465217116193711
0.0175862140153056 0.13454779523775162 0.06456807316354635
