# .PCD v0.7 - Point Cloud Data file format
VERSION 0.7
FIELDS x y z
SIZE 4 4 4
TYPE F F F
COUNT 1 1 1
WIDTH 765
HEIGHT 1
VIEWPOINT 0 0 0 1 0 0 0
POINTS 765
DATA ascii
-0.008869443961543964 -0.01030150617459552 0.008643988159865668
-0.008864302579462928 -0.011331542966718011 0.00785521661788885
-0.00886011675956808 -0.01232065541763322 0.007033666683506912
-0.008856268269384375 -0.013294916445250715 0.006201027405234483
-0.008850399351515905 -0.014352633021484762 0.005441358148450703
-0.008844512629492183 -0.015410011759685427 0.004683610963817142
-0.008840779902252197 -0.016376978800036524 0.0038497848157052483
-0.00883740781874642 -0.0173283367933037 0.00300378254610284
-0.008827052212070781 -0.018567413967447044 0.0024108816559489377
-0.008809508342914062 -0.020100721056337312 0.0020807959322483027
-0.008782717555963233 -0.022010898332943007 0.0020907294484378003
-0.008751128461511307 -0.02411294797054009 0.002281498237584334
-0.008723148195095355 -0.02606151898219161 0.002347189107676728
-0.008696681473026801 -0.027943154417757354 0.0023634809425193692
-0.008668482610288035 -0.02989049211507011 0.002449297191816191
-0.008639758168083227 -0.031854013488041955 0.002560680786121705
-0.008615808381966177 -0.03361862914974928 0.00250162960209549
-0.008586635770779668 -0.035590172064482006 0.002641701386124462
-0.00856226000149559 -0.03736270819858095 0.002609565447177109
-0.008539190333660759 -0.03907816008661852 0.002533993822740499
-0.0085137791029147 -0.04088347430796918 0.0025511634152333706
-0.00849019174264604 -0.04261099422001696 0.002505390879869396
-0.008466148781677788 -0.04435240754259934 0.0024819429539633675
-0.008443406953121619 -0.04603747580018008 0.0024146024911049224
-0.007592025432969134 -0.08071411073135765 0.03374767701639053
-0.007562607838657938 -0.08257994485679815 0.034034635145851255
-0.007556348372737042 -0.08352249199839062 0.0334455498800626
-0.007704366214141502 -0.07836319587922991 0.026961937781760204
-0.007738578663332605 -0.0777209182908265 0.02480759620684836
-0.007778473644065861 -0.07686125930465881 0.022427357898964828
-0.007831114634722266 -0.07550841421176063 0.01954709877773314
-0.007899930741498003 -0.07353155431770603 0.016030085704969332
-0.007921422800773318 0.0443771994742278 0.04204167781152285
-0.007887957818860862 0.041726553453537985 0.04221474574105011
-0.007851880602840302 0.03894269463930877 0.042489147381284065
-0.007812102300576575 0.035968063646933834 0.04290469912796413
-0.007762919643673686 0.03249857479094154 0.043666859213344955
-0.007705395707394808 0.028594039231786328 0.04474106131279959
-0.007666052777032484 0.025671096436679808 0.04517486428377382
-0.007638198945968734 0.023367860484957648 0.04520327778787808
-0.007614039349536853 0.021266748421978066 0.04510475182006679
-0.007592780063093856 0.019324502319056358 0.044906781742443946
-0.007578753374194239 0.017769296873123785 0.04444994564452753
-0.007593747818127782 0.017748728902323374 0.042932491898782954
-0.007621876099526341 0.018416698327549996 0.040927917214919396
-0.007640892813405335 0.01859971708564806 0.039252606069594576
-0.007654860079705107 0.01851379226768729 0.03775953535973753
-0.00769383951777187 0.01973420983468388 0.03533293300084189
-0.00753213167993781 0.004813728022354802 0.03365204778763825
-0.007524478300058449 0.003613542083142185 0.032983740547197216
-0.007521714803488095 0.0026657325797860842 0.03212933614744562
-0.007528411145138992 0.002202570111538682 0.030910630318110532
-0.007537285931221178 0.0018492093389140263 0.02960588135928327
-0.007545052263853922 0.0014374655553074933 0.02834191886727838
-0.007555991258275058 0.0011853814907886173 0.02695234116105999
-0.007565258700293277 0.0008461374590349457 0.02562532057099881
-0.007572710913276423 0.00041299579052267443 0.02436713280885283
-0.007579564148945836 -5.200694520712812e-05 0.023130612471688905
-0.00758594682399393 -0.0005422035284013416 0.02191091926519606
-0.007591504764623107 -0.0010752620651622302 0.020722260942063975
-0.007594077792535227 -0.0017593698691943938 0.019650785885755584
-0.007598105771440191 -0.0023711386106305965 0.01852065705121131
-0.007602578968524274 -0.002961513482627409 0.017371695701605017
-0.007606947065230851 -0.0035580896093809766 0.01622580844192656
-0.007608867968182158 -0.004277415044245947 0.015177292329305092
-0.007613375960967837 -0.004868652251729666 0.01402383880768071
-0.0076136634161331155 -0.005670035759898828 0.013040166075964532
-0.00761487981261099 -0.00642553972134241 0.012018679190924919
-0.007614924052598185 -0.0072391481708931615 0.011044653381586944
-0.007613176966572811 -0.008140972978599392 0.010143851149487737
-0.007612580045065723 -0.00898591129359233 0.009196325951027817
-0.007611032906517577 -0.009877307855560569 0.008288043583895288
-0.007606748407092258 -0.010902283837981974 0.007493116411906586
-0.007603372795474309 -0.011881976650516046 0.0066616610061709935
-0.0075981938632768775 -0.012948777741041084 0.0059059439915035705
-0.007594055794449335 -0.013963884968054618 0.005108198389134511
-0.007592098386638787 -0.014872362714179965 0.004220408460865133
-0.007587988916502509 -0.015884546571387215 0.003423299328897733
-0.007582458052832422 -0.016964470435922474 0.0026869837238360783
-0.007572120321705741 -0.01827475507011289 0.002154736948927982
-0.007549832816920659 -0.020157162685205843 0.0021304555482430376
-0.007526725138832269 -0.022074126772262836 0.0021466529869804685
-0.00750075262895063 -0.024123217375248418 0.002290628937001715
-0.007476365765470362 -0.02609104226812331 0.0023735766127866986
-0.007450082637922795 -0.028143968878700798 0.0025439080477677734
-0.007427454356067961 -0.030017560117066078 0.002564063520896276
-0.007407474019971227 -0.031760737699428 0.002475993722392711
-0.007382774010105672 -0.033722934972580665 0.0025968269726655002
-0.007361213549069091 -0.035531635626265934 0.0025879970469917524
-0.007339511504248739 -0.03734238506308929 0.002590822454205499
-0.00731793704554107 -0.039142489121407 0.002593631250864925
-0.007296773384962766 -0.04091871063173602 0.002584000502798167
-0.007278883315290529 -0.04253726850654632 0.0024363265581842652
-0.007254550189900248 -0.04445269035503108 0.0025763752589564315
-0.007235428168058845 -0.046120254811280015 0.0024929584916702496
-0.0065127855292341505 -0.08046626224622072 0.03351184927483414
-0.006482075004660131 -0.08258737386519205 0.03404174064766824
-0.006471801231752621 -0.08375688067141712 0.03367089830487757
-0.006592665200388232 -0.07887423795268778 0.027455824461019795
-0.006619199677595278 -0.0783592115086118 0.025427668629452338
-0.006651428996745769 -0.0775883630381739 0.023137375155405593
-0.006692181059645849 -0.07643396842059058 0.02045559593963381
-0.006744939287906637 -0.07473955431937152 0.01722197716844076
-0.006822919163693485 -0.07190637134472738 0.012834263638894672
-0.0066071152925018355 0.04476111816132333 0.04179074514342351
-0.0065782466468413325 0.042046309882142474 0.04200457614561415
-0.00654462562200273 0.03903244919234394 0.04242982264575035
-0.006508824469780089 0.035886919563686115 0.042958632927178775
-0.006463529852379 0.03214081419846998 0.043905980177321335
-0.006404108646117678 0.02750079699842145 0.04547584373247343
-0.006370808850466125 0.02454716247702038 0.04593448466583566
-0.00634492221840722 0.022075390366111614 0.046081665166783525
-0.006321366254962387 0.019758778242895847 0.04613529082838874
-0.006302927085688114 0.017773593733848403 0.045972544108196456
-0.006288158899667146 0.016026111858169267 0.0456544728084925
-0.006279446678731212 0.014665961839767039 0.0450744414594883
-0.006278381903214642 0.013791394662685919 0.04415939161714999
-0.006286512210679938 0.013497077558139448 0.04283723220302388
-0.0063091890594842125 0.014116317431396685 0.040865792904846765
-0.006367781886518573 0.01698587864544071 0.03728495604300314
-0.006280475703920462 0.005042304456822466 0.03348246327737808
-0.006275189742636819 0.0039089672658991215 0.03276336885850867
-0.0062725410920888925 0.002939267976581894 0.03192418570911826
-0.006276523923680319 0.0023774450179542272 0.030778763918822727
-0.0062875797467307655 0.0022479942085274485 0.0293035451170906
-0.006294391549580694 0.001856194857984994 0.028022745264144833
-0.006301908872011514 0.0015056932680259094 0.026706866979610666
-0.006310501280974141 0.0012187199513589708 0.025338247851414863
-0.006317088847436437 0.000807722007931666 0.02406135967525208
-0.006322189499060953 0.0003048756511264683 0.02285266678774378
-0.006326693685820179 -0.00023537034976478521 0.021670668113473734
-0.00633144283954676 -0.0007619845871211228 0.02047564659080464
-0.006335813217316966 -0.001312639771313795 0.01929723017665791
-0.006336934327735027 -0.002059757419683894 0.018272900025455896
-0.0063413307001575275 -0.00261068286634214 0.017091055694350932
-0.006346359967425877 -0.003124853173238129 0.015877396420042655
-0.006347613919960078 -0.0038658241259654225 0.01484451969425521
-0.006348019716622663 -0.004657670598636421 0.013852349195321967
-0.006351027917690905 -0.005294843397520899 0.01273357740722858
-0.00635184043620868 -0.006063095605160496 0.011720930500237703
-0.006350455586421402 -0.006961680233980361 0.010815500112943688
-0.006350547891012771 -0.007772624733666633 0.009838025373817672
-0.006349754159739694 -0.008635834325833813 0.008904126719480154
-0.006346489028337418 -0.009644237783070053 0.008092474614379341
-0.0063440377767661794 -0.010604024002671686 0.007241520253380873
-0.00634232486836812 -0.01151993144305058 0.00635464165003824
-0.0063395640611051615 -0.012496644535159307 0.005520500213532065
-0.006335702966424547 -0.013536814328077684 0.004742195909198499
-0.006332911202145948 -0.014513767651061493 0.00391146690843186
-0.006330121897109878 -0.015489860383791076 0.0030814696900968164
-0.006325795999730188 -0.01655425429309182 0.0023298306419768933
-0.006311266996429123 -0.01820731379024393 0.002095710119296268
-0.006290929456726268 -0.020191646150204412 0.0021607954881832647
-0.006269031025982124 -0.02226057345925203 0.0023115591367788846
-0.0062490000974033625 -0.0242166419586341 0.002373694296028961
-0.006226912831395971 -0.026285366801394983 0.0025472611960867253
-0.00620917863064155 -0.028099587252639002 0.0025040321928172515
-0.006188896497010319 -0.030054562728677015 0.0025974838457165084
-0.0061693910157762715 -0.031960128849888914 0.002657025170284988
-0.006151081731663927 -0.03379276537401632 0.002660559470258339
-0.006133604014652437 -0.03557358874268718 0.002626486993777488
-0.006116293835346503 -0.03734044940173359 0.002589037292304641
-0.00609663002757985 -0.039235579575621626 0.002679932487787695
-0.006080119848668741 -0.0409482273696673 0.0026115074503018643
-0.006060956623354719 -0.04280555229751409 0.002687647802429305
-0.006044036777624651 -0.044532311953275006 0.0026513517266790187
-0.006028358765323115 -0.04618533333187064 0.002554559766298037
-0.006012977030219341 -0.04781780714200634 0.0024468563688694878
-0.005401154889014492 -0.08261931441531062 0.03407229030179032
-0.005389681549458712 -0.08395032580931483 0.033856882365244034
-0.005393380733562634 -0.08443841867966123 0.03283321877896844
-0.0055057123122867 -0.07892741246646717 0.025979649654232384
-0.005530102870172204 -0.07829119462326661 0.023823690643534068
-0.005560974510560072 -0.07730494726887183 0.021310523510801538
-0.005603582284108998 -0.07568294656717706 0.01815278939138304
-0.005657142694050776 -0.07347259049249577 0.014387613446767367
-0.0052905886044024575 0.045157392806729535 0.04153173651108988
-0.005264943720237437 0.04223583265594433 0.0418800065634804
-0.005236312301044039 0.03908176723812734 0.04239722507911775
-0.005204671470033384 0.03569479589080665 0.043086331203907535
-0.005164558842515353 0.03163779707757702 0.04424218808108615
-0.005107669731456952 0.026249410020566744 0.046316917305625094
-0.005079788560872884 0.023199017950169376 0.04684563967788952
-0.005056917407764474 0.020557423422266297 0.04711330449494061
-0.0050356148031399425 0.018048109330666084 0.04730435310085973
-0.005016822864182895 0.01574520467022056 0.047366424281236275
-0.005002835017074086 0.013829425923482463 0.047172365548695416
-0.00499245939095012 0.012204103030718283 0.04678497530377684
-0.004978933112560419 0.010333200783061047 0.04657546325474837
-0.0049804087565895015 0.009649446364841607 0.04554020960382554
-0.004989337997341212 0.00955168582724547 0.044090125479538556
-0.005045413224822707 0.013153046659884982 0.04000725398941535
-0.0050371097242895135 0.0068349055514900225 0.033717708685955305
-0.005026721713766397 0.005223126263969369 0.03334830868842947
-0.005022272504822866 0.004072422318415758 0.03264143996398583
-0.00502237353578375 0.003273129586249479 0.03167379085577826
-0.0050260856300373 0.002750968683235544 0.03049710417815993
-0.005034497821492864 0.0025876116794501525 0.029046066266297466
-0.005040872721622873 0.002265835142194139 0.027710499704391378
-0.005047919822975046 0.001993279961737149 0.02633319996818617
-0.005054051063312404 0.0016487524048963698 0.02500691025909718
-0.005058454288821404 0.0011710103305953568 0.023779939784902338
-0.0050635986469902815 0.0007480235505401556 0.022507536351973667
-0.005066960581598531 0.0001885799080640349 0.021338713993750036
-0.005070341693684181 -0.00037049694122626153 0.020167464616083375
-0.005070694765430297 -0.001158695924514841 0.019175394360861242
-0.0050766307815237575 -0.0015274655334511222 0.01784937073595122
-0.0050782091809991265 -0.0022249055400348494 0.016782460758140216
-0.005081605326845673 -0.002786838426933669 0.015605562402029205
-0.005082565930650113 -0.0035317129201752895 0.014574389666083154
-0.00508527235136041 -0.004146825015708344 0.013437124886918339
-0.005086071518166708 -0.004904599352877681 0.012414689247109811
-0.0050855387124635835 -0.005761440329920486 0.011473119984818814
-0.005085079997001984 -0.006612625731992949 0.01052722543531781
-0.005084991222958231 -0.007436339217337884 0.009558820082920694
-0.005084325516127565 -0.008302544675207135 0.008625939381365688
-0.005083172037066897 -0.009204407080318666 0.0077234129138385454
-0.005079611386898927 -0.010282535951605831 0.0069703300055355966
-0.005077560001235632 -0.01124901380188087 0.006124899733720046
-0.0050760999523956915 -0.012171630358182028 0.005243425469543539
-0.005073344372038782 -0.013188218649351324 0.0044434470115554126
-0.005072828954086047 -0.014040979102740103 0.003504143877208654
-0.0050692239583969186 -0.015117803370474081 0.0027592387165476517
-0.005063730692127583 -0.01633020886817682 0.0021347663682195206
-0.0050498743651137545 -0.01814511926350887 0.0020412754208334327
-0.005031091912124708 -0.020310720436123808 0.0022655618358621843
-0.0050153831402019846 -0.022249185021068207 0.0023014864263251056
-0.0049982993154169065 -0.02428129202912943 0.0024311757545724677
-0.004982780133097684 -0.026195861371814066 0.00246726247961937
-0.004965099042458268 -0.02825991391175664 0.002648081953291914
-0.004950401942747247 -0.03010555361479944 0.00264353821601343
-0.004934161162394993 -0.03205627148221907 0.00274431510213341
-0.004919106334501083 -0.033917603662508344 0.0027744963194993866
-0.004905560964678075 -0.035667214970123984 0.0027123845103196875
-0.004889886218870818 -0.037562908450865906 0.0027941999452857913
-0.004876990977195693 -0.039257645178267686 0.002700388815107868
-0.004864190646064999 -0.04094156274502542 0.0026052966189903937
-0.004849222733467187 -0.04277345609543659 0.002657580919101954
-0.0048348816271657265 -0.044556659316129454 0.0026742786624030512
-0.004822061599607109 -0.04622901480400782 0.0025959072698499286
-0.004807404344214518 -0.04802527456242717 0.0026442615423460936
-0.004321639802307855 -0.08256954362776692 0.03402468685290794
-0.004310150154957776 -0.08406096430830107 0.03396325359534019
-0.004311617589390418 -0.08465204339170412 0.033039672229904005
-0.004397100603657422 -0.07944309487569662 0.02648061133120999
-0.004416156172757119 -0.07883714647750562 0.02435681297509129
-0.0044387008139214895 -0.07799755561003202 0.021990367766545615
-0.004470641365416689 -0.07652103936886478 0.018979706323958623
-0.004508004747439596 -0.07468387802516352 0.015588948048524065
-0.004580251296182765 -0.0704783928857674 0.009810865302368743
-0.003972439042747428 0.045642726640235276 0.041214518001405354
-0.003949540675746706 0.04232553068825312 0.041821049815545686
-0.003929035375787739 0.03927535707939139 0.04226926871649728
-0.0039013193158246675 0.03546049405201118 0.04324206391815422
-0.003864454384730785 0.03067809652883413 0.044883635253226195
-0.0038179091739704127 0.02487727042286092 0.04723915029568204
-0.0037960491918401875 0.02172843268402397 0.04783954731109463
-0.003776721984467418 0.018858474880022125 0.04826794237411225
-0.0037564598440650143 0.015897513430237098 0.04877405919801758
-0.0037396973873583903 0.013316136211006024 0.04903564564757501
-0.0037273611806876916 0.01121009394385164 0.04898230338882187
-0.003710783301690615 0.008661617318008685 0.04924634379583903
-0.003690202243652309 0.0056985553805379285 0.049813464274106156
-0.0036975934169266203 0.005684875726936545 0.04832533746556178
-0.0037089562440922328 0.006084695349387159 0.046539113985804514
-0.0037175506601294078 0.0061898046142565555 0.044952949389741426
-0.003778093637102448 0.0068618751932085775 0.033697807755840026
-0.003771918181211468 0.00541641225004319 0.03320490672590948
-0.0037690222520696893 0.00431062430388901 0.032463753778611104
-0.0037695316998763045 0.00355530965720674 0.031462156946886644
-0.0037739490676310106 0.003199709095512704 0.03015872639946765
-0.0037789650447564885 0.0029033483718738373 0.02880669247761225
-0.0037839179058225913 0.00259840599259753 0.02745699980375943
-0.003789694415855578 0.0023751031217268403 0.026040585914262615
-0.0037933356554976784 0.0019326335909257142 0.024788181398264664
-0.003797203896890639 0.0015115916272462337 0.023516109804197438
-0.0037992290736629766 0.0009026441384180628 0.02238711544747668
-0.0038032197010418995 0.0004910230913299785 0.021101900219460457
-0.0038061021264224823 -3.3820691247021806e-05 0.019902430578232266
-0.003808280645287714 -0.000630579326854841 0.018757426914616238
-0.0038101182885642982 -0.0012624259910822833 0.017638486422337896
-0.00381214618051377 -0.0018760386780911076 0.016503391617301633
-0.003813832191623553 -0.002524629064280637 0.015394691647454162
-0.003814586942697215 -0.003266652172572715 0.014360087164471846
-0.0038162417803216816 -0.003919584771718498 0.013252420004845444
-0.0038168196455985203 -0.004679981399771438 0.012231142549142426
-0.003817275393554795 -0.005452704372425732 0.01121949267233685
-0.0038168418747464403 -0.006313390144125519 0.010280094852169519
-0.0038169196786030954 -0.0071235339521542596 0.009299109566651143
-0.003815941804081875 -0.008037450456635009 0.008404672819756487
-0.0038144426291955263 -0.009002063343234279 0.007553626395446322
-0.003813077739492889 -0.009952895410039353 0.0066922627496271425
-0.00381179142111249 -0.010895472048959465 0.005825091424951578
-0.0038101847430469303 -0.011868703995197571 0.004985180597729344
-0.0038079487306930237 -0.01290241661965047 0.00419851270362237
-0.0038069201615166816 -0.013818070343596611 0.003312100580511068
-0.003804964096434466 -0.014823035332882095 0.0025039461449129496
-0.003799118954897659 -0.016202667424072725 0.0020237229082712416
-0.0037861039055829 -0.018270540720640882 0.002151048411450973
-0.003772699868971033 -0.02037022827540952 0.0023179192271502447
-0.0037598217573950273 -0.02241372983354195 0.00244702106645478
-0.003747791954098885 -0.02437053240660436 0.002510520866169874
-0.0037352959241164275 -0.026366696417522817 0.0026199524834362165
-0.003723707911268356 -0.0282710003363274 0.0026580428469619166
-0.003711245603038799 -0.03025344379039091 0.002777110888071199
-0.0037008611923609815 -0.03203347953870983 0.00272362181396979
-0.003690659430837861 -0.03379178204108402 0.002659662006367969
-0.0036794805677425645 -0.035637962194850104 0.0026855465097210818
-0.0036673633579741 -0.03756774133734808 0.0027986570703886215
-0.0036584374630506855 -0.039192399550444845 0.002639901642363718
-0.0036468336120340098 -0.04106434056650027 0.0027197145163131986
-0.0036360796546705907 -0.042851797938276204 0.002730969510145287
-0.00362517836803869 -0.04464839867212467 0.0027606659369034947
-0.003615678261596291 -0.04630984210897304 0.002672415846956544
-0.003606644582035702 -0.04792387814147897 0.0025477828854726936
-0.0032425849587911382 -0.08244392909235926 0.03390454237840257
-0.00323193509807514 -0.08412362312900279 0.034023495698184025
-0.00323207854882958 -0.08480286964073941 0.033185435326819224
-0.003293359221103041 -0.07985423089295773 0.02688001101013404
-0.0033064106418096793 -0.07936123076993828 0.024868581618690266
-0.0033226205185577194 -0.078584427390203 0.022566424081344294
-0.003345330461887579 -0.07722038915408491 0.019669730361901727
-0.003370847779712323 -0.07561005774367774 0.016507517515548853
-0.0034066627737206734 -0.0730737473609156 0.012398239969745595
-0.0026679573078653915 0.04968319715815844 0.040155964178079206
-0.00265246484547052 0.04631805029736158 0.04077312045341058
-0.002632812918842047 0.04229092839334814 0.041843793221684744
-0.002618532743102834 0.03914248219614069 0.04235709453748748
-0.0025982037878208384 0.035029963642162265 0.043528223299728885
-0.0025645529579320456 0.02879129795963964 0.04614473863405988
-0.0025355018710991745 0.02331140677581367 0.048291587755873666
-0.002519593333993858 0.019952159904723654 0.049040056465268655
-0.002503603399594371 0.01659014662209085 0.04980954158319911
-0.0024876451583422344 0.013243459982121952 0.05058782557509445
-0.002473694460510217 0.010226174510087782 0.05115902346872092
-0.0024592832018415795 0.007144788066738628 0.051791397843398035
-0.0024497342816347167 0.004842515745810072 0.0518999088459588
-0.0024432682311746777 0.003033499209049273 0.0516754092236007
-0.002445572635001462 0.0026116214989635456 0.050484311729934894
-0.002448409521359783 0.0022720567346318776 0.04923225900760719
-0.0024526359080370057 0.0021488807897213635 0.04782304614081134
-0.002458529000548094 0.00228419823428333 0.04622405040343014
-0.0024652361395263024 0.0025430453199027925 0.04452911672725962
-0.0025186855318275097 0.006855132432959488 0.033702783246501
-0.002515444575424474 0.005545003675346605 0.033109502692092396
-0.00251374405976575 0.004474418956012194 0.03234157156059675
-0.002515270800301976 0.0039013755077192958 0.031202608962404843
-0.002517785637920956 0.003479031905947172 0.02994809987788194
-0.0025217456225560954 0.003276449563495154 0.028523828154445374
-0.0025249007030737594 0.0029482796199881145 0.027190310977394494
-0.0025279686104420314 0.002604783868899563 0.02586456774255136
-0.0025307654265023932 0.0022180498166786133 0.02456826979793908
-0.002533002933477458 0.0017445581475024063 0.02333564319270559
-0.0025340460084153707 0.0010885761668543714 0.02224230870895272
-0.002537018334401981 0.0007237396350731617 0.020919682579544296
-0.0025391119684460223 0.00022436517139806655 0.019699184754693677
-0.0025407878877159807 -0.00033926952838514435 0.018526875530562037
-0.002541859567265315 -0.0009947953807338816 0.01742554047072331
-0.0025430949672139774 -0.0016264564423012495 0.016303743247942704
-0.00254378346516106 -0.0023407564118576585 0.015246819868316164
-0.0025456361154406453 -0.0028816557276347132 0.014048816250132767
-0.002546852920519523 -0.0035184924988363453 0.01292640512446036
-0.0025464743992404393 -0.004393316517526946 0.011996894165023808
-0.0025469494243846387 -0.0051412598614450356 0.01096364027681973
-0.002547127604521528 -0.005933454881685729 0.009966316589247959
-0.002546934577211528 -0.006780600432797712 0.009014384687401011
-0.0025459698792481985 -0.007741367654162001 0.008157540973548427
-0.002545183820081527 -0.008675240489208536 0.0072793895185575
-0.0025441315577533975 -0.009647675803685862 0.006434795697835227
-0.0025430579619981995 -0.010622558756166134 0.005593657168384392
-0.002542133175398127 -0.011575008162944933 0.004734804757854538
-0.002541297746968421 -0.01251383515720722 0.003865495713929412
-0.0025404702533654566 -0.013450970840927612 0.00299583217105287
-0.0025387062417969687 -0.014523512243120373 0.002244535319797958
-0.002532577136239078 -0.01622711973993951 0.0020450122215346367
-0.0025229324065526885 -0.018434828218929722 0.0022948382415218793
-0.002514510816827392 -0.020459975087194937 0.0023968820831017923
-0.0025061093249191813 -0.022476817258066717 0.002502819881907481
-0.0024981422494435622 -0.024425900657762623 0.002559749703960723
-0.002489906360054226 -0.026408363474758223 0.0026571939235746633
-0.0024820841116485843 -0.02832642206719832 0.002707837978357941
-0.0024743809222749287 -0.030222477057018027 0.00274914209768351
-0.002466871638060875 -0.032085995656085 0.0027713023090376043
-0.002459089418975411 -0.03398342727598125 0.0028345719198248354
-0.0024520027412479085 -0.03577735620979966 0.0028134337485089533
-0.00244523730437283 -0.037521340044383455 0.002755863520728541
-0.002438141685844444 -0.039307522188019306 0.002746628224635783
-0.0024302352133034446 -0.04120319213353024 0.0028491117001751554
-0.002423898449043319 -0.042873500740406356 0.00275130012801561
-0.002417253567362696 -0.04458287563626484 0.0026989655202881435
-0.002410212824425378 -0.046343276543394374 0.002704063827859038
-0.002404436337461387 -0.04792295607428981 0.002546905538884703
-0.002164196828017899 -0.08209999648470262 0.03357558679791922
-0.0021540975644251665 -0.08419656912371937 0.03409362820413531
-0.002152585231006366 -0.08509819397898072 0.03347084579357712
-0.0021927959567114193 -0.08023766356049133 0.02725249816249331
-0.002200981353904437 -0.07981479319512974 0.02531148561424834
-0.0022114197579817074 -0.07908753390440354 0.02306025884102053
-0.002225114824700872 -0.07792043939509319 0.020360445515137215
-0.0022420655348041056 -0.07631678911067186 0.01720844179852804
-0.0022626871529044536 -0.07422304903240456 0.01354400794034799
-0.0013294163609234777 0.04734878439074336 0.040099423483591246
-0.001316838929558225 0.04243065366342269 0.041751954556823734
-0.0013090545420327677 0.039074179096260375 0.04240224058523112
-0.0012972696889240137 0.0344403583527666 0.04392011451374506
-0.0012721657839322585 0.02554416580849811 0.04831506534549407
-0.0012626327695577058 0.02167095592799656 0.049394156250328114
-0.0012525912405413665 0.017647341562950614 0.05059778765962758
-0.0012429308911579445 0.013758320231581633 0.05173410488598218
-0.0012322078641694028 0.009543162730013433 0.05311658954773829
-0.0012261424361621894 0.006822647142005145 0.05349787916550902
-0.0012223928886316297 0.004844761300854705 0.05338069828688885
-0.0012193157963892695 0.003084634562246724 0.05312130921533453
-0.0012167419013509296 0.0014874819506165426 0.052755536185638496
-0.001217453896859212 0.0009299196510391128 0.051665714484373515
-0.0012184758781009965 0.00046900392410070824 0.050505886852097004
-0.0012200205879501407 0.0001709568804316164 0.04922788157756175
-0.0012220783278594166 3.17305514989652e-05 0.04783266837137129
-0.0012238446992509763 -0.00020128178712780498 0.04649974829571174
-0.0012596877010303366 0.006961920198426619 0.033623984429671905
-0.001258102562092453 0.0056624876163803295 0.03302233947839528
-0.0012575811014967097 0.00469302743880895 0.03217850110036724
-0.0012583235890405587 0.004113103437205945 0.031043813873911252
-0.0012600001211196749 0.0038189923030130246 0.029691748898885484
-0.0012616483369296365 0.0035140504912286596 0.02834369250460972
-0.0012634433439899465 0.0032518684473079595 0.02695890242951604
-0.0012650016883856757 0.0029151757378480525 0.02562669578350002
-0.0012662445287608328 0.0024804258241587496 0.02436611055650212
-0.0012674898136722829 0.0020448208031033643 0.0231030458909377
-0.0012684207828820577 0.0015123268942478507 0.021912285090660233
-0.0012693789360811436 0.0009868597820982261 0.020713658841677973
-0.0012706525686885827 0.0005553960897082821 0.019438594763749206
-0.001271011122944614 -0.0001533555977329959 0.018379737623591574
-0.0012720917046038455 -0.0006455347722015281 0.01714764388576767
-0.0012726623407885204 -0.0012920593053194485 0.01603624887717775
-0.0012730702516076027 -0.001988021685719654 0.014963147931078835
-0.0012735155435545996 -0.0026733441963400217 0.0138803956798495
-0.0012738311472060065 -0.0033978885841254858 0.012828376133410757
-0.0012739834354917145 -0.004171404613524943 0.011815558716739505
-0.0012738608591545454 -0.005026677612937569 0.010869510691192907
-0.0012739537178694843 -0.005818004987192926 0.009870969642202854
-0.001274028014591569 -0.006614935816958489 0.008876839550870264
-0.0012736751823853466 -0.007537881419922732 0.007987696834255431
-0.0012733633671915903 -0.008448307822003176 0.007088970442437614
-0.0012729107645388029 -0.00939965705656709 0.006225580253346963
-0.0012724510717511673 -0.010352500963270506 0.005364644415325526
-0.0012718917327028169 -0.011333873797766514 0.004529237594231017
-0.0012715992942606996 -0.012236702031379776 0.0036279907163234704
-0.0012712441069723471 -0.013157410910815903 0.002742920544907712
-0.001269902846780234 -0.014363924426686936 0.002106319574319948
-0.0012660977541209706 -0.016282391221482506 0.0020931341209697862
-0.0012611676174094913 -0.01852112514128773 0.0023703681505578
-0.0012569298836457765 -0.020553848614561776 0.00247947578945934
-0.0012526451096782814 -0.022594659191605304 0.0026070473147380424
-0.0012487569619445047 -0.024516093780000858 0.0026399419168559035
-0.0012450596118212494 -0.026377876339794326 0.002629944943515039
-0.0012410561566611447 -0.028322391979772377 0.0027042170388860143
-0.0012368962520474802 -0.030306374325090646 0.0028249171262139106
-0.0012333487729069275 -0.03211076195519774 0.0027937881564633615
-0.0012299358314354777 -0.03387239695504407 0.0027332372644829905
-0.001226156201022789 -0.03573350302456446 0.002773200580866775
-0.0012222390076972525 -0.03762862412331863 0.002854806163623158
-0.0012186220160413496 -0.039434068081169116 0.0028639449484444968
-0.001215131124526353 -0.04119938948337659 0.0028455679719218696
-0.0012119458627004786 -0.042874444277678836 0.0027521840090746763
-0.0012083927893462426 -0.04464839867212117 0.002760665936900164
-0.0012048438753887232 -0.046416623284530334 0.0027734915392262915
-0.0012017618295656865 -0.04805015339619789 0.0026679337434389327
-0.0010834427797301559 -0.08172613995238587 0.033218010371991846
-0.0010770248870171832 -0.08420319881229338 0.03410000218909748
-0.0010757069851377856 -0.08526029986964662 0.033627509880914785
-0.0010775481688263951 -0.08544328403025853 0.032309518362465206
-0.0010992696193642315 -0.08015121927495689 0.025640005894345397
-0.001104237155800452 -0.07949235230335128 0.023457616838013673
-0.0011101376095421622 -0.0785840332077617 0.021015190382224658
-0.0011187535790784227 -0.07694035652343545 0.017826885470470233
-0.0011283487703812193 -0.07504047862432528 0.014358924222016678
0.0 0.0485674569639622 0.039302888252001345
0.0 0.042440912345498405 0.041745211727380216
0.0 0.038645891799339804 0.042685324058582275
0.0 0.03319587899574422 0.0447472789486868
0.0 0.023916122139036322 0.049403221447170464
0.0 0.019265588564869818 0.051010835150339995
0.0 0.014588932331102034 0.052664839704128885
0.0 0.009979423318436542 0.05430231540496505
0.0 0.007269059695530766 0.05467069978047773
0.0 0.004963996618075839 0.05477511742338126
0.0 0.0034757760675993565 0.05432665633860262
0.0 0.001964029130688383 0.05389992150200529
0.0 0.0003355384919879745 0.053560342976520736
0.0 -0.00041872947244731007 0.05261314627272806
0.0 -0.0008653466198380033 0.05144843606482352
0.0 -0.0011916660340224872 0.05019569482263275
0.0 -0.0014262793890275072 0.04887391793321555
0.0 -0.0016988092336447935 0.047575084706291126
0.0 -0.0017302475800382577 0.04609817023066476
0.0 0.0070372688588222765 0.03356838456518502
0.0 0.005837166427801521 0.03289274247616414
0.0 0.004933111419479441 0.03199941104530257
0.0 0.004335109169742779 0.03087731047480957
0.0 0.004056762149430515 0.029512455859369735
0.0 0.0037385336534149216 0.02817350200626728
0.0 0.003506715506345126 0.02676464696766806
0.0 0.0031768284004722314 0.02542617560988769
0.0 0.0027912729001019487 0.0241266046288105
0.0 0.002310871706883544 0.022896950590047538
0.0 0.0018072729694386114 0.02168257652700928
0.0 0.0012939172036046664 0.020473232107223793
0.0 0.0006390802135012863 0.019372718001624545
0.0 1.9360957465464068e-05 0.0182430445186591
0.0 -0.0006032242416856848 0.01711397861791103
0.0 -0.0012142084717292612 0.01597397364380493
0.0 -0.001808075192291092 0.014818433598728198
0.0 -0.002423734862883442 0.013678585698292112
0.0 -0.003158667068206389 0.012633932661993363
0.0 -0.0040509555140870734 0.011717133661354462
0.0 -0.004733295079664468 0.010628496252683695
0.0 -0.0055857917798871615 0.009679191031426004
0.0 -0.0064447309287281596 0.008735524795928595
0.0 -0.007296913731190402 0.0077865679969993384
0.0 -0.008225471833919473 0.006901988887513311
0.0 -0.009190543454024702 0.006049183122836865
0.0 -0.010121176644697638 0.005168478185579584
0.0 -0.011057753217738664 0.004293844665428037
0.0 -0.011996976820710548 0.00342254455965757
0.0 -0.012873084883829988 0.0024979642328762375
0.0 -0.014327489043356678 0.002074763633639065
0.0 -0.01645129111704885 0.0022401861550778723
0.0 -0.018625258469968764 0.002461509069932144
0.0 -0.020658095537471888 0.002571196426587097
0.0 -0.022670078928507365 0.002673753667273293
0.0 -0.02455297789096622 0.002672736196570158
0.0 -0.026566812591929945 0.0027988135555732097
0.0 -0.028395926662946713 0.002770286235089181
0.0 -0.030212486628411417 0.002740118859739238
0.0 -0.032119676967172606 0.0028018822846233027
0.0 -0.033947079991478224 0.0028013986432222082
0.0 -0.0357802793617093 0.0028161155984177677
0.0 -0.03762572542965814 0.002852132846067057
0.0 -0.039474313144739925 0.002901254883125759
0.0 -0.04121269838877184 0.002857970675868793
0.0 -0.04294519465786162 0.0028184611162909157
0.0 -0.044691442854632224 0.0028011989183004404
0.0 -0.046342347898762015 0.002703184802145042
0.0 -0.048040018021113906 0.002658289937810754
0.0 -0.04973844024721308 0.002623259858113791
0.0 -0.08417888851590144 0.03407662952808971
0.0 -0.08537022602785083 0.03373374587998207
0.0 -0.08569700218481408 0.03255599384797914
0.0 -0.08048081680166119 0.02596185808799173
0.0 -0.07987696520942256 0.023835141709342256
0.0 -0.07903048383494615 0.021455687642712218
0.0 -0.07761914517542073 0.018500096638683683
0.0 -0.0758227325772089 0.015138773017442153
0.0 -0.07176994020590122 0.009490373485053327
0.0013375724699467167 0.04998915588749597 0.03837365319231911
0.0013164897572626331 0.0423178408028172 0.04182610422561045
0.0013062405894731805 0.03816683774005386 0.04300196265141637
0.0012746115444815021 0.027148946141622277 0.04876647602832174
0.00126080367899898 0.021895133164324343 0.05075401536351576
0.0012454322658796 0.01615793019057643 0.05309953303457271
0.0012322148145095062 0.011129481621189874 0.05500293906255027
0.001224925519493534 0.008010469192990699 0.05564045423557851
0.0012204602180202603 0.005800515341937207 0.055674295383906836
0.0012177626870425167 0.004158354375707274 0.05532874333684007
0.0012147392276427727 0.002416243733990131 0.05505878486539861
0.0012123225020521148 0.0008701474797659925 0.054659965733084515
0.0012096942772032652 -0.0007396790110084095 0.05431154507902425
0.0012088642128057527 -0.0017790353464934294 0.05356876697830115
0.0012101633655530707 -0.0021471954665672754 0.05235389949555935
0.0012114888281554057 -0.0025087621486246103 0.05113117231330311
0.0012131000617893544 -0.0027824593960012467 0.049842444826477705
0.001214948658073963 -0.002983980513171447 0.04849793354884163
0.0012168198412602347 -0.0031808274320337393 0.04714549939525864
0.0012278895257198258 -0.0005145964371636169 0.04370998313957547
0.0012603017897377011 0.00715203467997888 0.033483698731747114
0.0012591612969912005 0.005989578671907525 0.032779665396129365
0.0012587876357852315 0.005065004859861666 0.03190102545774798
0.0012596332250619424 0.0045160255526178195 0.030741623921324457
0.0012613533063253416 0.004234442933178595 0.02937847365657259
0.0012632899122938983 0.0040169865690927176 0.027962394678561486
0.001264705087550175 0.0036376228874803185 0.026664863694210672
0.0012662738878123868 0.003303309109274677 0.02532924583499707
0.0012677325434157754 0.002933445455240491 0.024017061472879464
0.0012688149245567249 0.0024473933205265697 0.02279119465145829
0.0012697589125772516 0.0019179944309484775 0.021596344940871648
0.001270922389631729 0.0014537812073449619 0.02034805818963048
0.0012713809783855465 0.0007752844234047984 0.0192654970386808
0.0012724251311071462 0.0002725885425791663 0.018042632549905013
0.0012734153256783282 -0.0002476688988732878 0.016831073494583515
0.001273953717802704 -0.0009047157213513124 0.015726401044153238
0.0012744925653773642 -0.001562318369494664 0.014620794101264378
0.0012747528618751978 -0.002303805975782558 0.013581622791661696
0.0012751844445145837 -0.002994581893122683 0.012500561334883253
0.0012752588848616376 -0.003792117837118969 0.011505624295072514
0.0012753928993812517 -0.004572071902801067 0.010496051035127962
0.0012755530091965455 -0.005344471712702192 0.0094798913112496
0.0012754375771658454 -0.0061984852719856876 0.008531076233964041
0.001275273774016358 -0.007066610427535758 0.007594340416928469
0.0012749537347587086 -0.00798048358386333 0.006696419381763408
0.0012744033454372776 -0.008961557262670838 0.00585602253170292
0.0012738682874195153 -0.009937433211432534 0.005012661206342084
0.0012733411005523844 -0.010910321095240705 0.004168158709274616
0.0012731147669213356 -0.011794805467313041 0.003249282317328017
0.0012726104437742309 -0.012759879125312346 0.002400433713418748
0.0012703126836956307 -0.014244946986123719 0.0020032756452154077
0.0012651445460778524 -0.01655849895549083 0.0023335262407088164
0.0012606727133269236 -0.01866416171444568 0.002495558470956616
0.001256485272311408 -0.02068206384847837 0.0025922847109702274
0.0012527420848244917 -0.022566756222180795 0.002582368027966908
0.0012489318739889782 -0.024465878208490777 0.002595294412686411
0.00124458435731201 -0.02651401186661656 0.0027516209967151095
0.0012406438395269042 -0.028440234212512572 0.0028100955340373823
0.0012369382733501513 -0.030294391444156743 0.002814094328696115
0.0012330946685273135 -0.032183059546608106 0.0028594286707083194
0.0012294720505164171 -0.034004053448833615 0.0028533969227553246
0.0012258053082425853 -0.035832887681607084 0.002864381176903519
0.0012221398601417611 -0.03765664232053528 0.0028806459201767276
0.0012187273926580332 -0.039404357342700425 0.00283640105577182
0.0012151378835764536 -0.04119748812657259 0.0028437960782284333
0.0012113410385550343 -0.043044195758741965 0.002911202760372822
0.0012085465468440301 -0.04460534353561035 0.0027201226405573764
0.001205116384220443 -0.04634049059413098 0.0027014267361717414
0.0012013752045986854 -0.04815791898845112 0.002770472664443524
0.0011985705538330481 -0.04971009720410913 0.002596151052524087
0.0010770408170296454 -0.08419877905259543 0.03409575289721345
0.0010749315430297521 -0.0854749467544565 0.033834951190854
0.001075648721978506 -0.08596784102258404 0.0328191012876195
0.0010968356151899942 -0.08082183668946513 0.026294864224488568
0.0011014172756534896 -0.08026747377475735 0.024218453588776168
0.0011071584790222956 -0.07940101406808464 0.02182127689869484
0.001114501431774935 -0.07810370948783746 0.01898067937365211
0.0011232317367565238 -0.07643716829587788 0.015751319561060184
0.0011372271908100652 -0.07334811729004859 0.011071851792193721
0.0026878913360184444 0.05205234685998683 0.03702513322460821
0.0026322736107810872 0.04220380681200758 0.04190105651920151
0.0026065508198363533 0.03721073418753762 0.043633914886459846
0.002537983630148301 0.02534051192812986 0.04996848267944998
0.002501195549544863 0.018617423804599076 0.052944779349893334
0.002467644903306241 0.012436806330772376 0.05560054910417461
0.002452126594969914 0.009161780006948061 0.05633282703252229
0.00244279694503066 0.006884530722256477 0.05640566352567811
0.0024365712242047223 0.005107714158160137 0.05614775212383283
0.0024304244749783826 0.0033474536913682407 0.05588598277698131
0.0024225678937455854 0.0013198782089737238 0.055816364838372046
0.002417159953932695 -0.00031495542863868575 0.05548339176642969
0.00241203573925641 -0.001901482089413209 0.05512324030604632
0.002410113108125426 -0.0029798683592865416 0.05441235731548577
0.0024127883291777744 -0.003333477136393037 0.05319185685170186
0.0024145884559099427 -0.0038262336019727616 0.05206691639116062
0.0024177886324433222 -0.004100728069037274 0.05078389703475017
0.002421178421038106 -0.004347624061567745 0.04947713133386572
0.002425048739670235 -0.004521698049031353 0.04811361769718919
0.002449287958920906 -0.0015256371327028173 0.0444439543300606
0.0025214181795017603 0.007278129867714922 0.033390652945481436
0.0025187799128308197 0.006060221901397045 0.03272725405502119
0.0025187799128526174 0.005250701761181531 0.03176250531079838
0.0025207853642688345 0.004749679823888353 0.03056638416541091
0.0025235662998114522 0.004366412145963061 0.029278960780406205
0.002527091304952303 0.004095338722161446 0.0279029924862228
0.0025302524578877618 0.0037663789736480657 0.026566720230916496
0.0025333848048623864 0.0034309930922871157 0.025231393918703215
0.002536304045893113 0.0030611541855607993 0.023918662612806896
0.002538794752537217 0.0026243438343918624 0.022654120622091767
0.002541393829854056 0.0022023593202561975 0.021374877168386763
0.0025423328719983646 0.0015276094593674183 0.02029025048233868
0.002544576069191064 0.0010491015889561583 0.01904994613770844
0.002545895701757142 0.0004300483292787316 0.017918014112944913
0.00254755088207071 -0.00013942220064183664 0.016744944721293953
0.0025491264135166516 -0.0007219018460332682 0.015580162703159428
0.002550145600563662 -0.0013886521024075726 0.014481130374483842
0.00255122519031079 -0.002047037526444029 0.01337402464095172
0.0025516498311078596 -0.002803710120952041 0.012345417388763491
0.0025516125762833474 -0.0036293337781237445 0.011372605201553476
0.0025522311476533213 -0.004357631104363935 0.010319887416755102
0.0025518882879577024 -0.0052286608337844265 0.009384246236925908
0.002551776505813944 -0.006065334632614772 0.008420526236436576
0.0025517541505781756 -0.00688875488019508 0.007445889478861323
0.0025505252143246462 -0.00788962534461668 0.006620180283231303
0.0025498628248861277 -0.008806559937812541 0.0057252750193013124
0.002548866168147761 -0.009772018107148395 0.004872386904225312
0.002548145193667247 -0.01069655395055158 0.0039859221144319945
0.002547944582625585 -0.011544759991712672 0.003034991622534622
0.0025462963107212894 -0.012603433476817527 0.00226565059315742
0.0025400640921748137 -0.014326417305409067 0.0020738354233113543
0.0025301718679989886 -0.01657547662186476 0.0023483077795980467
0.002520821724998642 -0.018739841520650724 0.002561795930211608
0.0025137802176906135 -0.020565318712042424 0.00248956764271957
0.0025050029407782583 -0.022635988984340938 0.0026436021986143143
0.00249688591432423 -0.024606241543421448 0.002720093800467893
0.002488800055782607 -0.02656681259193089 0.0027988135555740423
0.0024812101775148108 -0.028451309370004063 0.0028200463044997237
0.002474072668321571 -0.030266428222090302 0.00278883827449361
0.002465910955301429 -0.032222662032561744 0.002895384606344087
0.002459449327814291 -0.03393234244921989 0.002787948049251754
0.002451232369361307 -0.03588645384597888 0.0029135255311747432
0.0024437123637616226 -0.03773680721640166 0.002954577921486845
0.0024362111886188044 -0.03957967221518227 0.002998929968900277
0.0024297756975819587 -0.041267824243852946 0.0029093430194299663
0.0024225947603684524 -0.043056449027995936 0.0029226813027919407
0.0024166519009251935 -0.04466711487979241 0.0027782902394926645
0.0024100665783964243 -0.0463637054292661 0.0027234011667767732
0.002402961846924683 -0.048128451527923166 0.0027424343866954692
0.0023969898683856516 -0.04973112637498328 0.0026162644786953404
0.0021553089620559764 -0.08402851883375267 0.033932059525731584
0.0021495193362357765 -0.08552252272953753 0.033880930067282544
0.002150069388750665 -0.08613741274452169 0.03298383239473013
0.002191937876235922 -0.08106062376444728 0.026528039954494376
0.0022013972195342605 -0.08046501882286305 0.024412358077394336
0.002212119546434607 -0.07970231728652993 0.022118562274097364
0.002226481185752627 -0.07844866476940576 0.019322800219966796
0.0022433030532620782 -0.0768684852116972 0.016181310328135745
0.002266995872887044 -0.07436361675775932 0.012089475476651679
0.004035585889887862 0.051592213518118435 0.03573024191565127
0.003893751359683999 0.03548298717193288 0.04477589745228927
0.0037797932535069837 0.022424760300678803 0.05190648674013737
0.003713180103506568 0.01448377356806152 0.05570763934649975
0.003682809516500652 0.010443431687942872 0.056940322302349244
0.003668790202874406 0.008159545691573011 0.05701019566883564
0.003658590635692528 0.006288126275147743 0.05681099137923895
0.0036452007500662135 0.004082279630266306 0.05684852876791602
0.0036346378154735134 0.002181775129873109 0.05668702053849417
0.00362357485386271 0.0002329106820646576 0.056567450868413416
0.0036148805233497477 -0.0014611971749900476 0.05627981652225389
0.003607140854948225 -0.0030510165065780193 0.055926364016986585
0.0036030754293395395 -0.0042512667915078906 0.05530552016219914
0.003606843073784168 -0.004628006832970766 0.054106277692539395
0.003610101487430864 -0.00505967574556021 0.05294297801534881
0.0036138738838745943 -0.005439039241398602 0.051739662755613036
0.0036192124738528304 -0.005656716523931349 0.050417157370028665
0.003623965579487085 -0.005937602953338894 0.049135911298284485
0.003654805881229508 -0.0035116635804732232 0.04588572240392391
0.0037031928750846767 0.0007193274618731427 0.04129259121691986
0.0037822909765520512 0.007295023805013456 0.03337818688942262
0.0037787253674962454 0.006117428072383524 0.032684811882392195
0.0037795425735237657 0.005391771100506371 0.031657274983989125
0.003782149096171972 0.004849264090202143 0.030491696369520205
0.0037871759664008897 0.004553335932418412 0.02913800878697076
0.003792271075918995 0.004262222550604544 0.027776470560696598
0.0037966209582932097 0.0038929793773286314 0.02647021992214299
0.0038013666550551725 0.0035621249721054515 0.02513089967169818
0.003805615894023227 0.0031788554405023373 0.02382797445635665
0.0038091660350179656 0.0027229690086215674 0.022577721013334884
0.0038135104031434375 0.002345820578877278 0.021263147322054365
0.003815097678791562 0.001688787740141584 0.02016404748251749
0.003817942537681355 0.0011576188300586043 0.018964520561691067
0.003819989902057015 0.000545153939861931 0.017826916051802533
0.0038229535634911617 2.3621294059417153e-05 0.016615215718738863
0.0038254305180019997 -0.0005478433132938276 0.01544092802516056
0.0038268377854327727 -0.0012270896765197992 0.014351200648431206
0.0038276312256665503 -0.0019680477534592677 0.013310161145109911
0.003828190183869619 -0.002732639112612789 0.01228764961847939
0.0038292190935946793 -0.003450886052259905 0.011226786533058197
0.0038297561356674574 -0.004218224900269796 0.010205364893448754
0.003830338101260852 -0.004981360090876241 0.009180007238338062
0.0038288275954848107 -0.005950815889264716 0.008325445605550985
0.0038282572699880127 -0.006827234804577698 0.007394540431435392
0.0038268936510035844 -0.00778119467701105 0.006529196169737239
0.003825709655745636 -0.008716995921554282 0.0056497235713188765
0.0038246156702120243 -0.009643502580083452 0.004763403955248435
0.003823366166894872 -0.01058468956651648 0.0038905576726214752
0.003823120824699284 -0.011427740019799126 0.002934704700622348
0.0038205020868149844 -0.0125008629008036 0.002177282636520894
0.003809166035716537 -0.014416421577994443 0.00215178628390722
0.003794389849350664 -0.016659280796111176 0.0024212715564456144
