# .PCD v0.7 - Point Cloud Data file format
VERSION 0.7
FIELDS x y z
SIZE 4 4 4
TYPE F F F
COUNT 1 1 1
WIDTH 762
HEIGHT 1
VIEWPOINT 0 0 0 1 0 0 0
POINTS 762
DATA ascii
0.03747009011974134 -0.05657155016794954 0.04349810565401413
0.03912729301528395 -0.05642141501065406 0.04335354516622164
0.04078561825901189 -0.05627044767110656 0.043217792910456077
0.04243955678093164 -0.05611955051061723 0.04308641293719512
0.0440199509914056 -0.055980144120756595 0.0429025865491654
0.04553793557842767 -0.05585046065262257 0.04267459719214611
0.04676534072855559 -0.055768405668068094 0.042212230248315885
-0.003069544370198851 -0.05852487157780325 0.05313179952994018
-0.002580661123754213 -0.05856965625526292 0.05199179053681863
-0.0022837947582545204 -0.058643848596844524 0.05071461673815908
-0.03738320770696779 -0.06504661887237669 0.01285693424797596
-0.03502361648627078 -0.06481583076244812 0.01291722336447687
-0.03271655976318533 -0.06459224444975345 0.01295048860049669
-0.03044059389007897 -0.06437256639037298 0.012972165168039673
-0.02818005665262474 -0.06415437751533892 0.012993694791369081
0.03373193231072874 -0.055776951565250706 0.043473544573072564
0.035454107350576414 -0.055620884649126075 0.043363512411002836
0.03708981883291779 -0.05547801375983437 0.04319228852486351
0.03874985090173022 -0.05533061914156546 0.04304838187304039
0.04041280539692471 -0.055182118000908144 0.04291476395404131
0.04206954162407961 -0.05503397858360865 0.042784054745033606
0.04368099377625084 -0.054892522604293316 0.042624132329039
0.04518451638498838 -0.05476794924769381 0.042382717756715926
0.04648744086923606 -0.05467542418973718 0.04198150032457648
-0.003607022576767427 -0.057038032780478386 0.05717332270762393
-0.0028333820747163396 -0.05703898337959604 0.05623925124517909
-0.002573832752268246 -0.05711608714881715 0.05494989775903891
-0.002263145385687171 -0.057185913789653396 0.05369209695029831
-0.0019892700278103526 -0.057261499419960504 0.0524049668078162
-0.0015428646154611037 -0.05731168103471886 0.05123512348308695
-0.03813038897762 -0.06380467904628474 0.012308575530462607
-0.035765259874446786 -0.06357809331958887 0.012369963692977048
-0.0334489915705839 -0.063357997950475 0.012407085587458844
-0.031166534281244274 -0.0631421392290143 0.012430651570910556
-0.028899576706439722 -0.06292774636130263 0.012454057522377715
-0.02714276738516297 -0.06279055236309154 0.012104190994169928
0.03333294406058568 -0.054677317432420956 0.04315608105437946
0.03507205664728591 -0.05452198157801282 0.043057898431713704
0.03670962680102319 -0.05438192386355115 0.04288653513314383
0.03837157935412444 -0.05423742623408636 0.042742547979473744
0.04003917940730001 -0.05409141461747234 0.04261107407303355
0.04169872161051458 -0.05394604532129778 0.04248103886354182
0.04334224804462272 -0.0538025829903536 0.042345851843171245
0.04483035620257636 -0.05368316821783143 0.04209022635836174
0.04621083894401856 -0.05358035501577237 0.041751848027278105
0.04684888858037184 -0.053595458129092687 0.04079948059943228
-0.005922451698973208 -0.05570917689405511 0.06142988392695853
-0.004264781358740921 -0.055582993645209765 0.061093080076093265
-0.0033331506686463674 -0.055560713046880573 0.060272162074211655
-0.0030252786696045586 -0.055628224378114335 0.05902849090343565
-0.0027444528141464253 -0.05569991326085658 0.05776279858047245
-0.0024265350670230057 -0.05576652557473478 0.05651883081235126
-0.001977370428705938 -0.05581438057506411 0.0553620486585788
-0.0013554248836884497 -0.055837330519316504 0.05432279399412465
-0.0006529883991282515 -0.05584865737684924 0.05333856196020903
9.762653706280044e-05 -0.05585300314536564 0.0523875758676855
0.0007793053447441856 -0.05586744215635186 0.051387664608803896
-0.03888023088872816 -0.06255831679224179 0.011758264160433018
-0.03650823817519816 -0.06233576305971901 0.011821718987660268
-0.03418400867026933 -0.0621193948846004 0.011861764504227879
-0.031895028306397843 -0.06190738380510258 0.011887233096268657
-0.029621619200489446 -0.06169681497442169 0.011912528432925895
-0.027715474809176077 -0.0615403913074063 0.011672334372400617
0.032933976486538674 -0.05357502542519359 0.0428386339870635
0.03467620235743346 -0.05342264797484795 0.04274124254363776
0.036327679006569746 -0.05328356329775218 0.04257936974350629
0.03799338794243057 -0.053141687863796125 0.042436778876077386
0.03966473762700906 -0.052998329746502086 0.04230672110279421
0.041327094111293095 -0.0528557430107334 0.04217736314447651
0.04298052978645572 -0.0527139214472195 0.04204869936793226
0.04447545269837744 -0.052596110417702284 0.04179712107047484
0.04593730300113891 -0.05248293604665739 0.0415247413011533
0.04681203350952112 -0.0524608799491891 0.04076871871787063
-0.005046913544725085 -0.05405088596259305 0.06632355610951662
-0.004209903617875821 -0.054041823274701556 0.0654463583845033
-0.0040358725851551425 -0.054125434032445505 0.0641289809404384
-0.004112142833530841 -0.05424445116682972 0.06263986326196685
-0.0036925974228891323 -0.05429433370287939 0.06147765250021753
-0.0030449840851348164 -0.054312331887038434 0.06046692197996284
-0.0023564735779527113 -0.05432463751112152 0.059483023745884156
-0.001599620514315725 -0.0543273394932784 0.058545171263184315
-0.0009158978440345078 -0.05434040285780357 0.057556919560629916
-0.0002668135818031936 -0.054358431603190004 0.05654403034512434
0.00022919122901465805 -0.054398287490950326 0.055423807682458026
0.0007248653991003273 -0.05443835259790093 0.05430120157084328
0.0012106906689768882 -0.054479986346300906 0.053169508407255706
0.001739552834598146 -0.05451563675819596 0.05206595770853767
0.002018567467102994 -0.0545872292933398 0.05078301371085048
-0.045803572482193244 -0.061945907446545566 0.01008502026406688
-0.04518180945442707 -0.061983989576238456 0.008838472345827464
-0.039634065616484804 -0.06130769961785164 0.01120502244953081
-0.03725516327423167 -0.06108920669646384 0.01127056193448761
-0.03492162477454358 -0.06087641214504085 0.011314515177425044
-0.03262608946361878 -0.06066827724016201 0.011341899675252343
-0.030346197422537302 -0.06046156070183017 0.011369097557242358
-0.028289783795579726 -0.060286734206729455 0.011239270074085539
0.03477339949954261 -0.05224670387278583 0.04281899349428292
0.035944887782253965 -0.052182777295511254 0.04227152606100759
0.03761436562634812 -0.05204354210457147 0.04213033798352328
0.03928947738128624 -0.051902855579712893 0.042001702869226
0.04095465648600505 -0.051763063905337504 0.04187302543022431
0.04261088992062845 -0.051624023219371526 0.04174503927171758
0.044131345022479895 -0.051505014582960036 0.04151293176770732
0.04565715051037861 -0.05138467317812668 0.04129214110125823
0.046632029621485105 -0.05134790252851256 0.04061847458167478
-0.004831813925493866 -0.05250706963098164 0.07071992892981005
-0.004209646607268969 -0.0525267246283414 0.06971159852508385
-0.003860903689059614 -0.052583620439112036 0.0685234957092668
-0.003590803112725749 -0.05265145266167978 0.06728062905773208
-0.0033687475346559914 -0.052726111450685974 0.06600233437361641
-0.0030675890271782413 -0.052790252713913285 0.06477256730872999
-0.0025981818873044293 -0.05283159996754008 0.06365176874059136
-0.002245656946004815 -0.05288915852565345 0.06245016041575441
-0.00117704762203652 -0.05284844757952181 0.06172938317539023
-0.0006496950413952263 -0.05288217505508159 0.06064298336541324
-0.0001079591436822791 -0.052914052151343566 0.059564565202727016
0.0003311394704221815 -0.052960262017500155 0.0584138661425897
0.0007941918571827689 -0.05300333745142061 0.057277176981248956
0.0013053966188367183 -0.05303989694766546 0.0561715704094386
0.0017446719151701928 -0.05308662016421327 0.05501369091391717
0.0020604749387307386 -0.05315076036179698 0.05376648566407627
0.002312756608238542 -0.05322404298096053 0.05247085349687325
0.0024918852246024747 -0.053307873441274106 0.05111919132590953
0.0024221131390125272 -0.05342698732525567 0.049585106461393136
-0.044035544814339134 -0.060319607346857776 0.011368531139705318
-0.04319446750772915 -0.06032528584606214 0.010289076046916146
-0.04038927633461764 -0.060052417767435765 0.010650770894903128
-0.038003442229888995 -0.05983801746390023 0.010718405868658798
-0.03566055502797122 -0.05962884150502673 0.010766290862094463
-0.03335973134629533 -0.05942479649419117 0.010794641167904295
-0.031073324753851106 -0.05922196073127542 0.010823754859427659
-0.028865701071873806 -0.05902956637561966 0.010804993026276133
0.033880855317612146 -0.05121659599759404 0.04210502025255919
0.03556125033125451 -0.051079557814053475 0.04196300183642232
0.03740303077472418 -0.0509181537355958 0.041959473003253034
0.03891339598365984 -0.05080498427464784 0.04169601718871668
0.04058140608272115 -0.05066800022472024 0.04156802355375899
0.04224044555157069 -0.05053175288092135 0.04144071827403917
0.04379187453723893 -0.05041090529446469 0.04123257219636345
0.04530321191305625 -0.050295502590614355 0.04099827903969183
0.04641840935174818 -0.0502387212356021 0.0404401718058251
-0.007871250323781886 -0.05130994325353529 0.07439475735325007
-0.005060755140879114 -0.0510411813006432 0.07477924276615044
-0.00468117069275048 -0.051091706848797123 0.07362492152473196
-0.0042618262980015365 -0.05113718192948701 0.07249338224218935
-0.003873355853313276 -0.051186921558344284 0.07133938983979388
-0.003487291254609115 -0.05123717724709295 0.07018109500597275
-0.0029740190540322176 -0.05127073589975075 0.06910317155986956
-0.0024632321309520644 -0.05130475885255782 0.06802175944189298
-0.0019422990782328453 -0.05133756440056631 0.06694516901191899
-0.0013828600968471827 -0.0513653557274688 0.06589235145139688
-0.000859569504844393 -0.05139809822470286 0.06481382737849795
-0.0004909947199759901 -0.05145172856051892 0.06362949220663838
-7.018739456993162e-05 -0.051498552893735165 0.06247746434064605
0.0004175197910489814 -0.051536554434994906 0.061368283153571235
0.0008681800246523319 -0.051579709585482705 0.060231653840899624
0.0013070092176470927 -0.051624639305093666 0.05908447016913132
0.0016186305051824612 -0.05168699000193595 0.05784685777576942
0.0018512100011452426 -0.05176032714730718 0.05655080926759465
0.0021212321785682997 -0.05182886784020611 0.0552767753034249
0.0023414940909528004 -0.051904472566327325 0.053963902877572356
0.0025466090699599597 -0.05198245556304342 0.052636040610421986
0.002795540422702969 -0.052054759087394445 0.05133486478983584
-0.0431742653775089 -0.05870868049207063 0.01367678295893443
-0.04234317914717256 -0.05871510232212997 0.012597114707066481
-0.0415172188724508 -0.058722259730549474 0.011513335959521143
-0.040684434588138085 -0.058728500946625684 0.0104341533112976
-0.03875439047066631 -0.05858236494826582 0.010164280133685422
-0.03640340605536024 -0.05837703300214671 0.010215157661100427
-0.03409467598754057 -0.05817673821243883 0.010246410870740852
-0.03180173450631435 -0.05797781316780721 0.010277450350690442
-0.029525689002128097 -0.05778042156989609 0.01030732153466013
-0.027908713919799766 -0.05767470310808869 0.009849029680863652
0.03348135212939041 -0.05010985485916643 0.04178544549968061
0.035177689111001276 -0.049973763844766816 0.04165453891719656
0.03685565397577634 -0.04983973217756714 0.041516916911657376
0.039004312263801855 -0.04963720753134997 0.04176991556587656
0.04020734023792438 -0.04957054415449613 0.04126235533858541
0.041869194049977465 -0.049437102679257 0.04113573421491634
0.0434526146067466 -0.049314472400991086 0.04095238651654076
0.04494852988312936 -0.0492040442477384 0.04070379973366711
0.04615430609010579 -0.04913545414024596 0.040219732309518086
-0.008025041628967389 -0.050136406435774446 0.07429757919385044
-0.005013315298108945 -0.0498480828352317 0.07480938930036923
-0.003426340555416074 -0.049742011233541994 0.07442684352562293
-0.0028679957150889446 -0.04976818309149914 0.07338917189129426
-0.0022986071389523577 -0.04979303134529017 0.07235716547329094
-0.001793421744161805 -0.04982629116782809 0.07128202929172517
-0.0014327610428984672 -0.049878433419536274 0.07011055179098002
-0.0010002903321943424 -0.04992144812270392 0.06898332251405792
-0.0005545401168508546 -0.04996290459863348 0.06786243119024321
-0.0002030791702331558 -0.050016832899644606 0.06667651319377493
0.00016063282361616915 -0.050069374920628004 0.06549571308238478
0.0005251097703163898 -0.05012202744709039 0.06431242953240157
0.0008903540856600167 -0.0501747908280188 0.06312665470088846
0.001234422871295493 -0.05023055268732847 0.06192346624608075
0.001589709917324822 -0.05028506063200208 0.060724743770202316
0.0019447234866002416 -0.05033982509995964 0.059522698485727
0.0022565924587796826 -0.05040052234010161 0.058287684601975254
0.0022802419070239166 -0.05049969398260391 0.056848906704139335
0.0024960006373188626 -0.05057373682898263 0.05553860784594389
0.002647301604502217 -0.0506566657035486 0.05417873402596102
0.0030281548604615405 -0.050709300112210295 0.052976191655183136
0.0036857800521657436 -0.05072513981493596 0.05196716440404209
0.004317636959211446 -0.0507444973030145 0.050938810464004225
-0.041451205045968886 -0.05711153013092122 0.014920845346459322
-0.04062856613566557 -0.057118463154758006 0.013841848874858953
-0.039825472700689424 -0.05712806550493848 0.012748177936331928
-0.03903656512296455 -0.05713962817199461 0.011643529967330868
-0.038243402085368694 -0.05715066153990712 0.010541339162777441
-0.037148897785969914 -0.057120774542795814 0.009662065279644527
-0.03483351590680672 -0.05692444289679617 0.009695274899725104
-0.03253399605447399 -0.05672945626341652 0.009728257010016894
-0.03025017578600253 -0.056535800868386665 0.009761013940447094
-0.028484771553730692 -0.05641240115491719 0.009412295088560063
0.03308186807813024 -0.04900044720820064 0.0414658860550397
0.03479235281770193 -0.048865655937532504 0.04134464847040881
0.036475046855219184 -0.04873419260936 0.04120919469904072
0.03815784552933804 -0.04860214743422383 0.04108189227786985
0.03983245627644194 -0.048470687846098884 0.040956018598683974
0.04149713277507611 -0.048340064827946214 0.04083008492494744
0.04311267541789798 -0.048215844255035126 0.04067163985545491
0.04459398935897707 -0.04811016479982788 0.040409437914627366
0.04587566876910992 -0.04803246595567779 0.03998716164639676
-0.008639275336291052 -0.04901955871876332 0.07390945516403646
-0.005812905571986493 -0.0487614955709254 0.07430127472525863
-0.00308514238169455 -0.04851480571480954 0.07464489241848132
-0.0015662674817157884 -0.048419339952950544 0.07422576902992689
-0.0009607699950722748 -0.04843871739083934 0.07322182282097514
-0.000718112499020096 -0.04850403389815197 0.07198092894630978
-0.0004103430633853322 -0.048561363422428554 0.0707788134662175
-4.882066561950893e-05 -0.04861209975848812 0.06960870494310628
0.00040700416514438675 -0.048651047449391645 0.06849797974528893
0.0007367916005355801 -0.04870620890221143 0.06730121451296944
0.0010486120267568788 -0.04876388488450477 0.06608922312159837
0.0013466085653859872 -0.0488235605408506 0.06486456978528155
0.0016130699469269483 -0.048887518086915244 0.06361510853654839
0.0019062671534060827 -0.04894829940474979 0.062380064580995154
0.002248115365971859 -0.04900306493273624 0.061174694769354165
0.0025896875232868655 -0.04905808749788408 0.05996590874120067
0.0028767884165719626 -0.04912037147905529 0.05871623526108216
0.0031291561360775044 -0.04918740546798985 0.05743874431775198
0.0034187451724890794 -0.049249883049797466 0.05618328469133421
0.003797805927992448 -0.04930098356246636 0.05498696846785811
0.0042371377116317555 -0.049344441280704865 0.05383018474999457
0.004405840179231679 -0.049423403982320306 0.05247859270433447
0.004643049463933624 -0.049493729539241554 0.051171206493770716
0.004322446639022426 -0.0496374584426444 0.049459058121500254
-0.03974202085981349 -0.05552724193727663 0.01615488905370882
-0.03892902868283876 -0.055534816321259374 0.015075638845411632
-0.03813670829739024 -0.055545148356912405 0.013980843456104675
-0.03735973803335135 -0.05555755187521146 0.012874158716294826
-0.0365993431820556 -0.055572202049366734 0.011754492478370626
-0.035856744706901866 -0.05558927493608294 0.010620734563772993
-0.03509681686588351 -0.05560411444550779 0.009498866143286655
-0.03326884740091102 -0.05547668428005996 0.009177121330610383
-0.0309784893781887 -0.055286971685668304 0.00921182069740123
-0.02906244653117457 -0.05514655515379924 0.008974334317106814
0.03268053327284626 -0.04788862883376151 0.041144846135956425
0.03440616183952505 -0.04775509022114268 0.04103407067938908
0.03609360186501004 -0.04762621930304298 0.04090079506582617
0.0377792824327276 -0.0474970345261718 0.0407741894280787
0.039456751511391996 -0.04736842341659271 0.04064901113846686
0.041124259074555636 -0.0472406315065529 0.04052376822525233
0.04277205492865582 -0.04711501425706477 0.04039033052664215
0.04424315010079399 -0.0470133716853162 0.040118149119146906
0.04560098983745092 -0.04692703693241463 0.03975789493850179
0.04637021285190507 -0.04692236593515872 0.038909230319508825
-0.011189447202009983 -0.04813534932705418 0.07229804411732976
-0.006492550506931427 -0.04765534223574923 0.07386938165623594
-0.00337397040035875 -0.047366924162309955 0.07446031162483494
-0.0013314764664769663 -0.04720954144205326 0.07437666495926881
0.0001408241892111306 -0.0471217106320764 0.0739337940126587
0.0002871303232999667 -0.04719704697987936 0.07263428877230158
0.000388365051788242 -0.04727825152344067 0.07130085634277744
0.0006132680964768822 -0.04734446832141013 0.07004388295542907
0.000806658379280234 -0.04741485836619998 0.06876213779091211
0.0009497560121437543 -0.04749178101424548 0.06744276498247098
0.0011047536139548453 -0.04756752944661195 0.06612674719367295
0.0019562729106907817 -0.047556656478477455 0.06527433329048543
0.002248005779927398 -0.047615740995069614 0.06404423547238636
0.0024709099159286874 -0.04768368780223555 0.06276380669513404
0.002761986485947332 -0.04774334944135789 0.06152587172930085
0.0030413200547656505 -0.04780472968265729 0.060276264293248616
0.0033088928144918706 -0.04786784121565938 0.05901481609219683
0.0035480319796524773 -0.0479348006730745 0.057729785178558035
0.0038971807467405584 -0.047988107957669425 0.05651754441867474
0.0043636884318252744 -0.04802674745001067 0.05538450346214402
0.0045655263232585175 -0.04809918244096417 0.054062149667009285
0.004740864033098535 -0.04817528879111769 0.052716545999760944
0.004926152638175196 -0.048250437411262684 0.051373386965489876
0.004907089832762113 -0.048352026618786396 0.049878875660180566
-0.03805174585863769 -0.0539563274872786 0.017375280188624553
-0.03725085896010322 -0.05396482458044519 0.016293916777064432
-0.03646526604980754 -0.05397532468491306 0.015200865161241028
-0.03569747568993864 -0.05398816369589771 0.014094098351570938
-0.034947400942115625 -0.05400334494920466 0.012973462918853651
-0.03421237997643356 -0.05402053842994482 0.011840715372967159
-0.033497497118430974 -0.054040416378567435 0.010691875100967696
-0.03278208795557902 -0.05406030896156064 0.009542189039761784
-0.03170937452921713 -0.054033733086795335 0.00866068834082595
-0.029641745673009534 -0.05387715015831232 0.008535142195296552
-0.03109564942436538 -0.05418064456083144 0.005735164156340344
0.03227921559058766 -0.04677413212998662 0.040823819914102055
0.03402283904216219 -0.04664156059139307 0.04072579950170779
0.035711316235363555 -0.04651580421330355 0.040591715772632264
0.037399887313353475 -0.04638949275195422 0.040465810295317206
0.03908022324411348 -0.04626374294848493 0.040341330752721005
0.04075057028451473 -0.0461387948604498 0.04021678192742917
0.04241281596063634 -0.0460143987151698 0.04009364469543514
0.04390405576664841 -0.045912613470535206 0.03983661169753949
0.04532586296981578 -0.04581980521745121 0.039528254351161585
0.04622729596080993 -0.045797351815116044 0.038789308803299116
-0.014677327680058971 -0.047254484689474234 0.0715144243512163
-0.010743697516448603 -0.04687889788761017 0.07257970590531956
-0.007215082563627628 -0.046550147195055167 0.0734102351646064
-0.003944521696948422 -0.04625094435110316 0.07409569045121214
-0.0017638802249433372 -0.046081086572489 0.07409876690206102
0.00023061867645296497 -0.045932893020187444 0.07399182907584284
0.0005009697155887172 -0.04599141040296435 0.07277327416471999
0.0007110509298103862 -0.046057420934635225 0.07151176676272647
0.0009579328667472242 -0.04611925188366098 0.07027042437741154
0.0011444146713622816 -0.04618863482854884 0.06898538338387111
0.0013356031663345203 -0.04625772453645506 0.06769922494880576
0.0017999549981582708 -0.04629391907756825 0.06659140785164847
0.002354046623009254 -0.04631933934141758 0.06554168228652374
0.002793955354944866 -0.046358783354648214 0.06441322026749896
0.0029645078243175638 -0.04643129321482144 0.0630992653558517
0.003217482681317274 -0.04649400588779806 0.061837155556975276
0.0034742529280603063 -0.04655650657910129 0.06057376970201778
0.0036777454830193013 -0.04662580894010539 0.0592696904625063
0.0038880786648168297 -0.04669455015721222 0.05796605442512004
0.004099032957864013 -0.046763494366264986 0.056658568766955686
0.0045955969459994805 -0.04679740024346915 0.05554742023237935
0.004817425682556664 -0.046865488609882135 0.054240084625491014
0.004977423548050641 -0.04694153315726272 0.052884564233381115
0.005178602817383193 -0.04701276564725144 0.051553676347460275
0.005367871013998438 -0.047085775960788806 0.050209751010220016
-0.036373643305211756 -0.05239776339154787 0.01858688272564124
-0.035582122658713355 -0.05240678804947973 0.01750534645678553
-0.012839660549330667 -0.04966203971361659 0.032445703592994424
-0.010987629728418769 -0.049532113651477375 0.03222873310972696
-0.03331097714747511 -0.05244711464495219 0.014180982277304355
-0.03258471401897711 -0.05246455493664655 0.013048307092177802
-0.031877136161564124 -0.05248443162339826 0.011900579701344172
-0.031189443084033708 -0.05250691203006618 0.010736666559042818
-0.030515184010905527 -0.052531193075749674 0.009561181439681266
-0.029819927600078955 -0.05255290314272226 0.008400054650768207
-0.028679496430091322 -0.05251791665936479 0.007576861071874497
0.03187603654308202 -0.0456572015154673 0.04050130472956509
0.033631204428988704 -0.04552655257931832 0.040410843897046855
0.03532818718427777 -0.04540293925932835 0.04028195457020067
0.037019657425209795 -0.045279514095357666 0.04015675264758256
0.0387028687640974 -0.045156638489536924 0.04003297522655175
0.0403760637293929 -0.04503454700063217 0.039909123833498206
0.042040235346821164 -0.04491311393707789 0.03978594035670269
0.0435633892418798 -0.044809767321117557 0.03955376894449558
0.04505028706959319 -0.044710766397547466 0.03929823896906576
0.04602683160964505 -0.04467899567098959 0.038621099232313605
-0.01529813124170093 -0.046114703466736705 0.07112436603039007
-0.012526213018211996 -0.04588364679232212 0.07145336410495712
-0.00796170234121879 -0.04544333190137555 0.0729357816807987
-0.004514653514899214 -0.04513141859669136 0.07373133735303591
-0.002489504658403252 -0.04498419115952559 0.07363242123236508
-0.0008154613720767756 -0.04487743184144305 0.07331573721790283
0.000167193058609294 -0.044851245212189104 0.07255633527823199
0.0011229243112121923 -0.044828114889415065 0.07178097094473077
0.0015227474205660174 -0.04487027598056581 0.07064166595245891
0.0019728014418577966 -0.044906685452465206 0.06953291928509342
0.002566741120920535 -0.04492624957790483 0.06851752202565942
0.0030562786988816426 -0.04495824505934742 0.0674311130229453
0.003287201633263237 -0.04502102998477014 0.0661688681648599
0.0030689259397485014 -0.04513743083493045 0.06459906154211209
0.003343169068331653 -0.0451956727183033 0.0633566108421752
0.0034991564471886782 -0.04526825477614559 0.06202965000344307
0.003655645648292294 -0.04534107033550539 0.060698420239570394
0.003837532043792946 -0.04541113934692405 0.05938010175280195
0.004023096180036434 -0.04548105148541787 0.058059866504417856
0.00420091784801796 -0.045552179041232814 0.05672975079738107
0.00467352926211817 -0.045588076665473175 0.05560216803361562
0.005051328998442239 -0.04563556832255394 0.05440530766105878
0.005257369023897618 -0.04570403478412129 0.05308339768284648
0.005386985038051961 -0.045782047208530866 0.05170249423262019
0.005514958766144051 -0.04586057976314943 0.050315371016981414
0.005240924359404986 -0.04598837331532708 0.04863291039919726
-0.033936804337276694 -0.05086232177368842 0.018699775705743105
-0.03316952020332059 -0.0508736989838612 0.017606501056314394
-0.011133142253434092 -0.04827988320806103 0.032121941003535825
-0.009218046650574963 -0.0481450590907937 0.031959188675973804
-0.03096969802639782 -0.05092066430333991 0.01424651359769391
-0.030270601604039382 -0.05094066255455084 0.013098970530322607
-0.029586153547621008 -0.0509625536353324 0.011939127535974425
-0.028922622456715064 -0.050987125309895555 0.010762070801186518
-0.028290045240793593 -0.051015639342305664 0.009559925658631785
-0.02776537400555723 -0.05105768514342648 0.008273644948423253
-0.02738004602384786 -0.051117263882708125 0.006877791776834674
0.03145872620604295 -0.04453937284272477 0.04016748549666599
0.03322746221078193 -0.044410464792365406 0.04008615126216447
0.03494421191746194 -0.04428761632460788 0.039971509199337285
0.03663859001019876 -0.044167090504853616 0.0398470142430436
0.03832468534893124 -0.04404710205257202 0.03972394233533744
0.04000073672190119 -0.04392788000353024 0.03960079173584469
0.04166773946860358 -0.04380930160765288 0.03947830599882818
0.04322293207188044 -0.04370458813256198 0.03927110001093498
0.04471207081761702 -0.04360793231909176 0.03901593946331622
0.04581639670327936 -0.04356056457606666 0.03844452337174559
-0.016020784699349477 -0.044982620651659096 0.07067031419878628
-0.013471859470073788 -0.044782990748017844 0.070855825892222
-0.010138709056998818 -0.04449382550685345 0.07155236209887048
-0.00508646780254024 -0.04400858910079292 0.07336590904203183
-0.003243036181663661 -0.04388601008182156 0.07314814018193755
-0.00209065310230927 -0.043841615833046146 0.07249156821923544
0.00013719699645148298 -0.04367437083266751 0.0725368392703852
0.001858777414952939 -0.04356432477439585 0.07226193121507796
0.002489470307924624 -0.043578769734327616 0.07127707402562361
0.0029063485122203803 -0.04361780724649309 0.07014996262126194
0.0030715560993213042 -0.04368593727549195 0.06885305600837727
0.0033174422084271127 -0.043745045209758214 0.0676056702245591
0.0035526838383516113 -0.043805619012798024 0.06634730228154079
0.0037453521047285387 -0.04387136076985054 0.06505623008169004
0.0034557939924349523 -0.04399325923300374 0.06343315291328416
0.003583990859695796 -0.044067132429037446 0.0620876254177542
0.0037436881395393473 -0.044137638538156554 0.06075892180681841
0.0038924923919508303 -0.0442097005273381 0.05941807893264628
0.004006483829644192 -0.044286122780847745 0.05804832400839588
0.004204035909124937 -0.04435307241636522 0.05673192923542281
0.004457317996975685 -0.044413756641457 0.055450278651154095
0.0052870184505431905 -0.04440692442855641 0.05457179237539472
0.0055400153179731015 -0.04446800084599436 0.05328414940944465
0.005654418988971788 -0.04454568774374921 0.05189348439899877
0.0057681817247624 -0.044623769738078974 0.050497204039862464
0.005740458439565721 -0.04471894353932921 0.048993577724095516
-0.032311973576650665 -0.04933085217332148 0.01987933188026081
-0.011748922044350074 -0.046985449334765644 0.03324185712604577
-0.01009514154351987 -0.046885561702873425 0.03288373303503267
-0.008659225040721641 -0.046811297015577596 0.03237154390695274
-0.007424267315260191 -0.04676079059621833 0.031715249748230256
-0.006547677635760918 -0.04675308205656001 0.03079503214753382
-0.028000255019219933 -0.049430709222102964 0.013128545323882135
-0.027343535388973383 -0.04945505584226475 0.011952799571168293
-0.02674386159937392 -0.04948639390243201 0.010732155384421405
-0.026305170845304815 -0.04953734611808529 0.009386675316393867
0.03103758665832229 -0.04341923395558438 0.039830603161660594
0.03280965563931609 -0.04329341776667136 0.039750147964904725
0.03454542874523353 -0.04317155657336971 0.03964909158420493
0.03625668229805856 -0.0430522138934045 0.03953659282998212
0.03794567026422885 -0.04293512561528408 0.03941422984467213
0.03962458656296902 -0.04281878591081822 0.03929178341717521
0.04129442885571544 -0.04270307498527449 0.03916999877343519
0.042881791299375194 -0.04259718985940731 0.03898786350762301
0.044355368505723025 -0.04250512385669712 0.0387182101680531
0.04553836167127151 -0.04244920557605058 0.03821122426803358
-0.01968322704221709 -0.044082240773436664 0.06980172719384681
-0.016702607611709386 -0.04384165620694685 0.07024191668832008
-0.014176075137397492 -0.043650029290542014 0.07041084376343143
-0.011341365420776295 -0.04342371521429465 0.0707881116480471
-0.00569176530202975 -0.04288594889993112 0.07297908267606965
-0.0038437780871243277 -0.04276631104033408 0.07276205424919044
-0.0027780692189651734 -0.042732848372032416 0.07204728439971225
-1.1818611117153655e-05 -0.04251052072983005 0.07243998624217218
0.0016953854413484515 -0.042405080437154845 0.07215513673748741
0.0025992016701795184 -0.04238873829999102 0.07134919830691233
0.0031912562407239164 -0.04240713838483549 0.07033827708432133
0.003289107171577932 -0.042480898740490845 0.06899765508099204
0.0035423305748896183 -0.04253753798328005 0.06775598174393449
0.003784933201372964 -0.04259559732027058 0.0665034001636064
0.003744322800423028 -0.04268576415948349 0.06505553441737294
0.0035415094555188986 -0.04279458597052456 0.06349140679556409
0.0036594822740734223 -0.04286759839782608 0.06213921587375121
0.0037643980813915623 -0.04294238445519869 0.06077315338888667
0.003882123734655185 -0.04301602015095671 0.059410914269829196
0.0038745716227378546 -0.04310419726005128 0.05795666954123635
0.00408343349602619 -0.04316807955682317 0.056647670179682474
0.004208577636342581 -0.04324177868483325 0.055275537433369104
0.0053710479528912836 -0.04319712567924737 0.054631148564522
0.005799427746256802 -0.04323642971496871 0.05346839910233131
0.00590693639264428 -0.043312747905108015 0.05207382178987602
0.006034584391170716 -0.043387061938852195 0.05068850107864947
0.006179331773735752 -0.04345971002229906 0.04931044753877034
-0.030701014740611876 -0.04781141741885281 0.0210488176433265
-0.011660592179957352 -0.04570534348706961 0.0333063309969957
-0.009611169225576865 -0.045562222924219305 0.033238921862701665
-0.0078747998934528 -0.04545491104898383 0.03295037229705855
-0.006386851702990526 -0.04537610003640992 0.03248492518256474
-0.005138806930125528 -0.04532497355135642 0.03184597607210843
-0.00414654729771452 -0.04530356347537516 0.03101873423786955
-0.003573706708424662 -0.045331243746784246 0.02987671234688727
-0.02521299411153599 -0.047969041601934735 0.011892773261506784
-0.024793048859670985 -0.0480204458275773 0.010539280471552837
0.03061638458715238 -0.04229629447142263 0.03949367081224625
0.032391789936948356 -0.042173585992865685 0.03941409711411337
0.03413173873136899 -0.0420546231880432 0.039314621734514665
0.03585079148192327 -0.04193767141075226 0.03920667752141893
0.0375603095506058 -0.041821368303489495 0.03909933201807381
0.03924761054167353 -0.04170725672922429 0.03898209665045965
0.0409203008322106 -0.04159442614034483 0.03886101647053164
0.042539964863390844 -0.04148756581140112 0.038704057723410235
0.04401575928323026 -0.041397808140019476 0.03843474798935076
0.04526164306756453 -0.04133579510970061 0.037979029778874906
0.045851724545877326 -0.041353944590297495 0.03697461861949236
-0.020087686152752027 -0.0429007784522802 0.06954903949333657
-0.01737670284175208 -0.042695713177914686 0.06981837457330392
-0.014857355407795036 -0.04251031794078482 0.06998035412923087
-0.012173835397716215 -0.042306618669731746 0.07025910305146432
-0.006276628378468763 -0.041757406776647056 0.0726053152994735
-0.00439047605537235 -0.041637114228057506 0.07241070137521352
-0.003548958195535634 -0.04162883982543719 0.07154905124712743
-0.00026561884130055224 -0.04135705817558282 0.07227502821357706
0.0013012303243260526 -0.04126977562789954 0.0718975133739681
0.002558188008201845 -0.04121571636237817 0.0713222408279166
0.00335810792019553 -0.041211051222730125 0.07044856045429271
0.003507433677348293 -0.041277127951957614 0.06914276955886678
0.0037300467878121912 -0.04133548228352767 0.06788144803469748
0.003962524992761396 -0.04139299341231952 0.06662276196571137
0.004035393221219263 -0.04146819997651867 0.06525225690694975
0.0036705259784563515 -0.04159170224171657 0.06357908891345698
0.003496052030471153 -0.04169478624011555 0.06202752846054471
0.0034182452915200168 -0.04178764570790445 0.0605352820383846
0.003089319190020534 -0.04190858118012821 0.058863092398568406
0.003098902961655825 -0.04199259242719184 0.05741772398425493
0.0033957832937981935 -0.04204512620999069 0.05616724234054865
0.0034907101417587794 -0.042120286873434706 0.054771232302136874
0.005026393097259163 -0.042035533327460295 0.05438769360854956
0.005992199395775166 -0.042013936476112096 0.05360531666428475
0.006169486615598574 -0.0420802990179647 0.05226132420156421
0.006290226455323122 -0.042153261495526076 0.050872071200229296
0.006513274215883491 -0.04221505345624923 0.04955155646819642
0.0062984982442534365 -0.04232629152384098 0.047908848271150106
-0.012682813124199221 -0.04455083835800336 0.032560189907631876
-0.009658944008906656 -0.044301995536144154 0.03320385979684809
-0.0075632623048346725 -0.0441570542173676 0.033180256310217926
-0.005804674381380104 -0.0440496986931213 0.03291685196057975
-0.004318413036672297 -0.043972811363271934 0.032457947046190094
-0.003083381928848883 -0.043924183233651895 0.031816104169532955
-0.002040004454263944 -0.04389720005010212 0.031033218176060362
-0.001295597472331378 -0.043904257868604385 0.030025602087864756
-0.0011974869777617303 -0.04398533315309656 0.02852484415116746
0.030193223317319717 -0.041170775083405685 0.03915517124022405
0.031972925867559454 -0.04105107871086098 0.03907724336879165
0.033718000392513825 -0.04093492516364062 0.03898011281389735
0.035440237984260936 -0.040820952588833774 0.038872972301989106
0.03715291196457016 -0.040707612905464464 0.03876642674291514
0.03885610177319598 -0.040594900856445355 0.03866047119472393
0.040545352710412985 -0.040483347108502085 0.038551356870437814
0.042197450694663186 -0.04037570927136997 0.038419680940263545
0.043675468268614404 -0.04028826940028143 0.03815071673811504
0.04498535940366516 -0.04022045148425909 0.03774720024756539
0.0457816777500713 -0.040213576497855244 0.036915530846719224
-0.020843416440527507 -0.041753172209217995 0.0690768934997123
-0.018047467007170637 -0.041545317624597344 0.0693969254061284
-0.015485490504396238 -0.04136093128002672 0.06958344604350775
-0.013021905536802436 -0.041186051998276345 0.06972018104044969
-0.007880984036535865 -0.04073150939074095 0.07158002266329977
-0.0048287367319161945 -0.04049323861424765 0.07212903918292801
-0.004039979010660277 -0.04049081038599204 0.07123169964898596
-0.0011331437131235078 -0.04026636008108197 0.07171117847825675
0.0007875055659060659 -0.04014459365217295 0.0715617382071071
0.002517165501845109 -0.040042441468922524 0.07129527753568327
0.003350945523375226 -0.04003434785360937 0.07044382634996177
0.0037019732764894675 -0.04007722728244653 0.06927207365896093
0.003973902795101125 -0.04012865223600479 0.06804443719923714
0.004189148998768266 -0.040186296371974024 0.06677507897060087
0.004401937289000346 -0.04024443343842388 0.06549998892092851
0.003221169473591634 -0.040451227217527426 0.06327369756405138
0.0029405798004523143 -0.04056278732353321 0.061647921509521364
0.0014223535991124692 -0.04080714765825221 0.05916373321306684
0.0017382145379019054 -0.04085596892784227 0.05792948942693826
0.00218486849039512 -0.04089094500618859 0.05678263990527893
0.0020487127979094133 -0.04098876759643797 0.05522610952999474
0.0026389010946049063 -0.04100868264730275 0.05417283263012107
0.004595730305674117 -0.040881042168242294 0.05408348495095788
0.00613095584048734 -0.04079851789170682 0.05370386950731321
0.006426493528356725 -0.04085012668247618 0.052444867812460605
0.0065268536116249165 -0.040923162407733644 0.05104198719584385
0.00672103895353543 -0.040986279582222965 0.04970156415558585
0.006742178314061653 -0.04106854408549963 0.04823094062595695
-0.02671244396046696 -0.04481236727591112 0.022319660113646334
-0.010645468987987627 -0.043144343274726576 0.03247984596838105
-0.007655768710611688 -0.042905583464533506 0.033111995706746944
-0.00553716613978783 -0.04276169608479048 0.033115320654900915
-0.0038656169783062855 -0.04266651036662936 0.03279570924445829
-0.0024036278516314513 -0.04259408575554824 0.032325917109242486
-0.0011368319416582562 -0.042542974186996124 0.03171426579970682
-9.444196201635613e-05 -0.042516551703020516 0.030936250834086465
0.0007312386289599071 -0.04251411810394598 0.0299950027086881
0.0012082636613694464 -0.042550529505319706 0.028786738964875158
0.02976809236064193 -0.04004265738490263 0.038815096055777876
0.0315521151987504 -0.03992599363022444 0.03873882415306262
0.03330327960982449 -0.039812568356341206 0.03864480958394084
0.035028712322855426 -0.03970158945002344 0.03853847689049644
0.03674362947364901 -0.03959133305701196 0.0384319812161667
0.038449963722083424 -0.03948158242574159 0.03832682774584634
0.040146863907532415 -0.03937243858905086 0.03822225565304738
0.04183440805355909 -0.03926389652850017 0.03811826012953978
0.04333359755793853 -0.03917660425548528 0.037865366959415336
0.04470862337700582 -0.03910328169250135 0.037514991138813125
0.04563794641219915 -0.039081266441906924 0.03679428669079676
-0.02430954719243872 -0.04079320877148204 0.0683547859376169
-0.021485798059530603 -0.04058959630806719 0.0686755626113037
-0.01881166448246796 -0.04040022864690571 0.06891677097014914
-0.01613342213612079 -0.04020970392848738 0.06917402885758911
-0.013942007292185699 -0.04006756796083646 0.06913548519337803
-0.008790941268835284 -0.039625551247277804 0.07099849795908691
-0.005402611104850963 -0.0393604136566915 0.07176022052629666
-0.0045026349994498616 -0.03934687942884817 0.070932680518005
-0.00225686374584233 -0.03919637705828774 0.07098081412375568
0.00022785375255579554 -0.03902091955148711 0.07119594470011376
0.0022328417178409388 -0.038893763385996726 0.07110839706547673
0.003313082649504917 -0.0388607420514293 0.07041880025888231
0.0038912018694347017 -0.038879080313372456 0.06939784770717983
0.004153008732606822 -0.03892999406428191 0.0681641485298814
0.00438376760011755 -0.03898430870489459 0.06690588471786313
0.004645906354924623 -0.03903560429707065 0.06566487754786987
0.004854400047758278 -0.0390926519575062 0.06438367256949923
0.0013638052306987891 -0.039533090243682005 0.06057036163428692
0.001037250845428328 -0.03964690794153344 0.058899095992795136
0.0011048258372460262 -0.03972019651401613 0.05749182268350572
0.0007421743169757078 -0.039838617896097765 0.055780235587741145
0.00022034302211043633 -0.03997414339679962 0.0539487162598718
0.0019045252215745267 -0.03987938853592847 0.05365693028906704
0.004118151823368943 -0.03972873348818234 0.053746136306414005
0.00602638024078489 -0.039609548851951754 0.053629593875046455
0.006676944827235354 -0.039622284420339667 0.052623729677523046
0.006814970814227328 -0.039689144170900095 0.051248876895652495
0.006958648176337456 -0.039755681835255456 0.049873119783445274
0.007103846369031885 -0.03982233298247692 0.04849349583952367
-0.01815620479118618 -0.04258609034392034 0.028565043414180535
-0.01495222175958838 -0.04233351179712676 0.0293191063737967
-0.008620666101395114 -0.041746506132687856 0.032399996601071845
-0.005677030378126613 -0.04151893874996955 0.033011553112637204
-0.003714549999200678 -0.04139544312963575 0.03290839731672773
-0.0020403787216600744 -0.04130235591476011 0.03259835255759713
-0.0005765543134442774 -0.04123148825303327 0.03213674959095569
0.000675956823306012 -0.04118308409018414 0.03152032398857796
0.001772163803617277 -0.041151347541184054 0.030788441157334145
0.002685537201170707 -0.04113925352140169 0.029918862840758953
0.0033254388672044888 -0.04115675105409618 0.02883950053554374
0.0033141920098227473 -0.041245052382525474 0.02725438802304858
0.02934002661797014 -0.03891202785547891 0.03847267324674086
0.031129347524663675 -0.03879831238696178 0.0383988310984546
0.03288663337195785 -0.03868764709411004 0.03830794961661538
0.034615278780188774 -0.038579675821567516 0.038202430719021185
0.03633430227473633 -0.038472305534203645 0.03809749915624594
0.03804378396827757 -0.038365531228177 0.03799315003809939
0.03974380308659131 -0.038259347955041635 0.0378893785285328
0.04143443798079138 -0.03815375082098331 0.03778617984488719
0.04297757190946122 -0.03806420428824412 0.037568202455900035
0.04443143387568549 -0.03798428124574487 0.03728240151962231
0.045421230793823375 -0.03795618257553777 0.03661147685534849
-0.024775677390071138 -0.0396023180499963 0.0680652206650969
-0.02214279322726459 -0.03942353576021857 0.06826510184071694
-0.019573128476428447 -0.03925021668133489 0.06843833401326649
-0.016848249651775837 -0.039061055457049465 0.06872234127892007
-0.014926251467924034 -0.0389497334366184 0.06851002884717317
-0.009686754058721048 -0.03851262855079943 0.07042601251781844
-0.00590056473983902 -0.038216604119230085 0.0714401947516976
-0.005149880210415347 -0.038218275596316915 0.07051435955123053
-0.0033313466502589706 -0.03811460810015846 0.07028245155117785
-0.0004768793081946776 -0.037908128915927354 0.07073532477244326
0.0018318092218066462 -0.03775488463336406 0.07084480623824618
0.0032731649578065514 -0.0376871053242313 0.07039241600206264
0.004051642423615498 -0.03768497209736453 0.0695044872888822
0.004347275061619693 -0.03773094069579156 0.06829399280567355
0.004586368012662045 -0.037782738550578024 0.06704205514645939
0.004869098093249924 -0.03783037913052682 0.06581572363623645
0.005151518329520821 -0.037878242623799824 0.0645855998856017
0.0013836872096619213 -0.03833312079593169 0.060583948879529115
0.0008722691333764021 -0.038462091336361894 0.058785722870283275
0.0006054590290488493 -0.03856691558004023 0.05714676404179703
-0.00022995624686900085 -0.03872962590105912 0.05510478552191134
-0.0003472420465099879 -0.03882027980882608 0.05355217210536062
0.0012889656854542797 -0.03873338128201542 0.05322449695702941
0.0036184311643675526 -0.03857564125677806 0.05339314702148845
0.005706080356967513 -0.03844189242953495 0.053402098393756536
0.006943588264423872 -0.03839438713787721 0.05281415529198685
0.007144003494640949 -0.03845278240317581 0.05148514696860601
0.00727878977197749 -0.03851814590359367 0.05010426439894572
0.00741196191912552 -0.03858394495700834 0.04871717427323197
0.0072516114582742985 -0.03868023008387168 0.04711075586657798
-0.015139271262039011 -0.041069972081318545 0.029181830147392063
-0.01326427499596955 -0.040961438751033356 0.028973471240320736
-0.006684782715290105 -0.040365170317170275 0.032263885342233345
-0.003941194733528552 -0.04016456017225534 0.03273933218844732
-0.0019764118622343507 -0.04004411611096466 0.03264632745578583
-0.0002904557197758728 -0.0399522294949542 0.03235248552692249
0.0011526165036263025 -0.0398853259322785 0.03188170062676554
0.002456465064114899 -0.03983271318231304 0.031310045345372406
0.0036057421073097395 -0.03979609137246989 0.030624071400228325
0.0046076297930447985 -0.03977480687941356 0.029827421714812008
0.005382955316122429 -0.03977729644292747 0.02885694792648491
0.00582675510977726 -0.0398147906947806 0.02762807961592051
0.0289109221749283 -0.03777865485655039 0.0381294195496813
0.030703663141280646 -0.03766811797216882 0.03805649240352488
0.032462400791319124 -0.03756074857211559 0.037964956064137634
0.034201796189429534 -0.03745499290340996 0.03786634468037975
0.03592493348964265 -0.03735052955008055 0.03776298311414289
0.03763756561039938 -0.037246746507972606 0.037659440617008155
0.039340706585262675 -0.03714353861565114 0.037556471936542934
0.041034435093941224 -0.03704090110523898 0.03745407231592157
0.04261090313135868 -0.03695054425886521 0.0372621544341763
0.04410285386445972 -0.03686898665103348 0.03700669014050911
0.04519622736689255 -0.03683052558855988 0.03642167586287359
-0.02863787942468471 -0.038652692968731146 0.0671190087949981
-0.02551049263128563 -0.0384338754422885 0.06760874524974109
-0.022809949512518135 -0.038254437565576435 0.06784829286494998
-0.02023880404612005 -0.03808651801526427 0.06802008207179538
-0.017595916334378292 -0.03791115039694995 0.06824990317865087
-0.015876396977965446 -0.037822644868107554 0.06790624113501559
-0.010537775986513731 -0.037389959798101766 0.06988215149086913
-0.006469087827280839 -0.037076454086759296 0.07107481526924764
-0.005479097217456763 -0.03705535528659308 0.07030158335091119
-0.0051227747918370925 -0.03709473206922524 0.06911810881440811
-0.001193605079907123 -0.036792132848677314 0.07026686629999102
0.001249325663632117 -0.036630933518071666 0.07046195117172233
0.003128777098947877 -0.03652326484917596 0.07029698046489385
0.004101688427230188 -0.03650249564502826 0.06953775122840544
0.004564821121675555 -0.03653085002206935 0.06843939685362627
0.0048081610053393176 -0.036580576321136406 0.06719112516311526
0.00507874014326537 -0.036627862617202245 0.0659574120492542
0.005371494476276939 -0.03667318593540975 0.06473509991857684
0.005507363257928388 -0.036733957840678386 0.06340204851996906
0.0008375733215175152 -0.03726353387195561 0.058761880394171184
0.00065819645408699 -0.03735654707937891 0.057183205198782505
0.00011159319383108324 -0.0374858883486132 0.05534209890427494
-0.00022486714644209815 -0.03759514153337608 0.05363766951176485
0.0007849054593296323 -0.03757251036784613 0.052870392389818
0.003119489804240483 -0.03741929671777461 0.053040708212408694
0.005205365924186078 -0.037290003116113246 0.05304646207719954
0.007018965323658755 -0.0371871076713015 0.052867986441827275
0.007440466930198619 -0.03722175216323611 0.051698029887892905
0.007539472877779951 -0.03728856583924924 0.05029247954211613
0.007681278381895862 -0.037351396121138365 0.04891268626393164
0.007790393434826404 -0.03741774608854586 0.04750402443848373
-0.01323030924126517 -0.03959578123221666 0.030582823462681652
-0.012271768815594997 -0.039582011072799884 0.02970584290963363
-0.011583651109581372 -0.03959531821635587 0.02862933558750763
-0.005258528293945519 -0.03904187639526198 0.03175667019084827
-0.002369371486431626 -0.03883233237536933 0.032351609251197344
-0.0003397526128359196 -0.03870869991303893 0.0323153126375762
0.0013540481969155915 -0.03861852792968677 0.03203441484017755
0.002834489955897912 -0.03854961058836247 0.03159819236207284
0.004163268588729563 -0.038495813316978135 0.031051337593013317
0.005346847173548608 -0.038456573787110496 0.03039698471168334
0.006389136762190217 -0.038431585319622506 0.029636382691273888
0.0072926316206640696 -0.038420683509529534 0.02876972721351101
0.007939265085505798 -0.03843605685294599 0.027702841350773777
0.00784296558584524 -0.03852778870190096 0.02604985134151927
0.028480775246315093 -0.03664252839045573 0.03778533193670147
0.030276947610745675 -0.03653518585593293 0.03771332445202841
0.032034306695853054 -0.03643140996160378 0.0376188404631681
0.033777027013578376 -0.036328709137622484 0.03752108470368598
0.03550994942957092 -0.03622658571701205 0.037423878545436495
0.0372294671642755 -0.03612542025709227 0.03732418669860926
0.03893574709010633 -0.036025201525617265 0.03722202674790431
0.04063258612183518 -0.03592553730716268 0.037120432050986474
0.04223532805785163 -0.035835333223880717 0.036948672580470576
0.043737812356158534 -0.035755300516698243 0.03670038393121838
0.04491388240435229 -0.03570939159363301 0.03618350458325614
0.045290133554116985 -0.035747939611950254 0.03499225095393943
-0.029199022714630485 -0.037456820649728446 0.06677240099073306
-0.02622236619570839 -0.03725888416473276 0.06716652145963087
-0.023550620220009866 -0.03708798818632816 0.06738555541378016
