# .PCD v0.7 - Point Cloud Data file format
VERSION 0.7
FIELDS x y z
SIZE 4 4 4
TYPE F F F
COUNT 1 1 1
WIDTH 780
HEIGHT 1
VIEWPOINT 0 0 0 1 0 0 0
POINTS 780
DATA ascii
0.03282471807089836 0.07171338292521018 0.038749847755264244
0.032792936210258965 0.07271743032339084 0.03818614943402465
0.03276113394902564 0.07372030839848132 0.03762425090233934
0.03273356188604305 0.07468197652205155 0.037027227496000736
0.032709872301987804 0.0756059745629361 0.036397784784086895
0.03268613547108633 0.07652940047604123 0.03576996474750982
0.03266259585107401 0.07744996422208983 0.03514162860138387
0.03263900883586299 0.07836996162674914 0.034514911188815056
0.03261553702081264 0.07928787546489258 0.03388838286663182
0.03259898897842066 0.0801404538010137 0.03320184356505529
0.0325865079327898 0.08095462315567253 0.032480091192052585
0.03257395548844254 0.08176891798498404 0.031759611065493465
0.032561736272456995 0.0825796002651425 0.03103680054937541
0.03256521490751937 0.0832452535132771 0.03017423370424277
0.032542818607533906 0.0841486912385821 0.029543540351747333
0.032185540038775245 0.08811955276649458 0.031925827336490076
0.03226246432993706 0.08810599157282756 0.03041017518877226
0.03233975720409183 0.08809236540077559 0.02888726078868442
0.03241734114112018 0.08807940324330987 0.027357759033563245
0.032495056542510094 0.08806857246436972 0.025823099311905073
0.03257355020437303 0.08805402448912814 0.02427737187224982
0.032652261312145554 0.08804087575121211 0.022725646825971446
0.03273135373811349 0.0880276633139852 0.021166404403521966
0.037579316120901485 -0.03397974807056242 0.044226266590066954
0.03738472203887066 -0.03099178582237988 0.044673970495384185
0.03719213287555333 -0.0280346087930462 0.04511706167066487
0.0369991407278037 -0.02508152430604238 0.045573331606386824
0.0368050404418668 -0.02212479688685348 0.04604808762573859
0.03665003298945625 -0.019606137957411285 0.04623960457079823
0.036499584890974726 -0.01714433737347265 0.04640496039316111
0.03635047120421809 -0.014703806520507012 0.046568175747074725
0.03620246748306339 -0.012282005882737979 0.046730847724907765
0.03605566408994992 -0.009879846340304588 0.04689220041321812
0.035907604046720984 -0.007470528630085849 0.047070909219059376
0.03576045223596189 -0.005077631258981807 0.04725047752955269
0.03561440147104099 -0.002703182117000602 0.04742935015201727
0.03546963812979934 -0.0003491224413505467 0.047606001196229764
0.035326046873864515 0.001985877445295048 0.047781221974240395
0.03518361352583905 0.0043020480877615785 0.047955029786371894
0.035062494253824884 0.006382950288530753 0.047970151599275423
0.03494133877880297 0.00845887135144785 0.04799195548988611
0.03481365069614565 0.010599304821489464 0.048071447619645324
0.034660229232676996 0.01300879295897478 0.048360398194296716
0.03450806008732009 0.015398138625916269 0.048647556004312975
0.03435731440277451 0.017765605658985828 0.048931464604383634
0.03420778767380583 0.020113458295543063 0.04921363837055026
0.03405964837244755 0.022439994014332776 0.049492635779909255
0.033912786592832506 0.02474646618534526 0.04976922717497356
0.03376718588029862 0.027033133229933726 0.050043443545551625
0.03362291928503157 0.02929931049435691 0.0503145960028486
0.033492270017350174 0.03141613611481714 0.05048322311798603
0.03336860685993548 0.033453983889836836 0.05060205913729482
0.033245940776075525 0.035475926473882646 0.050719310610593316
0.033124086655288466 0.037483961169975544 0.05083641050385562
0.033003208483453506 0.039476434965798946 0.05095195070609032
0.032883209332569406 0.041454419576593016 0.05106665070473654
0.03276407964906792 0.043418072476895164 0.05118051963147974
0.032645810017323966 0.04536754886748118 0.051293566486153686
0.03252839115717493 0.04730300171625579 0.05140580013911178
0.03248968890227984 0.04842257608182993 0.05086880496123086
0.032451992899733044 0.04953009405715403 0.050325449325501426
0.03241430134408714 0.05063589536794261 0.049784047928291664
0.032376779973201195 0.05173828445753942 0.04924320727039838
0.03233934536783044 0.05283812435047619 0.048703617268131494
0.032301997227363516 0.053935423878799016 0.04816527358842426
0.03226473525257663 0.05503019183379637 0.04762817191819918
0.0322275591456246 0.05612243696624386 0.04709230796426139
0.03219038682704422 0.05721299573769434 0.04655837570009075
0.03215338175562572 0.05830021760587817 0.04602497492899882
0.03211906692010695 0.059358689582756974 0.04547041832972304
0.03208758789496164 0.06038712683144043 0.04489323828983677
0.032056170512694764 0.061413550173107845 0.04431718849574584
0.03202481459241811 0.06243796551748243 0.0437422656307897
0.03199360073967766 0.06345957183744216 0.043167763854901564
0.03196236704588387 0.06447999218597494 0.042595084191247856
0.031931194276104344 0.065498422116671 0.04202352158858236
0.03190016256680045 0.06651407058068914 0.04145236797827723
0.031869110955214636 0.06752854043450118 0.04088302896873536
0.03183811973592706 0.06854103724534916 0.040314797266894686
0.03180718873292359 0.06955156676369728 0.03974766964548626
0.03177631777087293 0.07056013471769013 0.03918164288977488
0.03174574529057098 0.07156440575704776 0.03861458830277392
0.03172261622230921 0.07249445918433206 0.03798264920167843
0.031699600139597585 0.07342238380780841 0.03735091961986564
0.031676617430807325 0.07434896291638377 0.03672010606239401
0.03165366802340134 0.07527419943448643 0.03609020653831896
0.031630751845052596 0.07619809627807572 0.03546121906246147
0.03160794767352237 0.07711989324476132 0.034832426793892535
0.03159021629987591 0.07799169715344767 0.03415871474961435
0.03157809160449151 0.07880870208797136 0.033434812508632894
0.03156589757206681 0.079625835970208 0.03271218493161754
0.03155371295351805 0.08044233901950065 0.03199011522804235
0.03154860603953131 0.08119058821950353 0.031203587211507344
0.03155198417642907 0.08185762105500832 0.03033905779614382
0.031555363036857006 0.08252479675630758 0.029474343215017462
0.03157706816790085 0.08301801003838932 0.028439429425703155
0.031604162791128806 0.0834611010803537 0.02735322593406525
0.031168099386387156 0.08828518201104035 0.030586976253955622
0.031242647917008735 0.08827271996597003 0.029066133524324966
0.03131747650838909 0.0882609267276181 0.027538724508870016
0.031392742180729606 0.08824834652031044 0.026003249531218464
0.03146829234328892 0.08823643783200014 0.024461113788806832
0.03154436408845045 0.08822300382496129 0.02291005128875534
0.03162088343229816 0.08820876896128704 0.021350722712816073
0.03625175954979889 -0.03444743472885503 0.04546036245750157
0.036064203094636156 -0.03145965130189893 0.045901292156554585
0.0358743688629829 -0.02845435328939494 0.04636994657221821
0.03572424730623478 -0.02591236081001963 0.04654345255790593
0.03557630803598009 -0.02340219136447652 0.04670832333978969
0.03542948637891516 -0.02091155626292618 0.046872629290818646
0.035283871590843854 -0.018441394096498254 0.047035584652403484
0.03513954978673582 -0.01599259959565491 0.04719641840647154
0.034996303697889426 -0.013562621584162882 0.047356725741582395
0.034851539788166616 -0.011122055092369465 0.04753679787761517
0.03470796858892906 -0.008701596438449533 0.04771538639838285
0.0345655754205292 -0.00630099813906454 0.047892509563932484
0.034424345843233985 -0.0039200167555819565 0.04806818533588231
0.0342842656523443 -0.001558412811789811 0.04824243138348744
0.0341650602346654 0.0005630781458709211 0.04825745675015414
0.03404753370124249 0.00266034036027446 0.04826553678445056
0.03392949547315485 0.004757911188707831 0.048284166359824965
0.03381180559779274 0.0068461868712849094 0.048306441148162294
0.03369492935124296 0.008920025617429606 0.04832856194341967
0.03356789388764005 0.011101058852558798 0.04843968651813707
0.03342006951226443 0.013506116282677727 0.04872737377098818
0.03327363188777875 0.01588908555296792 0.049011797491865794
0.03312838225024014 0.018252250716722374 0.04929447640368739
0.03298448415186015 0.02059389650622645 0.049573965195021386
0.03284191889802563 0.022914320986004266 0.04985030750737057
0.03270224159870075 0.0251966000615369 0.05011049345658192
0.0325802248719631 0.02727963096395547 0.05023133488741366
0.032459029159293294 0.029348113903538586 0.05035199707233767
0.03233881726565304 0.031400335237113386 0.05047104870692021
0.03221949249378526 0.033437411894411906 0.050589221781905835
0.03210096082597145 0.035460422914056156 0.05070723627530688
0.0319833817053087 0.03746770026527252 0.05082367825139539
0.03186666077549044 0.0394603268262565 0.05093927033634471
0.03175078867498786 0.04143846241436616 0.05105402180114832
0.03163575617793892 0.04340226453089774 0.05116794178244172
0.03152155419169881 0.04535188840289883 0.05128103928493494
0.0314081737544446 0.04728748702406321 0.05139332318378026
0.031364368300307865 0.048475762646359 0.05091180656023703
0.0313279837197191 0.04958304307966044 0.050368487309664756
0.03129160341791297 0.05068860753632076 0.04982712179319393
0.03125538736696706 0.051790760995834795 0.049286316954120946
0.03121925504982569 0.052890366206817585 0.048746762489980555
0.031183206176427575 0.05398743199663042 0.04820845406935931
0.031148588664303957 0.05506777229365345 0.047659539337464474
0.031117925970619353 0.05610497488412364 0.047077655620807624
0.031087323586139623 0.05714013744311269 0.04649691638744158
0.031056860176168093 0.05817244129845761 0.045916618919798924
0.031026377722837905 0.0592035452336781 0.045338157765873466
0.030995955047992713 0.060232627093189384 0.044760831019596714
0.030965670356697925 0.0612588783682686 0.044183933670536135
0.03093536655915576 0.06228393726927972 0.04360886498390937
0.030905122015587864 0.06330699184026595 0.04303492074718618
0.03087493655237247 0.06432804795417785 0.04246209766557685
0.030844887767044585 0.06534631049255624 0.04188968773277851
0.030814819794826052 0.0663633905623 0.04131909637813436
0.03078481038658882 0.06737848964524995 0.040749616375411024
0.030754859371399806 0.0683916135233879 0.04018124448086646
0.0307289797937078 0.06936180384512353 0.039577172162156504
0.03070661171482929 0.07029504362146433 0.03894221578337237
0.030684199213573852 0.07122770780118531 0.03830889315492664
0.03066189625618186 0.07215823234801744 0.037675783257311635
0.030639625697141206 0.07308740517008189 0.03704359304559257
0.030617387465907628 0.07401522921061587 0.0364123205172574
0.030595258008916444 0.07494093691359038 0.035781249377773494
0.03057644634951256 0.07583229596585606 0.03512032609558735
0.03056460532782382 0.07665292006271901 0.03439497856613227
0.030552849778427347 0.07747214571938738 0.033669474029403235
0.030541027022034446 0.07829150221650599 0.03294524746717653
0.030529213411932002 0.07911022484513547 0.032221581179266656
0.030530813363076986 0.0797951839154255 0.031371141428806704
0.030534090038867267 0.0804636020018169 0.030504640492838686
0.03053736741807187 0.08113216358018688 0.029637953541714834
0.030562085117898853 0.08158941069288572 0.02856565879689371
0.030588448921264506 0.08203159502191049 0.027476194534187037
0.03064968103922755 0.0821326860628327 0.026049292252642797
0.030752925426065537 0.08182511669136067 0.024213054604794004
0.030233602707901753 0.08760547147767689 0.02840436772386512
0.03023076360515503 0.08832721083741674 0.027604804918901882
0.03029154570299703 0.08843008991207951 0.026185373205887985
0.030364626759884834 0.08841643200378635 0.02464241891584551
0.03492734927767209 -0.03492420382419176 0.04668579588467131
0.03478060491965145 -0.03234021910776208 0.04685316121267746
0.03463519015920824 -0.029779068306200696 0.04701832051066551
0.03449088542324091 -0.02723804469521446 0.04718290626621785
0.034347778164517916 -0.02471810714153766 0.047346126247333864
0.03420595272411177 -0.02222016931935339 0.04750720321245211
0.03406519531800105 -0.019741612044962886 0.04766774588783329
0.03392549402980128 -0.01728221843120803 0.04782775945712153
0.03378441805421819 -0.014813288617613052 0.048006824333185705
0.033644510520413624 -0.012364807365245867 0.048184406129634205
0.03350575697207332 -0.009936521678338084 0.0483605231955771
0.03336814319038093 -0.007528182717502219 0.048535193578671865
0.0332510448962436 -0.005366026636871135 0.04854933119612043
0.0331356032436303 -0.0032287569620099155 0.0485564727258882
0.033020867969883655 -0.001105201104132758 0.0485643285413464
0.032906006594662134 0.001014355693425173 0.04857974036165713
0.03279121230748338 0.0031276662766809293 0.04860111176295451
0.03267721616614878 0.005226283358311434 0.048622334572257564
0.032564009875429976 0.007310359649691678 0.0486434103339044
0.032451585254653345 0.009380045753299482 0.048664340570902465
0.03232548930350758 0.011601462706699595 0.04880693451743495
0.032183326838323145 0.014001097771588311 0.049092621304664685
0.03204249634822428 0.0163787229495716 0.049375067417540774
0.03190289300209568 0.018735630395317004 0.04965505240099033
0.03177382653656923 0.020965825269801286 0.04985291036556205
0.03165437676034936 0.023080523602898917 0.049975634559034254
0.0315358217323744 0.025179381616588392 0.05009743947683837
0.03141806776032369 0.02726352412701244 0.05021905763523188
0.031301272951445594 0.029331221803584884 0.05033905171642783
0.031185260839601357 0.03138453293919402 0.05045887320159309
0.03107018733714148 0.03342175911701245 0.050577096495276086
0.030955959952777792 0.03544400587832158 0.050694450510793576
0.03084256938862521 0.037451437830040235 0.050810944800534164
0.0307300064825325 0.039444217176096974 0.05092658877743733
0.03061826220561443 0.041422503761119445 0.05104139171752908
0.030507327659837415 0.043386455113176625 0.051155362762402845
0.030397194075658218 0.045336226485587106 0.05126851092164125
0.030287852809712044 0.04727197089784119 0.05138084507519847
0.030239327879047425 0.04852978974313904 0.0509554877324252
0.030204254068879315 0.049636828900427976 0.05041220545827141
0.030169492998209965 0.05073875358845975 0.0498680987544019
0.030139662398058594 0.05178483694937491 0.04928145041574894
0.030109967583903323 0.052828010899820865 0.04869526500280358
0.030080254522825794 0.053869970636408415 0.04811093036469566
0.030050600046524354 0.054909875957438736 0.0475277478499031
0.030021003981903827 0.055947732932913996 0.04694571405434472
0.02999154240662122 0.05698271869160754 0.046364126356616686
0.02996206249897302 0.05801650053100982 0.04578437905562399
0.0299326404882344 0.05904825208009973 0.04520577034618206
0.029903352006317264 0.06007716067828117 0.04462759530079963
0.029874045130381714 0.06110487295382727 0.0440512529629164
0.029844795642615454 0.062130572782747695 0.04347603920758125
0.029815678733088616 0.0631534576099615 0.04290124684012331
0.029786543369914535 0.06417515360830456 0.042328279568767224
0.029757464892112586 0.06519485479524073 0.04175643098790266
0.029728817729631644 0.06620857501789529 0.041182167036807216
0.029707031862227274 0.06714797531250805 0.040544662293258926
0.0296853526026674 0.06808520728222622 0.039907382873924035
0.02966370496159597 0.06902107232994126 0.03927103290563211
0.029642014386353503 0.06995636010529577 0.03863632085992996
0.029620429883530284 0.07088949734913891 0.038001824779815674
0.029598876792197866 0.07182127661726262 0.037368252068958996
0.029577429202782387 0.07275092293514723 0.03673488699395844
0.02955756784204263 0.073662946078282 0.03608742777905888
0.029546167008173686 0.07448567438992382 0.035359189834583415
0.02953477496582968 0.07530776827107954 0.03463151345623949
0.02952331781662635 0.07612999651587699 0.033905117493856274
0.02951186955284777 0.07695158709354855 0.03317928487727512
0.029505152425061115 0.07772367816575548 0.03240776317014177
0.029508325983891512 0.07839334312520646 0.031539468511947166
0.029511500225497932 0.07906315216043341 0.03067098704363852
0.029516742948842288 0.07971185689848426 0.029781889823837338
0.029542170940574205 0.08015387073361924 0.028692501432562578
0.029567716891637764 0.08059588877760698 0.02760049807492071
0.02962578501081766 0.08070725253176536 0.02618297321839197
0.029712043872048073 0.08053438142803243 0.02448044272668326
0.029928613936512433 0.07904206871910341 0.021467118072647118
0.03353415802810873 -0.03368671147361674 0.047499175368089674
0.03339378062047312 -0.031116746909873316 0.04766183527621992
0.033254476230218315 -0.02856700399373241 0.04782393989494221
0.03311632924520421 -0.026038445519732778 0.04798469767343483
0.03297942104631884 -0.023531988868834786 0.04814333202970944
0.03284326035386766 -0.021041498058316788 0.048303818428343304
0.032705959250869186 -0.018543737698394513 0.048481844335310775
0.03256980134032107 -0.016066774118006055 0.04865838796799782
0.032434679794509626 -0.013609216174845284 0.048834245988358005
0.03231988186157205 -0.011406366413225288 0.04884668145092058
0.03220662415693879 -0.009227951537283396 0.04885284774203125
0.03209406677666018 -0.0070636487476656296 0.048859740948844876
0.031982383441812604 -0.0049155132910180255 0.04886581886117625
0.03187066993168721 -0.0027725347521184718 0.04887873589219849
0.03175884620398909 -0.0006337484361056966 0.04889918148064454
0.031647804436931486 0.0014900817812483202 0.048919484097092125
0.03153753645695456 0.0035991122307903467 0.04893964523597483
0.03142803420401603 0.005693497072178588 0.04895966637097693
0.03131928972962852 0.007773388331430708 0.048979548955381536
0.031211295194935696 0.009838935937716065 0.04899929442242762
0.03108633836150063 0.012101536871820806 0.049173940556743956
0.030949893064227733 0.014494754939590682 0.04945689162008887
0.03083128347616525 0.016669293743004854 0.04959064663295437
0.030714409950505783 0.018817382055287657 0.04971603493410265
0.030598501572738253 0.020948270905573274 0.0498397447393783
0.03048338292057824 0.023064103320245166 0.04996325273535701
0.030369208415938917 0.025163118224627634 0.05008510956459622
0.03025588599212789 0.02724646824523308 0.050206056979920144
0.03014332615935283 0.029315266666325612 0.05032682441146974
0.03003168012005195 0.031367799552071585 0.05044598029719327
0.029920858065466186 0.033405184066021665 0.05056425677291915
0.029810850907213342 0.03542758729160572 0.0506816635383594
0.029701649690078876 0.037435173864060645 0.05079821015110114
0.02959324558958584 0.03942810601510638 0.05091390602919982
0.02948562990961773 0.04140654361664725 0.05102876045371613
0.029378794080093005 0.0433706442235246 0.0511427825711982
0.029280501302770656 0.04523090643877792 0.05118426230505202
0.02918661305141474 0.04703560517208061 0.05119075802866763
0.029123831972123364 0.048478335569933306 0.05091388693611809
0.029094964257309973 0.04952923960794703 0.050324755052582715
0.029066153713342605 0.05057806239117024 0.049736789910669044
0.029037474395647335 0.051623962982564 0.04914929214190633
0.029008777538404633 0.05266864526649595 0.04856364930143109
0.028980137345448458 0.0537112647401044 0.047979162860417424
0.028951627435975024 0.054750990867532434 0.047395131077912434
0.028923099923912614 0.055789506476254636 0.04681294638989647
0.028894628575544187 0.05682597750183804 0.04623190788102782
0.02886621322517419 0.05786040997626879 0.04565201216981357
0.02883792691620046 0.058891987066296 0.04507255441517205
0.028809622923705976 0.05992236386045502 0.04449493343145117
0.02878137443643855 0.06095072004584334 0.04391844518477994
0.028753181291286463 0.06197706156037491 0.04334308634640838
0.02872504332577605 0.06300139431872476 0.04276885360062066
0.02870094813830947 0.06397939588874796 0.0421569460317448
0.02867986177273656 0.06492283410707267 0.04151709630267514
0.028658878670471014 0.06586408693205364 0.04087747836364919
0.028637926249448473 0.06680396346839929 0.04023879566629601
0.028616932351357025 0.06774326097459554 0.03960175604355415
0.02859604119650476 0.06868039103512957 0.03896493877113
0.0285751805215229 0.06961615383751951 0.038329050605146076
0.028554422035858704 0.07054976692319825 0.037693376388270194
0.02853369368824773 0.07148202454970942 0.03705862507021762
0.02852266039101364 0.07230764333546413 0.03632819953744615
0.028511635623048426 0.07313262387823194 0.0355983386587031
0.02850054786858984 0.07395774233807523 0.03486976064732916
0.028489540184742423 0.07478144624783217 0.03414102866412566
0.02847846960535279 0.07560528482321927 0.033413581333449405
0.02847804118245593 0.07631396020538239 0.03257885722415654
0.028481111344484777 0.07698502121218948 0.03170857382070791
0.028484182168571633 0.07765622692890684 0.030838102746397644
0.02849268405426747 0.07826949487125034 0.02991189068909439
0.028517361202729827 0.0787105755153471 0.028819227335201925
0.028542009419343744 0.07915318434576923 0.027725407519135103
0.028596904152713726 0.07927574416540428 0.026318038436136282
0.028666977685786254 0.07924016970870529 0.024750365864098955
0.028811375022327185 0.07842229398038952 0.02240727884710586
0.032284601722565975 -0.0350365628292561 0.04814680108463676
0.03214928721383373 -0.03245774852995753 0.048306948639480485
0.03201500841955536 -0.02989925085961187 0.0484665593066641
0.03188184664974738 -0.027362036553500557 0.04862484222107066
0.031749326586520445 -0.024839913369171962 0.048785775899220785
0.03161589023395647 -0.022312857366866667 0.04896272643768845
0.03148357080042556 -0.019806953898148905 0.049138195824723285
0.031371084003377805 -0.017561101117847144 0.04914966306988694
0.03126011384134586 -0.015340359916150681 0.04915481579811798
0.031149837154690982 -0.01313414456663825 0.0491607085639007
0.031040423991229672 -0.010944559832715861 0.04916578628253182
0.03093177675913665 -0.008770302976756128 0.04917082845515758
0.030823278563783335 -0.006603516988789082 0.04918121270811859
0.030714502401834844 -0.004438803765104804 0.04920070945674293
0.030606491286598526 -0.0022893154463182186 0.04922006908028759
0.030499237175244404 -0.00015489197511819874 0.049239293020332586
0.030392732137286986 0.0019646244700859405 0.04925838269831617
0.030286968352629236 0.004069389514080923 0.04927733951589647
0.030181938109649673 0.006159556622926221 0.049296164855284486
0.030077633803327532 0.008235277141261044 0.04931486007958441
0.0299806297168601 0.010214856324581745 0.0492736868413729
0.02987411425328584 0.012307476020103514 0.04932508000553443
0.029759999006948017 0.0144887303354167 0.049452446133964434
0.029646832720475868 0.01665238946761688 0.049578105156464436
0.029534523831380458 0.01879965577021242 0.04970281213100841
0.02942298337459935 0.020931690215002186 0.049827309364571415
0.02931236089933752 0.02304671551161025 0.04995014133771242
0.02920248905389247 0.02514685335431177 0.050072778531555395
0.029093515291238936 0.027230358405096633 0.05019377743858833
0.02898535180957287 0.029298371428473635 0.05031387665081416
0.02887798960502868 0.03135106457229431 0.05043308616566916
0.02877141980665056 0.033388607443268103 0.050551415833009594
0.02866563367394817 0.03541116715368903 0.05066887535783321
0.02856062259450756 0.037418908367117754 0.050785474302927236
0.028461346033528005 0.03935200548380263 0.050853999199500066
0.02836909244334433 0.04119537593946304 0.05086163602954302
0.02827743497479593 0.04302683495624776 0.0508692235120059
0.028186367868487584 0.04484649761584242 0.050876762123660546
0.028095885438978386 0.0466544775222133 0.05088425233515337
0.02801726037419747 0.04831615161510722 0.050782760731738374
0.027989476046338977 0.04936772545166357 0.05019347356122389
0.027961818351279966 0.050416364245198186 0.049604658238197874
0.027934143822110197 0.05146378061183465 0.04901770201600014
0.027906524018974335 0.05250912572586258 0.048431906492237886
0.027879029937379222 0.053551564794038664 0.0478465700337834
0.027851518960075514 0.05459278927664862 0.04726308480314123
0.027824062224628413 0.05563196083522809 0.04668074999760702
0.027796730308956973 0.056668255018160085 0.04609886163800353
0.027769381437944482 0.05770334234989466 0.04551881671370622
0.02774208633030631 0.05873639487057719 0.044939912062043674
0.027714844827663003 0.05976741857447321 0.044362144323937536
0.02768814807107033 0.06079070175901341 0.04378058418760977
0.02766780879340818 0.06173878804822419 0.04313672259155854
0.027647499375512766 0.0626854824672694 0.04249380623827337
0.027627149873617935 0.06363159592097228 0.0418525400977347
0.027606900080727234 0.06457551280134238 0.04121150909797333
0.02758667995083498 0.06551804698097441 0.0405714171152185
0.027566419847625614 0.06646000042380612 0.03993297242798888
0.02754625895025546 0.06739977534662306 0.039294753389978065
0.027526127520840847 0.06833817665774866 0.03865746719777924
0.027506094761499067 0.06927441727828071 0.03802039820911274
0.027493978342085494 0.07011953380466157 0.03730275867764726
0.027483324712326285 0.07094741722708647 0.036570702095991114
0.027472679335652308 0.07177465931014188 0.03583921261918038
0.027462042202476774 0.07260126079878626 0.03510828958849199
0.027451344311676732 0.07342800051752846 0.03437865368048193
0.027443205682814262 0.0742253927919111 0.033622836845866755
0.027446170813808415 0.07489771030840398 0.032750744043434143
0.027449136585623826 0.07557017312601982 0.03187846276453854
0.02745210299846833 0.07624278129186629 0.031005992948072547
0.0274636299738371 0.07682009724625882 0.030042525676502452
0.02748740475979706 0.07726176566710707 0.02894804446126592
0.027511290037157025 0.07770343043357236 0.027850927307761064
0.027563149436744545 0.07783658778168029 0.026453008326415506
0.027623794938258246 0.07787535613257113 0.0249576260082075
0.02775731258213912 0.07711413386521254 0.022674290405307496
0.030901698433736385 -0.033802085564242135 0.04895366656463018
0.03077247062762526 -0.03123479750709246 0.04911077039301426
0.03064369227288478 -0.028680470040398864 0.0492721325257538
0.03051421121007619 -0.026123618487225997 0.04944797807840978
0.030404145567088772 -0.023833511518387696 0.049458437556645085
0.03029548377950498 -0.021568048462827005 0.04946332238235124
0.030187682827242105 -0.01931987914718175 0.04946738957174596
0.030080646333509757 -0.017087652475465065 0.04947142791895853
0.02997428051236879 -0.014870062068738865 0.04947621501953936
0.029868749343441664 -0.012669226385929544 0.049480193847266984
0.029763620723825854 -0.010479365584855238 0.049487231965766654
0.02965797123356848 -0.008288263631439252 0.04950575622743009
0.02955306911980467 -0.006112661781976225 0.04952414944621092
0.02944890647994716 -0.003952396141928272 0.04954241300772544
0.029345475522430386 -0.001807305119279845 0.049560548278128
0.0292427685647688 0.0003227706157406529 0.04957855660444166
0.02914077803165345 0.0024379881701275252 0.04959643931490265
0.02904536843976563 0.004461970528361725 0.049559242073119014
0.02895737722800695 0.006384354212163601 0.04945847043678281
0.02886872530164497 0.008310600570336335 0.049369541666682004
0.028780535532456995 0.010226111901794899 0.04928190260479032
0.028680483155087973 0.012290238545323462 0.049312429446636885
0.02857100019023518 0.01447065554871596 0.04943910880316682
0.028462272654448024 0.016635483632163106 0.04956556252254374
0.02835444618188004 0.018782912688565356 0.04969032274617691
0.028247433604119382 0.020914132540456487 0.04981414125567735
0.02814115021733472 0.023030292144145537 0.0499377571879126
0.02803573858996963 0.025129630121337454 0.05005972092182176
0.027931113719690252 0.027213299343020303 0.05018077435913093
0.027827266831107707 0.029281474576508093 0.05030092765317351
0.027724189278855747 0.031334327999632816 0.0504201908068439
0.027624055567158842 0.03334439559756919 0.05051716737264106
0.02753353223073315 0.03522770452621815 0.0505259918905106
0.027443672066413627 0.037097805328771105 0.050534049867797415
0.027354325180351628 0.038956636668391054 0.050542761986196894
0.02726555816900875 0.0408034039133473 0.05055141756151049
0.02717736540543368 0.04263822413043161 0.050560017142418034
0.02708974133524381 0.04446121287667015 0.05056856127052173
0.02700268047545852 0.04627248422359137 0.050577050480465846
0.026916177413356373 0.048072150781008904 0.05058548530003937
0.026882985438919763 0.049205198957106844 0.05006136922343879
0.026856339403053712 0.05025536100845246 0.049473094411361274
0.026829746137046268 0.05130344331704201 0.04888598461967775
0.02680327399696849 0.05234860681082787 0.04829933832673655
0.026776785666139575 0.05339255162657097 0.04771454741387704
0.026750349637614017 0.05443443513025237 0.047130911194712966
0.026724033864813704 0.055473428639698896 0.04654772578797345
0.026697701843083003 0.056511211257595007 0.04596638792989122
0.026671421661607835 0.057546950777007666 0.04538619456046694
0.026648985303666183 0.05853447884904256 0.04476777862101844
0.026629359064763554 0.05948666338015446 0.044121535247808874
0.02660976171282241 0.060437446434580155 0.04347624305050185
0.026590125756429942 0.061387646709550436 0.042832606309846144
0.026570586086473034 0.06233563307565704 0.042189211286431216
0.026551075112633066 0.06328222722141641 0.041546761158045065
0.02653152564092803 0.06422823883208134 0.04090596354199111
0.02651207196840945 0.06517205474447307 0.0402653980690007
0.026492646802840455 0.0661144876115129 0.03962577126535938
0.02647331691784359 0.06705474276014084 0.038986368086307455
0.026460223401325707 0.06791969656532187 0.03828147265325926
0.026449944708051006 0.068750504016932 0.03754720593633848
0.026439673997305083 0.06958066625578563 0.03681350945773515
0.026429344645064603 0.0704109719637856 0.03608110167844486
0.026419089923187627 0.07123984363587893 0.03534854525210507
0.026408776644850362 0.07206885549115571 0.034617279324506645
0.026406648406956217 0.0728011584869877 0.033797528149475176
0.026409508165150256 0.073474882970747 0.03292342915069307
0.02641236854282804 0.0741487533978516 0.032049140803145415
0.02641522954019095 0.07482276981572733 0.031174663045299533
0.026429544069688275 0.07536361241996747 0.03017379943711246
0.026452546382029995 0.07580432265017173 0.029076016521871417
0.026475521920599484 0.076246575245706 0.02797706192524052
0.026524477770507794 0.07638971714909226 0.02658788322405853
0.026582911700662473 0.07642616536213853 0.025089932951183336
0.026699195720628413 0.07580007532972749 0.022941586317077434
0.026962892751159328 0.0734879130681329 0.019133283246169364
0.029526070625309483 -0.03256266619027931 0.04976376225089674
0.029418541271876826 -0.030227005046923605 0.049773172650176334
0.02931239079518864 -0.02791668504399214 0.049776968802944965
0.0292070884949649 -0.025624165372709784 0.049779948220952386
0.02910254006449835 -0.02334805808017093 0.04978290630884724
0.02899865375425684 -0.021087021391252847 0.049786627084309754
0.028895589571754376 -0.018843225095009575 0.04978954039940675
0.028793172893579373 -0.01661417657051717 0.049793211296016215
0.02869147965527285 -0.014400873358086208 0.04979685626238861
0.028589038109427967 -0.012182909890606664 0.0498143837500834
0.028487325484881563 -0.009980728309121334 0.04983178652104764
0.028386334029271626 -0.007794160767123304 0.049849065901691414
0.028286056099780316 -0.005623041789847794 0.04986622319968209
0.028186484161205484 -0.003467208232522112 0.04988325970427815
0.028092714676454644 -0.0013963404347203667 0.049850842746061996
0.028006746307009316 0.0005627544474877122 0.049749007031964165
0.027921302486286097 0.0025098956226197178 0.04964779268338937
0.027835684464190012 0.004454630117519343 0.04955397118602095
0.027750053484099688 0.006394754912431744 0.04946597989468127
0.02766502390314122 0.008321947962203036 0.04937777945255928
0.027580513811589626 0.01023736679936832 0.049290117872119454
0.0274868162339531 0.012271985360258364 0.04929903345485581
0.02738181012779404 0.014453583283035643 0.04942651123388453
0.027277677307530123 0.016617581641231116 0.0495522808248825
0.027174260033219457 0.018766168067510136 0.04967783221303462
0.027071696893648578 0.020897548723030623 0.04980170353575614
0.02696990504463979 0.02301290106878129 0.04992464332696833
0.02686887581844906 0.02511240523050462 0.050046662055200475
0.026768600676724975 0.027196238645016357 0.050167770032706005
0.026679479567859 0.029126512340692134 0.05018217083657761
0.02659137210091272 0.031038387337936013 0.050192170242315204
0.02650384465714752 0.032937676207734246 0.05020210382050139
0.026416891527799392 0.03482450282656818 0.05021197221903162
0.0263305760708686 0.03669808200373298 0.05022106554407607
0.02624475429252107 0.0385603571165809 0.05023080783456252
0.02615949014985307 0.040410531908755154 0.05024048682340354
0.026074778225523107 0.04224872393293638 0.05025010312556505
0.025990613172134795 0.04407504922404459 0.05025965734807175
0.025906989711111123 0.04588962232366184 0.05026915009014005
0.025823902631591622 0.047692556303969735 0.050278581943295375
0.025775350227782434 0.04904337069980763 0.049929832425357756
0.02574985566978904 0.050093348715163466 0.049340706033347115
0.025724345643335617 0.051142101294451014 0.048753441837109945
0.025698886111533592 0.05218877796867505 0.04816734007390966
0.025673476924606912 0.05323338489532792 0.047582397295775014
0.025648183395766397 0.054275089140415345 0.046997909722930775
0.02562346233687723 0.05530805796113569 0.046408963410498494
0.025604528711889743 0.05626578780966346 0.04575936180342166
0.02558555790345258 0.057222932860199416 0.045111422929191236
0.025566680232644804 0.058177834167440545 0.0444637389090205
0.02554783039801722 0.05913132741944943 0.04381700993501242
0.02552894348258175 0.06008423614093222 0.0431719407090973
0.025510149231381653 0.06103491959220286 0.04252711661768843
0.02549138263212286 0.06198420430504126 0.04188324125447884
0.025472579054426743 0.06293290474441793 0.041241022674049166
0.025453867671111463 0.06387939823187078 0.04059903960111555
0.025435248137073947 0.0648236968144057 0.03995728664223319
0.02542128526072382 0.06570882944283396 0.03926509385572602
0.025411385401603804 0.06654257987422851 0.03852860401532593
0.025401429040874803 0.0673764790669204 0.03779340445058921
0.02539154463788267 0.0682089296015736 0.03705806231512171
0.025381667924432774 0.06904073253379983 0.0363232922368843
0.025371734832397148 0.06987267926542878 0.0355898151522932
0.02536251362918534 0.07069530424486586 0.03484895684658762
0.025365266402699232 0.07137029498372632 0.03397303256592743
0.025368019773845084 0.07204543226468363 0.033096918120064656
0.025370773742817473 0.07272071613546549 0.03222061344706567
0.025373528309811055 0.07339614664382071 0.03134411848496982
0.025390389344779433 0.07389998828293948 0.030305716667572147
0.025412541459089395 0.07434050262282582 0.02920535597422419
0.025434667883555747 0.07478256647819503 0.028103815900051066
0.025480716348397447 0.07493662768641568 0.026724157836751028
0.02553698680033746 0.07496995523459032 0.02522288074118534
0.025636861666244525 0.07448164790473072 0.023210691757563018
0.02582317051706288 0.07296110369720321 0.020183656135365324
0.028310204960036906 -0.034388619803512877 0.0500967066138403
0.02820751891563962 -0.032050444340266715 0.05009855511676775
0.028105492917575227 -0.029727962603482982 0.05010118351673126
0.028004283899147494 -0.027423416833554204 0.0501030025794294
0.027903801179476218 -0.025135409004011955 0.05010480858796307
0.027803956541875525 -0.02286258765877902 0.05010738641213325
0.027704903732232736 -0.02060713677082726 0.05010916392963416
0.027606554175808214 -0.01836769908924768 0.05011092882699347
0.027507483372039364 -0.016123542861894047 0.05012665544522554
0.0274090429309947 -0.013894304255378076 0.05014304307404566
0.027311304549558466 -0.011680964179524578 0.05015931382907435
0.02721426074397157 -0.009483353160444574 0.050175468956156266
0.027122189164811475 -0.007362980919777828 0.05014865578118061
0.027038418198831814 -0.005367221702582303 0.05004495232917988
0.026955163116907405 -0.0033837529052894166 0.049941887510671856
0.026872419168238345 -0.0014124613448581735 0.04983945544445023
0.02678980832398468 0.0005520947798173248 0.049741435997088856
0.02670696177271769 0.0025151817647735553 0.04965156790064079
0.026624626040875284 0.004466164649580606 0.04956225391726182
0.026542796418523446 0.006405155038278321 0.04947348893783898
0.026461395406478492 0.008333294666810875 0.049386016739512095
0.026380564547694777 0.0102486210173654 0.04929833264340666
0.02629295984353255 0.012254744584761057 0.049286380473566205
0.026192581262224932 0.014435505048503994 0.049413171358943075
0.026092895362635423 0.016600672593197807 0.049539735807511864
0.025994035666515713 0.018748436796679036 0.04966460569084974
0.025895922252625356 0.020879987737228878 0.04978853294344793
0.025806165672775407 0.02288918334948642 0.04983135265049299
0.02571998814384335 0.024843291899274256 0.04984263553138307
0.0256344526280592 0.02678344269578864 0.04985311913401347
0.02554941623442131 0.028711673574130236 0.04986425498291025
0.025464942151601982 0.030627153852081257 0.0498753171948671
0.02538109184047468 0.032529084091824645 0.04988558956840483
0.025297725335437966 0.03441944769279942 0.04989650906443943
0.025214904686096863 0.0362974338320024 0.04990735706317295
0.025132624548827313 0.038163163677906564 0.04991813426452746
0.025050879649526892 0.04001675682256134 0.04992884135931536
0.024969664782487414 0.041858331307152774 0.04993947902939144
0.024888974809290098 0.04368800364705866 0.04995004794779562
0.02480880465772129 0.04550588885642909 0.04996054877890016
0.024729149320710395 0.04731210047227696 0.0499709821785409
0.024666703875136035 0.04888052798176873 0.04979747105567278
0.0246422308225481 0.04993203252917533 0.049208886479974845
0.024617806283483885 0.0509814526538121 0.048621468669575285
0.024593430113831777 0.05202879454754661 0.04803521415855061
0.02457280796207148 0.05302429789974794 0.04740880024460775
0.0245546037398146 0.053986195557397365 0.04675677856997412
0.0245364264698561 0.05494666907561491 0.04610572224723364
0.02451821355154243 0.05590655601749428 0.04545633299193996
0.024500090099344476 0.05686418767111401 0.044807202086734776
0.02448199342033331 0.05782040464671506 0.04415903012140365
0.024463861191360018 0.058776035326512266 0.0435125222173815
0.024445817972859135 0.05972942930087305 0.04286626289000023
0.02442780135001723 0.06068141797498783 0.04222095614714588
0.024409749275347822 0.061632820623234885 0.04157731047911084
0.024391847656444043 0.06258119183265265 0.04093319200278417
0.02437706301699177 0.06348765964629033 0.04025437228319001
0.024367545982593195 0.06432436974583355 0.03951564781314887
0.024358036376315603 0.06516042678653272 0.03877749992338181
0.024348534189465993 0.06599583153266392 0.038039927939112095
0.024338977783565217 0.06683138538704786 0.03730365054279888
0.02432949045758286 0.06766548540879436 0.03656722993300249
0.02431994899150372 0.06849973121779407 0.0358321057250211
0.024316380522489946 0.06925634713875939 0.035027303944034915
0.024319025905909786 0.06993275589005693 0.03414935578550227
0.024321671864987085 0.07060931183389868 0.03327121657770182
0.02432431839990943 0.0712860150183397 0.032392886258269915
0.02432696551086489 0.07196286549145042 0.03151436476481084
0.024346128438477697 0.07242917221363343 0.03043828211069005
0.02436742170750958 0.07286948340967925 0.0293353315284427
0.02438869037382244 0.07331135131214528 0.02823119380525213
0.024431898243242885 0.07347649848001703 0.02686109265535702
0.02448598351836432 0.07350667462726374 0.025356474045561406
0.02457035653533158 0.07315804389548392 0.023480853795398826
0.02469572759644097 0.07229850333387772 0.021100834006773983
0.02699062558848626 -0.03388272356893618 0.050425515019848544
0.026892844102566812 -0.0315492044308846 0.05042617008762612
0.026795690285969398 -0.02923132797047523 0.05042761177661936
0.02669931359615927 -0.026931331387052615 0.05042825458854128
0.026603550562960165 -0.024646638330063475 0.05042967846302715
0.026508548611866627 -0.022379447060763225 0.05043030930161241
0.026413082145937045 -0.020110981876657053 0.050442636239967475
0.026317998860231364 -0.01785419752946016 0.05045798336020074
0.026223597689880276 -0.015613603064968118 0.050473220381996364
0.02613336931244637 -0.013442092179861087 0.050452082570807744
0.026051894077310952 -0.01140862901599693 0.050346458782136394
0.025970925288052834 -0.009387805754596856 0.050241491545355454
0.02589045823724037 -0.007379504907336576 0.05013717475779145
0.025810560883170363 -0.005384703061827201 0.05003273902866745
0.025731010811133676 -0.003400007737479671 0.04993046849546068
0.025650945575278666 -0.001412461451400282 0.049839455444621594
0.025571377058611518 0.0005627542350596926 0.04974900703230417
0.025492229824988864 0.00252681088758111 0.049659873009166966
0.025413641415181595 0.004477698478760228 0.049570536143776656
0.025335536065779016 0.006416594523835917 0.04948174840631292
0.02525790933657661 0.008343609246944494 0.04939350474929416
0.025180687734210158 0.010259874555847703 0.0493065469186969
0.025098992414257087 0.012237502205715567 0.04927372631543486
0.025003167592178483 0.014418429526071808 0.04940057138651405
0.024913008842755578 0.01651013336145518 0.049472563374373946
0.024828939158441605 0.018506924035511574 0.04948444989914458
0.024745368217332753 0.020491261353705215 0.049496989779673206
0.02466235796540594 0.02246228547423368 0.049509445528242546
0.024579968628003428 0.02441916924239551 0.04952108964987201
0.024498062520036827 0.02636397417837638 0.0495333821146301
0.024416700457994187 0.028295861113303233 0.049545592928866955
0.02433587703923443 0.030214958329220554 0.04955772290341137
0.02425565105529814 0.03212046476324637 0.049569054236300036
0.0241758885781721 0.03401436868417618 0.049581027315921455
0.024096648963663092 0.035895857600113046 0.04959292190893605
0.024017927087327983 0.03776505318735507 0.049604738784570335
0.02393971789146968 0.0396220755373583 0.04961647870203573
0.02386201638405469 0.04146704318244665 0.049628142410682696
0.02378481763765047 0.04330007312103895 0.049639730650166025
0.023708116788384026 0.04512128084237804 0.04965124415059807
0.02363190903491991 0.04693078035079329 0.04966268363270804
0.023558367051866654 0.04869778383588519 0.04964893345255639
0.02353425645099328 0.04976030243300883 0.049068557192751994
0.023516703109844946 0.05072869038099104 0.0484138239299266
0.023499236119741654 0.05169478625267743 0.04775936578997886
0.023481795057405594 0.05265944806463935 0.047105879118840954
0.023464319857664014 0.05362352140832599 0.04645406488295978
0.023446930566880294 0.05458532158125312 0.045802515815451195
0.023429567031116365 0.055545697246361214 0.04515193174744686
0.023412229193196195 0.05650465156603851 0.04450231053666709
0.023394857343387327 0.0574630178102713 0.043854357722343584
0.023377570818425796 0.058419135839358316 0.04320665695188247
0.02336030982059784 0.05937384196228196 0.042559912645622366
0.02334301490475962 0.06032796029273979 0.041914833727968226
0.023327643353816367 0.06125449014850781 0.04124791858165722
0.023318513081572827 0.06209418164027908 0.040506944683440904
0.02330938995352075 0.06293321609618358 0.03976655057723116
0.023300214790218394 0.06377240502315368 0.03902745265305618
0.0232911059716712 0.06461012527521809 0.03828821768743029
0.0232820042721548 0.06544719080397543 0.03754956047356228
0.023272909683326296 0.0662836023766819 0.036811480334404345
0.023263763210788938 0.0671201617387831 0.03607470002922564
0.0232653558789434 0.06781066171887723 0.035206484961494755
0.023267892836669864 0.06848849438001431 0.034326503551693255
0.023270430347750354 0.06916647488847466 0.03344633020238269
0.023272968412365872 0.06984460329263664 0.03256596485075902
0.02327633369687586 0.07051178075110032 0.03167511800077538
0.023296723622082228 0.07095111107208657 0.03057150055599389
0.02331714930156105 0.07139121177054186 0.02946594788869672
0.02333755146859174 0.07183287640739511 0.02835920025903893
0.023378046185573417 0.07200848579298896 0.026997942376464468
0.023429864778386073 0.07203627191985057 0.0254907175770977
0.02349959552596667 0.07183002979067243 0.023752840993813473
0.02361986136647113 0.07096039575635799 0.021367967680673228
0.02391625226022715 0.06777658221182808 0.016730710895838607
0.025674240969765942 -0.03337805212877526 0.05075352736794597
0.025581265761387542 -0.03104796145194194 0.050753787064599765
0.02548903586227703 -0.028735887035709617 0.050753255441929934
0.025397394801175668 -0.026439234363836106 0.05075351424929608
0.025305604181688347 -0.02414606584623169 0.05076239261302329
0.0252139653744034 -0.021861235277175428 0.050776673164487085
0.02512573292705752 -0.019636884572447 0.050761283353518594
0.025046656191422465 -0.0175646381652792 0.05065368462845149
0.02496814698276416 -0.015506533256579746 0.050545987150676985
0.024890057514810462 -0.013460160990730607 0.05043973451211414
0.024812454982415612 -0.01142654910651203 0.050334144423531624
0.024735334845224055 -0.00940557862171526 0.05022921070708786
0.024658692619153478 -0.0073971320287959386 0.05012492726150514
0.024581694030342615 -0.00538798107898264 0.05003044891256242
0.02450496864813583 -0.0033880875787337117 0.049938842534181016
0.024428720731339205 -0.0014006395031012642 0.04984780622614565
0.02435294583684505 0.0005744789601998535 0.04975733468360666
0.024277572125364938 0.0025384392995710936 0.04966817761005238
0.024202730580363877 0.004489231605118604 0.04957881786560864
0.024128349050891767 0.006428033314467729 0.049490007373040656
0.024054423308696872 0.008354954639679835 0.04940174108387596
0.02398345032419938 0.01023122747757782 0.049285636879210726
0.023917411119036794 0.012026407876569112 0.04911880361722193
0.023835989471242144 0.014055454008028212 0.04913273137735663
0.02375512030616708 0.01607073214356136 0.04914656463119449
0.023674862162865237 0.018071393167038374 0.04915956676271127
0.023595080794428343 0.020059561106591406 0.049173216389367946
0.023515835325647588 0.02203437431775651 0.04918677432994045
0.023437183236927076 0.02399500394682702 0.04919951144228646
0.023358993076141265 0.02594351665459599 0.049212891231881106
0.023281322889030384 0.02787907152605623 0.04922618204418161
0.023204167505955598 0.029801797389525597 0.049239384763809735
0.023127521825580918 0.03171182137120043 0.04925250026370359
0.023051380813749526 0.03360926892316296 0.0492655294053016
0.022975739502381118 0.0354942638508558 0.04927847303873634
0.022900592988391553 0.03736692834000738 0.04929133200301733
0.022825996058679195 0.03922648492137348 0.049303396372985475
0.022751824298029834 0.04107485647408082 0.04931609081500282
0.022681900431820654 0.042854753478576424 0.049283506060383786
0.022616384802846556 0.04456418595403738 0.04920322425849455
0.02255124656067244 0.046263771660797315 0.04912340490021716
0.02248648245389578 0.0479535954343841 0.049044044001337106
0.022438383420929017 0.049391467770063646 0.04876716377215151
0.02242168647123185 0.05036034848932347 0.04811123025329195
0.022405014352146292 0.05132778835264762 0.04745627219573828
0.02238830964670106 0.05229463793560951 0.04680299095972934
0.02237168710810372 0.05325920261408695 0.04614997845771057
0.022355089234375392 0.05422233605150528 0.045497934909122684
0.022338458864199374 0.05518487951947443 0.04484756512588506
0.022321910240380306 0.05614515694101896 0.04419745416244747
0.022305386117159456 0.05710401265101167 0.043548305702342305
0.022288829587170367 0.058062278691388636 0.04290082797154293
0.022272922089027557 0.05901003881979083 0.042246484212904445
0.022264182612301335 0.059852731186430475 0.04150324755753104
0.02225539330868991 0.060695583441550904 0.040761308677991215
0.022246667579667964 0.06153695202530868 0.040019239006677476
0.02223794869014358 0.062377661118274086 0.039277750992573524
0.02222923663207854 0.06321771149553523 0.03853684395206375
0.022220474892625037 0.06405791502955355 0.03779723836398868
0.022211776517643188 0.0648966478463302 0.0370574928221829
0.02220697835533137 0.06567908663710015 0.03626833708853133
0.022209405310181868 0.06635820068399068 0.03538650576157121
0.022211832795575665 0.06703746318866394 0.034504481661841446
0.022214260811686794 0.06771687419980488 0.03362226472612301
0.022216632873404755 0.06839723369187062 0.03274058878426733
0.022222621851475118 0.0690266403435213 0.03181159929092314
