# .PCD v0.7 - Point Cloud Data file format
VERSION 0.7
FIELDS x y z
SIZE 4 4 4
TYPE F F F
COUNT 1 1 1
WIDTH 762
HEIGHT 1
VIEWPOINT 0 0 0 1 0 0 0
POINTS 762
DATA ascii
0.006679388076633918 0.05054371009463671 0.05258375089503586
0.0066625647622007185 0.05209488293620357 0.05241015703330498
0.006659619612030771 0.05295461767107579 0.05167879529533537
0.006669921796714028 0.05315857238289429 0.050409979083943623
0.006687720452975674 0.05299479839216531 0.04883301198807988
0.006711348292584319 0.052547803762176715 0.04701318623739853
0.006743789566513811 0.05167283445536491 0.04482588334878773
0.007006552046723247 0.04626850426240675 0.025104266512785967
0.006953565246583137 0.0495601218301171 0.026457141437731646
0.0069256417221916266 0.051641153781741556 0.026757288523389045
0.0069030457298715885 0.053461860751013834 0.026837238345108427
0.00688782817185834 0.05492626240591153 0.026607175855307807
0.006875687907185444 0.0562411496158009 0.026248904270490092
0.006866322970771479 0.05742183048252619 0.02577424552390889
0.006859728809054671 0.0584694124124881 0.025182333231683063
0.006857001382372765 0.05933305064202682 0.024424641528255242
0.006858418558867251 0.060000900791770895 0.023487619789962444
0.006861416362339821 0.06059477910949862 0.022481377680383163
0.00686702413200951 0.06106693402699648 0.02136033619988542
0.006875669425829013 0.06139820453017386 0.02010476035056752
0.006887266613398688 0.06159356320320036 0.018717249897800936
0.006900791721549484 0.0617016376484778 0.01724180553875665
0.006916960738932431 0.061689785868044966 0.015646040420585705
0.00693656298510537 0.06152227391217019 0.01389395127341081
0.00696255843043291 0.06106333247657286 0.011852629478002863
0.007023935040168037 0.05897768217778637 0.008227185629141764
0.007009992268756149 -0.07625240780736492 0.031185850312643537
0.007020490261699904 -0.0760376722669886 0.029675640319134722
0.007030589810460623 -0.07579423519097594 0.028178830812407296
0.007043465261156549 -0.07572899909321273 0.02656273121596081
0.007062501802349639 -0.07606093946997511 0.024683847732052566
0.0070813890104080126 -0.07637829745614477 0.02280542773977462
0.0070995467920672685 -0.07664357222054358 0.020952088398749902
0.007118076241388559 -0.07692819440442844 0.019077399918650373
0.007136166462870564 -0.07717972732978173 0.01721575560909333
0.007153763158485918 -0.07739484578115424 0.015369680103596572
0.007170881875206627 -0.07757473869735149 0.013538732790947805
0.006432926781144728 -0.029347951064698063 0.044234348851910354
0.006410161902344723 -0.02706459104184511 0.044233060660504364
0.006387576252140346 -0.024798527084627597 0.04423097114064228
0.005965050364180179 0.0029447395156831924 0.061650760781479796
0.005924799215253912 0.006271097018506977 0.062495717980488585
0.00589668403610232 0.008816957665391423 0.06282084264990972
0.005874879326294859 0.01095593887023083 0.0628768993572067
0.0058554317353498725 0.012940337277554614 0.06283555470373348
0.005839466563979592 0.014700084439609684 0.06264586328509908
0.005824613019947907 0.016385754609243963 0.062411637390847485
0.005811148511702685 0.017980350497324715 0.06211998913302441
0.005799285232642125 0.019471105704778724 0.061760780268024895
0.005788743181054081 0.020876154692889004 0.06134585328498421
0.005780471680011532 0.022136739369938874 0.0608318092389768
0.005772879692369591 0.023352861686045223 0.06028956585775025
0.005765931521389856 0.02452700313018874 0.059720430823398396
0.005758650886813505 0.025719986105912418 0.05916856374155838
0.005750782996473418 0.026947458424926407 0.05864575857503379
0.005743797267658911 0.02811840021372497 0.05808492416978017
0.0057359849460438045 0.029338513735602145 0.05756424962524387
0.005726527092068003 0.030657870853084634 0.05712190765413366
0.005714229103264613 0.03214918915208975 0.05681396665817945
0.0057011504931928705 0.03368517766441259 0.05654605761291248
0.005688294537534638 0.03520418911273537 0.05627177856561827
0.005674258113076183 0.036791924249721775 0.05605663901882224
0.005660305456118863 0.03837094996255208 0.055841870544655614
0.0056466693633784775 0.03992715377018308 0.05561647743579329
0.005633563670826587 0.04144769252347086 0.0553702166626206
0.005621371989663104 0.04290956109842814 0.055084671198057766
0.005609002527105006 0.04437902853624498 0.05481131092931468
0.005597906413862314 0.045768601409853726 0.054481026882982286
0.005587454280371617 0.04711660691723707 0.05412333889632137
0.005577098057484113 0.04845617149528819 0.05376425114695094
0.005568937201573229 0.049661657919030766 0.05330265138753826
0.005561423090081214 0.050826414891304295 0.05281231876979242
0.005545470016759369 0.05249222944184667 0.05273312739752378
0.005545160273441146 0.05322356004856116 0.051898561823965184
0.005553322002441358 0.05345206188894103 0.05065108150350539
0.005566808213636368 0.05336735928041514 0.049140700064274456
0.005586839328313506 0.05289939220678608 0.047305097086248804
0.005613570867394392 0.052041515245520586 0.045133610769797994
0.005831840801114178 0.0466694541584734 0.02545703848621872
0.005792009793707738 0.04971130690116693 0.026590859914626452
0.00576934015066778 0.051757550956306186 0.02686077929666808
0.005749948166649978 0.05361019179887705 0.026969814688776295
0.0057382126069116055 0.05502020031959182 0.026691576975838627
0.005728086468109712 0.0563354028042965 0.026334032743282332
0.005720556465540124 0.057500272335723135 0.025845464640991744
0.005715183575397863 0.05854073574376262 0.025247428387048965
0.005712941586344474 0.05940246328350329 0.024488324353226065
0.005713942698381553 0.06008032113719336 0.023560865229262873
0.005716768739020737 0.06065552988173528 0.022537697911559462
0.005721485066688483 0.06112511621859146 0.021414556872712043
0.005728491578691056 0.06146736204483205 0.020169545402830724
0.005738016090707034 0.061670392098099436 0.01878959668990804
0.00574925135810161 0.0617802823812687 0.017316248263953282
0.005762475718352197 0.06178217632211486 0.015733950007340125
0.00577875566054726 0.06161752505628587 0.013985054678115838
0.005799389374118323 0.06121547121056564 0.011998900411848368
0.00584097715265074 0.05965868683046888 0.008885329499371208
0.0056212349627608686 -0.07643338725823412 0.02942417596104635
0.005627697073958811 -0.07605722346891802 0.028010763484278722
0.005633211536632344 -0.07560183110098845 0.0266444598433912
0.005642213889808874 -0.07542806847502459 0.02509287850562486
0.005657538372261179 -0.07576408948892066 0.023204633592147916
0.005672522817026665 -0.07606766550830912 0.021328506267365266
0.005686846546155297 -0.07631305896287521 0.01948171643824559
0.005701001020382341 -0.07654020520043636 0.01763845831551214
0.005714459932129722 -0.07670684454638793 0.01582697199116717
0.005729409706716995 -0.07698885816238837 0.013930325284651768
0.0051281299950872794 -0.0270645911538564 0.044233060660549994
0.0047676270810550975 0.0025300931600967247 0.06280402538874297
0.004742424624378708 0.005303510465141936 0.06326273286255296
0.004720507149507864 0.007807719572577254 0.06355166336584683
0.004702141582350237 0.01002313027369689 0.06365429861050215
0.004686053453080314 0.012052347155458887 0.06363869927668542
0.004672622247444884 0.01386648746395458 0.06348261086837842
0.004660609758107264 0.015564455694496715 0.0632530879278057
0.00464946275884318 0.01719046474750402 0.06298006304340004
0.004639193913247331 0.018743937499459018 0.06266233271040955
0.004629975931439946 0.020211763619137735 0.06228972721773596
0.004622175502463943 0.02156577464926146 0.06184105197554762
0.004615705342519094 0.022813465531431654 0.0613204105524916
0.004609946300250816 0.0240036961783488 0.060762043266691046
0.004604517011290421 0.025166448230223404 0.0601871755692423
0.0045989552630988405 0.026337728549070794 0.05962192688503781
0.004592948200926013 0.027541687131079462 0.059084240748179695
0.004587053126685422 0.02873506565293238 0.05854243823491306
0.0045803326955843 0.029990164026010513 0.05805034667920095
0.004572219972724432 0.031350189807302586 0.05764114418773841
0.004562825140031815 0.03280601492553259 0.05730925367817857
0.004553599344913251 0.034245873570051044 0.05697114580600504
0.004543619183969729 0.03574042507665004 0.05668052094859699
0.004533659151620975 0.03723023384471347 0.05639254213391204
0.0045230285099733935 0.03876788226775302 0.056147704764094475
0.004512913705718137 0.04026293617333149 0.055876590073713095
0.004502809234131172 0.04175395619927036 0.0556087396481898
0.004493050224215041 0.04321560191356982 0.0553243020270584
0.004483839544963681 0.04463272971384996 0.05501102647185263
0.004474861329354454 0.04602939107738652 0.05468742380959857
0.004466603838075993 0.0473690068712076 0.05432416635114001
0.0044587862584988544 0.048672981574160334 0.05393768417256117
0.004452186608543118 0.049883311795728746 0.053480907208501516
0.004445154164252461 0.05112383541946519 0.053052784363709915
0.004433887636682169 0.05267755489163606 0.05288376328796679
0.004434303832664084 0.05335912159224265 0.05200933611211911
0.004439823756507555 0.05366221440878988 0.05082372238703353
0.004449046723067877 0.05369297511430959 0.04940961748524858
0.004464823187180479 0.05324265092058417 0.04759009207022108
0.004484609759131669 0.05250185023177051 0.04551783933366482
0.004521272277464561 0.050526355144891955 0.0423966403857603
0.004661974610426448 0.04692158062857277 0.025678869609214006
0.004631507116335818 0.049862354945665655 0.026724457195813345
0.004613862774329076 0.05187299214267743 0.02696342008471947
0.004599170736285828 0.05366653986565534 0.027020177906960152
0.004589134642233231 0.05512269499883843 0.02678366615113864
0.004581194877863293 0.05642617717371967 0.02641601918714659
0.004575473657379372 0.057569303979166264 0.02590814002852987
0.004571153236037536 0.05861117920292375 0.02531172050456626
0.00456993393967563 0.05943208150887941 0.024515497730699498
0.004570411928631623 0.06013268336436173 0.023609156341596882
0.004572408816256336 0.0607263768715226 0.022603378029819987
0.004576120298222964 0.06120013179459555 0.021484464748645737
0.004581794959998599 0.06153733266400946 0.020235092150188427
0.00458938714340487 0.06174212217714403 0.018857142131004645
0.004598298744919732 0.06185719857181338 0.01738905480539077
0.004608654389520952 0.061874513662655506 0.01582180905653141
0.004621291992915897 0.06173650967179711 0.014098858048992136
0.004637897500135589 0.06132734663835854 0.012106460970445598
0.004667451826638714 0.06002744881162542 0.00924171248028105
0.004224719735817747 -0.07648633375327896 0.02773653288910355
0.004226926777776338 -0.07582072243483845 0.026503782456201497
0.0042302553601495626 -0.07527566994746698 0.025191375239359437
0.004235545521151838 -0.07494128284888424 0.02373941859439621
0.004246028163568213 -0.07516494295532833 0.021918533897637926
0.004257655130032838 -0.07550734843058693 0.020011294219763998
0.004268303231214228 -0.07573956285347322 0.018167656067947235
0.0042775244949750536 -0.07581416324785051 0.016420307988497196
0.004295636605607455 -0.07683659252634523 0.014032097084232475
0.0036091871644590126 -0.002577697767903786 0.06222698859065101
0.0035782583617465003 0.0014933363096682473 0.06353418228146801
0.0035594166790139325 0.004264939303971038 0.06398306015334337
0.0035435579907457794 0.006711690205137344 0.06422507576940195
0.0035297971003235137 0.00892931991853374 0.06432241135152772
0.003517218296136653 0.011016028159447466 0.06434038339648501
0.003506688516430994 0.012881067762105014 0.06421450604376239
0.0034970144713663783 0.014651454130417296 0.06403102897359103
0.0034884981823568796 0.016295987795912292 0.06376699248636025
0.00348044834605142 0.01788793696721308 0.06347273871660564
0.003473190087118212 0.019393562584138435 0.06312373396450394
0.003466402019103439 0.020846952106084282 0.06274335231723582
0.0034604807536104624 0.022207054515360425 0.0623015388718034
0.0034555268635326885 0.023463962151486217 0.061790073944885004
0.0034515048624991712 0.024621981647813984 0.061210891510399545
0.003447528484171681 0.025773550087035635 0.06063031228897048
0.0034434979291841296 0.02692901697852107 0.06005587534664647
0.0034393143345825155 0.028098549667031403 0.059495150377770534
0.0034354560210985985 0.029232791930794033 0.05891170942630397
0.0034307171372018764 0.030455874043438302 0.05839774202998732
0.00342493495122142 0.03178391849958989 0.05796643905448812
0.0034177724611159865 0.03325074281242635 0.05764460587436199
0.0034113144891160054 0.034642549859776106 0.05727188354606266
0.0034043591049378505 0.03608228061069879 0.05694109813785325
0.0033968509110419137 0.0375752490068737 0.05665694810645977
0.003389182952532784 0.03908121310933921 0.056389124518595735
0.0033818723578185224 0.04054770232206667 0.05609718316405543
0.0033745497922983165 0.04201226852401113 0.055809917376450746
0.0033673626776611868 0.04346003828081402 0.055515696413445836
0.0033606885843353745 0.04485310602752607 0.0551845084320437
0.0033541953911022087 0.04622514971223174 0.05484235320531822
0.003348103503621824 0.047554201971753474 0.05447152083873352
0.0033424939241027503 0.04883242205956767 0.05406522552298554
0.0033372344588062423 0.05007330855368336 0.05363370413238849
0.003331246299768046 0.05138448470167395 0.05326352027924891
0.0033245036419178695 0.05276804555070813 0.05295731577891394
0.0033247481335800257 0.05345612187505289 0.052088600039297384
0.0033291223755002783 0.053735829877455454 0.050884197752436966
0.0033363252193349883 0.053738241712978474 0.04944700202927127
0.003346906095025028 0.05341106692941683 0.04772992167962553
0.003360765447591616 0.05276625982624189 0.045738534561616806
0.003493842318813626 0.047175119854274916 0.025901943731411303
0.0034719454188652382 0.050023851283325316 0.026867295659932622
0.0034586701598854712 0.05203814296899034 0.02711025854875254
0.0034485873074697076 0.05374192945811168 0.027087560179285042
0.0034407836183069163 0.05522426514666395 0.026874924656406396
0.003434994481630278 0.05651176713423317 0.02649332313320657
0.00343031970876411 0.05769110329046473 0.02601872430352553
0.003427511958946382 0.058691769743647704 0.025385273615788906
0.00342632920041459 0.05953781689986409 0.024612504917265687
0.0034268666237011573 0.06022132268075231 0.023690903969073807
0.003428444162181008 0.06080730675269075 0.022678405680881197
0.003431190435970399 0.061284377269247015 0.021562974061507145
0.003435471209102213 0.061619066993877813 0.02031165883526931
0.0034411805137422634 0.06182225321538437 0.01893259841933853
0.0034476432179055493 0.061957725754850534 0.017484210769497632
0.003455569060659095 0.0619600265739354 0.015903174663164377
0.003464904813974924 0.061835030190048657 0.014193088458521852
0.0034772221512296177 0.061438291182856375 0.012213126549278475
0.003498242491909594 0.060243822934583524 0.00945082316372059
0.0028203727689545557 -0.07621466083125472 0.026250605515962144
0.0028214199466834373 -0.0754783973252196 0.025060350638514473
0.0028226411308854026 -0.07476968169539477 0.02385095120847691
0.0028245114495471283 -0.07416525150843273 0.02257194126550227
0.0028318067244998495 -0.07443597180031075 0.020715489106541363
0.002839407325112383 -0.07475122733838635 0.0188209126930875
0.0028452874447788125 -0.07478477509922432 0.017104508534814655
0.002405157983160141 -0.0031957438845092723 0.06325236589220135
0.0023884920309059183 0.0002480574179984374 0.06412621591350859
0.002376216027961484 0.0029790440313152144 0.06453831072732574
0.002365742482636098 0.005414444984463251 0.06476428631839076
0.002356300869399709 0.0076787361213924155 0.06488595007563802
0.002347911774604265 0.009769639773339722 0.06489986735649461
0.002340346673883754 0.01172442578023175 0.06482988071227447
0.002333496753873477 0.013561116706429788 0.06468701365523633
0.0023272693136698612 0.015295049371163993 0.06448067773882404
0.002321673221487351 0.01692542556224963 0.06420917532964615
0.0023163986873581785 0.01850160346582108 0.06390621628405296
0.0023115638085146823 0.020005346936833368 0.06355825854920533
0.002307023131933467 0.02145987529765686 0.06318107647459681
0.0023031981896709094 0.02279954509066423 0.06272699141426757
0.002300614862866404 0.023942968217927407 0.06213591990249351
0.002298097762283153 0.025074415767434965 0.06153933893802116
0.002295453494661784 0.026224011606824638 0.06095911387206154
0.002292731081337963 0.02738402926730782 0.06038981033137192
0.0022903392450738954 0.028491126435549186 0.05978483333573914
0.002287455273545583 0.029672706626610423 0.0592380892765591
0.002284118723389173 0.030922197724900402 0.0587455951417985
0.002280958595908028 0.03214240552891645 0.05823530297351359
0.0022762525860914903 0.03359788489127574 0.05790637238197993
0.002272115270825963 0.03496322395715207 0.05751500069601806
0.002267398573073496 0.0364144702007963 0.0571943075252927
0.002262672121410879 0.03786417261460173 0.05687836774270516
0.0022579011531424485 0.03931761339965234 0.056571269709231764
0.002253295517121026 0.04074287371511043 0.05624837201759103
0.0022487665024399934 0.0421535595919007 0.05591995713175857
0.002244296006094578 0.04355248310458515 0.055588081027027836
0.0022400901568242616 0.04490858857736768 0.05522818478749736
0.0022360945798405624 0.04623032076901723 0.05484644581378295
0.0022323413284128344 0.04751306504871916 0.0544387894510075
0.0022285779195342996 0.048794920212966275 0.0540352267381789
0.002225070786815459 0.050036004751448426 0.05360370420759092
0.002221168082429155 0.051333905108389866 0.053222626583418975
0.002217262165232761 0.052629775692137615 0.052844927664987995
0.002216806471026113 0.05341013733607952 0.05205102382074883
0.0022196726910274113 0.053697353021997574 0.05085258900225492
0.002224860854965556 0.053642663992087725 0.04936806704612323
0.0022314572086417255 0.053383290025196706 0.04770685963341609
0.0022430278280037436 0.052394949143444225 0.04542861220827055
0.002327055783891317 0.04748815570655385 0.026177365384206785
0.002313513477456834 0.05018430991465439 0.02700921630571823
0.002304629207590658 0.0522031291492111 0.027256950623089526
0.0022982342692700725 0.05385971079141777 0.027192831607402823
0.0022931859273321964 0.05531975252125443 0.026960717931362566
0.002289376696000903 0.05659987790969717 0.026572903849926444
0.002286202010010723 0.057787285813361955 0.02610605055165338
0.0022844029172073847 0.058777406317140624 0.025463432117945606
0.002283620771162813 0.059622355453944176 0.02469006503358978
0.0022841161625830387 0.060286293895503995 0.023750823709579705
0.002285215224489152 0.06086544997656651 0.022732308535517887
0.0022868418942389216 0.061371104011882616 0.021643795693336854
0.0022897661942080923 0.061695707811106226 0.02038345405033437
0.002293462216954106 0.06191414382598698 0.01901912822659302
0.0022977742575278214 0.06204890604069019 0.017570519254704764
0.0023030612184771868 0.06205056980222273 0.015989326614948673
0.0023092632343784682 0.061928399015874935 0.014282391512779435
0.002317353248628516 0.06154830668951222 0.012318898922622834
0.00233059239910757 0.060460767669444804 0.009660485303861877
0.001411456136038483 -0.07571983225001039 0.024904308972757694
0.0014113010391488164 -0.074762288102945 0.02385575676976992
0.0014111596499782268 -0.07380938069597143 0.022804541697786396
0.0014117432269859713 -0.07309087511801976 0.021599594804146638
0.0014158744166929962 -0.07351549243853295 0.019637691992414885
0.0012052298295974929 -0.0048216981729124475 0.06360666595179587
0.0011963487929422987 -0.0011948762697301385 0.06458971124665297
0.0011901923365731073 0.001547283766748342 0.06499944311245542
0.0011848407032350773 0.00402409613352761 0.06524461827241407
0.0011800626574972688 0.006310927909418784 0.06537355336837375
0.0011757246772647386 0.0084514223346831 0.0654139999541013
0.0011716855032385264 0.010491339294382451 0.06539580914337617
0.0011680735823609574 0.012390499695762225 0.06529013267673006
0.0011647632653483328 0.014189514220129595 0.06512363312833302
0.0011618083157776985 0.015871974763374264 0.06488374752307674
0.0011591050584967163 0.017471262012504873 0.06459262788409614
0.0011563959860288547 0.019068904461625846 0.06430694250816527
0.0011541140238629684 0.020528918154182785 0.06393012908002588
0.0011517195934396878 0.022021250069919007 0.06358198690857308
0.0011505033446331885 0.023141976639538486 0.06297288290546954
0.0011490780705435259 0.024326387166130503 0.06241275126113954
0.0011475658892658724 0.025536037849873294 0.06187445642403677
0.0011464095285546397 0.026633132505578083 0.061257740050388254
0.001145204462297191 0.027743850284952964 0.060653884150752235
0.0011439599906908886 0.02886521811959547 0.06006087612680777
0.001142529956311631 0.030042313437818435 0.05951230657820855
0.0011409604524647578 0.03126056813298861 0.05899800181454584
0.001139306117712836 0.03250290364506603 0.05850567519949312
0.0011372064669213009 0.033879828426261194 0.05811897518597564
0.0011352000728893994 0.03522548349157073 0.057713831207868826
0.001133153719938141 0.03658077577034263 0.05732107291817623
0.0011310737344339642 0.0379436981610799 0.05693931303400018
0.0011290363814339015 0.039290967862771975 0.056550739546674944
0.001127073223802569 0.04061307844701556 0.056147826683227486
0.0011251313683971877 0.041926207646457936 0.0557428919811937
0.001123233732058639 0.04322346397931598 0.05533045827559413
0.0011214086846188364 0.04449636880774821 0.054903682377771934
0.0011196526807222093 0.04574613004715611 0.054463242675153734
0.001117933632748685 0.04698252576146278 0.05401665469172845
0.0011162711899847426 0.04819973363758684 0.05355911905123134
0.001114491421943585 0.0494499194430747 0.053132369999355555
0.0011127201537295558 0.05069527892624992 0.05270629520764025
0.0011104660008663997 0.0520822659781181 0.0523999021405967
0.001109332455849375 0.05313312327810027 0.05182466167157307
0.0011104799888418556 0.05350567170005788 0.05069512241213292
0.0011130572472893626 0.05345637972883044 0.04921421997464481
0.0011166073977300329 0.053122970677526526 0.04749072627289913
0.0011628042775463944 0.04769622476674418 0.02636043302133345
0.0011562004630067781 0.05034373361289607 0.02715022158601632
0.0011518900255697774 0.05232436323651096 0.0273647419764656
0.0011487069046697317 0.053976542782164516 0.0272972545261137
0.001146235580400982 0.05542120064347783 0.02705186679935545
0.0011443230951362652 0.056703325975125674 0.026666337028279974
0.0011428652434202768 0.057853644088082024 0.026166298730755266
0.001141882449890936 0.0588672337066104 0.025545415475534405
0.001141589984512387 0.05968404067541766 0.024746658325194848
0.0011418345724985735 0.06034870911975043 0.02380838618994574
0.0011422972470006044 0.06095220450342109 0.022812736033099523
0.001143143022161275 0.061448529141727326 0.02171594905700658
0.0011445924590074966 0.06177652005897383 0.020459156952921276
0.0011464365223410778 0.06199587382599181 0.01909609019317171
0.001148585399093727 0.06213244247739236 0.017649592312736773
0.0011512002012411874 0.06214190745793158 0.0160762344641443
0.0011542720007618596 0.062027649942958174 0.014377320524411874
0.001158253103836033 0.061665062478712396 0.012431151609872015
0.0011642718951056607 0.06074356258990404 0.00993378708167103
6.538641505084725e-09 -0.07479334343772792 0.023835572369227898
6.438823416146561e-09 -0.07365155755942582 0.022907696394516175
6.3391077612995206e-09 -0.0725109433905799 0.021980772613143462
5.84738846297515e-10 -0.006688631772344966 0.06380799991346958
2.4853823430275597e-10 -0.002842944847611939 0.06492187830917284
9.40663978514831e-13 -1.0758639728492003e-05 0.06538115504640413
-2.2171193718619502e-10 0.0025360903648900535 0.06566403311100644
-4.285328739413772e-10 0.004901846227427731 0.06583785331216435
-6.208651821870752e-10 0.007101871488709943 0.06591109385573701
-8.013798795454203e-10 0.009166719030698212 0.06590283012956316
-9.735919176012916e-10 0.011136595215207157 0.06583921996774833
-1.1365715080321219e-09 0.013000864502910825 0.06571189008045186
-1.2908665506595982e-09 0.014765794137575228 0.06552404056466793
-1.4303611787553644e-09 0.016361426754250508 0.06522570389581805
-1.5763149256492791e-09 0.01803094308222547 0.06498580634379186
-1.7023869975641105e-09 0.01947303954429952 0.06459241272321986
-1.8260552715064655e-09 0.020887639761144272 0.06418491391486097
-1.9519240864767092e-09 0.022327411234860872 0.0638006344678353
-2.0559089907675753e-09 0.023516859934493317 0.06324207717314395
-2.159716659741419e-09 0.024704281298365105 0.06268559366207782
-2.258676589971732e-09 0.025836250991497167 0.062092398088476775
-2.3540726834219216e-09 0.02692745514132716 0.06147257251806515
-2.451880331076078e-09 0.02804624425751512 0.06087581208589399
-2.550691552229289e-09 0.02917651291716794 0.060290581017392986
-2.649202209244115e-09 0.030303343523691184 0.05970596906394293
-2.753269807947394e-09 0.03149373813767248 0.059171934497351475
-2.857147626247226e-09 0.03268196191682471 0.05863996826476264
-2.9606766864767256e-09 0.03386619636850191 0.058108695852761405
-3.065677924987754e-09 0.03506727057788239 0.05759388314563568
-3.1730715955511656e-09 0.03629571102172635 0.05710378427985685
-3.2818796781032377e-09 0.03754033045387689 0.05663018814400145
-3.389740846394836e-09 0.03877411844888318 0.05615251001178334
-3.493178130577336e-09 0.039957303105274955 0.05563983288592372
-3.5977295334129235e-09 0.041153231794399614 0.05514088645588161
-3.7002285000573353e-09 0.04232568334876047 0.05462749379097426
-3.806278900018697e-09 0.04353875856751793 0.054149844509369716
-3.912632623807587e-09 0.044755303406719904 0.05367907251175036
-4.019433036784375e-09 0.04597695777503452 0.05321655327270297
-4.125014768037272e-09 0.04718467204858762 0.052747140626760225
-4.232387166927313e-09 0.048412869173663 0.05229836632156337
-4.341295692055306e-09 0.04965863753587352 0.05186816717399323
-4.454896073292069e-09 0.05095807447947559 0.05148613943721292
-4.589873851530288e-09 0.05250204035639294 0.05130897190664463
-4.650644411749898e-09 0.05319717455112771 0.050441691337573424
-4.652370784565442e-09 0.053216921926782235 0.0490164583108571
-4.587438153611993e-09 0.05247417913178909 0.04695205894097698
-4.1912539269341364e-09 0.047942359219419806 0.02657699212528497
-4.415573988466893e-09 0.05050828175688871 0.027295759275518472
-4.582113328614274e-09 0.052413269842289556 0.02744379042284739
-4.728909934883882e-09 0.05409242736205633 0.02740083066194937
-4.8549895918070336e-09 0.05553461058943082 0.02715376308765427
-4.965602541783871e-09 0.05679987530079861 0.02675353934517155
-5.066943524739032e-09 0.057959081065587115 0.026262027294866208
-5.154925568582613e-09 0.058965478369452484 0.025635081073083876
-5.226309264727316e-09 0.05978201269502065 0.024836542994749966
-5.28425329285607e-09 0.060444815128487206 0.02389701996804572
-5.336190918175625e-09 0.061038912318055305 0.02289312022519474
-5.37722221495618e-09 0.06150825564308965 0.02177160888770746
-5.406926988642764e-09 0.06184803863780369 0.02052615378838818
-5.426182909190869e-09 0.06206830067685243 0.019164291756239515
-5.438720997151544e-09 0.062211719663288256 0.017724633697901615
-5.4406721430976404e-09 0.062234038141272374 0.01616389687885117
-5.431226454204186e-09 0.06212599201612429 0.014471380259305444
-5.402023475330586e-09 0.061791948822239984 0.012553144122093851
-5.326428426651063e-09 0.06092724217214496 0.010111300758402386
-0.00140932610774757 -0.0723140437312802 0.022110190970795418
-0.0012025751272487014 -0.004740682314512967 0.06509552907455424
-0.0011953633289689559 -0.0016468312604996926 0.06571689575988682
-0.0011897161391863885 0.0009352470063072604 0.06601344891679406
-0.0011845137015838436 0.003367510994495615 0.06622284192836242
-0.0011796749877678342 0.0056767378820705705 0.06636157058849579
-0.0011753623663495838 0.007811794757774881 0.06639357138699803
-0.0011713574458330543 0.00984327480440661 0.06636518495651628
-0.00116767610882898 0.01176672149042346 0.06627223391313702
-0.0011643590588337653 0.013569843202271614 0.06610505000544747
-0.0011614527732555031 0.015238624577271431 0.06585256985338961
-0.001158352097343089 0.0169651015357547 0.0656474621769933
-0.0011560810382067086 0.018425946046180475 0.06526329771694006
-0.0011538950468291654 0.019857096559629195 0.06486370033182176
-0.0011517962455949134 0.021258050494411596 0.06444800104085452
-0.0011500379437362912 0.02254957538389729 0.06395929487455043
-0.0011484842128780476 0.023774847688438905 0.06342733171454934
-0.0011471484761055716 0.024930071664200026 0.062848616030657
-0.0011459360496842142 0.026045164039038338 0.06224405988341475
-0.0011448221641007137 0.027128063008902636 0.061619000569521964
-0.0011438062522873464 0.028179134533469985 0.06097334073939353
-0.001142798120133091 0.0292264913195453 0.060327460216146045
-0.0011418454742770905 0.030255409235814323 0.05967040592022732
-0.0011408556886218304 0.03129455290323496 0.0590233528215906
-0.0011398200398523319 0.03234653458298825 0.05838839917524097
-0.0011387358144886155 0.033412098936167756 0.05776627859483713
-0.0011375825618732403 0.034497418002853886 0.05716185303199528
-0.0011363311536308005 0.03561126435903461 0.05658206942680055
-0.0011349645554188893 0.03675864583503424 0.05603113622174288
-0.0011336247700509214 0.03789610699918494 0.055476007128827276
-0.001132279341458363 0.03903356006841657 0.05492425893341213
-0.0011309166120923827 0.04017452835751156 0.05437865709187817
-0.0011295425585030295 0.04131717044519562 0.05383782564991063
-0.0011281660140344987 0.042458797861507025 0.05329969143939073
-0.001126633018996744 0.04364578456834167 0.05280096574513782
-0.0011250433469408277 0.04484783724234043 0.052318144650149834
-0.001123440822824358 0.04605170111201895 0.05184084294520808
-0.0011217449319601274 0.047281450340571685 0.0513884707238092
-0.001120166143571372 0.04847404437244718 0.050910419625957326
-0.0011186290233711218 0.049652190381225925 0.0504246937679928
-0.001116516628851366 0.05099943677375307 0.050081118433825345
-0.0011141876941030318 0.05240822343156387 0.04979356616385627
-0.0011159920239883349 0.05259016818581347 0.04849883937084892
-0.0011611624160210836 0.04817211488889178 0.026779140515327315
-0.00115509969396854 0.050663001966133714 0.02743260446921647
-0.0011511040720530528 0.05255263497546514 0.027567702393589244
-0.0011478803895062452 0.05421600524220921 0.02751128296384192
-0.0011454339288537439 0.05565309161173443 0.027260215620025563
-0.0011436560718065761 0.05689636751042293 0.02684069007545975
-0.0011422031301830575 0.058044910650474235 0.026339953890325618
-0.0011412634017142031 0.059045892997182436 0.025708473632619355
-0.0011409445865177305 0.05986979920520119 0.024917082953183067
-0.0011411502628274563 0.06054507526592329 0.02398948488780228
-0.001141707938469579 0.061121367679197625 0.022969562100783214
-0.0011426993304973862 0.061576367253989794 0.021835082887721846
-0.0011440697784463527 0.06192625191435158 0.020599422042249904
-0.001145981287305403 0.06212638694768641 0.019218989368620043
-0.0011480560363301205 0.062283372752834354 0.017792458353270257
-0.001150577474915748 0.06231851517512044 0.016244276848193906
-0.0011535758146463911 0.06222427385020629 0.014565382378245784
-0.0011573741281916564 0.061911930229668566 0.012668498017303742
-0.0011629499755756272 0.06111242619187107 0.010290268369520517
-0.0024133808026780296 -0.006843235301434769 0.0651428668051724
-0.002397528841863481 -0.003511859962254893 0.06590773939914818
-0.0023848935950913077 -0.0007082524663647449 0.06634073829936643
-0.0023741117858579784 0.0017896055195235072 0.06658448742947409
-0.0023641751586865696 0.004145084042116276 0.06674545907687568
-0.0023548352682168185 0.00639873401708646 0.06684953797150611
-0.0023465955877382846 0.008470767867801599 0.06684142221332162
-0.002338813929480407 0.010464544186758962 0.06678975734602627
-0.002331892398691352 0.012316580197644478 0.06665008911944176
-0.0023255933594261793 0.014065406876997366 0.0664474807193936
-0.0023199748145999147 0.015702440747568436 0.06617483590118256
-0.0023147634587972806 0.01727152296520279 0.06586154399773203
-0.002310039482406104 0.018760401026921558 0.06549825386810498
-0.0023060465491483843 0.020131200166167207 0.06505731981213925
-0.0023025951424365176 0.021414388063202783 0.06455904106548466
-0.002299262944790878 0.022676674355791848 0.06405006371135807
-0.0022963566902474463 0.023870199834863104 0.0634958017469574
-0.002293867164534209 0.024996813377351657 0.06289680410826182
-0.0022918457784945395 0.026048909028835943 0.06224677865470413
-0.002290037983198404 0.02706650497490254 0.06157406811536642
-0.0022886585477384764 0.02801649272068779 0.06085397748882865
-0.002287286760236807 0.02896440984317572 0.06013407004387289
-0.0022859465159906383 0.029906572498345052 0.059411598418221856
-0.0022847093872898393 0.03083197799768722 0.05867829624959098
-0.002283133523931783 0.03180869640972761 0.05798502276265194
-0.0022813870907025333 0.03281058606889031 0.05731270105199704
-0.0022794351985398723 0.03384282713344877 0.056665579107269104
-0.002277397609636058 0.03488691373189712 0.056029938041839866
-0.002275215550802808 0.03595172886512299 0.05541274722966355
-0.0022729608075373027 0.037026205697069214 0.054805753070052254
-0.0022706751261223203 0.038103932740325974 0.05420412673749825
-0.002268435257691239 0.03917324606970307 0.05359884296846068
-0.002265835479757739 0.04029555970668636 0.053037901870587545
-0.002263511329642643 0.04137459909726399 0.052446202138758224
-0.0022613616402071906 0.042425867580548504 0.051835486536838504
-0.0022594321669997908 0.0434426564765088 0.051200082848434025
-0.002320827996724327 0.04838733595072292 0.026968500771481718
-0.00230911442793706 0.05081845612243452 0.027570098815659472
-0.002301215319061665 0.05269449243717661 0.02769383033542716
-0.002294839625967517 0.05434725899243381 0.02762859585292121
-0.0022901185202090506 0.0557594797084609 0.027355802940016383
-0.002286553039987627 0.057003893316922405 0.026937806221889016
-0.002283762368569214 0.05813578959862514 0.026422464909987675
-0.002281901751233633 0.05913388011439402 0.025788777418473685
-0.0022813477756645664 0.05994572980969082 0.024986745692913648
-0.0022818303756413152 0.060610758153707034 0.02405006096799872
-0.0022825695321576894 0.061239928412826716 0.023079476136422583
-0.0022848076708310468 0.061658735346086124 0.021911842648346336
-0.002287547130841713 0.062008629001117144 0.020676590845016496
-0.002291223975419305 0.06222903885081327 0.019315652654434856
-0.0022955697910186277 0.06235836346292639 0.017863442295202148
-0.0023004952279502017 0.062409700419659875 0.016331039678043613
-0.002306707689256635 0.06228524605537683 0.014623699565050496
-0.0023138234663139883 0.06203947167880114 0.012791120367956155
-0.0023246138097532524 0.061289694502326575 0.01046158599646152
-0.0036349696288552158 -0.009226556914388007 0.06501645425327074
-0.0036082326434698914 -0.005568231460697237 0.06598090184251809
-0.003587189403650225 -0.002533340303563336 0.06655450805944663
-0.0035698480747792553 9.543657784849557e-05 0.06687492405606676
-0.0035537331384862853 0.002585492213702578 0.06711644439002828
-0.0035396737902504104 0.004849024139852276 0.06721858655041957
-0.0035262469303821964 0.007039091953757626 0.06728232947398277
-0.003513769100485768 0.009122418736529192 0.06728429670386477
-0.0035027921691431893 0.011041007929400104 0.06718370979021149
-0.0034932423059853774 0.01280364902804404 0.06698479600918483
-0.0034847724504013466 0.014447967298982067 0.06671182706472589
-0.003476647852582827 0.016052212642736208 0.06641786238770203
-0.003469736320154645 0.017525192496065323 0.06603877063240238
-0.0034639686889278154 0.018874957524250502 0.06557873037716272
-0.00345867646252556 0.02017237568453273 0.0650864051611032
-0.0034538553731813682 0.021418199388395343 0.0645617481598188
-0.0034493835390068833 0.022625466009268957 0.06401349292578273
-0.003445638684119503 0.02375501541455516 0.06341309080538277
-0.0034423539173477095 0.024835085996394446 0.06278003582839359
-0.0034396439684366135 0.025854059994590006 0.06210532686299258
-0.0034378126764353927 0.026780821442474456 0.061365541660599265
-0.003436235549787798 0.027680514553154678 0.0606074021573485
-0.0034347048708155046 0.028574738528707122 0.059846531172185635
-0.0034332025322559925 0.02946538795965037 0.059084276600018804
-0.0034315218242650537 0.03037372430064844 0.058336463072956535
-0.0034299145618044468 0.03127380823385684 0.05758385883658185
-0.0034276095309692307 0.03224461288930747 0.05688592261506714
-0.0034253613042213656 0.03320862858526602 0.056184765494442124
-0.003423232245367386 0.03415953625740725 0.05547549946287922
-0.0034205612352191683 0.03516464638192246 0.05480955859957126
-0.0034184381376007075 0.0361130081718406 0.054102139511569114
-0.0034161217916564117 0.03708003009028299 0.05341096452257488
-0.003414279880382698 0.03799811570830475 0.05268363326513359
-0.0034790038108996066 0.04860228052842103 0.02715761776563469
-0.0034620592771667067 0.05097288788216803 0.027706688884772013
-0.0034505575883717675 0.05281536672118181 0.027801301781385124
-0.003441046132135816 0.054462882644573996 0.027731938774920084
-0.003434032364984964 0.055868370059538486 0.027453638477273
-0.003428696614863166 0.057111348242826154 0.027034858349730184
-0.003424656473921174 0.058229163586977384 0.026507241229638656
-0.0034218224422841773 0.05923111794683661 0.025877524106328986
-0.0034211348063614756 0.0600292122818194 0.02506333690501511
-0.003421849370057162 0.06069492788108999 0.024127686520473812
-0.003423350854983211 0.06128699207592897 0.023123107477046823
-0.0034261965044811806 0.061753658431411895 0.022000302535529148
-0.0034303481377147816 0.06209936297982155 0.02076158816641538
-0.003435743195783795 0.06233078449489926 0.019411462552297976
-0.003442022751724336 0.06248214782690875 0.017980612774775584
-0.0034496957023099394 0.06250673883930935 0.016423371802283038
-0.0034585524033364646 0.06242488677592545 0.014757259543260293
-0.0034694647086787886 0.062156720354167416 0.012903846930762741
-0.0034848136368862076 0.06148386588956373 0.010649239274788225
-0.004870723871088491 -0.011959547751930477 0.06467453146714197
-0.0048289226897897585 -0.007793741183178937 0.0659529555210282
-0.004797716956675837 -0.004497187097126376 0.06668487832333786
-0.004772248843403583 -0.001673180634049809 0.0671230447465011
-0.00474996555330957 0.000886418829598612 0.06740066402524891
-0.004729552710365804 0.0032886780717714115 0.06758644171591849
-0.004711091826438024 0.005527967333596229 0.06767491327555819
-0.00469409797317282 0.007644006740514242 0.06769116641775541
-0.0046784408021025604 0.00964790639527241 0.06764142825846409
-0.004665053465424742 0.011465987653046239 0.06747413883015019
-0.004653327905422505 0.013147677238292965 0.06722120740525922
-0.004643128631431873 0.014704524208895675 0.06688910596346254
-0.004634300788841174 0.01614952348067694 0.06648547539243532
-0.004626363569586474 0.017521322221151048 0.06603606673019313
-0.004619442307061337 0.018810468035591443 0.06553342630153502
-0.004613162667705907 0.020046904442243996 0.06499777572435578
-0.0046073980356833594 0.021240882946583994 0.06443580787336028
-0.00460208402148745 0.022397697504173253 0.06385083026635019
-0.004597507807971823 0.023495107367139556 0.06322645749429923
-0.004593785777089349 0.024524385743305732 0.06255570804504362
-0.004590865563353996 0.02549002263562128 0.06184105175812704
-0.004588551353000026 0.02640762303118932 0.061093136221880784
-0.004586636674094937 0.027293492677117448 0.060323365692205366
-0.004584904009799515 0.028164659449451068 0.059543933385758085
-0.004583449112695008 0.029013815472370086 0.058749247796172244
-0.004581670809661783 0.029887430746842192 0.05797371363231707
-0.0045799058881109125 0.030759445215067405 0.05719808869677445
-0.004578142325839742 0.031630788089038686 0.056423061119659224
-0.004575876864960409 0.032540006569121094 0.05567785394357039
-0.0045736734915636 0.03344375136123201 0.054929897250153625
-0.004571436365675842 0.03434936236371816 0.05418475743521345
-0.004570886440647471 0.03512583823487997 0.0533415306199963
-0.004579642245398793 0.035195355769171266 0.0519510088086233
-0.004635692727451098 0.048816949154424416 0.02734649196624711
-0.004613932683566595 0.05112717612697254 0.0278431520194114
-0.004598417672508488 0.05298218438626345 0.02794962225920078
-0.004586410370796126 0.054581010816229514 0.027837520202001642
-0.004577185231887394 0.05597718797234158 0.027551408930365284
-0.00457005168940174 0.05722128826274825 0.027134154985485104
-0.004565049980853393 0.05831145793458298 0.02658195810787012
-0.004561035076737159 0.05932998697453534 0.025967759546234148
-0.004560213956118194 0.06012107745062256 0.025147618834839014
-0.004561273285447528 0.06077905367268488 0.024205271553157104
-0.004563214628468316 0.061375199435233785 0.023204881849847092
-0.004567149952464056 0.06183173889629573 0.022073066612401604
-0.004572479378228114 0.06219172450917754 0.020848110134815245
-0.004579644637538758 0.062424904771764156 0.019500091946780207
-0.004588036545301913 0.06257471306171086 0.018068232208781176
-0.0045981039561111435 0.06261046277371757 0.01652206519184446
-0.004609674216439623 0.06254496509914959 0.014872108994379796
-0.00462387048403549 0.0623010394504786 0.013042599824832413
-0.004643268458119077 0.06170170861548602 0.01085976926023885
-0.006062082579322932 -0.010251879985646917 0.06578443382270965
-0.006018078368237263 -0.006623442621730924 0.06671787321427747
-0.0059821854035181045 -0.003530449360441168 0.06732029610780671
-0.005952762254232993 -0.0008639174650543757 0.06765794055785135
-0.005926310756729707 0.0016037920549346607 0.06787747849411979
-0.00590173506148511 0.0039442138924328796 0.06802459058129345
-0.005879244636178527 0.006144643904333669 0.0680893897836709
-0.005859061318604589 0.008191694286739104 0.06806132583737734
-0.005840889522323079 0.010105126942218323 0.06795216417521366
-0.005826603996784578 0.011766262844026154 0.06767934542995385
-0.005814151699159427 0.013307152177636561 0.06733079640058937
-0.00580338624565556 0.014737791585236859 0.06691209353178668
-0.005793874277729474 0.016086277140277494 0.0664415310189026
-0.00578563431546852 0.017351921748489207 0.06591771492945481
-0.005777478875370779 0.018610116466458215 0.06539267852294472
-0.005770169287827799 0.019812970884929282 0.06483253142808504
-0.005763790463709054 0.020955477312135873 0.06423309641184688
-0.0057574864229736206 0.02209165549650388 0.06363226794826599
-0.005752619750705357 0.023136289971628643 0.06296879988668119
-0.005748260394192638 0.024148000301129402 0.062283955074766084
-0.005744813933518984 0.025101713043349017 0.06155915607516976
-0.005741960141481083 0.02601769042235058 0.060808516134188584
-0.005740074292098563 0.0268728765817679 0.060014674326919204
-0.005738506220159998 0.02770790171793136 0.05920689136421503
-0.005737134867975165 0.028530368468633216 0.058390570777034245
-0.005735869591058204 0.029345941916635865 0.0575697914072662
-0.00573458981855278 0.030162081969053622 0.05675006871747479
-0.005733220337442618 0.030983401392273624 0.05593489189482137
-0.005731625931525734 0.03181815097874635 0.055130583689504464
-0.005730242834793871 0.0326395697654967 0.05431691523992216
-0.005729551569120175 0.03341841875789203 0.05347131936405486
-0.005749078062438293 0.03296604161433114 0.05167741936479281
-0.005791404222673029 0.049002123107459605 0.02750941556441283
-0.005764964332522906 0.05126818927795135 0.027967873755695538
-0.005745375425881865 0.05313408497098149 0.028084679710185134
-0.0057307709029261154 0.054709389599161884 0.02795226348459362
-0.005719637779974849 0.056082509562397076 0.02764603801874632
-0.005710622064808307 0.05733200551993073 0.02723415361282
-0.005704225202255436 0.05843015982237293 0.026689730165738668
-0.005699462990352306 0.059433861131842736 0.026062563045736842
-0.00569854128316767 0.0602187848432173 0.025237260721681865
-0.0056999092448451975 0.06087406299879505 0.024292893916365244
-0.005702453559464692 0.06146335844165751 0.02328661139615501
-0.005707370007164276 0.061919848670476396 0.022155177105138868
-0.005714072962645009 0.06227732133754155 0.020928295107489003
-0.005722904808832748 0.06251729056704552 0.019587088049274337
-0.005733343498563426 0.06266974715336504 0.018158188584954438
-0.005745874951173154 0.06270822222173505 0.016615083374251605
-0.005760237810460805 0.06264805915300803 0.014970713778412248
-0.005777391053727874 0.0624367506389229 0.013173076812702078
-0.00579912303310287 0.06197636713569765 0.011125207770570134
-0.005846896971106268 0.060083199178473046 0.007673367386869467
-0.007310487131671861 -0.012980650850889841 0.06545325399130802
-0.007252060807943932 -0.009038805672460237 0.06657287411397411
-0.007203160429617874 -0.00562345288826932 0.06737147553140393
-0.007163263384544726 -0.0027033892679759752 0.06786390652141994
-0.007129792761304076 -0.0001372357005683389 0.06813825283742919
-0.007099054929923368 0.0022751764361840787 0.06832372568991818
-0.007070697265487148 0.004553600268645097 0.06843189395653915
-0.007044855288604844 0.006691561335103791 0.06845698025553948
-0.007022736650923447 0.00862548543021241 0.0683545073910024
-0.007004329186561567 0.01035721651163013 0.06812348914775018
-0.00699019069747311 0.011858329126415379 0.06774226312618248
-0.006978021825864411 0.013252040455818237 0.06729292447377777
-0.0069666542438631615 0.01460076916301506 0.06681741217432391
-0.0069566710347078635 0.01587399958118063 0.06629403766552677
-0.0069468636659718854 0.017135829502326172 0.06576674185752118
-0.006937873362270606 0.018352611124971663 0.06521177997055522
-0.006929950352946631 0.019511481199612157 0.06461956730168233
-0.006922630356237888 0.020637087044040492 0.06400695736232492
-0.006916292782711974 0.021709801669160422 0.06335956400244896
-0.006910713657515135 0.02274161750270698 0.06268539565951692
-0.006905980302441901 0.023728235237774065 0.061980881700806845
-0.006902343685075501 0.02465689655950032 0.061236238864133485
-0.006899219265177546 0.025558240442237923 0.060473153828789095
-0.006897204448845656 0.02640154240735293 0.059668760808467225
-0.006895988893690218 0.027203172195018943 0.05883445089862177
-0.006895045787597871 0.02799051281789744 0.057990043277303116
-0.0068943023803499925 0.028767390034769635 0.05713822208757796
-0.006893541005846504 0.02954502925599156 0.05628728171659858
-0.006893287295072092 0.030296528327846572 0.0554169475257254
-0.006893523008452074 0.031022981771258618 0.05452773117255838
-0.0068953907031699445 0.03166632738807379 0.05357506777078236
-0.006917133111845658 0.031299477713431 0.051847447313655926
-0.006946001366764787 0.04917913102456195 0.027665154354860944
-0.006915000071759675 0.05140995739526921 0.028093263235618837
-0.006891422819992573 0.05327891119921624 0.02821344723189889
-0.006874345343267582 0.054832504419003836 0.028062301909203335
-0.006861498405417604 0.05618091961873578 0.027734457254814326
-0.006850632324297916 0.05743243758180111 0.027324862771485936
-0.0068428536277767155 0.05853522331716654 0.026785119636619226
-0.006837303145944194 0.05953091895379342 0.026151145442242785
-0.006836233401507481 0.06031390847771351 0.025324532135687194
-0.006837713457168061 0.0609765765717698 0.024387437064889994
-0.006841193131983867 0.06154559658436254 0.02336285189509285
-0.006847018307291215 0.06200539474301758 0.022234898458047436
-0.006855093411399719 0.06236119546682378 0.02100686630048898
-0.006865542228861323 0.06260794483151816 0.019672453638408527
-0.006878097654827986 0.06275884294705741 0.01824252395504955
-0.006892764537337038 0.06281434164990646 0.01671605607531984
-0.006909988537040871 0.06275446373996624 0.01507248493396296
-0.006930173986094729 0.06256133409201575 0.013292855255104485
-0.006956176690794659 0.06210415334780167 0.0112487043805658
-0.007004838952005098 0.06060958460029181 0.008184726691684074
-0.008596167360798863 -0.016893210280719884 0.06437542000034113
-0.008499912304971484 -0.01163464108363399 0.0663231932921215
