# .PCD v0.7 - Point Cloud Data file format
VERSION 0.7
FIELDS x y z
SIZE 4 4 4
TYPE F F F
COUNT 1 1 1
WIDTH 767
HEIGHT 1
VIEWPOINT 0 0 0 1 0 0 0
POINTS 767
DATA ascii
-0.08159374093177711 0.06595707354559865 0.04406763820408266
-0.08096348715642235 0.06162165475402098 0.04517609188395916
-0.08034314151281476 0.057354048324111895 0.04626670957261342
-0.07973198730890604 0.05315001516498724 0.04734157515705972
-0.07913029962567425 0.04901076174759916 0.048399387573284214
-0.07853738975753918 0.04493223102996774 0.04944216901478393
-0.07795353076183911 0.04091562587748493 0.050468634269243695
-0.0773782887011002 0.036958300149673995 0.05147995034485492
-0.07692462326136926 0.033671869881736594 0.052080314837854025
-0.07701094832944554 0.033314457469381 0.05079486018057161
-0.07709746736374815 0.03295624197700919 0.04950651719901933
-0.07718395376501594 0.03259599698456933 0.04821608046812137
-0.07727086218609143 0.032236166873498395 0.046921936277247445
-0.07735796654395301 0.031875525518189896 0.045624874412220795
-0.07744503870819108 0.03151284552233835 0.04432570352959492
-0.08088180194431173 0.04904209091299766 0.03099765803638921
-0.08096698807627425 0.048629739163526975 0.029658069182151914
-0.08105235383647964 0.04821651790608805 0.02831565559592042
-0.08113789979368878 0.04780242438753857 0.02697040833368275
-0.08122362651906627 0.0473874558431005 0.025622318413628054
-0.08130953458619261 0.04697160949629631 0.024271376815947765
-0.07686192188555804 0.022627613690409554 0.039542574685930865
-0.07673435444151344 0.021132293378917533 0.03903066321147314
-0.07660810523088132 0.019646635281335145 0.03851714155096836
-0.07648160135365019 0.018162346376147553 0.03800778725268383
-0.07635573698391318 0.016684115663139654 0.03749928548664094
-0.07623006452758099 0.015209584322328717 0.036993281650244625
-0.07610502601876111 0.013741050671001176 0.03648811360046861
-0.07598017681366392 0.012276181007514486 0.03598542729454496
-0.07585595606399777 0.010817249296654563 0.03548356026625216
-0.0758480548774826 0.009963657103139067 0.034544957705893775
-0.07618642040523815 0.010900610669518584 0.03229259426098524
-0.07652804183050563 0.011847114110129287 0.030019194138023175
-0.07687274072976139 0.012802144064297416 0.027725314240577004
-0.07722055887599137 0.013765816269129316 0.02541067658048768
-0.07757153880164014 0.01473824856589978 0.023074998115596712
-0.07792595545869269 0.015720746251765394 0.020717096842735094
-0.07828339179542489 0.01671106930862376 0.018338455642777418
-0.07864435820443667 0.017711721402009717 0.015936976476824183
-0.07900843075734264 0.018720433483257526 0.013514176096858732
-0.07937613017342589 0.01973974790176447 0.011067899746625809
-0.06936329751920405 -0.06747809974702196 0.006819797016233586
-0.06922262969923616 -0.06885960967623844 0.006573955140430965
-0.0691021983353902 -0.07014648050814098 0.006239412801002819
-0.0690723379386782 -0.07102166079076888 0.005493722354466879
-0.06910274480377807 -0.07162461897545119 0.004472394617475672
-0.0795097308827071 0.061038778304376096 0.0455381811228357
-0.07890131646927026 0.05678118361617618 0.04662460934452456
-0.0783019047629251 0.0525869297800971 0.04769536835222016
-0.07771176610214939 0.04845722355249771 0.04874915902000532
-0.0771304563073593 0.044389300470551674 0.04978718428007867
-0.0765575513515223 0.04038052688226301 0.05081059890651307
-0.07599331845289212 0.0364321030265512 0.05181812759969179
-0.07568096589743663 0.03388351345855556 0.05194352754506354
-0.07576593851411835 0.03352615693653449 0.0506572656768009
-0.07585110215535738 0.03316799705133239 0.049368112199290104
-0.07593645746603364 0.03280903109087113 0.04807605735074133
-0.0760217808956359 0.032448031053988136 0.046781901192100184
-0.07610752098546533 0.03208744444053485 0.04548401888523612
-0.07619345469515994 0.03172604354368269 0.04418320567640899
-0.07960057424597117 0.04940499217696909 0.030753747345139304
-0.07968448145716775 0.04899267625357512 0.029412775044860895
-0.07976856574872598 0.04857949016595958 0.02806897271535319
-0.0798528276818117 0.048165431156580396 0.026722331388281784
-0.07993726781996449 0.047750496456231806 0.02537284205737772
-0.08002188672910998 0.04733468328398238 0.02402049567823733
-0.07558753857974508 0.02266329803648559 0.0395177807044686
-0.07546229611653918 0.021168970405917475 0.03900503875900735
-0.07533790836183203 0.019681940413043608 0.03849233954465692
-0.07521349108616246 0.018197463278667503 0.03798298162048025
-0.07508970280546916 0.01671904558831766 0.03747447624273492
-0.07496610330821799 0.01524432810632953 0.03696846909659729
-0.07484312733684179 0.013775609548348777 0.03646329774870771
-0.0747203375816999 0.01231055580284468 0.03596060844322374
-0.07459816595012968 0.010851441227461456 0.03545873842449043
-0.0744761780057411 0.00939595655523806 0.03495933445249372
-0.07468483417527431 0.009681705805175522 0.03318715218373153
-0.07501846327067041 0.010618673230141429 0.03092566209775688
-0.07535530677351265 0.01156520286674284 0.02864302068610991
-0.07569518886993608 0.012520270945825807 0.02633978805186943
-0.0760381508619877 0.013483993526065774 0.024015684309085295
-0.07638423480365289 0.01445648877908673 0.021670424476253225
-0.07673371193380896 0.015439063150654464 0.01930281911579279
-0.07708617113399902 0.016429475368586743 0.016914359917568345
-0.07744211581353275 0.017430231091558723 0.014502935794481642
-0.0778011280681308 0.018439059973474226 0.01207007249654557
-0.06825962036704643 -0.06649211828026841 0.007464498514113405
-0.06812990676958006 -0.0678358748957128 0.007176472131407208
-0.06800301728626405 -0.06916377082226288 0.006878752529231258
-0.0679166585096917 -0.07030227962658475 0.006396346556025001
-0.06793026067831923 -0.0709797289601371 0.0054512664511604525
-0.06796536511160237 -0.07155893674430275 0.00440554728063236
-0.06791594275869836 -0.07252534749357642 0.0037542441410747807
-0.07805978103005057 0.060457428020592285 0.0458993222907525
-0.07746323775638758 0.05620980739717507 0.046981579176359534
-0.07687550984416375 0.05202529637362646 0.04804824925219742
-0.07629686289255247 0.04790510197349185 0.049098035330915446
-0.07572686188865699 0.043846470129341175 0.05013213585986115
-0.07516509153951352 0.03984677699971906 0.051151701369060276
-0.07461181434341872 0.03590722280697567 0.05215545850473513
-0.07443626320536571 0.03409659737943149 0.05180580934396395
-0.07451966192601739 0.033738071803693315 0.05051953117335406
-0.07460346736893299 0.03337996782454433 0.04922956621684893
-0.07468746152069364 0.03302105748501877 0.04793669658268973
-0.07477164501940521 0.03266133805846444 0.04664091244890972
-0.07485579738447044 0.032299579958789515 0.04534301939408503
-0.07494036100305936 0.03193823381157623 0.04404138138812008
-0.07831695042763157 0.04976716601419373 0.03051032556693062
-0.07839957378209082 0.04935488648526065 0.02916797216101258
-0.0784823716537715 0.0489417361386445 0.027822783433430087
-0.07856534459618147 0.048527712212413254 0.026474750391528246
-0.07864849316517208 0.04811281193294398 0.02512386400458183
-0.07873181791895001 0.04769703251485852 0.0237701152035959
-0.0743129310434331 0.022698988661303154 0.03949298236044907
-0.07419000689201098 0.02120565409040609 0.03897940965527841
-0.07406748873705575 0.01971725173624833 0.03846753318879281
-0.07394515879617639 0.018232586329502365 0.03795817164527299
-0.07382344733285565 0.016753981619010372 0.0374496626623409
-0.0737019215207156 0.015279077953311737 0.03694365221302287
-0.07358100880797318 0.013810174446518886 0.03643847757354718
-0.07346027922171205 0.012344936577100618 0.035935785275074794
-0.07334015742238084 0.010885639095658706 0.0354339122724438
-0.07322021626235756 0.009429972330940006 0.03493450561179495
-0.07319230051254806 0.008469190167386731 0.03407702103401489
-0.07351824819630264 0.009397852018738051 0.03182650749514504
-0.07384732715801341 0.010335968405630613 0.029555009380692943
-0.07417936538170213 0.011282520859466127 0.02726308468541977
-0.07451440296466465 0.012237623686945809 0.02495045663401524
-0.07485248073189413 0.013201393269238915 0.022616843428167555
-0.07519364025266678 0.014173948109270307 0.0202619581320857
-0.07553814902748927 0.015156595802334083 0.01788460383151974
-0.07588560190215715 0.016147093823416947 0.015486281062960072
-0.0762364952580072 0.01714794982529344 0.013064865620636856
-0.06717258187140919 -0.0654179299249244 0.008024655540865622
-0.0670057999399287 -0.0669491002510848 0.007917725546601417
-0.06689948638995148 -0.06819200850147367 0.007531510750821424
-0.06681728550443719 -0.06931935288031893 0.007034660033064299
-0.06682503832483119 -0.07002354527052917 0.0061155822642471325
-0.06688253576656539 -0.07049546427053677 0.004960949321509922
-0.0668155237524751 -0.07154908201964794 0.004395517747728561
-0.06674020767956111 -0.07263983334807655 0.0038713636067676527
-0.0666890966836434 -0.07361661526486085 0.00323372149422102
-0.07720741850334045 0.06418097051612415 0.04516470378633047
-0.07661362266827011 0.05987759791648595 0.046259519106392366
-0.0760288907918323 0.05563991387326789 0.04733762268784586
-0.07545278830755153 0.05146510933667453 0.048400221381130204
-0.07488557607863296 0.04735439157942134 0.049446019937873065
-0.07432682819359106 0.04330501687313687 0.050476212345507754
-0.07377613803194634 0.03931437113412256 0.05149194491340353
-0.07323376337698266 0.035383654553441724 0.05249194623322945
-0.0731900724086653 0.034308672733565915 0.051668742989314065
-0.07327233221197328 0.03395142921593275 0.05038085908476725
-0.07335456106365255 0.033592154626392146 0.049090879036170265
-0.07343719123541714 0.03323330020789467 0.04779719362603069
-0.07352000777446296 0.03287363641527713 0.04650059038784138
-0.07360301131201177 0.03251316050720732 0.04520105943898445
-0.07368598445870565 0.032150641308847205 0.04389941190748964
-0.07703141291034293 0.05013128682957202 0.03026559519921168
-0.07711250971280724 0.04971770459567526 0.028922758437124718
-0.07719425600099142 0.049305930768202055 0.027575269807077085
-0.07727593600513745 0.04889194276142378 0.02622583712123644
-0.07735778904521116 0.04847707773707066 0.024873545714470147
-0.07743981567165048 0.048061332905295795 0.02351838649301141
-0.07303809921743572 0.022734685566517476 0.03946817965272231
-0.07291705970990338 0.02123997711424247 0.03895542983017486
-0.07279684629795079 0.01975256925258262 0.03844272248222863
-0.07267660442537965 0.01826771553027129 0.03793335732591824
-0.0725569705080461 0.016788923756816565 0.03742484474432317
-0.07243751910733287 0.015313833864860404 0.036918830998389385
-0.07231867037469715 0.013844745367080857 0.036413653073860075
-0.07220000167652449 0.012379323331840109 0.03591095778897335
-0.07208193042385615 0.010919842902797516 0.035409081808986165
-0.07196424471300983 0.009465128161667724 0.03490884462060012
-0.07184673538343435 0.008014027678583502 0.03441106614484085
-0.07202751807666392 0.008185711255373873 0.03272094757978927
-0.07234871380005344 0.009114368879647061 0.030461333594868467
-0.07267299907063386 0.010052493058681167 0.02818062089903317
-0.07300020448757799 0.010999064922992796 0.025879370684246228
-0.07333036967258329 0.011954199094108331 0.023557304289352488
-0.07366353496740637 0.012918012276608493 0.021214137988984916
-0.07399974145029767 0.01389062330567864 0.01884958287798666
-0.07433925285793941 0.014873340927048617 0.016462434522884428
-0.07468167003153178 0.015863921364144273 0.014054202344609246
-0.06604980055491218 -0.06450293434830984 0.008744439002742688
-0.06590786314438374 -0.06593065620030558 0.008530544671562501
-0.06579763732226702 -0.0672029656978223 0.0081695050268083
-0.06570095006294265 -0.0684079586697302 0.007746796947798784
-0.06570216340056721 -0.06914307009257736 0.006858008497862111
-0.0657804315457024 -0.06951096362034315 0.0055992676411436015
-0.06573511396164015 -0.07046824160086862 0.004933386417297125
-0.06565089566553835 -0.07160902195384727 0.004456520927762608
-0.0655665476440605 -0.07274851673761767 0.0039825471286823455
-0.06554877237435157 -0.07357182459289252 0.0031876635033858403
-0.07575309092460004 0.06359251566597063 0.04552818132794656
-0.0751712409451634 0.05929928203713952 0.04661877526901542
-0.0745982610688528 0.0550714972806442 0.04769274347994984
-0.07403372598129415 0.05090636308919261 0.04875128824502878
-0.0734778918131976 0.04680508696685337 0.04979311625521621
-0.0729303416897362 0.04276493546836779 0.05081941706278792
-0.0723906776018197 0.03878330421537379 0.051831332779681216
-0.07186189636340543 0.03487734907045209 0.05281733949522632
-0.07194261376805881 0.03452096384796116 0.05153153718671871
-0.07202351270496068 0.03416377712037738 0.05024284312784649
-0.07210459378719539 0.033805786180796715 0.04895124755237218
-0.07218585763061122 0.03344698831011289 0.04765674065003056
-0.07226709140127369 0.03308615173337437 0.04636012492267383
-0.0723487221432376 0.03272573147147417 0.045059770521212794
-0.07243053750902913 0.03236449604892533 0.04375647511491243
-0.07574347595391723 0.05049467879703512 0.030021354699719838
-0.0758235187933692 0.05008247430774948 0.028676225706558978
-0.07590373098427328 0.049669397692617134 0.02732825074303802
-0.07598411306465921 0.04925544618089345 0.025977420767505977
-0.07606466557483824 0.04884061699008385 0.02462372669997076
-0.0761453890574152 0.048424907325882505 0.023267159421895833
-0.07176304304254566 0.022770388753783843 0.03944337258013808
-0.07164389633734307 0.02127430596731439 0.03893144593246828
-0.07152598098589368 0.01978789296367367 0.038417907423821285
-0.07140782791543833 0.018302850882587707 0.03790853866127636
-0.07129027227299489 0.016823872003342344 0.03740002248754115
-0.07117289601030984 0.015348595842567314 0.036894005451560075
-0.07105611197953705 0.013879322311612763 0.03638882424851314
-0.07093950488894143 0.012413716068621627 0.03588612598379426
-0.07082348489763905 0.010954052650420487 0.035384247032997584
-0.07070784378295492 0.009499155930880854 0.03488400702558153
-0.0705923760179235 0.008047874277869793 0.03438622602447111
-0.07054576558198979 0.006979911264118066 0.03361070880129091
-0.0708593797072271 0.007900333376649415 0.0313620459394886
-0.07117600170739499 0.008830115499547375 0.029092450433697237
-0.07149546594095613 0.009768244034862705 0.026802481358989494
-0.07181781085144522 0.01071483187466099 0.024491863146159032
-0.07214307557884408 0.011669993956172076 0.02216031523375883
-0.07247129997542323 0.012633847308307133 0.019807551954542535
-0.07280252462202168 0.013606511099471752 0.017433282418775675
-0.07313700946585155 0.01458929522672936 0.015036294630905611
-0.06495839422968469 -0.06342667061721213 0.009308473534065276
-0.06480354982308968 -0.06493234349215066 0.009165934561567723
-0.06469200502246036 -0.0662224214198896 0.008818419236198694
-0.06459056132965868 -0.06746058898571927 0.008425011470672483
-0.06457982080839701 -0.06825433223700822 0.007593642862655292
-0.0646781530338371 -0.06851745041497442 0.006231080152122204
-0.06463424213514578 -0.06947286645973816 0.005560893030753411
-0.0645564767624117 -0.07059111845858373 0.005057799015343589
-0.0644843363127358 -0.07168042709438094 0.004529192689944561
-0.06444561042749845 -0.07260713171957073 0.0038379097161135856
-0.07430281543523938 0.06300698657397574 0.045889851683535376
-0.07373262108599989 0.05872247445869716 0.04697709445858578
-0.07317133415579141 0.05450455188533021 0.04804694513499702
-0.07261830876640277 0.050349052079798895 0.049101453331892086
-0.07207379631965773 0.04625718275990648 0.05013932767987367
-0.07153738891315319 0.042226220707949735 0.0511617533206396
-0.0710086970885783 0.03825357119884276 0.0521698681917549
-0.07061473616302079 0.03509102756584376 0.052680012239310514
-0.07069388534775117 0.03473347105204594 0.05139419172326487
-0.07077342060288638 0.034376341415497946 0.050104686527361164
-0.07085313502434666 0.034018407285337116 0.04881227650759129
-0.07093302921821731 0.03365966594011566 0.047516951837492716
-0.0710131037933201 0.03330011464609489 0.0462187026462329
-0.0710931490313072 0.032938520032326335 0.044918336974158646
-0.07437479674184574 0.05126997696897806 0.031120380147581228
-0.07445360684898192 0.0508600253217269 0.029775800516722184
-0.07453235298108679 0.05044785948966701 0.028429277005434128
-0.0746110342014596 0.05003347627905791 0.027080815981803563
-0.07469011386971446 0.049619561972162995 0.025728585922059788
-0.07476936134770872 0.04920476932506446 0.024373486384245635
-0.07484901030921914 0.04879044054549325 0.02301457883602831
-0.07048776245953615 0.022806098224765592 0.0394185611415408
-0.07037113495031784 0.021312192847808054 0.03890497621429051
-0.07025489274224041 0.019823222871149293 0.038393088012427246
-0.07013882920799805 0.018337992388065327 0.03788371565020754
-0.07002335256963446 0.016858826360185153 0.03737519589086019
-0.06990805217186488 0.015383363888016865 0.0368691755714034
-0.06979333356499519 0.013913905281687566 0.036363991096377
-0.06967899084610286 0.012449261516094656 0.035860461913142905
-0.06956482078679488 0.010988268340079821 0.035359407943351295
-0.06945122497976416 0.009533189600866077 0.03485916512346349
-0.06933779948855069 0.008081726736925698 0.03436138160359892
-0.06922494329872197 0.006636119615616332 0.033864393060149156
-0.06911245388785474 0.0051952106706067425 0.03336901971334344
-0.06900013134304699 0.0037578664307881815 0.032876082154934205
-0.0688883707875829 0.0023262912906989452 0.03238391573772298
-0.06877697168718817 0.0008993461391372803 0.031893341081070226
-0.06866593229117131 -0.0005229914490395005 0.031404350475354836
-0.0685552508601288 -0.00194074375438541 0.03091693626066222
-0.06844492566585283 -0.0033539329140371277 0.03043109082639056
-0.06833476066615918 -0.0047636565852566815 0.02994763540269052
-0.06822514342807713 -0.00616777958494108 0.029464904933760805
-0.0681158773054359 -0.00756740503229808 0.02898372070082711
-0.06800696061394393 -0.008962554501968367 0.02850407528663601
-0.06789839168006548 -0.010353249430820277 0.028025961321297088
-0.06779016884093346 -0.011739511119055523 0.027549371481912277
-0.06768209981343355 -0.013122402577151027 0.02707512745887497
-0.06757456482272899 -0.014499855614647561 0.026601564103389375
-0.0674673709984676 -0.01587293853271826 0.02612950317909024
-0.06736051671963936 -0.017241672095443472 0.025658937547362537
-0.06725400037548772 -0.01860607693556532 0.02518986011474228
-0.0671476327334302 -0.019967188047679385 0.024723092825445714
-0.06704178805803108 -0.02132299143893962 0.02425697068318844
-0.06693627654296229 -0.022674527256961285 0.02379231572295537
-0.06683109661769518 -0.024021815619223064 0.0233291210284029
-0.06672624672155737 -0.025364876516954238 0.02286737972658981
-0.0666217253036541 -0.026703729816131005 0.02240708498764271
-0.06651734669671204 -0.028039377883404548 0.021949058914646657
-0.06641347819591628 -0.029369869875669197 0.021491636952246318
-0.06630993357589883 -0.030696213153190377 0.021035641314270215
-0.06640852269017138 -0.030948496877706677 0.019664127778284912
-0.06669587399790282 -0.030204542843636384 0.017429590679349016
-0.06386234344123642 -0.06236010118224489 0.009885270836161808
-0.063703034969531 -0.0639045125563184 0.009775086490343754
-0.06358520990631933 -0.06523787562774497 0.009465836042657383
-0.06348894829290776 -0.06646096745565366 0.009053784288583
-0.06346362942685804 -0.06732891181125933 0.008294416263775639
-0.063579658124545 -0.0674947972904455 0.006836443220547994
-0.0635320871534934 -0.06847338066935543 0.006186918221628035
-0.06345592040868175 -0.06959209627301277 0.005680991157717641
-0.0633832795690483 -0.07069165712299635 0.005159594232736764
-0.0633350003099986 -0.07166975944166099 0.004518335808833374
-0.06342660972519552 -0.0719606806787958 0.0031765878364567457
-0.07285611271913994 0.062421615233045125 0.046251424599245805
-0.07229774839301634 0.058147169288162825 0.04733448033589721
-0.07174809569559895 0.05393907198299508 0.04840023121679349
-0.07120673754496337 0.04979447706781931 0.049449899359278626
-0.07067327589157972 0.0457106736100753 0.05048465759147586
-0.070147956467956 0.04168886741111699 0.05150322441127625
-0.0696303888966252 0.03772640881324696 0.05250676079589367
-0.06936609598268753 0.035303694768166805 0.052543334922930285
-0.0694440896087638 0.03494742492199515 0.05125591126565654
-0.06952225882070533 0.03459035301093044 0.049965589251063536
-0.069600398888959 0.03423124541369621 0.04867316361411256
-0.06967892059259184 0.03387256089654006 0.04737702018058326
-0.06975761966939642 0.03351306614466204 0.046077948880470565
-0.06983649672105643 0.03315275840959153 0.044775939781892315
-0.07308405412386386 0.05163589751402997 0.030875805213077978
-0.07316133496474717 0.05122464157534479 0.029530737158475207
-0.07323877941588439 0.050812514972106315 0.028182821477944375
-0.07331638799739172 0.05039951493647571 0.026832049118895862
-0.07339416123159231 0.04998563868886979 0.025478410990328493
-0.07347209964302805 0.04957088343789906 0.02412189796262526
-0.07355020375847109 0.04915524638030355 0.022762500867349045
-0.06921225740915783 0.02284181398111701 0.039393745335780994
-0.06909773026104925 0.02134771824780829 0.03888015634752118
-0.06898358150832759 0.019858558976644625 0.038368264246897765
-0.06886960824468513 0.018373140048324854 0.037858888291566806
-0.06875621133987855 0.01689378682895215 0.03735036495313876
-0.0686429875341977 0.015418138002801951 0.03684434135678177
-0.06853033507355363 0.013948494278877899 0.03633915361632234
-0.06841805176304704 0.012483666421180872 0.03583562132235962
-0.06830593803436795 0.011022489973321614 0.03533456453892492
-0.06819438824676116 0.009567229173162495 0.0348343189131225
-0.06808300573891635 0.008115585057277275 0.034336532881104276
-0.0679721823096934 0.006669797878277206 0.03383954183080723
-0.06786171908410464 0.0052287098662114895 0.03334416612467861
-0.06775161430887261 0.0037922981480643103 0.032850397900092476
-0.06764167231291794 0.0023594351069582964 0.032359058009936714
-0.06753227985066769 0.0009323138210440285 0.03186848142799009
-0.06742324064370325 -0.0004901989376874805 0.031379489039002395
-0.06731455298366008 -0.0019081254563602101 0.030892073181717883
-0.06720621517317157 -0.0033214878786202995 0.03040622624420214
-0.06709822552578112 -0.004730308205786349 0.029921940663443503
-0.0669903921531673 -0.006135678430663261 0.02944003789908506
-0.0668830944246382 -0.0075354743257650125 0.028958852572884275
-0.06677613986150394 -0.008930793317992125 0.02847920619958272
-0.06666952682009769 -0.010321656850463934 0.02800109140802437
-0.06656325366723295 -0.01170808622957531 0.027524500874052615
-0.06645713158366828 -0.013091144648038844 0.027050256426926766
-0.06635153394425497 -0.014468763568101672 0.02657669263618223
-0.0662462713530476 -0.015842011474296147 0.02610463140456515
-0.06614134221797267 -0.017210909136696873 0.025634065592250455
-0.06603674495702726 -0.01857547719399566 0.02516498810457879
-0.06593247799819986 -0.019935736154536643 0.024697391891698728
-0.06582835610845755 -0.021292715676705543 0.02423209907357393
-0.06572474565512765 -0.022644412098442646 0.023767444427601203
-0.0656214608443247 -0.023991860205237636 0.02330425016816773
-0.06551850014323995 -0.025335079994031506 0.022842509421192203
-0.06541586202866956 -0.026674091336459926 0.022382215355667423
-0.06531354498693973 -0.028008913979832017 0.021923361183322665
-0.06521136726974805 -0.029340545123598738 0.02146676915586676
-0.06510968843206659 -0.03066704393335884 0.02101077454017336
-0.06522741289706613 -0.03080638516873857 0.019542337064895943
-0.06550994982843283 -0.03006053432672251 0.017305522560864428
-0.06579531203369039 -0.029306221135010857 0.015047537299145208
-0.0660831711987906 -0.028545307595706504 0.0127697943455361
-0.06637337351598983 -0.027778706086030835 0.01047290793463479
-0.06666613590567572 -0.027005341861819576 0.008155759122773054
-0.06696111230017705 -0.026227150328764992 0.005819869903752828
-0.06276893662602614 -0.061266569700857365 0.010439235702369043
-0.06260221889980755 -0.06286635416340508 0.01037707225866119
-0.06247672660071808 -0.0642518281124741 0.010114240350974746
-0.062391309247315216 -0.06543032004765814 0.00965473390260635
-0.06234201578450207 -0.06642332617813712 0.009016644953082742
-0.062465478468981206 -0.06653988695413371 0.007511874681412067
-0.06243754108332233 -0.06742465572866191 0.006766517319547971
-0.06235898768067754 -0.06856400125926781 0.006277728371240632
-0.06228309788408843 -0.06968807658844745 0.005777670467971896
-0.06222921490842557 -0.07069989512790542 0.005167935197931628
-0.06228309788512923 -0.07117084687462544 0.004010573270307238
-0.06243820203710236 -0.07113747198184789 0.0023344422005507903
-0.07196807007824634 0.06616709424907624 0.04551724798892104
-0.07141320234792264 0.06183777836770993 0.04661204969811533
-0.07086660824491636 0.05757336066319946 0.04769093654269774
-0.07032853140535335 0.053375051898760406 0.048752605270744764
-0.06979856402486231 0.04924001664952421 0.04979827338610032
-0.06927631689223898 0.04516555419605578 0.050829109352464874
-0.06876203102588255 0.041152870423257326 0.05184383361029149
-0.06825532468863763 0.03719932545915061 0.05284360289353118
-0.06811738718935667 0.03552396555645132 0.05240177092109627
-0.06819301304636308 0.03516159805747732 0.051117489094611335
-0.06826961209728846 0.034803352336486626 0.04982714990165249
-0.06834658515103263 0.03444553306539422 0.04853310329928878
-0.06842352979043743 0.034085673512675996 0.04723694546023732
-0.06850085051217186 0.03372623560677379 0.045937051048148936
-0.06857834618125395 0.03336598442977007 0.04463421547003399
-0.07179091202351054 0.0520010865074122 0.030631719235000188
-0.07186688931284951 0.051589871160442946 0.02928526157210959
-0.07194325110478178 0.05117913349893927 0.027935039210107093
-0.0720195513525847 0.05076617290285279 0.02658286136179061
-0.07209578914756745 0.05035098614920808 0.025228734428621502
-0.07217241346265235 0.049936268875280354 0.02387081027643334
-0.07224920082560507 0.049520669129935135 0.022509996615370065
-0.06793652783214216 0.02287753602450232 0.03936892516170232
-0.0678241017858185 0.021383249890980727 0.038855332118951424
-0.06771204722546961 0.01989390128178614 0.03834343612609031
-0.06760016496710397 0.01840829386497911 0.037834056584215014
-0.0674888485256194 0.01692875341124428 0.03732552967323982
-0.06737789808853945 0.015454077632608976 0.036818674780204175
-0.06726711644767573 0.013983089304764162 0.03631431180721428
-0.06715689326462135 0.012518077313050324 0.035810776409075484
-0.06704683658338287 0.011056717551692519 0.03530971681859557
-0.06693733352724834 0.009601274649301494 0.03480946839344079
-0.06682799471259976 0.008149449240442641 0.034311679855873134
-0.06671920474910416 0.006703481963082347 0.03381468630529827
-0.06661076841048856 0.005262214843594071 0.03331930824642032
-0.06650268397534943 0.0038256250021697635 0.0328255378152163
-0.0663949497334375 0.0023936897072600605 0.032333367198623286
-0.06628737423024388 0.0009652871653627604 0.03184361750510423
-0.06618033590053304 -0.0004574008031028587 0.0313546233394314
-0.06607364269637263 -0.0018755015739917447 0.030867205846145274
-0.06596729295125814 -0.0032890372974638815 0.030381357411979837
-0.0658612850093969 -0.004698029981302032 0.02989707047260798
-0.06575561722562245 -0.006102501492052048 0.029414337512247313
-0.06565010184098505 -0.007503538187651981 0.028933980214743082
-0.06554511007481335 -0.008899026739911275 0.0284543328889319
-0.06544045359129173 -0.010290058913202504 0.027976217277756288
-0.0653361307869341 -0.01167665602011847 0.02749962605580253
-0.06523214006846258 -0.013058839237567232 0.027024551944295927
-0.06512829667538346 -0.014437666274674466 0.02655181697183634
-0.06502496597006795 -0.01581107920511543 0.026079755439508634
-0.06492196262849191 -0.017180141003048655 0.025609189453213
-0.06481928509742524 -0.018544872313119576 0.025140111917096197
-0.06471693183344934 -0.01990529364957172 0.024672515780119475
-0.06461490130287856 -0.02126142539728204 0.02420639403571123
-0.06451301224904711 -0.022614291905907247 0.023742568974788714
-0.06441162318727513 -0.023961899791805907 0.02327937515707912
-0.06431055231283245 -0.02530527850598191 0.022817634971545264
-0.06420979813022432 -0.026644447925735115 0.022357341586047685
-0.06410935915331284 -0.027979427803995927 0.021898488211196665
-0.06400923390524428 -0.02931023777029551 0.021441068100016947
-0.06390924453418427 -0.0306378698832655 0.020985903648276016
-0.06404605777915008 -0.030660260456487287 0.01941710718005346
-0.06598026245333882 -0.020819065877893783 0.009343690670276183
-0.06584948577645926 -0.022335600362284047 0.009010425143100631
-0.06571941300436691 -0.023845115650569404 0.008677590594236562
-0.06558985308584594 -0.025348679191288748 0.008346068352183655
-0.06546061794226585 -0.026847332990649175 0.008016736560466031
-0.06574889591435605 -0.026076203251990948 0.005686362027286396
-0.06604160762612468 -0.025288049339707686 0.003326300511096447
-0.061504280070188544 -0.06180069441349051 0.010955430149624523
-0.061376147775191105 -0.06321427150823372 0.01071505791300098
-0.06127885777528322 -0.06446440708923823 0.010321823856466295
-0.06122555247888043 -0.06548406197500817 0.009707485419488626
-0.06135224334063472 -0.0655710807455927 0.008175764113321327
-0.06133842954254535 -0.06638647318223162 0.007359721482768922
-0.06126183536686223 -0.06752484841627565 0.006866401949670975
-0.06118915085757979 -0.06864127847368329 0.006355167233749737
-0.061120832856862616 -0.0697335639564553 0.005823489106349722
-0.06114229701007574 -0.07036508240923595 0.004828937920793808
-0.061283236499788486 -0.07038762158691808 0.003213454723690612
-0.07051703816513866 0.06557455645276322 0.04588116414561705
-0.06997406942939079 0.06125546995222292 0.04697173070213517
-0.06943918609637376 0.057001042751929965 0.04804646670181334
-0.06891262707578179 0.05281248598700994 0.049104070823974666
-0.06839399377375495 0.04868697499816904 0.05014575598490362
-0.06788290575417738 0.044621819223572945 0.05117268630820382
-0.06737959932586852 0.04061822461574682 0.052183584176764164
-0.06688350443256554 0.036672325494949254 0.05318039169935651
-0.06687011803787081 0.035761724267435124 0.05224896775159793
-0.06694459861884619 0.035400647725997714 0.050962988979413704
-0.06701904760159634 0.035037532723831644 0.04967494387759952
-0.06709366235789624 0.034673609183247744 0.04838403072036407
-0.06716864202203217 0.03431010821831032 0.047089428953717594
-0.0672435904342189 0.03394455977300043 0.045792746130080386
-0.06731890576125305 0.033579429053376686 0.044492345859677984
-0.07049581390450711 0.05236824062864459 0.03038631979961115
-0.07057048360782753 0.051957066746022296 0.029038464611078285
-0.0706453116603103 0.05154502090279356 0.027687751077989764
-0.07072029856619713 0.05113210032231169 0.02633417009832445
-0.07079544483187325 0.05071830221613072 0.024977712531373097
-0.0708707509658786 0.05030362378394054 0.023618369197533795
-0.07094621747891908 0.049888062213503004 0.022256130878105296
-0.0666605736691985 0.022913264356579477 0.0393441006181528
-0.06655024946562955 0.021418787778975823 0.03883050352742823
-0.06644028983496188 0.019929249788210146 0.038318603648855365
-0.06633069297304714 0.01844462594488183 0.03780839258350349
-0.06622126406872895 0.016963726108663035 0.03730069005002584
-0.0661123880134892 0.015488864093271826 0.036793831748674344
-0.06600367762980314 0.014017690360918156 0.03628946566792424
-0.06589551529354994 0.01255249419326393 0.035785927172163445
-0.06578751637684552 0.011090951076746292 0.03528486478123538
-0.06568006076450995 0.009635326030823399 0.03478461356329404
-0.06557276635316225 0.008183319287949131 0.0342868225267845
-0.06546601056078916 0.006737171871539438 0.033789826482509666
-0.065359601811114 0.005295725604247181 0.03329444607746129
-0.06525353841462893 0.0038589575994671943 0.03280067344622023
-0.06514781869277393 0.002426845118905341 0.032308500774344606
-0.06504244097785053 0.0009993655713927407 0.031817920297947666
-0.06493721800684342 -0.000424597043841235 0.03132975337554694
-0.06483251994371307 -0.0018428721058498798 0.030842334252854375
-0.06472815894582211 -0.003256581169147843 0.030356484328635525
-0.06462413338806258 -0.004665746247986491 0.029872196037249
-0.06452044165575775 -0.006070389215320882 0.029389461861606236
-0.06441689950096523 -0.007471596616569265 0.02890910362532101
-0.06431387120061585 -0.008867254766353527 0.02842945535360908
-0.06421117194064517 -0.010258455617677631 0.027951338929423475
-0.06410880014728747 -0.01164522048933625 0.027474747026094704
-0.06400675425679626 -0.013027570564392299 0.02699967236360712
-0.06390503271536667 -0.01440552689124408 0.02652610770821917
-0.06380345479752926 -0.015780141723855168 0.02605487528285827
-0.06370237789944307 -0.017149367693194528 0.025584309129195792
-0.06360162074517203 -0.018514262291645933 0.025115231551245176
-0.0635011818199096 -0.019874846039356076 0.024647635496781506
-0.06340105961840171 -0.021231139327061332 0.024181513958061507
-0.0633012526448737 -0.022583162417094793 0.02371685997146411
-0.06320158359600149 -0.02393193437767782 0.023254495994099345
-0.06310240318002669 -0.025275472051568326 0.02279275637661632
-0.06300353355824628 -0.026614799582727666 0.022332463677752323
-0.06290497327207639 -0.027949936729712244 0.021873611107000424
-0.06280672087204689 -0.02928090312762771 0.021416191916273752
-0.06270860183287956 -0.030608691001706823 0.02096102863755206
-0.06556935993074818 -0.015342153666844771 0.006289384156909716
-0.06546733108849438 -0.016723541474442327 0.0058152604230015115
-0.06536580733888601 -0.01809958704499981 0.005341700602669253
-0.06526441049734281 -0.019472415754273165 0.004870516515603662
-0.06516332774648496 -0.02084099193750505 0.0044007919861477895
-0.06506274395244369 -0.022204302031753553 0.00393161111152579
-0.06496228444556479 -0.023564437711428132 0.0034647854941804446
-0.0648621346875026 -0.02492037965743865 0.0029993992496263333
-0.0604065551290639 -0.060720050436373574 0.01152258653210475
-0.060274981778842836 -0.06216714366844239 0.011309577909750679
-0.06017313108421755 -0.06345313217026738 0.010947100029766565
-0.06011867558579164 -0.0644854808154176 0.010342402363431868
-0.06022385373037422 -0.06467264300350783 0.008911020095591193
-0.06023503057871535 -0.06535814419906061 0.007965667050636949
-0.060167234943241374 -0.0664594261407549 0.007432075000006477
-0.060088147256452715 -0.06761830421234455 0.006959570401835646
-0.06001513243437544 -0.0687434255052618 0.0064575279359820326
-0.0600005507585633 -0.06956146949165026 0.005650141331021097
-0.06013411055439927 -0.06960704895390024 0.004061430406863742
-0.0602743421475002 -0.06962123984574264 0.002433478503224673
-0.06906982939960082 0.06498357986225045 0.04624412146387574
-0.06853869914921949 0.06067468399234538 0.04733047131383433
-0.06801546747753959 0.0564302097527391 0.048401074417270984
-0.06750036857078656 0.05225136863120111 0.04945463138544304
-0.0669930129791134 0.04813534667514868 0.05049235057282819
-0.06649302897876413 0.04407946342521024 0.051515391787084364
-0.06600064817362425 0.040084924885785966 0.05252247935336274
-0.06554865513080478 0.036361200810113736 0.05337922152513708
-0.06562162429185026 0.036000987269074414 0.0520951978020433
-0.06569456240796022 0.03563873652415828 0.05080910988403259
-0.0657676628452115 0.03527567960329975 0.049520159823839005
-0.06584112069548494 0.03491304874070983 0.04822753089625531
-0.06591454783899973 0.034548371671882516 0.0469328230838591
-0.06598813893977394 0.034182880306732166 0.04563522428681127
-0.06606209040504099 0.033817807740622485 0.04433390339855947
-0.06919831295006819 0.052734661770465374 0.03014141027492545
-0.06927167008068602 0.052323529923414824 0.028792159911179227
-0.06934518290814418 0.05191152546958133 0.027440045831023885
-0.0694188519286573 0.05149864562791673 0.026085058907631686
-0.06949289436915539 0.051086241466655136 0.024726264753679728
-0.06956687773458839 0.05067160260562298 0.023365499374461363
-0.069640801142404 0.0502547257876248 0.022002769226142194
-0.06538439486101541 0.02294899897900715 0.039319271703979974
-0.06527617324146405 0.021454331913435487 0.03880567057180451
-0.06516830927807804 0.019964604497546834 0.03829376681404767
-0.0650608012007818 0.01847979228453478 0.03778355203024342
-0.06495345791105993 0.016998704922817354 0.03727584608235418
-0.06484665696440933 0.015523656628093352 0.03676898437923509
-0.06474001856235899 0.014052297448921114 0.03626461519731661
-0.06463391779253695 0.012586917063382774 0.03576107361049646
-0.0645279773577405 0.011125190550028474 0.0352600084257223
-0.06442256990180947 0.009669383319262925 0.034759754421562095
-0.06431750625370661 0.008218324499472685 0.0342611320974312
-0.064212599688565 0.0067708676051631 0.03376496236132387
-0.06410821923007066 0.005329242149672675 0.033269579616687084
-0.06400417757107105 0.0038922959414389724 0.032775804791998375
-0.06390047306471888 0.0024600062354295793 0.03228363007142987
-0.06379710407482342 0.0010323504337889644 0.03179304768972535
-0.06369388690779938 -0.0003917876584512703 0.03130487914624869
-0.0635911846711108 -0.0018102370504958776 0.03081745840074851
-0.06348881310255448 -0.003224119492251931 0.03033160699308074
-0.06338677060772979 -0.004633457004433794 0.029847317356283154
-0.06328505560247036 -0.006038271466409839 0.029364581971962234
-0.06318366651276079 -0.00743858461734237 0.02888339336990986
-0.0630824231856381 -0.00883547739594015 0.028404573592534732
-0.0629816818151391 -0.010226846962522018 0.027926456361949625
-0.06288126169552595 -0.01161377963587884 0.027449863783860717
-0.06278116129260505 -0.012996296605223001 0.026974788577005138
-0.06268137908193665 -0.014374418925055643 0.0265012235064091
-0.06258191354875621 -0.015748167516242584 0.026029161383026522
-0.06248258797905559 -0.017118589205824652 0.025559424619139792
-0.062383751848742085 -0.018483647128275604 0.025090347005969793
-0.06228522790629746 -0.01984439332260718 0.02462275104063677
-0.06218701467491985 -0.021200848185409682 0.024156629714219446
-0.062089110687107756 -0.022553031984826 0.02369197606193263
-0.06199151448458555 -0.02390096486156912 0.02322878316278726
-0.061894052694499116 -0.025245660629545252 0.02276787363536581
-0.0617970682626467 -0.026585146306208507 0.02230758162974994
-0.061700387293375625 -0.027920440755764053 0.021848729869707373
-0.0616040083646174 -0.02925156361889608 0.021391311606040964
-0.06150793006317402 -0.030578534413767566 0.02093532013166305
-0.06431379348204813 -0.015311377889435096 0.0062630091036994795
-0.06421370999355679 -0.016692929035317994 0.005788886790345837
-0.06411393751583452 -0.018070186992685144 0.005316237818362934
-0.06401465850679376 -0.019442127226182937 0.004844145926972632
-0.06391550314793248 -0.020810864168714527 0.004374423170504904
-0.06381665448694633 -0.022175367465021856 0.0039061533155395067
-0.06371829330953904 -0.02353462874991108 0.003438420418175936
-0.06362005322932518 -0.024890728926611205 0.002973036289125486
-0.059303388619151465 -0.059654370640711274 0.012107387172620221
-0.059176605268760035 -0.06109153419665292 0.01187974235854622
-0.05908402702597631 -0.062339851434879245 0.011476487973868632
-0.05899673610846768 -0.0635572043587192 0.011048201360974397
-0.059089824267223465 -0.06379788462712693 0.009670964249933134
-0.059120082379716776 -0.06437954989309697 0.008623328400776675
-0.059058344841464716 -0.06545665232660247 0.0080628615838636
-0.05898377400880363 -0.06660104332627842 0.007572528542691026
-0.05892013941584448 -0.06768502446172142 0.0070260855097686314
-0.05887981512390567 -0.06864293993195775 0.006356832167454363
-0.0589898639269082 -0.06879884121716218 0.004881959071731334
-0.05912321971044903 -0.06883366017242121 0.0032783756527546837
-0.06762642869179193 0.06439415831550871 0.046606123728201776
-0.0671070767704474 0.060095414525142055 0.04768827521640623
-0.0665956410081401 0.05586219381863822 0.048753932141019585
-0.0660917418269748 0.05169169424367892 0.04980429044606233
-0.06559560789891697 0.047585126269619415 0.050838060549571185
-0.06510667313575964 0.04353848156023765 0.051857229100635394
-0.06462516444121515 0.039552966156237934 0.052860522366447615
-0.06430008296995242 0.03660067654282406 0.0532261802509012
-0.06437151344967905 0.0362392883956017 0.051942046032008415
-0.06444310280907173 0.03587709642865866 0.050655055569999274
-0.06451504210629513 0.03551533399317214 0.049364395960592944
-0.06458695124437094 0.03515152662239762 0.04807165963198495
-0.06465902086266842 0.0347869073396847 0.0467760382929549
-0.0647314433068012 0.03442271036849037 0.045476704696375825
-0.06782673874235558 0.053511918792792046 0.031243876514445823
-0.06789862622332007 0.05310170018596799 0.029896088175235758
-0.06797066624863571 0.05269061110029871 0.02854543984573016
-0.06804307123972471 0.05228000460833021 0.027191006052705302
-0.06811541826491492 0.051867166386547425 0.025834605161331625
-0.0681879193002946 0.0514534493270723 0.024475316804196623
-0.06826057483816574 0.0510388506206465 0.0231131317513516
-0.06833338537293122 0.05062336744602858 0.0217480407334652
-0.06410799134826156 0.022984739893450956 0.039294438418026656
-0.06400187305428441 0.021489882296011287 0.03878083325092635
-0.06389610549607111 0.019999965411426568 0.03826892562052181
-0.06379068693764448 0.018514964785491028 0.03775870712480489
-0.06368542999444322 0.0170336898553074 0.037250997769088134
-0.06358070488341704 0.015558455238662228 0.03674413267075188
-0.06347613918774517 0.01408691057034811 0.03623976039426058
-0.06337210070426769 0.012621345924974992 0.03573621572294228
-0.06326821946903409 0.011159435973093823 0.035235147750927676
-0.06316486088239065 0.009703446516154679 0.03473489096712473
-0.06306183944996786 0.008252206475831247 0.03423626601372237
-0.06295915352476403 0.006805692651173201 0.03373926491920953
-0.06285662061142783 0.0053627644813663 0.03324470886298808
-0.0627546013890176 0.0039256400295747396 0.03275093185143968
-0.06265291279388388 0.0024931730583098166 0.032258755088771296
-0.06255155322136512 0.0010653409630243527 0.03176817080835892
-0.06245052107716704 -0.0003578787147869855 0.03127917129375635
-0.062349814777279425 -0.0017765082887631345 0.030791748878289393
-0.06224925536712884 -0.003191652265348899 0.03030672540422158
-0.062149196614333234 -0.004601162249228741 0.029822434428620148
-0.06204945901195335 -0.006006148243922371 0.029339697842233448
-0.06195004101631103 -0.007406631994950841 0.028858508173557673
-0.061850941093606025 -0.008802635108690282 0.028378857998895113
-0.06175198316173553 -0.010195232946374089 0.027901569574262985
-0.061653515378865494 -0.011582333458390326 0.02742497632802754
-0.0615553611233562 -0.012965017358714748 0.026949900583420172
-0.06145751890015276 -0.01434330570795539 0.026476335104236137
-0.061359987223690717 -0.015717219433029783 0.026004272700205666
-0.06126276461782131 -0.017086779328221224 0.025533706226627817
-0.06116567835659149 -0.018453026821714735 0.025065458280218333
-0.06106907004131344 -0.019813935498036506 0.024597862410632332
-0.06097276642137546 -0.021170551971049167 0.024131741303135168
-0.06087676605756789 -0.022522896514710067 0.0236670879917793
-0.0607810675197309 -0.023870989275493026 0.023203895554419374
-0.06068550080590839 -0.025215844238672513 0.02274298674675873
-0.06059040219332118 -0.02655548809494218 0.022282695441003975
-0.060495601167340624 -0.027890939880926113 0.021823844498284006
-0.06040109633331786 -0.02922221924289148 0.02136642716829318
-0.06030688630530522 -0.030549345704532882 0.020910436742840488
-0.06305783480858669 -0.01528165845672802 0.006237539345175069
-0.06295987934501589 -0.01666231147906211 0.005762508749111328
-0.06286204685159215 -0.018039731944046566 0.005289861323306944
-0.06276451792759838 -0.01941287834088179 0.004818680499273531
-0.06266747093345432 -0.02078073138719505 0.004348049967556555
-0.06257054436912342 -0.02214539462831755 0.0038797820078567136
-0.062473917170652565 -0.02350584299205849 0.003412960333187831
-0.0623820410807174 -0.024836526971054096 0.002924844424252615
-0.05819990201953519 -0.05857621211851949 0.012683474708330644
-0.058062230870632246 -0.060090118752923805 0.012524160022900521
-0.05796932434347002 -0.061352088020475926 0.012130246758011776
-0.0578984965996751 -0.06248943780924332 0.011621052818006183
-0.05795978862026955 -0.0628952346275698 0.010405128297612476
-0.0580150470900527 -0.0633358546630911 0.009219791697328839
-0.05795732829844165 -0.06439899351304934 0.008642413694080253
-0.05788330887432948 -0.06555005229614519 0.008155016075778287
-0.057811773068111354 -0.06668561797511102 0.007656408256907388
-0.05776331516499353 -0.0676933625081213 0.007034397919590485
-0.057838252857937436 -0.06802783314550492 0.005740438703678075
-0.057978555456028015 -0.06800908534563349 0.004086451653539325
-0.06670257035544841 0.06816313137375019 0.04587155185463837
-0.0661868210311789 0.06380628568289443 0.046967174703209436
-0.06567918763297223 0.05951765561877653 0.0480451460738352
-0.06517928176382289 0.055294309898725635 0.049106707856107434
-0.06468673285319139 0.05113345726548907 0.05015305147881377
-0.06420176486120292 0.047036308398322735 0.05118288929749737
-0.06372401454039663 0.04300013649002493 0.05219740026806313
-0.06325313506664496 0.03902234337546673 0.053197716426174324
-0.06304989839189759 0.03683918939798825 0.05307375432087963
-0.06311997990675106 0.03647786072303755 0.051788719966116004
-0.0631904039038107 0.03611696504332923 0.050500026161975964
-0.06326079829173907 0.035754025696104474 0.04920925779770213
-0.06333134969389745 0.03539027681499529 0.04791561038288222
-0.06340224640303774 0.03502695374834691 0.04661826052187279
-0.06347311383373805 0.03466157795335817 0.04531882127073711
-0.06652638642525592 0.053880889564041634 0.03099863379684792
-0.0665969553622779 0.05347071525298375 0.02964944491601873
-0.06666767417255562 0.053059669819839894 0.028297390647967713
-0.06673854333404443 0.052647750486545686 0.02694246185479149
-0.06680956332673424 0.05223495446321186 0.025584649359690015
-0.06688073463266017 0.05182127894806071 0.024223943946760196
-0.06695205773591362 0.05140672112736311 0.022860336360786215
-0.06702374295231439 0.05099263693560557 0.021492878414375083
-0.06283136307158338 0.023020487101568454 0.03926960075914093
-0.06272753263678497 0.021526624257082905 0.038755163432187156
-0.0626236784301746 0.020035332531487426 0.038244080067127206
-0.06252035012515865 0.018550143449374612 0.03773385786604089
-0.062417180260690854 0.01706868090774316 0.03722614510908434
-0.062314531712609464 0.015593259926567904 0.03671927662208946
-0.06221203944834361 0.014121529726775162 0.03621490125762428
-0.062110063971406095 0.012655780779600612 0.03571135350837451
-0.062008242653671594 0.0111936873474911 0.03521028275572713
-0.061906933649478656 0.009737515623040927 0.0347100231988563
-0.06180595514241948 0.00828609432115368 0.03421139562276343
-0.06170530551787229 0.006839400233956072 0.033714392054515374
-0.06160498317171575 0.005397410304503469 0.0332190045730294
-0.061504809812789815 0.003958989865355866 0.03272605462343903
-0.06140513782486028 0.002526345589016654 0.032233875825265934
-0.06130578836233614 0.0010983371605636227 0.03174328965274387
-0.06120675986227192 -0.00032505788514269884 0.031254288388068596
-0.06110805077180422 -0.0017438618683240925 0.030766864363223678
-0.061009485685198685 -0.0031591794870194367 0.03028183956097047
-0.060911411353788025 -0.0045688619809621245 0.029797547253174073
-0.06081365183038246 -0.005974019546454934 0.029314809471332748
-0.06071620560166159 -0.007374673935382381 0.02883361874264795
-0.06061907116398882 -0.008770846760435047 0.02835396764214293
-0.06052224702333422 -0.010162559496220469 0.0278758487922795
-0.06042556114450281 -0.011550881955522396 0.027400084657528023
