# .PCD v0.7 - Point Cloud Data file format
VERSION 0.7
FIELDS x y z
SIZE 4 4 4
TYPE F F F
COUNT 1 1 1
WIDTH 780
HEIGHT 1
VIEWPOINT 0 0 0 1 0 0 0
POINTS 780
DATA ascii
-0.003711329669302231 -0.015136675852220505 0.0207758368260636
-0.003704710570182195 -0.016586574657217856 0.020365993199093657
-0.003698511569748668 -0.01799217475098358 0.019925287360604393
-0.003691387004472893 -0.01948627009632098 0.019563427159326185
-0.0036836892831838366 -0.021033635256682337 0.019252216535471156
-0.003675961742875954 -0.02258062561584756 0.01894739052305716
-0.0036683384203713507 -0.02411410792022306 0.01863790961797579
-0.0036615443048994504 -0.025563371964614 0.018263673941896874
-0.003656916625531143 -0.026798690058712604 0.01771300098013079
-0.0036539500435249874 -0.027870571989688453 0.01702632494985279
-0.0036515375151941146 -0.028887449221901784 0.016294870795979688
-0.003649595558343408 -0.02985775630901949 0.015525210638730802
-0.003648772629560711 -0.030719184745052364 0.014662471991312098
-0.0036485390260938477 -0.03152348517464865 0.013750461944609216
-0.0036526568579325065 -0.03190940234393791 0.012470548848708629
-0.0036668606331212703 -0.03132973051223531 0.010332939380511719
-0.0036824577296472294 -0.030622808952957103 0.008069524473563738
-0.002745219975244647 0.07103708932550762 0.04252626597499559
-0.0027279254842925114 0.0672998425858708 0.04323823491241313
-0.002717025988924856 0.0646273340687028 0.04330893095127242
-0.0027094690242264966 0.06251146332251095 0.04304459163445368
-0.002703575772007656 0.0606734892880027 0.042614487542793344
-0.0026991163520227934 0.05907415506636293 0.04204049911504032
-0.002695652528051334 0.057640438998149024 0.041366503227471485
-0.002692869606221928 0.05632003877178243 0.04062416714300282
-0.00269041544354127 0.05505495884143535 0.03984955920592198
-0.0026884702205071643 0.05387416289503383 0.03902337726864735
-0.002687130895343485 0.05279288549342981 0.03813481585339795
-0.0026862635267469676 0.05178886207880562 0.037197349220775444
-0.0026858094142601825 0.05085215493632511 0.03621666782869154
-0.0026860736065173925 0.05003154612174587 0.03515979015847176
-0.0026866434479458526 0.049259946583199044 0.03407002238041751
-0.0026875523909212955 0.04854243337109271 0.032943422897784846
-0.002688776303232274 0.047874812157768454 0.03178220137182308
-0.0026905397024945196 0.04729268777005646 0.030561726805107103
-0.0026924962188551505 0.04674025425681688 0.02931895256855327
-0.0026946633095722558 0.0462201062459337 0.02805175635443191
-0.0026970919324586155 0.045740141576478266 0.026754329395241028
-0.0027001589048311074 0.045359890420539895 0.02538506204773583
-0.0027038518380490782 0.04507677580843855 0.02394458367293445
-0.002707974422129995 0.04485917566708658 0.022453846138596856
-0.0027125052846758836 0.04470330559582625 0.02091472328453431
-0.002717702014182128 0.04464930738967371 0.019298112824010394
-0.0027240561445992014 0.04477373136483376 0.017548423192544516
-0.0027318741577310444 0.04512349412612232 0.015630021626789115
-0.002741516466643032 0.04575355317395713 0.013500748917933847
-0.002755191427310545 0.04700682879496315 0.010909647920528676
-0.0027891995378934104 0.05141836855412368 0.0060089288612911185
-0.0025583809619834615 0.006421765033528759 0.021329330812560776
-0.0025439389838765045 0.003405760010494141 0.022048799611540604
-0.0025330323041375612 0.0009349188200370451 0.0223619794264186
-0.0025230343905003204 -0.0013914529519203356 0.022575883702896482
-0.0025146772497968042 -0.003463744412065095 0.02260249193779018
-0.002506583788325179 -0.005490949729465788 0.0226040710344661
-0.0024989709795086245 -0.007440713231618323 0.022554371246093774
-0.002492555552978746 -0.009206008202366056 0.02236685565087354
-0.00248719199573339 -0.010809765401852356 0.02205766101507639
-0.002483318534034948 -0.012187558565545487 0.021572669842011782
-0.0024795415462938045 -0.01354848643799883 0.021078961270312613
-0.002475193959693202 -0.014991827432273619 0.020657473850979158
-0.0024709174874629853 -0.016421822889360393 0.020230649235768505
-0.0024659805444600417 -0.01794684869431523 0.01988785379564617
-0.0024615277834727336 -0.019397176115916515 0.01948945575851302
-0.0024561310887244257 -0.020983779019157878 0.019210602960074374
-0.002450599925553848 -0.022586690682413202 0.018952479717073367
-0.002445271517318833 -0.024156290841977457 0.01867349289072101
-0.002439823163569304 -0.025740030518692947 0.018413482845343887
-0.00243679545268404 -0.026966572542814038 0.01785612087950006
-0.002434426163487974 -0.028095173825683994 0.017218810270260176
-0.0024324609151422146 -0.029163474894007224 0.016532676076705166
-0.002431026257277505 -0.030153496362068266 0.01578134505308254
-0.0024298635324651098 -0.031103211373141093 0.014996823274495252
-0.0024290529875697214 -0.03200128569459809 0.014168648698238584
-0.002428526423313286 -0.0328578924088998 0.013305068570146072
-0.0024291542761528044 -0.033548078589997365 0.012294997523371876
-0.0024297756973917168 -0.03423959157250783 0.011285266368565305
-0.0024334973576379676 -0.03448747594204005 0.009878193036187088
-0.0013726703613971324 0.07193939634206714 0.04356552665717417
-0.0013633456025052013 0.06797243103812534 0.04440847276833487
-0.0013577235461080313 0.06523992722210126 0.044510606058924596
-0.0013536977483161513 0.0630406411645405 0.04429460197357732
-0.0013506387077354056 0.06116446956687399 0.04388613196889918
-0.001348158978692213 0.059482377335786485 0.04336287724473986
-0.0013462647021894958 0.0579952590553644 0.042722235302295575
-0.0013448267870839264 0.056659780284003536 0.04198968094432054
-0.0013435902380579292 0.05539185590358642 0.04121733909936337
-0.001342570454892323 0.054196112663991214 0.040401523916203
-0.0013417582145931128 0.053069134951773456 0.039543674622502134
-0.0013413256960219493 0.05206637256649582 0.038607014423420793
-0.001341053969904971 0.05111621944556366 0.0376369944277169
-0.0013410292729999621 0.05024622745648749 0.03661493201326721
-0.001341169234232017 0.04942936020084132 0.03555781476326042
-0.0013416098911443962 0.0487090771675216 0.03443616713514913
-0.0013421415355548774 0.04801744901358973 0.033294313320822666
-0.0013428799420461273 0.04739140781493684 0.032107103760210864
-0.0013438629931793523 0.04684267245185397 0.030865873507863795
-0.0013449344207959674 0.04632088570912413 0.029603963443491033
-0.001346040732587043 0.045808835210419285 0.028332816849506504
-0.001347369049540684 0.04536594772231217 0.02701147010041849
-0.0013490206410284333 0.04502392805463923 0.02561720940577622
-0.0013509602808656534 0.04477099814113206 0.0241570422618807
-0.0013531066229063653 0.044580895848372826 0.022648266694735075
-0.0013555162820668189 0.044471077399302616 0.021077864587714712
-0.0013582553732704441 0.044461843391323974 0.01943053233315789
-0.0013615696595964564 0.04462974966899008 0.017650687282489863
-0.0013656424849528602 0.04503115522447482 0.015695966198365163
-0.0013708356484291987 0.045777768767976734 0.013483360315131476
-0.0013781606141222093 0.04718316763246877 0.010782330002031382
-0.0012804463616866673 0.005981057545632218 0.020053855362733686
-0.0012705971401932858 0.0021721116016624187 0.021398434559301016
-0.0012647453585676745 -0.00041487765001285704 0.021811222781710105
-0.0012594843481281298 -0.0028160052241803513 0.022092586851078233
-0.0012549009687383647 -0.0050062453939198615 0.022220461365295208
-0.0012509128649188818 -0.0070116600249515715 0.022212985993980805
-0.001247113756219072 -0.008955259287781236 0.022166274019905452
-0.0012443185147679955 -0.010593513652448427 0.02188374972101126
-0.0012423265452651815 -0.011988268849900396 0.021411543439877778
-0.0012402317960647524 -0.013411093400788054 0.02096728578409557
-0.0012382072593712693 -0.014810345549043757 0.020509175818933634
-0.0012357452789596127 -0.016336798652667406 0.02016080162610473
-0.0012333278834715646 -0.017846885570644178 0.01980529695398764
-0.001230677222318015 -0.01942278230549882 0.019510715620338626
-0.001228041381990978 -0.020990902179600757 0.019216548458348415
-0.0012250732085651909 -0.022653392945803374 0.019008449549562823
-0.0012218766841458973 -0.02437909309562042 0.018861437040388784
-0.0012192545490426149 -0.025932459313556033 0.018576665131649683
-0.0012174572896880395 -0.027241398900019753 0.018090410482717534
-0.0012162846299559958 -0.028365901015736106 0.01745082533678538
-0.001215411688151434 -0.029401693515411276 0.016737909328036316
-0.001214283460044413 -0.030510474507762952 0.01609051652763005
-0.00121304617308315 -0.03164939523667709 0.015472356121100317
-0.001211912245377246 -0.03275685257468658 0.014829945719781135
-0.0012107233973776437 -0.03387868985763742 0.014203207237100612
-0.0012095167891077103 -0.03500410900674722 0.013582810001528167
-0.0012071407893657453 -0.03646369805388394 0.013262756625359862
-0.0012062675971865797 -0.03748975691350953 0.012561590292827662
-0.0012071674716338226 -0.03800794219491377 0.01140645780305316
-0.0012097914161395837 -0.03803564497526474 0.009805903724359244
-0.0012165487896230193 -0.036890680857054325 0.007133577748983266
0.0 0.07337234277708937 0.04428273639801339
0.0 0.068831852879703 0.04546318839080532
0.0 0.06595499512387565 0.04564751191294725
0.0 0.06364645050502821 0.045494866787836985
0.0 0.06170956167395275 0.04512148314183301
0.0 0.05997851371572205 0.0446270631569165
0.0 0.058417190091661686 0.04403214696591473
0.0 0.05702712156258566 0.04333398505049879
0.0 0.055740072731041534 0.042574126118524847
0.0 0.05453203776010074 0.04176682134877929
0.0 0.053386133080701614 0.040922082961309836
0.0 0.052340468182159594 0.04001461901051495
0.0 0.05135825388253673 0.03906725761741747
0.0 0.050442997877995166 0.038077018031282606
0.0 0.04961016495854198 0.037033003351030824
0.0 0.0488354657835523 0.03595035896351778
0.0 0.04814374253794834 0.03481192644106712
0.0 0.047477890263037725 0.03365494501494681
0.0 0.04689192825768146 0.032442810510697584
0.0 0.046368529694520544 0.031186326946771037
0.0 0.045845622620508786 0.029926961316023737
0.0 0.04536275174803989 0.028637667976754322
0.0 0.044966032405954426 0.027286286229316836
0.0 0.04467397736697787 0.025859022584366065
0.0 0.04446565697678584 0.024369197562480793
0.0 0.04430033265999461 0.022844282530049775
0.0 0.04421393040325661 0.021258511454339324
0.0 0.0442572831599764 0.019575028159901198
0.0 0.04448053765164056 0.017756666247897568
0.0 0.04494955544667756 0.015754241338003294
0.0 0.045801987097358 0.013465969748135465
0.0 0.04729990205836421 0.010698046900632807
0.0 0.0009232765328131554 0.02076344468602137
0.0 -0.0020571429112853923 0.021495204817234104
0.0 -0.00439071481806369 0.021733311853205928
0.0 -0.006581625421850479 0.021870819873052616
0.0 -0.008696689438576266 0.02195943618709345
0.0 -0.01039930919004839 0.021727569022069848
0.0 -0.01179404546630708 0.021254513184165047
0.0 -0.013295646252240834 0.020873448303622644
0.0 -0.014720581497541574 0.020435825069264946
0.0 -0.016275598276441594 0.02011052537363639
0.0 -0.017843793054917567 0.019802742928845263
0.0 -0.019446336815005905 0.019530272048907615
0.0 -0.021084494815840016 0.01929466755473669
0.0 -0.022781674836832966 0.019116090813703357
0.0 -0.024463324523756935 0.018932490200209096
0.0 -0.026136625709710648 0.018749801066606953
0.0 -0.027410845355308355 0.018234863668284695
0.0 -0.028555361691879777 0.01761319444116277
0.0 -0.029776090890527407 0.017060465096901123
0.0 -0.031039705700556863 0.016548872845029317
0.0 -0.032358167898877355 0.016089446269955954
0.0 -0.03375858580566615 0.01570669564025068
0.0 -0.03526060929496405 0.015419075559277573
0.0 -0.03651301574919297 0.01491738990380348
0.0 -0.03722801348016036 0.013942322249234251
0.0 -0.03772618220767454 0.012772903954604009
0.0 -0.037949783502970846 0.011354203576026844
0.0 -0.037885604584214416 0.009670389002918
0.0 -0.037299803015440836 0.007505028420321136
0.001378512824519166 0.07564802008257615 0.04449501750209639
0.0013636477183013402 0.06982544239642452 0.04643632280432097
0.0013572005673488056 0.06681204519694528 0.046696610157961393
0.0013524825187219759 0.06437892328538086 0.04661548055513459
0.0013490747916102737 0.06238447883447984 0.04627436305722854
0.0013461734462201413 0.06056127533736577 0.04583481119940064
0.0013439704723728304 0.05897147630696703 0.04525621425298976
0.0013421868889473248 0.057522165386565294 0.04459450155486466
0.0013407124098872346 0.056176405668107166 0.04387153807176025
0.0013395162656004032 0.05492354117611031 0.04309300619657591
0.0013385928738769476 0.05376121370260212 0.04225943032688384
0.0013378059190404907 0.052644505036680944 0.04139871372384335
0.0013373022621746102 0.05162088411586496 0.040479693159435615
0.0013370157974796244 0.050668361762457925 0.03951565441876004
0.001336970792766248 0.04979437535268094 0.038500963482070105
0.0013371590145124978 0.04899579912421248 0.03743681389962322
0.0013375724699691647 0.04826960612002257 0.03632437313609088
0.001338141901176506 0.04759307473121621 0.035177937192973796
0.0013387651437707974 0.04693309326155454 0.03401907786497954
0.0013397093128607442 0.04637517244009248 0.03279012886196536
0.0013407041818084284 0.04583225531265933 0.03154877257566091
0.0013418983281219025 0.04535167447843469 0.030262657907770885
0.001343177183929027 0.044896545823295164 0.028956270690537855
0.001344772976913918 0.04454054144564468 0.027578677577711652
0.0013467170166194863 0.04429298473839738 0.026122285500498665
0.0013488498861948136 0.04410272343221816 0.02462136885229188
0.0013511817122605471 0.043972593567326246 0.023073257872060993
0.001353790027520183 0.04392666320990768 0.021460317888637503
0.0013569181580457958 0.04404098127102679 0.01972781797669021
0.0013605012290183315 0.04429416898923472 0.017889036001869252
0.0013650195600201603 0.04483590270355692 0.015835407361421527
0.0013706851270812728 0.045730685401928706 0.0135171696840094
0.001378669420800883 0.047341996281910215 0.01066765456620189
0.0012669127844756776 -0.0005735495055905204 0.020327309098825463
0.0012593899565467377 -0.0036540197819508458 0.021150269123116183
0.0012539501436985444 -0.006098687575730011 0.02148656016868261
0.0012490996925945638 -0.008359585286488891 0.021689776393176652
0.0012456204528260553 -0.010203839193395237 0.021570370570900943
0.0012432633557367912 -0.011708480481042394 0.021185333607187273
0.0012410526312158963 -0.01316646991224013 0.020768451493957618
0.0012386530733846843 -0.01467777159980499 0.020400842935106855
0.0012361193724186057 -0.016225793067031757 0.0200696102774075
0.0012334009989127786 -0.017825236860551097 0.019787417869525037
0.001230278700160908 -0.019540524343021448 0.019608472431860535
0.0012273652214072478 -0.02119023693347144 0.019382927475724787
0.0012241773203100089 -0.02291692840081666 0.019229582004781587
0.0012206238826327485 -0.024746813254215627 0.01917162623907448
0.0012177728700188098 -0.026366406803053577 0.018944658619959198
0.0012161085873017507 -0.027635533860848438 0.018426410728565823
0.0012142193423444012 -0.028968118081790062 0.017966929510201346
0.001212187961337614 -0.030339627613729214 0.017545970693673973
0.0012097646176882696 -0.03182231411431091 0.01722667399390021
0.0012071074381734752 -0.0333696184876503 0.01697006177288518
0.001204375581016691 -0.03493509009817197 0.016736410950661085
0.0012034102514754221 -0.03598762555054158 0.01605873371226979
0.001203552797235866 -0.03672014749033392 0.01510059132445718
0.0012046977018132434 -0.03716508507424249 0.01388637155145056
0.0012062476152146602 -0.03749548070196673 0.01256670613587818
0.0012083693948013877 -0.03766442673585102 0.01109781718227515
0.0012115996949091641 -0.03751999248917165 0.009340172446772932
0.0012171927356201362 -0.036707465815028484 0.00696723293249113
0.002730175595390708 0.0711811333385644 0.047191672152913144
0.0027148818376226676 0.06776425402592057 0.047687823207251456
0.0027050906438038573 0.06526909782490525 0.047638830989427894
0.0026974999038943325 0.06314419032091378 0.04737381070347385
0.0026913518085130974 0.06126231177372943 0.04696750463710958
0.002686618666936613 0.059617508966549826 0.04642108921268151
0.002682717279854291 0.058112518781031464 0.04579285178425174
0.0026793857620312504 0.05670356011470801 0.045108840911696035
0.002676710100662941 0.05540416761226158 0.044359502270792106
0.0026744571761292478 0.05417560046704961 0.043568298953054474
0.002672755663390714 0.05303844443315242 0.04272132902836495
0.002671382944371939 0.05195591920816722 0.041841255225827156
0.002670533872338586 0.05095937288062208 0.04090723427539755
0.002670125856734442 0.050034905524172724 0.03992737060274132
0.0026701748120489107 0.04918466787375664 0.038899473712463106
0.002670729764201526 0.04841613913334808 0.03781781298164971
0.00267153812174913 0.047688108166862475 0.0367087236912223
0.0026726248676218582 0.04700435041078033 0.03556924285594193
0.0026742198162299 0.04640150083414285 0.03437438500713025
0.002676177248986203 0.045855716914233347 0.033139261722510804
0.0026783263490290144 0.04533932933558632 0.031881920814322395
0.0026807420480511736 0.04486411351052627 0.030594013653960306
0.0026835329117248807 0.04444710619541853 0.029263415403899762
0.0026868086647042874 0.04410538882311482 0.02787770828324393
0.0026908296843103237 0.043879802920397004 0.026407790893883953
0.0026953116231403116 0.043724609384054314 0.024884087767774732
0.002700150561261839 0.043622943631321964 0.023317541253176588
0.0027056350735172037 0.04361996581658756 0.021675774121675928
0.0027121601038111644 0.043777203891961214 0.019914143198426493
0.002719596674372602 0.04407339945715971 0.018045839234064998
0.0027290074616075845 0.04467421876770544 0.015950875248630758
0.0027407081928846173 0.045627138383766586 0.01359152416685755
0.0027571126403704844 0.047306690892287506 0.010693145313345753
0.002526294946933419 -0.002522136419043197 0.02025446240024875
0.002512226394412171 -0.0054484975859930285 0.02096922276129648
0.002501224187895903 -0.00790594629943453 0.021326896864686085
0.0024925271135174793 -0.01001135601377523 0.02141557414060269
0.002487616831467418 -0.01154569254037674 0.021053719012297856
0.002482464887911818 -0.013112882514470903 0.020724894711005082
0.0024778330003608654 -0.014599435052283394 0.020336830177315635
0.0024722177614616312 -0.016228906288927092 0.020072167796489127
0.0024662589419265114 -0.01790563341925039 0.019853815214092463
0.0024602248736299514 -0.019589646292118346 0.01964925654958516
0.0024534760487571294 -0.021375137042039305 0.01953725830754882
0.0024463668489131934 -0.023209293876588655 0.019474905714547353
0.00243938044449445 -0.025020859654571515 0.019402797229682744
0.0024342905271310528 -0.026550217358794148 0.019100532519986613
0.0024301608677344253 -0.02793599393103674 0.018682553084571507
0.0024251564258333264 -0.029446654893534152 0.01837703885381836
0.0024198843579659314 -0.030993031568057938 0.018108899893704955
0.002413574721723794 -0.032686624731031344 0.017975235750582907
0.0024083992992826706 -0.03421189306598704 0.017703384843373804
0.002406880167655597 -0.035205466352503545 0.016973053154544337
0.0024075366749518705 -0.03588436214547508 0.0159678784137125
0.0024092758275908724 -0.03640792342708682 0.014824439095764197
0.0024112436971742003 -0.03689977139302558 0.013650476721776716
0.0024143883100998112 -0.03722434661144414 0.012324370231409476
0.0024185916769016787 -0.037399644656492426 0.010859916665171554
0.0024256343957998715 -0.03717280683694907 0.009026598437667732
0.002439768666675514 -0.035941654409789026 0.006271936540537593
0.004104021250131809 0.07303180026281536 0.047653236161239954
0.004075247540916843 0.06896118632224019 0.04853185174313057
0.004058867338947911 0.06627480415795678 0.04859217874145516
0.004046412243042709 0.06402909064124401 0.04839605746441067
0.004036542846867401 0.06207383090608398 0.0480311883204832
0.004028751269743889 0.060351469412968484 0.04753011490704412
0.0040222976871117115 0.05877940961910999 0.04694172571292493
0.004016836992987712 0.05731895962560157 0.04628863139293071
0.004012373468830143 0.055969949648762396 0.04556977702851728
0.004008544970956245 0.054692194316528386 0.04480938618463798
0.0040053723723627215 0.053487560203665185 0.04400552686348991
0.00400302372402904 0.052373904076600586 0.04314601549574448
0.0040012884739501105 0.05132784035217636 0.042244910004628544
0.004000042954861046 0.050335576845275454 0.041310399692515265
0.003999505911493665 0.049420450324980825 0.040326737022312154
0.003999713388472754 0.04858589495903931 0.03929083701444863
0.00400045804183676 0.04780910216632078 0.038216806410277915
0.004001923743208594 0.04710948940712639 0.03709117119650662
0.004003781840797974 0.04645133971563237 0.03593681084860301
0.004006339544079894 0.0458672884737259 0.034731443266980744
0.00400946461612291 0.04534275799409293 0.0334840281292878
0.004012901688286943 0.04485015510402596 0.032212533403682464
0.00401666466244378 0.04439075855095154 0.03091571472555177
0.004020989714781859 0.043989439737216085 0.02957618229048714
0.004026189614819595 0.04367898511911489 0.02817072685614691
0.004032395171521898 0.04347266764595292 0.026689118173128024
0.004039391547582203 0.043347164197652555 0.02514634194877441
0.004046874494255424 0.04326991730309565 0.023564183555095652
0.004055388753162674 0.043297879812543294 0.02190204091968989
0.004065312808450703 0.04347009561835791 0.020131076194648156
0.004076806609432247 0.04380240454714007 0.018238315421337137
0.004091402865845719 0.044453937502524965 0.016108190891327145
0.004109824820377513 0.04549811083092853 0.013684175574253998
0.004134481842366682 0.047183167632474377 0.01078233000202733
0.0037760909246715864 -0.004671842556298267 0.020351260771973523
0.003755878585905934 -0.0075017884313352545 0.021003598777888155
0.0037415014641530957 -0.009740906092076507 0.021198076266055632
0.003732009587576938 -0.011487519393099999 0.021006685828015514
0.003724512074036639 -0.013031946624014912 0.020659108590379338
0.003716233145960846 -0.014650618702773066 0.020378654928665085
0.003707529452099588 -0.016307756953106878 0.020136943801868035
0.0036987829291570363 -0.017965392532502567 0.019903168650332037
0.003688924803848883 -0.019728753074235272 0.01976475170974168
0.003678117642753561 -0.02158114896893215 0.019709210570255986
0.003667414663577245 -0.02341869830292337 0.019650616853402414
0.0036558762444339477 -0.025333400112973192 0.01966643976350202
0.0036484882464913075 -0.02683797185611564 0.019344552323785236
0.003640169394251289 -0.028430053017058643 0.019103738695758876
0.0036307716817709375 -0.030123430935031337 0.018957040582718798
0.003619882157538916 -0.03195746115260456 0.018939788000393587
0.003613893813023284 -0.03331254700116454 0.018517334233482008
0.0036118125231263416 -0.03428782550855175 0.017769495127791024
0.003612887722846056 -0.034958117207263995 0.016756565035042748
0.003614252555010176 -0.03560102864160747 0.015718590197150106
0.003616406502964363 -0.03616884000274806 0.014612977430099872
0.003619572273774504 -0.03664074616977786 0.0134201730652182
0.0036243563903976222 -0.036959485175695694 0.012087640739123051
0.003631294739627808 -0.03707504425977237 0.010568270786346146
0.003642951626987539 -0.0367450605935129 0.008640263047436869
0.0054937537368524355 0.07572528483751201 0.047618528659623516
0.00544254723778912 0.070574763812558 0.049128040390426175
0.005415814574224598 0.0674764848352199 0.04942816440998188
0.005397449120762789 0.06508145494385409 0.0493167495975973
0.0053825875692256825 0.06298266332063357 0.049035071884449666
0.005371206099935353 0.06117645088007828 0.048582327998309305
0.005361681480389633 0.05952715944113657 0.04803927574073069
0.005353682593386167 0.0580066168630618 0.04742179304283212
0.005347163216291168 0.05661028727654993 0.04673137759211504
0.005341263629067188 0.055266911201113766 0.046011504385306656
0.005336664136064029 0.054031904391978025 0.04522661224818547
0.005332788453916195 0.052857537098005614 0.04440588669804174
0.005329682206789845 0.05174718217329205 0.043546533400370346
0.005327586316801389 0.05072008321397414 0.0426355043875567
0.005326027654233583 0.04973730958689038 0.04169706561391795
0.005325492074621061 0.04883800179370673 0.04070530064228817
0.005325816655537877 0.04800848092482224 0.03966823996219332
0.005326969237288572 0.047245734713905085 0.038587096728044945
0.005329015892718075 0.046554690183129244 0.0374578747911985
0.005331877347014108 0.04592853863063967 0.03628429950851103
0.0053355399346230875 0.04536579004854108 0.03506663610092137
0.005339794845145038 0.04484932648250323 0.03381566990909102
0.005344481457362975 0.0443660177984726 0.03253974174350904
0.005349520152657729 0.0439093017183082 0.0312429219848262
0.005355552883303891 0.04353013791898719 0.02989006677364464
0.005363228167085462 0.04327959530501346 0.02844518186735384
0.005371701382151032 0.0430898820868485 0.026953619990180866
0.005380979995463186 0.04296120470884712 0.025414511985861588
0.005391637709976587 0.042938499703302324 0.023795728890878998
0.005403373310271278 0.04299735341079236 0.022113162004707587
0.00541663707676454 0.04317267541297615 0.020341165800940142
0.005432143354741571 0.043519820724846836 0.018439022721322473
0.005451868333110486 0.04419256473927108 0.016294852358887446
0.005476589619317359 0.045249682935065205 0.013862565334285981
0.005509583746825052 0.04694446659664564 0.01095467387961413
0.005016534854068201 -0.006849650012382136 0.020481933557892518
0.004992544964720471 -0.0094508552400554 0.02096481517494897
0.004976664598907326 -0.01143885149466467 0.020967337669236086
0.004964929775823659 -0.013112882514469237 0.020724894711003694
0.004953881986226815 -0.014732065386892257 0.020445209136482123
0.004941862923258527 -0.016419749596612077 0.020228946020917793
0.004929470970740863 -0.01813117311903445 0.020040082355403888
0.004915274023246033 -0.019971933876497316 0.019966655637622288
0.004899949354888415 -0.021891245941068116 0.019968039643026902
0.00488421484025923 -0.02383577295815059 0.0200005839669935
0.004870792807286158 -0.02560555408475057 0.019896014401855455
0.004858592188264288 -0.02728159089736737 0.019720747422090235
0.004844464254078605 -0.029094512643193682 0.019670190850290425
0.004829243635312752 -0.0309825477136757 0.01969330957923765
0.004822394244960726 -0.032256794729859095 0.019197673815240568
0.004819827406878215 -0.03321802950327557 0.018435474560711262
0.0048200932735913875 -0.03397330788452979 0.017495661587396072
0.004820917646743997 -0.03468831700153213 0.01652042700786882
0.004822647086868014 -0.03533834117084328 0.015487467191200643
0.0048254567441193335 -0.035911217587939415 0.014385118618479797
0.004829764130674931 -0.036377501079301766 0.013186117454156154
0.004836340025025253 -0.03668271676864937 0.011840268960381983
0.004846667585836403 -0.036721984800894225 0.01025105510453378
0.004865436499944415 -0.036162783637945006 0.008114357330428923
0.006819771130044424 0.07255742742702437 0.04950906937269617
0.006779642724808262 0.06900516442337273 0.05007017204543518
0.006751941187372982 0.06629017322692876 0.0501443394327995
0.00673138573531041 0.06405692683779929 0.04993881663227001
0.006715204657626484 0.062118936502196576 0.04956251787241722
0.0067021429740835555 0.060391485660030886 0.0490644264024907
0.006690893936953062 0.058787084817963964 0.04849640597692978
0.0066817052224928996 0.05732135746638878 0.047847483690525106
0.00667384633265334 0.055945460982413986 0.04714673077365278
0.006667145188354487 0.05464758622669075 0.04640063357854002
0.006661391739214063 0.05341352477446493 0.04561735589578647
0.006656641964784114 0.05224657155300638 0.04479413605320898
0.006653053683778969 0.051156638736196525 0.04392393080545137
0.006650744635031443 0.050150946878659564 0.04300127788772784
0.006649145444749293 0.04919199162484661 0.042049509892450376
0.006648963307360342 0.04832537802898196 0.0410384815117385
0.006649469269401643 0.04750336285328938 0.03999838962579494
0.0066508053791615 0.0467348594940597 0.03892288493640639
0.006653580533832843 0.04605881480241719 0.037785631710749
0.006657473701182236 0.045454012083312456 0.03659970167341625
0.006662123075997316 0.04489678081117837 0.03538011372621597
0.006667552169232537 0.044388336462019284 0.034125507337941674
0.006673520130306857 0.0439129700205812 0.032845937960089666
0.006680254530000336 0.04348500313487652 0.03153128340621564
0.0066878009274887905 0.04310704312286251 0.030179207565467048
0.006697314397801579 0.04285222670429689 0.02873886350358451
0.006708152448749 0.042679022495315744 0.02723752074330299
0.006720472542937344 0.042596892020570765 0.025667641523961005
0.006734020973379013 0.04258922861066916 0.024039747592582206
0.006748854041524979 0.042659109722329114 0.022350779645263275
0.006765910285153533 0.042865117157403376 0.02055841665228081
0.006785391581190137 0.043219074901630294 0.018652629720016856
0.006810267743672965 0.04390622217516987 0.016499346211172217
0.006840827930454518 0.044942568152400775 0.014083096656629601
0.0068811225002320875 0.046578791949696274 0.011218693624529097
0.0062870187937049855 -0.00586881248556409 0.01969733199273882
0.00624874984948909 -0.008967860783264281 0.02057638737615264
0.006222159634731858 -0.011359474313272888 0.020903160952400524
0.006206056434057741 -0.013119187720155745 0.020730019693499413
0.006189668056890519 -0.014891721625307774 0.020575672329498584
0.006174604877766299 -0.01658139603913339 0.020361738952203223
0.006157236370383101 -0.018403714154503648 0.02026516662932787
0.006138843791314106 -0.020282078276407378 0.020224156936941795
0.006119754906858231 -0.022196768094157826 0.02022305024519594
0.006098842701347082 -0.02421381989072141 0.02031780293998936
0.006081643242744809 -0.026007543020197477 0.020235110920912625
0.006061780711958649 -0.027952833631872953 0.020289970568556914
0.006042699303608899 -0.02984736338265126 0.02031199647193066
0.006034620198761877 -0.031095354839654088 0.01978998606316723
0.006031138169155114 -0.03207376785837052 0.01903999008885865
0.006030455563027286 -0.032888748630650444 0.018150291128174567
0.0060304888573575735 -0.03366208012516442 0.0172246923548095
0.006031437898892061 -0.034382486552572145 0.01625275412499899
0.006032986976483479 -0.03506852979435526 0.015250076286366598
0.006036454461698449 -0.03564457341322086 0.014149280347877713
0.006043986611123857 -0.03598812334722701 0.01283991520267308
0.006055059995254375 -0.0361307342536592 0.011346914613965475
0.006073611708803958 -0.035848723744134836 0.00946645043086114
0.00610022218099951 -0.035111872726756976 0.007165186921098909
0.008217974744988381 0.07534445804356033 0.04942043777905014
0.008153562496289072 0.0708782916684364 0.0505111581990042
0.008112886000818945 0.06774472884965493 0.05082673213413108
0.008084164434962548 0.06528283877132046 0.05075246614393353
0.008062508387933053 0.06321816208875991 0.050448092948985335
0.00804447194211206 0.06135807391733178 0.05002714848155798
0.00802971215637304 0.059682503454264624 0.04949985867549289
0.008016844766784268 0.058114226822323145 0.0489120177609918
0.008006585400184044 0.05669193737423106 0.04823848635025141
0.007997864821064649 0.05535619004158826 0.04751488041246604
0.007989796308654037 0.05405798238276782 0.04677108863458995
0.007982862131921883 0.05282343559038144 0.045990223295792276
0.007977711879136411 0.051687581511697944 0.045149356613286784
0.007973877803140256 0.05062440911972843 0.04426406171461905
0.007971356118172977 0.04963328992648214 0.04333396653109339
0.007969853564695997 0.04869791651876815 0.042368835417049
0.007969998948413356 0.047851955857640294 0.04134618322500061
0.007970629005596691 0.047032114546860626 0.04030640170971844
0.007972253073586406 0.04626566348656591 0.03923127822033662
0.007975891447190383 0.04560711448495547 0.03808419040184319
0.007980674892360025 0.04500920010092607 0.03689535354581558
0.007986534529926835 0.044467865464524414 0.03566679329158562
0.007993255730903991 0.04397129937950828 0.034405803421672376
0.00800064747953246 0.04350904149420215 0.03311893651031289
0.008008786868864463 0.04308497803193778 0.03180314810663942
0.008017506774542294 0.04268999476426294 0.030464216253208554
0.008029367835469748 0.04245959517174486 0.02900867431963955
0.008042596244730459 0.04229896446187914 0.02750013786152633
0.008057799744379457 0.04223973763967215 0.02591579737023353
0.008074080295008947 0.0422339808083807 0.024287941930234924
0.008092599641141078 0.04234241163255498 0.022573261410414713
0.008113337966073187 0.04256327109123481 0.020771632567187226
0.008136480311503685 0.04290553256561852 0.018875325538840804
0.008166185969076877 0.043585708074653284 0.016728243941874443
0.008202700359665041 0.0446144828972973 0.014318686342419673
0.008250486122000368 0.04622184431890547 0.01147641240053826
0.007509261126651131 -0.008431044846831215 0.020144675935957645
0.007471720361646073 -0.011104179241912981 0.020696754032717757
0.007445977380668476 -0.013183278445497382 0.02078211376653133
0.007425266386242951 -0.01500746404681591 0.02067025132013034
0.007404733034418218 -0.016818426677778775 0.0205564601772375
0.00738221266937926 -0.018723045386526027 0.020528893661762637
0.007360159494645586 -0.02059983385674835 0.020487977514800138
0.00733604036977562 -0.022573405506220834 0.02053741871988185
0.007311099944662892 -0.024582075092371647 0.020626805676960347
0.007283312189928827 -0.026724691434411252 0.020840059240290865
0.007260638314679439 -0.02861173223136454 0.02084872571736518
0.007250677593464234 -0.029874714945864744 0.020335313692876333
0.007246708966200521 -0.030844357743920248 0.019574879823365143
0.007244966548977022 -0.031705198639718435 0.018722455470285615
0.007243224969454661 -0.03256562566945498 0.017870440936845422
0.007242724670474182 -0.033365754333169795 0.01696669746188567
0.0072429447936017246 -0.03413107321535713 0.016032708890807545
0.007246027922073145 -0.03475883559472365 0.014977594869054367
0.007254730877438176 -0.0351177567742455 0.013683327828226899
0.007273248844005979 -0.03500891006353035 0.011969280300950236
0.007293078772214296 -0.034841396342096875 0.010194522200448086
0.0073204914788603595 -0.034316932300590464 0.008090171577711858
0.007366985187493946 -0.03289147882470772 0.005159753190755845
0.009542168643334513 0.07317069267460319 0.050710248265169566
0.0094864360291956 0.06963511339849282 0.05125307263150186
0.00944460255817565 0.06677170859663811 0.05141077490813334
0.009414540943929586 0.06447553383784754 0.05123983525092857
0.009390750190574974 0.0624823746071263 0.050894844125594474
0.009371040147177906 0.060686802025788744 0.05043706937144127
0.009354444534554616 0.05904202834955041 0.049893216263848184
0.00934007491496524 0.057505292171316225 0.04928814529209308
0.009328622347835698 0.056108510848895066 0.04860091730217614
0.00931884441755114 0.05479251004644636 0.04786704199424535
0.009309795392278039 0.053512483228618624 0.0471138321933513
0.009302206649483053 0.052302456602109804 0.04631942112902521
0.009296664501328177 0.05118941228759588 0.045465927460210775
0.009292483988007085 0.05014085753190112 0.04457308405405336
0.009289971840498824 0.04917068713063194 0.04363127287638857
0.009288702170530296 0.0482586671924049 0.04265272650940499
0.009288899652042564 0.04741486657564792 0.04163027030215716
0.009290028278567565 0.04661409239453568 0.040579624705976036
0.009292173424662492 0.04586002861808253 0.03949789402091941
0.009296184116558815 0.04519150424139157 0.03835889477004262
0.009301867145094905 0.04459912321606879 0.037167918143075906
0.009308576962497395 0.04405280728461952 0.035944210967466195
0.009316715323393471 0.04357066909137336 0.034675072284076625
0.009325436584770775 0.043113672527630986 0.03338615000881173
0.009334971919079794 0.04269219946334435 0.032070087923913526
0.009345354829875158 0.042307550465560506 0.030725576705683155
0.009359568850933385 0.04209500594477911 0.02925921486133548
0.009375061749115423 0.0419378209022766 0.027749685226780396
0.009392538259812929 0.04186752311130865 0.02617441721705882
0.009412049274865174 0.041885863643866705 0.024531154438561575
0.009433794371476853 0.04200127364466166 0.0228129123087224
0.009458301236524871 0.04223686324492232 0.021002198260712923
0.00948567104578015 0.04259641135225195 0.019094881221821902
0.009520010558628906 0.043263020992982015 0.016958693524599333
0.009562127548814718 0.04427086831845145 0.014565427241024387
0.009617182917856222 0.04584795686077553 0.011746361854638787
0.00872897406963321 -0.010593598437833862 0.02028394774367448
0.008692874789281818 -0.012932041837848574 0.02057790421643846
0.008661804871912229 -0.015050197347967087 0.02070517086334167
0.008634733275506122 -0.01699315665828688 0.020700001265635204
0.008607466984067759 -0.01893937947927904 0.020707558141071114
0.008578663543492425 -0.020945472686605515 0.020774948512210678
0.00855005223172973 -0.02293818456524821 0.020841889366479738
0.008513399913662277 -0.025263549171834432 0.021198630201869018
0.008486092689032547 -0.027190331613224095 0.02123284856816887
0.008472739380722783 -0.02852827609055958 0.020777953752740552
0.008467719273529685 -0.02951587761483293 0.02002940469360176
0.00846350135738369 -0.030469141345651818 0.01925331678572262
0.008460902403075395 -0.03135434011004268 0.018420179198270492
0.00845823486768814 -0.03224190576514502 0.017590073745287704
0.00845648082734355 -0.033091180888672356 0.016727641165314167
0.008458772919361177 -0.033773075557724686 0.015719377548539304
0.008472058737699113 -0.034002487361041556 0.01431212926156017
0.008490851729335279 -0.034007968207806216 0.012701755226765754
0.0085028199924513 -0.03429680247555145 0.011336133538954185
0.008520206730194485 -0.034366104871363046 0.009769713249922873
0.00858210592189963 -0.0326211897180565 0.00656658645353464
0.010971332321408575 0.07681300298281085 0.050122696380418
0.010873648806391953 0.07184516830328846 0.051496752300123794
0.010816478365185577 0.06858452230408002 0.05188005326207046
0.010774499981049136 0.06596613754511843 0.05189430847295562
0.010742610297505211 0.06377409814293084 0.051663291214185725
0.010716655819554811 0.061833557808908146 0.05128878894694988
0.010695144514689992 0.060081270469064696 0.05080684507292965
0.010676751574221289 0.058461384283547135 0.05024982770403491
0.010661120091115302 0.056958418157796675 0.04962593912955732
0.010648712705416619 0.05559076227454329 0.048922548391115595
0.01063753187516989 0.054275522626821116 0.0481900321819837
0.010627279152762398 0.05300015867083979 0.04743573176155108
0.010619400918243132 0.051823673427636774 0.04662195613940601
0.010613757734295692 0.050739796026995354 0.04575164442850732
0.010609537331717179 0.049714857244229305 0.04484532719999673
0.010606704136263953 0.04874706599640338 0.043903526421626704
0.010605513358217097 0.047846456296059936 0.042919142402659316
0.010606253540295159 0.04702433164680697 0.04188409928180231
0.010607895182093973 0.04623856666859216 0.04082507166002736
0.010610600170744621 0.04549548201242348 0.03973750331654263
0.010615401700634474 0.044836464744885285 0.038593563915194695
0.01062178898536192 0.04424046306141605 0.03740630773345793
0.010629315187150603 0.04368915652381983 0.03618726881761236
0.010638049888367957 0.04318505837871889 0.034934246293138016
0.010648453174936958 0.042746273431814696 0.03363445983087432
0.010659526953056468 0.0423325718189404 0.03231449773992695
0.010672024735493946 0.041973799343107854 0.030953660493764468
0.010687394122116313 0.04172714475538475 0.0295120038491693
0.010705364723763022 0.04158119151065465 0.027996113337389328
0.010725073969024654 0.041501170011903954 0.02642896446127463
0.010747664265898925 0.041531788547062576 0.024778529464007326
0.010773802550701744 0.04169864437098797 0.023025510670276916
0.010801236395270149 0.04191226883987115 0.02123148298827282
0.010832401232913104 0.04226796705733055 0.01932816126982423
0.010871788625111532 0.04294082170460678 0.017188794745806424
0.010919678858896236 0.0439398100634511 0.014803151762503297
0.010981604405026402 0.045478758970100674 0.012012925407054287
0.011097077745477463 0.049092883254730935 0.007697129169331796
0.009996398499889618 -0.009830963594631259 0.019667354920359592
0.009942400613553365 -0.012645700049561781 0.020345160555767128
0.009904591428570059 -0.014849994797790644 0.020541575226833753
0.00986988281076932 -0.01693320895189232 0.02065075408436845
0.009832760428589044 -0.019100181807555905 0.020840360437221317
0.009795120143789913 -0.02128031578667333 0.021052956218816365
0.009756568495245262 -0.023487985283882185 0.02130079230007703
0.009717346466409498 -0.025714109625123216 0.021576695230178855
0.009700571858242963 -0.027110340040838565 0.021165371925510323
0.009693711534966237 -0.028140918432523365 0.020449469087535532
0.009688176551506972 -0.02912198093492907 0.01969360758235783
0.009683801406090658 -0.03005987934632981 0.01890257643348603
0.009678250932142687 -0.031039819494948384 0.018149209246106413
0.00967455414971163 -0.03195160086016269 0.017338646601569696
0.009677875767641245 -0.032608668059512236 0.01630754325599748
0.009695378642697764 -0.0327539378318788 0.014827394640865244
0.009704962174773516 -0.0331874888086271 0.013595060743862908
0.009715158707733157 -0.03360053224060744 0.012341391104854382
0.009742916166879296 -0.03338501752435652 0.010525450294973704
0.009776626626448607 -0.0329608104889032 0.008513680544622981
0.012287901760951268 0.07476964695174187 0.05132813541070497
0.012202713107249826 0.07072437329767256 0.05216177952508466
0.012144860655170708 0.06770578718095654 0.05240447223395095
0.012101839338587647 0.0652448283831305 0.052327264932571504
0.012067855921372897 0.06312414428380436 0.05205566764937947
0.012040327004470667 0.061246475125043276 0.05164525040671969
0.012017108615576175 0.059531481939940345 0.05114258057138504
0.011997492694045339 0.057952215984250155 0.0505625412081262
0.01198078730843099 0.05648252248043045 0.04991989097791005
0.011966167245180022 0.05509156450511021 0.049232655516721735
0.01195387178426433 0.05378763885058063 0.048494839739190054
0.01194330627092503 0.052548560460858595 0.04771947624848916
0.011935512124918375 0.05141186473554066 0.04688217110430176
0.011929392700908079 0.05033712000995938 0.046007532350887115
0.011925123685918849 0.049330337093530185 0.0450910617183396
0.011922411916759542 0.048380511641787916 0.04413910419266559
0.011921688986669848 0.04750289602028934 0.04314118873517431
0.011922628813112434 0.046685311642657046 0.04210444603026875
0.011924364266586204 0.045896211661421216 0.04104883793729952
0.011927764326776964 0.04516662067237487 0.039953657390736474
0.011932831842086267 0.04449628406262485 0.03881841188475549
0.011939933601648817 0.04389795934670665 0.03763395867040953
0.011948895315672685 0.04336499126370358 0.03640393524515584
0.011959070626336605 0.0428739626713498 0.035143337791467055
0.011970793678750933 0.04243648952562645 0.03384382993412011
0.011983160511261375 0.042020176704592516 0.03252680742637437
0.011997016844307554 0.041654823552632725 0.031171646896516136
0.012013804256568119 0.04139103777042519 0.029742971798442985
0.012033584074105699 0.0412303534317362 0.028238539696373077
0.012055646392029358 0.04114715187429485 0.026674941201957958
0.012081203649823553 0.04118351627704281 0.025021850336996665
0.012111306955912617 0.04137553017059242 0.023252499780633595
0.012142385488719676 0.04159734776613616 0.021453934735655267
0.012177884177042918 0.04196898333620108 0.01954051672216567
0.012221600776508435 0.04262175496126841 0.017416658834702947
0.012274898278802631 0.043601273674566676 0.01504624614192196
0.01234375625390006 0.04511288413147768 0.012277089691808296
0.012454950777956419 0.0480800506697307 0.008432401192955241
0.01127852705339779 -0.008749854034738602 0.01879327422264626
0.011202918670381113 -0.012059002992132195 0.019868282829787143
0.011153158111000582 -0.014503296704052926 0.020258270667170897
0.011104496144621192 -0.016904261651311814 0.0206269738091151
0.011052123920956659 -0.01942033875358834 0.02110476940453654
0.011000889655197748 -0.021891578713875426 0.02156046497288705
0.010958337027698361 -0.024071124672839783 0.021787522068189347
0.010935663078819038 -0.025594866395145632 0.021476638301551
0.010926000392000049 -0.02669103117733329 0.020811665234886145
0.010918779734874371 -0.02770634787242021 0.020080947226712886
0.010912386204444562 -0.028693776103398128 0.01932856275516126
0.010905153281269448 -0.02970748645738691 0.01860057330053383
0.010898141366230843 -0.030713019016840815 0.017867659784258028
0.010903399456906444 -0.03132176819705085 0.01679316140724907
0.01091999262390119 -0.03156645334598751 0.015400143088062201
0.010923997068745993 -0.03221777281195359 0.01435812535435238
0.010943850215526404 -0.03236184371083012 0.012868624967176778
0.010981227862395035 -0.03194848596188221 0.010880208846737072
0.011020220468001257 -0.03148895183458028 0.008839626590411154
0.011064532333074717 -0.03086568866991346 0.006641089606322814
0.013614466194707367 0.07347009376235236 0.05209478210007534
0.01353123384986905 0.06980954675299 0.05270459471901612
0.013471737884839836 0.06695252797523815 0.05285400862760076
0.013427396233433836 0.06460835889572264 0.052709297479007156
0.013391262336461283 0.06254298551009196 0.05240651256661305
0.0133623069518119 0.06072064542334987 0.051964520635952194
0.013337709677837954 0.059046474189075715 0.051438756847108025
0.013316530113573555 0.05748852294471546 0.050847325385412645
0.013298088511219297 0.05602369027033283 0.050203303042059166
0.013281958628871823 0.05463740290346125 0.049514785681301576
0.013269373024347053 0.05336975038727282 0.04875591741360491
0.01325942632363822 0.052190332272628204 0.04794455524842678
0.013251101902708862 0.05106533650008643 0.047101136449994585
0.013244433828307513 0.049995564024609196 0.04622458041873828
0.013240380029646908 0.04901195271623493 0.045294530981160486
0.013237732353099605 0.04807465399871469 0.044335673298729006
0.013236930235996983 0.047197679087832345 0.04333845339367287
0.013237932897813196 0.046379349286369886 0.04230330689256523
0.013240299781901632 0.04560505445786478 0.04123914087482389
0.013244313383335224 0.04488365856570398 0.04013964280389076
0.013250418719914801 0.044229193382993304 0.03899494982513674
0.013258259471572094 0.04362978913402038 0.03781220257714302
0.013268285008067657 0.043099543044109845 0.036581356223013006
0.0132795768301792 0.04260859449606452 0.035321695216738114
0.013292141368777518 0.04215690501003072 0.034032789520873574
0.013306472092018665 0.04175998213377374 0.032703640626410735
0.013322580356440591 0.041417847087401094 0.0313335953851952
0.013339990189022178 0.04111502380961185 0.02993264467449952
0.013361693981596524 0.04094621033127571 0.02843488034869729
0.013385149570320743 0.04083007880640199 0.026895247992806237
0.013413874674655362 0.04087745693702288 0.025235679091711927
0.013447067547749395 0.041062043633210976 0.023472725416467277
0.013482130605836591 0.04130122352090709 0.021663108910670803
0.013522104392386547 0.04169013562765139 0.019738570419068457
0.01357074101076516 0.04234544067971052 0.017613990908104005
0.013629585796471923 0.04331380655956368 0.015252668973320449
0.013705346387969969 0.04480264982021315 0.012501081112617052
0.013820667182679809 0.04751411846406517 0.008843243146754831
0.012472704047833166 -0.011313462692771337 0.01926229451250583
0.012403092533998537 -0.01418526504179124 0.019998390899547913
0.012335786010701505 -0.016979721810562398 0.020688964506750285
0.012263558176836664 -0.019911240630066385 0.021510191994366823
0.012208353471699098 -0.022330531378707996 0.021924910958585675
0.01217945999643674 -0.023967059920605494 0.021700662196119658
0.012167012414054119 -0.025116099831452465 0.021074905541529076
0.012156281149310352 -0.026213162450236138 0.020408560553050126
0.012147797573159999 -0.027243016191659197 0.01968803553676396
0.012138448953934802 -0.028297058694395527 0.01899036097098844
0.012129013698249886 -0.029352425593888787 0.018296283695012072
0.012137437331796657 -0.029886980244973438 0.017155999957345014
