# .PCD v0.7 - Point Cloud Data file format
VERSION 0.7
FIELDS x y z
SIZE 4 4 4
TYPE F F F
COUNT 1 1 1
WIDTH 774
HEIGHT 1
VIEWPOINT 0 0 0 1 0 0 0
POINTS 774
DATA ascii
-0.065964154409481 0.018008442439511878 0.06641325397275233
-0.0660086543818949 0.01804466785962508 0.06508722157714031
-0.06603790078655608 0.018081919665355297 0.06374329940337176
-0.06606881460787595 0.018119237192536775 0.062395080558965976
-0.0660983068338854 0.01815679783997856 0.06104001240388035
-0.06613490786513948 0.018194113417353736 0.05968508432532199
-0.06616621534569139 0.018231895956724555 0.058320055318292596
-0.06619297718246031 0.018270105384170295 0.05694544230185661
-0.06622375590768664 0.01830824965679508 0.055568331753500955
-0.0662601404341448 0.018346236319841783 0.054190079038342887
-0.06630294776008905 0.018384016912786436 0.05281141344967227
-0.0663404336290081 0.01842227327237822 0.0514223707852674
-0.06636784444258415 0.018461285684811354 0.050018766610683774
-0.0664095667941319 0.018499634255779534 0.048621434698400245
-0.06645146284142905 0.018538142476955965 0.04721828550721613
-0.06646423929868439 0.0185785306103207 0.04578377759637847
-0.06650563532208703 0.018617414998174524 0.04436800541739072
-0.06652256036175558 0.01865791531661166 0.0429246111173609
-0.06656584945060151 0.018697038933746458 0.041498176102217066
-0.06660772411323124 0.018736421499293842 0.04006432701466672
-0.06661058251309993 0.018778296338230256 0.038589394584682524
-0.066639107371125 0.018818832863312505 0.037130903820792094
-0.06666293593635542 0.018859832106853203 0.03566174946658762
-0.0666627169947639 0.018902453438380228 0.034164251933621104
-0.06667218001678793 0.018944687980317655 0.03266880807988842
-0.06667198107287764 0.018987694143482718 0.031157763325741883
-0.06665232656273296 0.019032066353206187 0.02962190049683444
-0.06666101878074954 0.019074931723220518 0.028105207288787126
-0.06665834996999537 0.019118679565596677 0.02657104261887544
-0.06666791161559621 0.019161886984467195 0.02504129331057181
-0.06666524649159467 0.01920603505663182 0.023493059750870626
-0.06663550894100695 0.019252033628471596 0.021912061343958178
-0.06668946264168807 0.019293140023735573 0.020403239829499875
-0.0666720037632842 0.019338801969475527 0.018819437667433936
-0.06669986763094976 0.019381898449401077 0.01727177513306377
-0.06670221043876218 0.0194267624566655 0.015692414639975394
-0.0667053933710618 0.01947178359555617 0.01410653115482191
-0.06670277280069803 0.019517372887356402 0.012507598522998153
-0.06669347453303204 0.01956358838308383 0.010894618595162886
-0.06667661519659296 0.01961048924690524 0.009266565041263608
-0.06666804747083704 0.01965709528178697 0.0076389905305399575
-0.06667370568803949 0.01970303479863884 0.006017884347582603
-0.06673321384662473 0.019745829362907155 0.004443119252473815
-0.06708506515946533 0.01977053236036644 0.0031557098799672723
0.09216554379350816 0.02298369280152028 0.029549894098470975
0.09087759801463319 0.02296602394493274 0.02867468880567592
0.08967852966627915 0.02295260171426752 0.027746845665702624
0.08711554484674389 0.02287277082949055 0.02767307467427782
0.08459929657424337 0.022794905513136263 0.027581612974306446
0.08213035471822128 0.022719045169331004 0.027471668463312615
0.07968078894387359 0.02264383476447057 0.02736054845577357
0.07725184601020546 0.02256933927383678 0.027247312775068755
0.07479905487972666 0.022493378008570524 0.02716038408970123
0.07236271900614921 0.022417926351368345 0.027074038590420013
0.06994846441194913 0.02234326484139796 0.026984506514973527
0.0675416256232742 0.022268673358768896 0.026901197615140093
0.06512661521736779 0.02219338039574367 0.026834341593835798
0.06277301735253643 0.022120834597217816 0.02673810229065937
0.06040818266147957 0.022047440285559345 0.026660152707897622
0.05805066961590866 0.02197411694336055 0.026588278908971585
0.05570603634575971 0.021901142457272062 0.026518729258464713
0.0536332608677319 0.021841472990550226 0.026276392674894233
0.0528143512107872 0.021844407785268617 0.02519087670536807
0.052920312830900595 0.021893803089898238 0.02347286614714783
0.05320202616786307 0.02195224252541425 0.021626624266671834
0.053422033442378225 0.022007807190419813 0.01981418033560034
0.05355083721571963 0.022058989143550953 0.018056683240183447
0.053590479284014836 0.02210586501792975 0.016353705019003795
0.05361091869880458 0.022151957756263958 0.01465708220719486
0.05361757823950358 0.022197538239094095 0.012963163454596083
0.05359092303278695 0.022241608191017823 0.011285940983920217
0.05358643220394166 0.022286990289287944 0.009586140896705286
0.05359726639867968 0.02233334278604804 0.00786837233412252
0.05360954360212172 0.022379960140571805 0.006142434390306595
-0.04722747575339742 0.01724698094074597 0.07762149854064959
-0.04908122239344831 0.017187233811917505 0.07764309004212408
-0.05077319742193176 0.017135582387546217 0.07755520112888742
-0.0524905759380474 0.017082403585912332 0.07749406576779444
-0.05402260815811777 0.017038602420667782 0.07730368124001685
-0.05558103416114418 0.01699324885018313 0.07713980455527411
-0.05714224671857132 0.016947560850667502 0.07698509368450973
-0.05878602530168647 0.01689737866132704 0.07689978568443728
-0.060471403626696674 0.01684481340807061 0.07685387838154206
-0.06206923008760201 0.016796609021932103 0.07674948801742279
-0.06373978916886708 0.01674438713743034 0.07670842111454712
-0.06539392506161573 0.01669280784991226 0.0766629337238505
-0.06628010512659988 0.01668145525471707 0.07603070155148639
-0.06608051223616873 0.016727358789972405 0.07455464986809765
-0.06610110451203871 0.016761811904430688 0.0732437203207382
-0.06612939584127664 0.016796003675900444 0.07193337325897348
-0.06616543139069941 0.01682993003232305 0.07062370689504399
-0.06619320534714573 0.016864441241872537 0.06930204943682533
-0.06622722003196618 0.016898767468548712 0.06797986134237055
-0.06628132169796902 0.016932167334878765 0.06666832237519754
-0.06631488465981933 0.016966811280132412 0.065334809847573
-0.06635397636904783 0.017001307843034028 0.06400021128504463
-0.06638242430421826 0.017036526216185777 0.06265134698231223
-0.0664109903444251 0.017071890802617007 0.06129688270839345
-0.06645439467144387 0.01710660710935015 0.05994893991206601
-0.06649176661880224 0.0171418011622763 0.058590348439714335
-0.06652462649787338 0.017177393573981584 0.05722226057204982
-0.06655606462760849 0.01721321886734524 0.05584717189085192
-0.0666016879399981 0.017248427821494994 0.054478190452789066
-0.06663028855577452 0.017284721287448304 0.0530890030563107
-0.06667938937837153 0.01732005200917625 0.05171133080231605
-0.06672712080689269 0.01735561363947453 0.050326669010137826
-0.0667679675807501 0.01739171100847367 0.04893020895602668
-0.066810561292586 0.017427871948265606 0.04752929341633222
-0.06681383417279957 0.017466365337616523 0.04608815108704323
-0.0668574984828928 0.017502793889512702 0.044675967726368615
-0.06687199610729283 0.01754100309822712 0.043232058825945496
-0.06692789146611816 0.017577081016556802 0.0418183908046979
-0.0669720725298188 0.01761397334600762 0.04038827536764095
-0.06699489450988233 0.01765222429466234 0.038932887427608975
-0.06702021489033105 0.01769050743334932 0.03747332011905358
-0.06705606261032304 0.01772837248838663 0.03601681695994069
-0.06705673126180517 0.017768386935818052 0.03452198592332811
-0.06706142750897692 0.017808355588859598 0.033024064827427146
-0.06705888440676894 0.01784891461065316 0.03151272843591463
-0.06707330920582744 0.017888697440536394 0.03001015145189667
-0.06705538417969881 0.017930497453940777 0.02847081116112804
-0.06704468647784223 0.01797207742126761 0.026931073622776802
-0.06705185180861212 0.01801282951048168 0.02540095854276686
-0.06705088947671978 0.018054233098383023 0.0238562043866985
-0.06705155855584383 0.01809573377680179 0.022305880886399287
-0.06707354410718525 0.01813620224830179 0.020768693295612706
-0.0670767332683434 0.018177939250808663 0.019206542759143352
-0.06709475864017572 0.01821901406458836 0.01765143550105408
-0.06710708918354519 0.018260608816999115 0.016083701934509365
-0.06711368648186194 0.01830272936434976 0.014503169183453901
-0.06712280128599163 0.018344900249349275 0.012917756710665529
-0.0671103537291814 0.018388523460347864 0.011303815226199665
-0.06711533910225836 0.018431334060777772 0.009699438726604392
-0.06708945528859617 0.018476151092504934 0.008056935823937628
-0.06709776336447987 0.018519174915725908 0.006440638303689905
-0.06709772133522346 0.018562892487370756 0.004808389310003103
-0.06735646300745063 0.018591575513324337 0.003429084304485075
0.09274430897883129 0.021573455893051163 0.029194436496754184
0.09135292728863126 0.021552243040215042 0.02838108672771239
0.09040444923105584 0.02155110908066868 0.02729589634366808
0.08811600269617409 0.02148885404427823 0.02704803400429373
0.08568136896051226 0.021419674443024332 0.026901733920642268
0.08305433808078239 0.02134141358456241 0.026887818795210128
0.08058632490601098 0.02127014065321449 0.026785108714094896
0.07813175806287809 0.02119920504370371 0.026684988988850022
0.07572308819936541 0.021130103451147495 0.026566524625496635
0.07323769455730839 0.02105718759605015 0.026508533257566413
0.0708347911960917 0.020987797369458577 0.02640843643458962
0.06840588558199989 0.020916926769652188 0.02633630945840626
0.06601046830863089 0.020847328942423547 0.026253402219146293
0.06363093892922062 0.02077819273117958 0.0261710448720735
0.06134437054893105 0.020713113485379433 0.026037899280624333
0.0590233350453469 0.02064616391132886 0.025938166051456713
0.05674211229905435 0.02058080902740438 0.025822368847118637
0.054419141515004155 0.020513233761691233 0.02574524836617781
0.05306236131545261 0.020490785822263696 0.025022324253784478
0.05287799172930324 0.02052344779641361 0.02350178817686077
0.053165043126926714 0.020578482578285155 0.021652038494581027
0.05341104157230986 0.0206317996150387 0.019821775633672545
0.05354670439399867 0.020680106551860433 0.018059554783170895
0.0535725312716695 0.02072339653436129 0.016366244424590892
0.05359431592987962 0.020766670723620175 0.014668745726750587
0.05357737388257211 0.02080827596508239 0.012991562735171158
0.053557585914721484 0.02084991558505704 0.011309618931063803
0.05356833730768684 0.020893187458879924 0.009599063516419148
-0.043579716568493465 0.01627751541142325 0.07764871398951351
-0.045508698934994096 0.016218341258801686 0.07770654343562527
-0.04734590440959002 0.01616334210602683 0.07770747257316854
-0.04897116718298944 0.01611834198735555 0.07756275837304169
-0.05085380565065989 0.01606071099111141 0.07761435976503442
-0.05240574588324415 0.016018863505054715 0.07743146955421648
-0.054001757623016566 0.015974702110936084 0.0772882118905388
-0.0555810341611882 0.015931170797044543 0.07713980455530697
-0.05718016446841251 0.015886489610596688 0.07701353185084311
-0.058882395737032744 0.01583658409943515 0.0769724549199004
-0.06048694754116124 0.015791251543645066 0.07686566290577473
-0.06207462818551507 0.015746556112790223 0.0767536026824708
-0.06368624624024544 0.015700495436826452 0.07666738793670688
-0.06528770444821352 0.01565474083597971 0.07658109131525118
-0.06659195744603591 0.015623466866308432 0.07627227680632581
-0.06641461055536602 0.01566536807794337 0.07481485087455203
-0.06638960542174527 0.01569989364757122 0.07346961732023505
-0.06642377880861317 0.015731625696722183 0.0721651137734417
-0.06647560252420653 0.015762614261747326 0.07086918577560586
-0.06650627313847779 0.015794790943249797 0.0695511485082645
-0.06653706922654479 0.01582709925984682 0.06822771913851938
-0.06657564940694871 0.015859156237411874 0.0669050230100035
-0.06661668785140429 0.01589122773880808 0.06557881880293182
-0.06665020572922514 0.015923816118195752 0.06424099180257126
-0.0666923333871432 0.01595611109063004 0.0629045894463367
-0.0667292307989849 0.015988810371424356 0.06155831805664719
-0.06675932128467171 0.016021996468948335 0.060200770625758904
-0.06680193187992772 0.01605469131557253 0.058847867127278075
-0.06684626899210705 0.016087440889880966 0.05749072643263364
-0.06688923214755477 0.016120403651466688 0.05612673264702034
-0.06694717392300104 0.016152745316459997 0.05476962415828668
-0.06694914634013616 0.016188095488841862 0.05335939894982955
-0.06699884867917227 0.0162211512446136 0.05198367008311927
-0.0670471870590924 0.01625442290309155 0.05060096806464487
-0.06709101303846537 0.016288074215551826 0.04920852341601112
-0.0671240064628022 0.016322434265722253 0.047800761941739156
-0.06715004406790787 0.016357307016755765 0.0463808709949915
-0.06718804285305935 0.01639171410195276 0.044965271122674844
-0.06721828644777428 0.016426677962944693 0.043536739079885534
-0.06725421146025601 0.016461501858868067 0.04210701051003046
-0.06729585220080564 0.016496183056932102 0.04067615336125241
-0.06734324266515596 0.016530718816289047 0.03924423627746254
-0.06738205585526458 0.016565860084812034 0.03779842586356902
-0.06739065230618824 0.016602749229272403 0.0363190145274922
-0.06740329392124289 0.01663959179097105 0.034836637582454755
-0.06741920412693586 0.01667642848753058 0.033350598871170645
-0.06743759938362648 0.01671330077512761 0.031860181124244435
-0.06742703780469972 0.01675187784050286 0.030336377410609572
-0.06745038443506479 0.01678882684223834 0.028837003589069654
-0.0674268390666996 0.01682844511724695 0.0272872055891204
-0.06742755125236305 0.01686694841953742 0.02575290405441233
-0.06742582439718808 0.01690575914483623 0.024209265664627444
-0.06743551303447892 0.016944135552672046 0.022669320177536645
-0.06744606351947868 0.016982642579754095 0.021123145469556348
-0.06745420326699525 0.017021457652162564 0.019567575391108927
-0.06747059472242134 0.017060006455678404 0.018012775875880904
-0.06748541409862668 0.017098819482633257 0.016449326789813534
-0.06750112614580356 0.017137764703265137 0.014879549045015816
-0.06751856377380405 0.01717679769712802 0.013304219130314043
-0.06751204516156634 0.017217320531288174 0.011698103985069208
-0.06751463494830373 0.01725753512271196 0.010093410110855239
-0.06751224026359359 0.01729821195728311 0.008476246959072842
-0.06750315609502733 0.017339448000197783 0.006844784697299988
-0.0674881707502023 0.017381203787592434 0.005199655565793548
-0.0676466696138951 0.017413578178099864 0.0037214044706800897
-0.06803969979056484 0.017433125688287466 0.00247449994784249
0.09211857074802737 0.02014789322012907 0.02790816296106302
0.0909640077362952 0.020138142307046563 0.02694829236545876
0.08978411204551978 0.020127274869873053 0.02600587497089163
0.08728613514147981 0.020060144519535465 0.025893440088997133
0.08471303436536909 0.01998954016445628 0.025839716291985004
0.08215343822216054 0.019919236466024004 0.025789257285182332
0.07962079121484028 0.019849812040756924 0.025733395295737815
0.07709234532785225 0.019780294159561982 0.02568652789009812
0.07469364714789428 0.01971609018148126 0.02556753673112916
0.07229437867027733 0.01965160713124493 0.025459774283535686
0.06988609728492445 0.01958647823728766 0.025368829648658053
0.06746784659891131 0.019520658202382593 0.025295495932444734
0.06507719645329851 0.019455774116785816 0.025215117103729423
0.06272358260069494 0.01939224209300897 0.02512118220101872
0.06036147118249485 0.019328085326782127 0.0250437788536228
0.058042719867479164 0.019265565184555234 0.02494821322323021
0.05573341115272734 0.019203207050782465 0.024856987737011782
0.05378756700063253 0.01915653773548423 0.024529460479929932
0.05303366463381254 0.019162058840251142 0.0233954020904929
0.0530938341952224 0.019203448205000993 0.021700972275408292
0.05338219054758708 0.019255073339945458 0.019841711470895418
0.05347232698255494 0.01929814443359543 0.018111233260655668
0.05350489433235284 0.0193388403422015 0.016413499073097193
0.05350993804022475 0.019378480316103643 0.01472802157227443
0.05350945920392253 0.01941803655020041 0.013039535844588668
-0.039988188638281075 0.015290251928133929 0.07775123218095098
-0.041974124877661056 0.015232906169093976 0.07783150254008275
-0.043834978444115213 0.015180923021993222 0.07783201110729396
-0.04561891512705951 0.015132175430495293 0.07778612034685406
-0.047320238156798144 0.015086939444674338 0.07768883999450801
-0.04905823177606505 0.015039864953892496 0.0776263086951989
-0.05075039203736592 0.014994663743684883 0.07753846418442142
-0.0523572520135317 0.014953132231990374 0.07739568586136397
-0.053964059563530065 0.014911430276078035 0.07726024309002566
-0.055641516707644 0.01486634623358994 0.07718492137439212
-0.05724255155653196 0.014824551388808673 0.07706032192663687
-0.05892781883364645 0.014778740527904751 0.0770067067284704
-0.06040843544924579 0.014742089112169848 0.07680613944070128
-0.06207077241987896 0.014696962267933803 0.0767506636501761
-0.06370460583872911 0.014652953249652566 0.07668145800513701
-0.06520419554207446 0.0146149316223079 0.0765167481543618
-0.0668459682927301 0.014570196949791867 0.07646904537656796
-0.06675329156731241 0.014605369841158431 0.0750786209539322
-0.0666813672186019 0.014639731817287888 0.07369806760326794
-0.06670016743169754 0.014670032605837479 0.07238268900303546
-0.0667593297547947 0.01469858684653189 0.07109373614611308
-0.0668111094532563 0.014727607057057775 0.06979369802966101
-0.06684631290200943 0.014757525346033841 0.06847509256150952
-0.06687783819401577 0.014787744187631797 0.06714804558500331
-0.06690949285904418 0.014818087040823406 0.06581555269452138
-0.06695739003359014 0.014847797760194178 0.06449067669449687
-0.06699702440377076 0.014878025922639147 0.06315356796316057
-0.06704606203496499 0.014907941395465774 0.06181859572822951
-0.06708758169575985 0.014938342229038538 0.06047187209744209
-0.06711922106485535 0.014969343531967159 0.059111300543980616
-0.06716725840797638 0.014999701298050252 0.05775864718724344
-0.06721626698929573 0.015030145512892213 0.05640114747492819
-0.06725148004634307 0.015061381077715255 0.055026320711820786
-0.06729385114450448 0.015092411583005736 0.05365171348047215
-0.06732859172471306 0.015123944151579072 0.05226477626361653
-0.06736738829807248 0.015155421003492637 0.05087538280378273
-0.06740556306863993 0.015187066858977206 0.04947951878119988
-0.06745724504858341 0.015218201465428013 0.0480893731442289
-0.06749025997132302 0.01525037647471307 0.046677078719330245
-0.06751789678900688 0.015282955114792626 0.045253970228052165
-0.06755118126847837 0.01531540480871239 0.04382963341348556
-0.0675988535210783 0.015347299431761849 0.04241183550337024
-0.06764196699053054 0.01537955918686686 0.04098388988751911
-0.06767413824546925 0.015412498519489235 0.039539986252860704
-0.06769928152991522 0.015445930277618496 0.03808344580086559
-0.06774767197823989 0.015478371436597705 0.03664147059172651
-0.0677618901442461 0.015512640653031684 0.03516221477160597
-0.06774251462834224 0.015548721809881717 0.03364567652608069
-0.06779694015393428 0.01558131881322027 0.03218985891440196
-0.0677759507259103 0.01561780028478105 0.03065816211388811
-0.06777825985622532 0.015653291218867237 0.029140966674931268
-0.06778623937533867 0.015688662143916406 0.027622134469238224
-0.06778047850488428 0.015724880483329116 0.02608351716691021
-0.06779093633435523 0.015760454223854862 0.02455307703051024
-0.06779655726819306 0.01579643404393104 0.0230110733479561
-0.06781199458848525 0.01583208676147221 0.02147132883569125
-0.06782668408010256 0.015867941944321444 0.019923836097371972
-0.06784307923033639 0.015903877197197578 0.01837089394401048
-0.06785872750630706 0.01594001711960976 0.016810108369945176
-0.06787609331971539 0.015976238208092432 0.015243812454630079
-0.06789188831960363 0.016012708121605473 0.013668770879726677
-0.06790196783586788 0.016049639701228715 0.01208084086943001
-0.06790049140532595 0.016087334355811625 0.010474121315343643
-0.0678965157865904 0.016125334019302006 0.00885736505758955
-0.06789085587380933 0.01616359904931957 0.007231292534247646
-0.06786680381080257 0.016202990321054173 0.005579080746767495
-0.06793885240185521 0.016237615517070498 0.004015715210818838
-0.06828751463074384 0.016258116043831847 0.0027254120935779613
0.09208867022271738 0.018744073752765846 0.026249639497594845
0.09102419832984593 0.01873863188345903 0.025231125327581094
0.09003211456337235 0.01873603574170583 0.024168108295645474
0.0875209364981891 0.01867314531603306 0.024065449790294957
0.08496215731185541 0.0186081148705727 0.024004404275472013
0.08253209414230545 0.018547956336263487 0.0238728742584029
0.0800061613155017 0.01848373327618753 0.02381387117476147
0.0773483604585013 0.018413981705772037 0.023851769322134897
0.0747460275210472 0.01834617670268751 0.02386631961669694
0.07229466623095293 0.018284165006294373 0.02379456711508604
0.06988888213068889 0.01822374044766376 0.02370419656172923
0.06745572883542289 0.018161971530779874 0.023642986888933848
0.06506328947522916 0.018101600598014224 0.023566055670320885
0.06265272676701777 0.01804025439831709 0.02351234299678201
0.06022898265459348 0.017978127507714912 0.023478796961898862
0.05786916022676375 0.017918348780799648 0.023413523046211415
0.0556008322199778 0.01786205524715751 0.023297130456505055
0.053813700002737275 0.017825169838038096 0.022862329810573845
0.05322805503000416 0.01783726131166774 0.021608737597054506
0.053325873348773256 0.017877403614197745 0.019880626224156095
0.05336906705521699 0.017915466345908834 0.01818297971870564
0.05311742151710508 0.01794155506437615 0.016684207533226247
-0.035968495984811444 0.014305910344919086 0.07758702236825332
-0.038327149700213836 0.014237703249091732 0.07791045587386361
-0.04015874497826194 0.014191031792686768 0.07787237114668699
-0.04199111066527006 0.014144136963576913 0.0778436330806905
-0.04390567615783808 0.014093633191074805 0.07788277735324237
-0.045567990834440075 0.01405342652096506 0.07774935262845237
-0.04726143936678867 0.014011754666507946 0.0776461546407527
-0.04901881192316615 0.01396723733134031 0.07759753529532853
-0.050730027441136694 0.013924469697449924 0.07752351854230011
-0.05232653187076891 0.013886341336964134 0.0773730174259612
-0.053975289676121585 0.013845855565353353 0.07726857489232769
-0.05563753827943274 0.013804632115741823 0.07718195367484293
-0.05724492021566957 0.013765554774544324 0.0770620984118667
-0.058832258920914815 0.013727162494040797 0.07693464867690947
-0.06040843544927865 0.013689082747013465 0.07680613944072617
-0.06208542383661286 0.013646556255777313 0.0767618315973512
-0.0636449294236423 0.01360885657942006 0.07663572436642577
-0.06525734265140054 0.013568738523609774 0.07655769771488508
-0.06698749454419389 0.01352341255954442 0.07657867816790223
-0.0670656255588149 0.013548735745569555 0.07532187156092154
-0.06697637043206767 0.013581359587812303 0.07392905592435031
-0.0670139355518215 0.013608660944007592 0.0726296896574522
-0.06704406605344437 0.013636399664459883 0.07131908512381291
-0.06708420049593666 0.013663824364626063 0.07001098874762529
-0.06714124829722151 0.01369063356378141 0.06871102035587734
-0.06717487323842158 0.013718575267557346 0.06738692348003467
-0.06721169307239644 0.01374649817928448 0.06605988264339319
-0.06726704126965743 0.013773733307468353 0.06474236675259387
-0.06729652574541561 0.013802216829785746 0.06339830573277017
-0.0673514988716108 0.013829707083599345 0.06206951287158419
-0.0674066914178329 0.013857307062138119 0.060735416260430386
-0.06743124479386892 0.01388637529595497 0.05937036224835307
-0.06746517873955982 0.0139151566338958 0.05800731283198207
-0.06751087238218173 0.013943544053313139 0.05664835076299113
-0.06755597681278391 0.013972081902621053 0.05528317808179156
-0.06760126624994411 0.014000736806685503 0.0539124058210495
-0.06764829981424475 0.014029440180284245 0.052537327636989595
-0.0676908437380494 0.014058470265041326 0.05115258641631937
-0.0677241797519989 0.014088040046470659 0.04975401770403953
-0.06775922352165015 0.014117664299546927 0.048350910595042096
-0.0678132579991742 0.014146567728582967 0.04695829576366978
-0.06784076907737013 0.014176792738762278 0.04553655876389556
-0.06787864556868983 0.01420668521828614 0.04411774975541416
-0.06791589230277523 0.014236739708589978 0.042692246270090495
-0.06794300834651851 0.014267387518256671 0.041251550859845665
-0.06799720437288448 0.014296943890205355 0.03982873836959966
-0.06802063803606423 0.014328032453531453 0.038372177194796075
-0.06805532161710626 0.014358748308579498 0.03691933620944404
-0.06807579200970992 0.014390252366908685 0.03544721299654857
-0.06806436359522511 0.014423359888076616 0.03393942027387081
-0.06810979115523602 0.014454008077724722 0.03247688458830306
-0.06809678401732838 0.014487483859181102 0.030954050397768884
-0.06811028496563204 0.014519890048378632 0.029448776807455335
-0.06813514134724985 0.014551919564824965 0.02794727984033052
-0.06812291366595519 0.014585813488376927 0.026404301559788845
-0.06815196302156823 0.014617946720597146 0.02489304147925958
-0.06815840075133267 0.014651279983264681 0.02335358306286406
-0.06816893804353558 0.014684575784088659 0.02181096048827713
-0.06819176051090553 0.014717451208594025 0.020273014853702642
-0.0682097800154387 0.014750704008801895 0.018723451363049204
-0.06822706174877069 0.014784145894663255 0.017166077931387747
-0.0682386735057901 0.014818010363402053 0.015596042473754956
-0.06825116166475687 0.014851991491813215 0.014019601619271016
-0.06827278132087139 0.01488569968341284 0.012444820723085392
-0.06828127137592083 0.014920188298804983 0.01084982372646559
-0.06827405515875778 0.014955585271866797 0.00923180235329224
-0.06827843472917522 0.014990596679326182 0.007617679819545309
-0.06825702123866212 0.01502700474795759 0.005970114530109372
-0.06827056327832143 0.015061912369853764 0.004349841920494091
-0.0685725210933193 0.015083151187798528 0.0030139806999682772
0.09237302073742948 0.017346415042779152 0.02438844228820497
0.09164172461901338 0.017353649348267445 0.023156770999467946
0.09123332054101813 0.017372740096656483 0.021719656262945364
0.09102529842948293 0.01739926065573786 0.020151467998647143
0.09090800155553591 0.017429222206409935 0.018520098426636933
0.09093076804577555 0.017464463160941756 0.01679282446399699
0.09088877221447178 0.017497452393878114 0.015100467589314437
0.09101780034872037 0.017536899327583635 0.013290444388132872
0.09116330827094793 0.017577113783644203 0.011461851345447693
0.09156464119976376 0.017626990045121967 0.009457143466612528
0.07322865984349014 0.016979741038182436 0.019827272907521898
0.07065736801236633 0.016917773735151367 0.019847854880898796
0.06804386743806617 0.016853981260964372 0.019908997220481284
0.0650023405932681 0.016773907739830386 0.020270559682472156
0.06245484311579069 0.01671204588412181 0.020314249159598896
0.059893714496193184 0.016649422502381106 0.02037960484603807
0.05735867459376642 0.0165875290862559 0.020439711859159437
0.055010859426456504 0.01653245173490359 0.020383619377951134
0.05384013516759434 0.016521667553424584 0.019525275244130613
0.05357976915784329 0.016545338253881794 0.01803658091757493
-0.03451765446636923 0.013233687817146712 0.07791058404072687
-0.03644250007160382 0.013187419763442697 0.07792001236292226
-0.038342701889436115 0.013141902334710982 0.07792144152365355
-0.04018615529566222 0.013098366726125875 0.07789183953760542
-0.04201234052061792 0.01305531365844029 0.0778587945573509
-0.04381308984411553 0.013013059444184042 0.07781629345544167
-0.0455696607271629 0.012972329517751511 0.07775055830343058
-0.04728380189700582 0.012933065951688286 0.07766238886110025
-0.04905002007413645 0.012891629796764786 0.07762031479705286
-0.05067380820072981 0.012855531253874057 0.07748225906246572
-0.05230308371073655 0.012819070112910782 0.07735571499657101
-0.05391271214292598 0.012783220379465101 0.07722214760757101
-0.05557546227645699 0.012745153511141936 0.07713564822046143
-0.057293864793375504 0.012704756904184917 0.07709880665662672
-0.058865946303802985 0.012669910218956562 0.07696005103553158
-0.06042554034906694 0.012635406420340237 0.07681910741649009
-0.062095447719463404 0.01259642772015457 0.07676947223690148
-0.06361584821718064 0.012563165304879585 0.07661343768268866
-0.06528466852970216 0.012523912332252043 0.07657875215644461
-0.06714468093423392 0.012476941302754327 0.07670044202811618
-0.0673938907618058 0.012493531566002416 0.075577529645067
-0.06724668432425257 0.0125259170364937 0.07414071243950304
-0.06731272396042975 0.012549963548421226 0.0728648981688498
-0.06736311972165648 0.012574735880680211 0.07157159391283621
-0.06737730465704345 0.012601059755834745 0.07024420333049886
-0.06743335401249767 0.012625821578124388 0.06894468460318737
-0.06746830486659838 0.0126515356624066 0.0676229034796833
-0.06751102740153903 0.012677048170758013 0.06630189551467375
-0.06755774415196303 0.012702509902483214 0.06497865525014906
-0.06760005450793533 0.012728259518898099 0.06364633451268625
-0.0676540443592129 0.012753648369356852 0.062318054764296305
-0.0676997957810877 0.012779481343874508 0.06097748329486735
-0.06772802109567072 0.012806138573949917 0.05961676458065396
-0.06775867938122504 0.012832813016226982 0.05825228948699246
-0.06780570174035272 0.01285893647841083 0.056895741980250936
-0.0678583378188497 0.012884944850798581 0.055538233837251816
-0.06790963528148425 0.012911122233959136 0.0541739071043999
-0.06795958671239899 0.012937470047666549 0.05280269993873282
-0.0680003951767078 0.012964310291660753 0.051417874200838154
-0.06804761702465051 0.01299100461411258 0.05003266972568843
-0.06807157377358902 0.01301877883350608 0.04862143083386361
-0.06810895505361275 0.013046120173451227 0.047215743315973224
-0.06815355997653527 0.013073283205358402 0.045810323733532055
-0.06819441771458873 0.013100723258762435 0.04439557886686413
-0.0682275648861223 0.013128607484283383 0.0429679108042344
-0.06825927373110796 0.013156676694016559 0.04153274777405236
-0.0683180265460061 0.013183738939252608 0.04011548487046884
-0.06833340990768544 0.013212743852970587 0.038653195493002224
-0.0683639607956893 0.013241241257597711 0.03719809556806003
-0.06837473443521813 0.013270701558607602 0.03571862922564295
-0.06838954692930471 0.0133001245447164 0.034236207217748726
-0.06842522094081316 0.013328797221877351 0.03276627617214667
-0.06842818752990754 0.013358989233169529 0.03125968706089599
-0.06843116758922702 0.013389318335159285 0.02974625708860018
-0.06845268013657058 0.013418995478163382 0.02824319753584914
-0.06845653641818328 0.013449563468299522 0.02671683071622627
-0.06847335025456286 0.013479716511921055 0.02519567903312997
-0.06849023965143974 0.01351000506164861 0.02366769137866087
-0.06850720511931141 0.013540430032974515 0.022132821568332406
-0.06853564356767505 0.01357050058056752 0.02060192312592901
-0.06855931411515875 0.013600916679634631 0.01905950420250241
-0.06857573304471565 0.013631788410800354 0.017503044615438
-0.06858894909540114 0.01366294302736842 0.01593631914183047
-0.06860961674310118 0.013693918464479366 0.014369633320552133
-0.06863696233838174 0.013724747239428629 0.012802290337374789
-0.06863473679399068 0.013757014513904528 0.01119857581447492
-0.06865317130606524 0.013788527238584865 0.009607803468460852
-0.06865926072254569 0.013820731129334783 0.00799733500380534
-0.0686554110598584 0.013853525052315423 0.00636933780386667
-0.06862572897715458 0.013887615241160793 0.004707594272798099
-0.06885451124374903 0.01391042309334414 0.0032994952949356726
-0.030571610750965927 0.012218530037807178 0.07785314548459119
-0.03270525813965175 0.012169214463024203 0.07798863832200431
-0.034603839873194375 0.012127880524366376 0.07797079760371534
-0.036477366301816194 0.0120872520057668 0.07794450604585884
-0.038353069235959436 0.012046381462201605 0.0779287647394741
-0.040219555694987086 0.012005666413757037 0.0779155624307552
-0.04200554725455491 0.01196760925585544 0.07785394309024599
-0.043808880174104226 0.011928785861210005 0.07781327059753149
-0.0455838541477106 0.011890801903926539 0.07776080605873578
-0.04729291170350425 0.011854988777947443 0.07766900218278538
-0.04906151634393369 0.011816920527796296 0.07762870617204715
-0.050664028999642785 0.011784583728540602 0.0774750820755992
-0.05226183922442568 0.011752279732086432 0.07732528063365549
-0.05388141444983524 0.011719066369635326 0.07719892734248304
-0.05549504682612405 0.01168592654883095 0.07707566249669606
-0.057240972431430615 0.011647918265219133 0.07705913758889313
-0.05883225892097654 0.011615291341109233 0.07693464867695599
-0.06041621062862895 0.011582790857996246 0.07681203414567173
-0.06200289577699725 0.011550055365638261 0.07669892512031964
-0.0636640589085734 0.011514496620567359 0.07665038444530783
-0.06532564853629391 0.011478772312612552 0.07661032703006337
-0.06733925491319204 0.011430151119743756 0.07685116804688344
-0.06777625586834601 0.011438530023498884 0.07587532158186525
-0.06752783278944058 0.011471867620384477 0.07436085245488014
-0.06758152806501633 0.011494338304239318 0.07307650280770397
-0.06762712034793839 0.011517200781752956 0.07178053204796994
-0.06766986548105869 0.011540265229725632 0.07047698559561655
-0.06772188561819509 0.011563088387837215 0.06917548981152338
-0.06776271185828187 0.01158642097478011 0.06785966787425685
-0.06779913431066065 0.011610016192519555 0.06653483097687751
-0.06784638644693891 0.011633313464620123 0.06521326886550027
-0.06789765017633653 0.011656563062473953 0.06388951505982493
-0.06793686736689625 0.011680359958653358 0.0625503945892571
-0.06799772629994649 0.011703456166254133 0.06122353612181114
-0.06802347107711004 0.01172796023435188 0.0598620657184567
-0.06806472772510397 0.011751992365723475 0.05850773935289233
-0.06810846868631137 0.011776036625374861 0.05714979362480699
-0.06815702751333252 0.011800005639896942 0.055790192668404626
-0.06820655894641225 0.011824043336527007 0.05442570255560969
-0.06825474061297548 0.0118482375854583 0.05305431884858386
-0.06830778458083386 0.01187235507663001 0.05168130910638591
-0.06835014001883377 0.011896983240269679 0.05029330339735327
-0.06838486672104477 0.011922009529058324 0.048892767522215
-0.06841895776969664 0.011947171028641932 0.04748564603994432
-0.0684602455629516 0.011972170541535078 0.046078745130949006
-0.06850170650838222 0.011997274897012414 0.044665943981859135
-0.06851816581292852 0.012023447226638635 0.0432249381251798
-0.06856781010157192 0.012048465256620013 0.04180707269079159
-0.06862398001549375 0.012073344973977586 0.04038894192597947
-0.06863210560328475 0.012100185723206725 0.03892156667236607
-0.06867913367171052 0.012125646830486008 0.03748275608710422
-0.06870331370140642 0.012152106325793386 0.0360169533769768
-0.06871565247779954 0.012179144486437086 0.034533835844361316
-0.06873922127915238 0.012205869228520263 0.033054356307233246
-0.06876289374223588 0.012232711512927189 0.03156836963661108
-0.06876743138482755 0.012260422719016872 0.030057996775010587
-0.06878163121221958 0.012287882741804248 0.028549750459517687
-0.06880153113985887 0.012315245141371571 0.02704001283920965
-0.06880941556423892 0.01234320516656262 0.025512138347065394
-0.06883836331894494 0.01237046451859112 0.02399721434553964
-0.0688560930833696 0.012398292304177664 0.02246478842225247
-0.06887633952188182 0.012426149185587328 0.020927783081651607
-0.06890074715487993 0.012453970164765881 0.01938776843358403
-0.06891629077461037 0.01248227260104194 0.01783217009925303
-0.06893926359477132 0.012510410872332569 0.01627663360895204
-0.0689656176558398 0.012538545442314286 0.014717268526947047
-0.06899865940068939 0.01256654396832546 0.013157321772666541
-0.06898905533841804 0.012596384340823212 0.01154816965271871
-0.069029725689146 0.012624343602778074 0.009981263868302837
-0.06901519069443762 0.01265465935772337 0.008352170706763362
-0.06900970265216294 0.01268475277737778 0.00672437059290687
-0.06900086529972788 0.012715124223974859 0.005085462693865228
-0.06911685778567489 0.01274057322928879 0.0035651207664100237
-0.06953808396039496 0.01275372517218727 0.0023488554475756818
-0.026557174939252692 0.011188939643735293 0.07778738481606448
-0.028847333158525057 0.0111395301216784 0.07800979517232237
-0.0308196415083149 0.01109993769792169 0.07802453283919289
-0.032762905559410804 0.011061101747976492 0.07802869256463316
-0.03467416371155746 0.011023120604761863 0.07801992945824673
-0.036556660847839484 0.010985896604718612 0.07800021081970634
-0.03834874958410006 0.010951393124067243 0.0779257134531334
-0.040239250315822206 0.010913615151758213 0.07792955068823537
-0.04197752217072542 0.010880538877906078 0.07783392874500314
-0.043743195789802125 0.010846450654659426 0.07776610429705508
-0.04552790845163501 0.01081161213003279 0.0777204128496545
-0.04727717627277256 0.010777767649220176 0.07765757894725334
-0.049013883787333845 0.010744187241843173 0.07759393814281548
-0.05067543801170671 0.010712890176116796 0.07748345518593963
-0.052218966405489675 0.010685275500410943 0.07729364472186653
-0.05384850532776547 0.010654761908844604 0.07717451153215299
-0.05546159510934179 0.010624654619338193 0.0770507092640266
-0.05713829644566559 0.01059235392919111 0.07698213099504567
-0.05875153740755745 0.01056198498603704 0.07687377969110454
-0.06041076804250145 0.010529987516069289 0.07680790788209413
-0.06205457719245022 0.010498359912463088 0.07673831894333324
-0.06370690064020301 0.010466319960740217 0.07668321665001149
-0.06534613457582789 0.010434574660471778 0.07662611141281564
-0.06695287748968942 0.010403764503623694 0.07655186219366533
-0.06816967095607751 0.010385686517161794 0.07618171941717322
-0.06784831819119003 0.010418376610598048 0.07461179339891866
-0.06786569000780857 0.010439985210670664 0.07330019725378814
-0.06791633248031131 0.010460581543216897 0.07200942333677895
-0.06796188447738377 0.010481435313358217 0.07070933674396579
-0.0680083756817138 0.010502347150651474 0.06940466192816824
-0.06805657000755355 0.0105232919061364 0.06809599088549029
-0.06809127608484672 0.010544778442379499 0.06677102864185736
-0.06813450102345348 0.010566071815463198 0.06544745354185588
-0.06820002478832932 0.0105867073859741 0.06413660072468119
-0.06824211385616374 0.010608222118071558 0.06280115536175307
-0.06827212200617516 0.010630238279738614 0.061450152178056106
-0.06832450567925696 0.01065159289449845 0.060112003559254334
-0.06836787643989312 0.010673346357830757 0.05876076898069271
-0.06840911427941893 0.010695267399179883 0.05740206524288488
-0.06846055277407942 0.01071693692158111 0.05604623052754648
-0.06850678886893513 0.01073887919403223 0.05468030175984173
-0.06855089109965451 0.010760991013170483 0.05330678734879507
-0.06860138337888555 0.01078298117487593 0.05193292536444655
-0.06865441479229634 0.010804981230700682 0.05055544628542247
-0.06868974729160382 0.010827688378543782 0.04915681842099834
-0.06872444806484429 0.010850518114316116 0.047751620041232734
-0.06877493687770908 0.010872903134804202 0.046354173407345045
-0.06880839602646455 0.01089597848423174 0.04493578182983421
-0.06883257493505429 0.010919479462373982 0.04350302304124981
-0.06888439652795086 0.010942122820119235 0.042088555048695075
-0.06892224453188911 0.010965355624704088 0.040655526699649
-0.06894682484822423 0.0109891571544821 0.039204334640493055
-0.06898101121593908 0.011012729124037514 0.03775540841528896
-0.06900979217751374 0.011036597585331038 0.03629521174777256
-0.06904426209711662 0.011060373735768242 0.03483374987569393
-0.06905976462074964 0.011084927477372991 0.03334843933159193
-0.06908331883419 0.011109307996055773 0.031863881458815024
-0.06910857677878962 0.011133739253439284 0.030374262039144007
-0.06911470552818405 0.011158962178012443 0.028860145873657483
-0.0691457699560259 0.011183412178477044 0.027362486849483836
-0.06915925762626052 0.011208602126442826 0.02584157067984566
-0.06918894482625776 0.011233328143030945 0.02432906382664629
-0.06921714609221302 0.011258221510824503 0.022808330314755654
-0.06923007563295647 0.011283779119146716 0.021266115345563108
-0.06926255603381898 0.011308750484137094 0.019735622623502036
-0.06927401940859751 0.01133459709396048 0.018177890073871994
-0.06929695578230405 0.0113601485801431 0.016624115161707143
-0.06931509071291553 0.011385993557645534 0.015058529276509247
-0.06934150157287616 0.011411658332528885 0.013493845790012504
-0.06934832454502626 0.011438157695213724 0.011902648137901928
-0.06935188692757277 0.011464900752373249 0.010300778048252357
-0.06935711603053635 0.011491708704455032 0.008693044829694963
-0.06935988884420524 0.011518733421772231 0.007075289392970419
-0.06934609621355714 0.01154649580449319 0.0054332079066384265
-0.06940867115089505 0.01157157210061683 0.003860581351291914
-0.06981153765465847 0.011584181852156856 0.0026271598777471428
-0.02481605024097372 0.010098856343971773 0.07794999512825157
-0.02692741854071795 0.01005958639298301 0.07804040744634677
-0.02891414314569557 0.01002368592889627 0.07805570606005832
-0.03087332059163389 0.009988421363938264 0.07806162467484187
-0.032781526055665366 0.009954462345614522 0.07804163034880404
-0.03462406088476844 0.009922235452071257 0.07798492504360288
-0.036475623157008974 0.009889619568126885 0.0779432814788219
-0.03833578997875986 0.009856624403455035 0.07791655913513687
-0.04019043776198977 0.009823652332924605 0.07789488119259039
-0.0419121123917372 0.009794363114258763 0.07778721581072995
-0.04372550718601925 0.009762314529326795 0.0777534025566049
-0.04550869893526244 0.009731004755273276 0.07770654343581901
-0.04729539611044742 0.009699464496006751 0.07767080575373
-0.04892022156544018 0.009672480102698014 0.07752557206924832
-0.05053358463783858 0.009645716419227648 0.07737934854244549
-0.05218660220090415 0.009617688806893255 0.07726976313099387
-0.05387098056265621 0.009588630983271342 0.07719118627270222
-0.05545203622089245 0.00956246820162653 0.07704357883275187
-0.05707191753498436 0.009535060325909808 0.07693234706770588
-0.05875545685596628 0.009505671591323869 0.07687673519626836
-0.06044419817128238 0.009476006725684855 0.07683325273094921
-0.06205997578325123 0.009448364999544656 0.0767424339840819
-0.06373978916905554 0.009418717764799007 0.0767084211146915
-0.06538254767892548 0.009390040752931424 0.07665416751197218
-0.06698674208024219 0.009362384832571988 0.07657809527446338
-0.06841720549595048 0.00933976923658821 0.07637450319579839
-0.06815690237518585 0.009367358457075035 0.07485341565698278
-0.06814934044186471 0.009387530016623031 0.07352348903629868
-0.06820877989264035 0.00940578584027527 0.07224087512466779
-0.06826090724390643 0.009424338674641031 0.0709472605915869
-0.06830417130235467 0.009443236973367559 0.06964127784302399
-0.06834836643375658 0.009462188447336893 0.06833065584298209
-0.06838515286458324 0.009481444755164657 0.06700862906500443
-0.0684228494463367 0.009500756643818779 0.06568182829271874
-0.06848811427924029 0.009519317671147911 0.06437201329100317
-0.06853761551415138 0.009538437228966239 0.06304391073040166
-0.06857432290562798 0.009558028685530772 0.06169973179782828
-0.06861654200676193 0.00957753749063183 0.060354470467079924
-0.06868118251131033 0.009596446871390657 0.05902227666576887
-0.0687161043558916 0.009616348148850557 0.057659660514863154
-0.06876426350797932 0.009635930702771129 0.056302424842032184
-0.06881184765141418 0.00965561688409364 0.05493899590535034
-0.06885498847154053 0.009675526510569965 0.05356603057428888
-0.06889675850839744 0.009695566225134494 0.05218606395120218
-0.06895189402921093 0.00971528104629973 0.05081173459160704
-0.0689878175969591 0.009735678780013619 0.049414971086763015
-0.06903401977991519 0.009755847678662615 0.04802114751575792
-0.06909446236628142 0.009775662845950352 0.04663383271300442
-0.06912230863899416 0.009796583655725779 0.04521197484858119
-0.06917064792688066 0.009816956937867391 0.043802037901003066
-0.06919799065057891 0.009838079672020638 0.042367376898613474
-0.06922623808023926 0.009859268779606625 0.040927232004266956
-0.06927037491367061 0.009880052839974398 0.03949503689675715
-0.06929257982321746 0.009901622793177904 0.03803681360023192
-0.06930142291672758 0.00992371287340728 0.03655998954032197
-0.06936901258022898 0.009944040494369475 0.03513014176698992
-0.06938919371213764 0.009965966828830884 0.03365067460194371
-0.0694118537980663 0.009987913961438787 0.03216687260486023
-0.06943700873239794 0.010009881527079606 0.030678741068895565
-0.06946387448195118 0.010031894749953127 0.02918554004791396
-0.06947482484519274 0.01005451916287548 0.027670736950072328
-0.06949546660139194 0.010076935957734139 0.026158165277817003
-0.06953552441144195 0.010098830425971412 0.024657125213532027
-0.06956688207571515 0.010121106793235314 0.023141104059069995
-0.06957169539877905 0.010144345207723398 0.02159285888445861
-0.0696267733648891 0.010166060792015534 0.020085792373412514
-0.06963824281466557 0.01018929510782948 0.0185298867963542
-0.06965057869398211 0.010212609345992218 0.016967643599628157
-0.06966541828095729 0.010235950583402278 0.015400624456786083
-0.06968359595042539 0.01025929169047868 0.0138296357936461
-0.06969775997840028 0.010282873939684103 0.012247423979564465
-0.06971281047745231 0.010306537837945865 0.010658736046636641
-0.06971311466689062 0.010330799424696007 0.009047948986013743
-0.06971342029188804 0.010355175504495684 0.00742956044712606
-0.06968891456783022 0.010380488918331881 0.005778522989308643
-0.06975465101189893 0.010402925661720352 0.004210885430107614
-0.07007207928600206 0.010417091084439778 0.002892323200708591
-0.02072540227393449 0.009042857506933982 0.07788931446289268
-0.02297683701039177 0.009004720939561601 0.07805399735241195
-0.025024759853230716 0.008971530864982407 0.07809183820703439
-0.026972051106665507 0.008940733808436338 0.07807090911926592
-0.028925877432513847 0.008909647793903708 0.0780637696976609
-0.030833957530670697 0.008879589213889101 0.07803442510104863
-0.03273098010210501 0.00884968795676378 0.07800651030533504
-0.03459856444081688 0.008820410293555785 0.07796711191501865
-0.03647126521808086 0.00879088349634547 0.07794022000719988
-0.038298633708257424 0.008762388374284861 0.07789031294115048
-0.04008762903601171 0.008734754008251877 0.07782186049611542
-0.041884921726176194 0.008706794529163786 0.07776779737218995
-0.04371708339309466 0.008677828355931796 0.07774735364326801
-0.04551955675672925 0.008649503740904821 0.07771438286375432
-0.047239902262937894 0.008623171347192007 0.07763051964390008
-0.048892277048160016 0.008598479213762677 0.07750517476406432
-0.050407935196750464 0.00857721030496267 0.07728713401689774
-0.0521995486426734 0.008548722170837242 0.07727931632810003
-0.05380916628036442 0.008524828194524372 0.07714532525614498
-0.055379529822494 0.008501853170787313 0.07698949284843493
-0.05707745014370924 0.008475465315460468 0.07693649650293963
-0.058787592759189766 0.008448648487100264 0.07690096764380042
-0.060416988126014926 0.008423827594809667 0.0768126236005871
-0.06203529502852828 0.00839919248200728 0.07672362123921264
-0.06377267092376371 0.008371331346459255 0.07673362038793585
-0.06543411862118381 0.008345347748004014 0.07669390264428758
-0.06697545468974225 0.008322417080516186 0.07656935153883418
-0.06858823284520771 0.008297503909897311 0.07650770197547163
-0.0685097931537737 0.008317208735288604 0.07512973009950627
-0.06843923384160716 0.008336788637908963 0.07375169532895576
-0.06849918169443303 0.008352986141370481 0.07247070795408408
-0.06855785701552986 0.008369286786900043 0.07118353501656283
-0.0686099729488146 0.008385832245748206 0.06988589788230903
-0.06865322668072671 0.008402685646502 0.06857582682683233
-0.06867999618604859 0.008420053143015787 0.06724701094058189
-0.06873115455157802 0.00843684086317166 0.0659324241916252
-0.06878631737227897 0.008453593429852208 0.06461569019568797
-0.06882799427953212 0.008470782160837955 0.0632824576296569
-0.06888433535291705 0.008487649313545727 0.06195576276550291
-0.06891950193869045 0.008505163215550365 0.06060600683763129
