# .PCD v0.7 - Point Cloud Data file format
VERSION 0.7
FIELDS x y z
SIZE 4 4 4
TYPE F F F
COUNT 1 1 1
WIDTH 775
HEIGHT 1
VIEWPOINT 0 0 0 1 0 0 0
POINTS 775
DATA ascii
-0.03564661557779807 0.15058058816652922 0.05237603826632947
-0.035602523349460756 0.15145489296910317 0.05200948364837166
-0.0355626217744441 0.15230055636450734 0.05161287050207036
-0.03552310576282542 0.1531424093728547 0.05121489237336807
-0.03548582047704413 0.15396856090235864 0.05080145649210527
-0.03545119468787238 0.15477636068877942 0.05036915345073284
-0.03541958118381363 0.1555636746812198 0.04991512253174424
-0.03539177262494822 0.1563255745532058 0.0494330951949567
-0.0353657692586171 0.15707502460866968 0.04893825320437406
-0.035341929737004764 0.15780982863347273 0.048427720106420435
-0.035320831102841656 0.15852642598761063 0.0478969002215362
-0.03530597464145359 0.15920275604666848 0.0473184520254894
-0.035293542890478154 0.1598632650680274 0.04672171712585371
-0.0352836038020077 0.16050764440460893 0.046106022470414065
-0.03527629923336943 0.1611351250265159 0.04547011159654446
-0.03527279414214852 0.16173852883498838 0.044804694320934535
-0.035270384812504316 0.16233496089978733 0.044130800875127885
-0.03526885179334748 0.16292584489400055 0.04345009612238654
-0.035272502237097554 0.16348441618772197 0.04272850035958181
-0.03527666465741057 0.16403992967847397 0.04200270633680103
-0.035284334801343825 0.1645738637329285 0.041248898711599535
-0.03529412819710333 0.16509494036624298 0.04047789019716247
-0.03531029183928051 0.16557711102116496 0.03965566920046465
-0.035329693102002936 0.16603993016024027 0.03880691688278887
-0.035357037424761914 0.1664547362712261 0.03789371323497004
-0.03539405253807325 0.16681136794081056 0.036901702948492154
-0.03544035683409761 0.1671126281758165 0.035833390962667966
-0.035490034570997905 0.16739491867664008 0.03473601218495781
-0.035548749169287554 0.16762409022640223 0.03356351233723254
-0.03561904666413121 0.16778520458294036 0.03229469420231079
-0.03570398098872999 0.16786043062313957 0.030904028231280967
-0.035805415104168466 0.16783929605711667 0.029375458155701584
-0.03590720020387127 0.1678194015546696 0.027840033890954685
-0.03601207708250948 0.16778438320624586 0.02627527395641316
-0.03613166018508201 0.16766516774771387 0.02458558771395708
-0.036268012450712206 0.16745022049704059 0.022753121760646866
-0.03650178955914103 0.16666229335673236 0.020111162307627384
-0.04803558919437384 -0.028126554608148557 0.0939727872695865
-0.047892500060619125 -0.02613219932913058 0.0937330385143639
-0.047750391334789866 -0.024150802911391323 0.09349409117069002
-0.0476091234574514 -0.022181130292863782 0.09325655766341973
-0.04746856005596505 -0.02022198245397233 0.09302104577649842
-0.04732895239784627 -0.01827545590749602 0.09278630136653981
-0.04719016352031494 -0.016340345483541685 0.09255293370156559
-0.047052059562226474 -0.014415481014834364 0.09232154744128299
-0.046914887521168284 -0.012502911845069187 0.09209089599959472
-0.04677851295831282 -0.010601461793991795 0.09186158549789092
-0.046642804454325545 -0.008709988682322534 0.09163421748233111
-0.046508004843628714 -0.006830495957765859 0.09140755284682
-0.04637398214135925 -0.004961835562107997 0.09118219457742299
-0.04624060730289225 -0.00310289247299933 0.09095874111846844
-0.04610811910275911 -0.0012556254721920457 0.09073596076736862
-0.045976387942662726 0.0005810862107912262 0.09051445338717293
-0.04584528708804937 0.002408331240786876 0.09029481433304395
-0.04571505135348553 0.0042241943132500515 0.09007581923020194
-0.045585434557348016 0.0060307530581495405 0.08985866876812701
-0.045456668927754136 0.007826120518133584 0.089642143417691
-0.04532862870112778 0.009611373750660734 0.08942683786567518
-0.04520119085594955 0.011387559184621143 0.08921334234805384
-0.045074583819841654 0.013152831445804314 0.0890004445390915
-0.044948684047827044 0.01490824237773436 0.08878873603967233
-0.04482337066728353 0.016654814039882393 0.08857880403441387
-0.044698868396967 0.01839074155461301 0.08836944332741967
-0.04457505585162028 0.020117052276543035 0.08816124244898119
-0.04445181425099012 0.021834744591144817 0.08795478554783775
-0.04432936469370444 0.023542053066337 0.08774887448518567
-0.04420758789743128 0.02523998126618504 0.08754409473668245
-0.04408636711974394 0.026929504572181184 0.08734102743128
-0.04396591992510225 0.028608895980919424 0.08713848141532884
-0.04384612907929675 0.030279135938806545 0.08693703912640668
-0.043815239749906074 0.031231739225541788 0.08626310245204516
-0.044021514574627725 0.030282979554674017 0.08431308510794819
-0.045752871673089564 0.017145041136505612 0.07411252486705308
-0.04576653070700589 0.017771266713496214 0.07316222208008291
-0.04581344065204117 0.01813309839875399 0.07203041068763111
-0.04587115994704989 0.01841051842478153 0.07083776000253517
-0.045938441693841606 0.018613938972083244 0.06959048364453985
-0.04600798003632777 0.018801657638642444 0.068328217899146
-0.0460493188595648 0.01921439875361869 0.06721893949155777
-0.05110836179741156 -0.019932776319276535 0.038316131296861566
-0.05128548817522838 -0.02050515702635486 0.036352893990484525
-0.05149250514488083 -0.021306551677659546 0.03421617013852135
-0.051685298309817926 -0.02198983344499711 0.03215111677123661
-0.05186183587562562 -0.022539799305509367 0.030169960395498185
-0.052027654506957406 -0.023000440966499613 0.02824243843004648
-0.05218612060151505 -0.02339849239320496 0.02635013416425419
-0.05233473898404209 -0.02371491593233299 0.024507624744202094
-0.05247459337428565 -0.023958591419268205 0.022709307435900827
-0.05261076226607776 -0.0241692474002414 0.02092668178350454
-0.05273633866810769 -0.02429371447133699 0.019199538584944498
-0.05285979785788821 -0.024397827040600284 0.0174797583169653
-0.052977090748428726 -0.02445054364304039 0.015790820146678042
-0.050196615189831255 -0.002257884118548381 0.030868925456040808
-0.04578043902616643 0.03237382574074599 0.05555186771208365
-0.045740539167151276 0.033414469656060264 0.05490758020786285
-0.04570214292325241 0.03444236281281721 0.05425603203571078
-0.04566404971679727 0.03546671547197139 0.05360417741128476
-0.045625900843622065 0.03649026662849414 0.05295410935912975
-0.04558781565841963 0.03751210900864271 0.05230512656866143
-0.045549794001836626 0.03853224688794332 0.051657226324444805
-0.045511835715050054 0.03955068452767718 0.05101040592010175
-0.04547394063976671 0.04056742617492626 0.05036466265826295
-0.045436108618219506 0.04158247606264415 0.04971999385053921
-0.04539833949316599 0.042595838409709486 0.049076396817480106
-0.0453606331078867 0.04360751742097996 0.04843386888853357
-0.045322989306181574 0.04461751728736113 0.047792407402017456
-0.0452854079323695 0.04562584218585258 0.04715200970507272
-0.045247888831284645 0.04663249627961541 0.04651267315363572
-0.045210431848274946 0.047637483718025564 0.04587439511239827
-0.045173036829200694 0.04864080863672593 0.045237172954767146
-0.04513570362043085 0.04964247515769393 0.04460100406283746
-0.04509843206884268 0.05064248738928567 0.043965885827346174
-0.04506122202181824 0.05164084942630259 0.043331815647645544
-0.04502407332724276 0.052637565350043436 0.042698790931664066
-0.044986985833503364 0.05363263922835437 0.0420668090958668
-0.04494995938948549 0.05462607511569589 0.0414358675652296
-0.044912993844572466 0.05561787705318505 0.040805963773193565
-0.044876204281867484 0.056607210898715454 0.040176373050345715
-0.04483935989614987 0.05759576023126389 0.039548536051586536
-0.04480257596111334 0.05858268764839608 0.038921729146546846
-0.044765852328107106 0.05956799713846378 0.03829594980219053
-0.04474338884353121 0.06044931917772578 0.03758112316318357
-0.04482348965502781 0.06059213997344903 0.03621461462868786
-0.04491068597557009 0.06068660881420157 0.034799758587355845
-0.04499833806927437 0.060780616211500604 0.03337864552354797
-0.04508621665796979 0.06087582235901173 0.031952721155253994
-0.045174555930233604 0.06097056863247158 0.030520464557477367
-0.045263124826142385 0.06106652076698588 0.02908334145456698
-0.045352159389816134 0.061162014647174245 0.02763980975314223
-0.045441426758793056 0.0612587215857916 0.02619135545119322
-0.045531164854938966 0.06135497194130829 0.024736414997103773
-0.04562113899214397 0.061452442640685556 0.023276494934210912
-0.04571158899257891 0.0615494584809006 0.02181000995786264
-0.04580227832504643 0.06164770204002573 0.020338487432958186
-0.04589332821835021 0.06174633619405345 0.018861114458050332
-0.04598474082703946 0.061845363277000076 0.01737785607348752
-0.046076518322863136 0.06194478564152012 0.015888677040529153
-0.04616866289494281 0.062044605659085816 0.014393541838549184
-0.04626129920623932 0.06214397633650648 0.012891598038761443
-0.0463541850607991 0.062244597412255576 0.011384437157960225
-0.04644744466793901 0.06234562336556859 0.009871211787741918
-0.04654108028805565 0.062447056645083765 0.008351885251028424
-0.040531693087597624 0.10449110725346528 0.04799567799419846
-0.04003467210513245 0.1085499506994016 0.050581524585573134
-0.0397093801534707 0.11141822781751987 0.052021467150331346
-0.03944258147408841 0.11387690787981097 0.05307595395493758
-0.03920711909804524 0.11611368624440732 0.053926886550117625
-0.039004635025146936 0.11811892181489919 0.054561231552462564
-0.0388207813915477 0.11999141871304408 0.055075523526535886
-0.038654548652313325 0.12173889906681845 0.055475637109846765
-0.03850482825270237 0.12336968777282975 0.05576820729535342
-0.03836729421022904 0.12491368311404621 0.055982211060075504
-0.03823818386481691 0.12639672471067936 0.05614304911069229
-0.038116589044646106 0.12782529902963458 0.05625655468445834
-0.038001300575957596 0.1292078445847612 0.05633073011058404
-0.03789673034895087 0.13051526882532455 0.05633435515145169
-0.037794450381653036 0.1318041089636569 0.056325922928882
-0.03769394047621477 0.1330779247882904 0.05630896018466097
-0.037594448963175216 0.1343417737942225 0.05628866578199454
-0.03750014772244177 0.13556817586314357 0.05623548240450632
-0.03740791973096555 0.13677789959586806 0.05617121160236083
-0.03732347612119324 0.13793354212960773 0.0560551328556837
-0.03724052384104188 0.13907670167006478 0.05593165781441717
-0.03715936159885333 0.1402054982103497 0.055798565787458954
-0.03708106987028505 0.14131297506693638 0.05564801057034663
-0.03700702512595156 0.14239032034906887 0.055469936236724526
-0.03694006724508796 0.1434193185845429 0.05524363766800483
-0.03687731937906184 0.144418925203706 0.0549894902719576
-0.036815792522794225 0.14540863458848252 0.05472890221031301
-0.03675709894112243 0.1463781257479939 0.054450094455736675
-0.036700364738239365 0.14733314742065776 0.05415926752466377
-0.036646187379627694 0.14826996675111273 0.05385194693996992
-0.03659224635633472 0.14920353470434364 0.053544971535922914
-0.036540297392176804 0.15012267207780866 0.05322544250847583
-0.03648940993956713 0.15103339105822802 0.05290009250035005
-0.036440563502465995 0.15192953115879243 0.05256163444487921
-0.036396470834550256 0.15279403106138806 0.052189886371295846
-0.03635808119835145 0.15362113056869012 0.05177753582117883
-0.03631856481896365 0.1544540873341664 0.051375032721504454
-0.036284783472802846 0.1552497731906542 0.05093129488877374
-0.03625106491115003 0.15604398022075275 0.0504883817674901
-0.03622093690018572 0.1568146797696444 0.05001985905222417
-0.036194456656341474 0.15756168852477878 0.04952509068167038
-0.03617026076228094 0.15829365336579046 0.049014134284539046
-0.036147069102461835 0.15901861731118788 0.04849652303444585
-0.03612517656820144 0.15973480606786158 0.04796996726270625
-0.03611248658985293 0.16039355862046276 0.04737442152261939
-0.03610219187750469 0.16103717530330758 0.046761140816292235
-0.03609339381417113 0.16167128256870647 0.04613684060445167
-0.036087207930074965 0.16228912924527708 0.045492906224915974
-0.036084153061477074 0.1628876760543664 0.04482521095227093
-0.03608191813361114 0.1634811357306297 0.04415133250943931
-0.036081769197598784 0.1640618648286239 0.043461471582058986
-0.0360866120186988 0.16461237710170765 0.04273306999086324
-0.03609138160596157 0.16516348708112807 0.042005049825328156
-0.036100029654203954 0.1656914010625104 0.0412467489295702
-0.03610995018241601 0.16621195279172848 0.040478217592177956
-0.03612719349968614 0.16668897371985858 0.039652198711050024
-0.03615006065173059 0.1671329630892798 0.038781553584310124
-0.03617602674717435 0.16755923018956606 0.03788574645304571
-0.03621290721124401 0.16792150159564273 0.03690320080624049
-0.0362573834926498 0.1682399620049473 0.03585942387623642
-0.036308606113171014 0.1685199961166962 0.0347606853486494
-0.03637124861297514 0.16873439412504088 0.033569613491324535
-0.03644193279681996 0.16890355555830827 0.03231235029075369
-0.03653235528359457 0.16895933119133846 0.0308954243441798
-0.03662821682712423 0.1689862299344807 0.029431680465822174
-0.036732533223014494 0.1689669397246143 0.027896709595202684
-0.03683604790268272 0.16895566122580777 0.026364164339606144
-0.036951629082876525 0.16887778099952186 0.024730779283947513
-0.03708429843161637 0.16870485953653733 0.02295544892634427
-0.03729050823243617 0.16811237876894636 0.020581806483387755
-0.04946898755191961 -0.030068116859226612 0.09289884031349463
-0.04932107059200275 -0.028059692893699195 0.0926605471669186
-0.049174035567492815 -0.026063243891606303 0.09242367481169936
-0.04902774042802256 -0.024077548862486753 0.0921888379002068
-0.048882446569120656 -0.02210473939733615 0.0919547680500877
-0.04873801132431376 -0.020143588250065958 0.09172208143563812
-0.04859429528102487 -0.01819290398692458 0.09149138949910546
-0.048451555361224405 -0.01625477001193898 0.09126143161399428
-0.048309651549270735 -0.014327988775607536 0.09103282072115432
-0.04816844699657749 -0.012411397508574562 0.0908061650646044
-0.048028194264175116 -0.010507032736609578 0.09058021169244115
-0.04788875591313697 -0.008613725711152265 0.0903555703246118
-0.047749997587824534 -0.00673034146950513 0.0901328460198369
-0.04761216759724404 -0.004858870923367953 0.08991079342042727
-0.04747513100783067 -0.0029981732641094494 0.08969001903897822
-0.04733875588848018 -0.001147140510887934 0.08947112476278446
-0.04720328640153592 0.000692280817185531 0.08925287274888777
-0.047068590050077456 0.002521204416831735 0.08903586631699767
-0.04693453726162883 0.004340712080460052 0.08882070419771465
-0.04680136815381919 0.006148900501037335 0.08860615598422547
-0.046668831015793874 0.007947834226515571 0.0883934288452892
-0.04653716332331837 0.009735638124697132 0.08818129729041999
-0.04640623649485253 0.011513382459119592 0.08797035935116795
-0.04627604429493019 0.013281151895885634 0.08776060498149446
-0.04614646168007681 0.01503997811254898 0.08755262664586128
-0.04601772097135831 0.016788040840393093 0.08734520857758318
-0.04588957903609962 0.018527310849579537 0.08713954471540189
-0.0457622656795409 0.02025599459088523 0.0869344241069086
-0.04563565679084962 0.02197511294042309 0.08673043849997772
-0.045509630919725666 0.023685657984039543 0.08652817518758227
-0.045384414173438914 0.025385875380571576 0.08632643037296137
-0.04525988458856991 0.027076762365508933 0.08612579268848675
-0.0451359227958259 0.028759288165080776 0.0859268463484392
-0.045012751292219294 0.03043173663621157 0.0857283946373078
-0.045177699734779926 0.029847958812588504 0.08402070200967754
-0.04539177464890908 0.028886079336315373 0.08204780675525489
-0.04694536254735572 0.017501333419538245 0.07297877030948133
-0.0469917904918434 0.017876566720801734 0.07185509832079456
-0.04705869947405763 0.018094430627597524 0.07062054900467118
-0.04713237094779665 0.01826205714227308 0.0693473361098712
-0.04720515387374824 0.018438856261324688 0.06807613848874544
-0.04758244905882229 0.016270845707793302 0.06516242223026353
-0.05270713915558672 -0.02240244352375248 0.03658117943018413
-0.05290858247058276 -0.023122463872068788 0.034504098989182275
-0.05309771764899864 -0.023741879219823514 0.032486460237353076
-0.053275848180867794 -0.024271233637662426 0.03052183635785871
-0.0534422602903076 -0.024705599085855068 0.02861475454869361
-0.05359816614804386 -0.025054755754680358 0.02675920822132105
-0.05374837142655685 -0.02535571111640672 0.02492927919571586
-0.0538883951260241 -0.025574757062906628 0.023150086975094686
-0.054022469797635655 -0.02574439852694349 0.021398698235048808
-0.05415164695028798 -0.025872855182200505 0.019669587590014803
-0.05427387811005232 -0.025944921605101645 0.017974481601478576
-0.05439434984435761 -0.02599992527450129 0.01628467706378367
-0.05450507339473232 -0.02597800211461565 0.014645232477570103
-0.05014027372722794 0.007561095608294044 0.038273038779911395
-0.04699388750419516 0.03185868670936476 0.05516131833663107
-0.04695434681461859 0.032890294921005814 0.054508031573745286
-0.0469149954781482 0.033919254299446366 0.05385514256035251
-0.04687571004547133 0.03494649042457526 0.05320334697503626
-0.04683649035116723 0.03597200762181019 0.05255264207326277
-0.04679733623036896 0.03699581020210002 0.051903025119671875
-0.04675824751875953 0.03801790246199688 0.051254493388047884
-0.04671922405257141 0.039038288683703015 0.0506070441612706
-0.04668026566858264 0.04005697313514206 0.04996067473128707
-0.04664137220411519 0.04107396007001379 0.049315382399069685
-0.046602543497033536 0.04208925372784811 0.04867116447457431
-0.04656377938574058 0.043102858334076066 0.048028018276712936
-0.04652507970917744 0.044114778100074026 0.047385941133304854
-0.04648644430681952 0.04512501722323542 0.04674493038105004
-0.046447873018674965 0.04613357988702216 0.04610498336548763
-0.0464093656852832 0.04714047026101803 0.0454660974409552
-0.046370922147711095 0.04814569250099815 0.04482826997056222
-0.04633254224755261 0.04914925074897225 0.044191498326142664
-0.046294225826924974 0.050151149133253525 0.04355577988822845
-0.04625597272846735 0.051151391768510024 0.042921112046009235
-0.046217782795339196 0.05214998275581628 0.042287492197293
-0.046179655871216606 0.05314692618272071 0.04165491774847979
-0.046141591800292 0.05414222612328867 0.0410233861145155
-0.04610359042727043 0.05513588663816843 0.04039289471886587
-0.046065651597368036 0.056127911774642714 0.03976344099347806
-0.046027775156310825 0.057118305566677796 0.039135022378740836
-0.04598996095033078 0.058107072034990104 0.038507636323460104
-0.045952208826165714 0.05909421518708763 0.0378812802848133
-0.04591451863105563 0.06007973901733493 0.037255951728324244
-0.045876890212741245 0.06106364750700288 0.036631648127825434
-0.04588429350989615 0.061731054637061245 0.035728392991032476
-0.04597355505580836 0.06182678865980429 0.03431370016708396
-0.046063046122229855 0.06192372156967657 0.03289423429623756
-0.04615300518154923 0.0620202055443273 0.03146848446947309
-0.04624319692372218 0.062117895528640665 0.030037907030002864
-0.046333861704342054 0.06221513828745717 0.02860097007995699
-0.0464247623835749 0.062313594265146544 0.02715915006980474
-0.046516141222675916 0.062411604779566476 0.02571089382633962
-0.04660775923066183 0.06251083581027883 0.024257698175959852
-0.046699860597267655 0.06260962319367103 0.022797988378747913
-0.046792204458667955 0.06270963848054395 0.021333281910152324
-0.046884914243385895 0.06281005008977308 0.019862771371253474
-0.04697799213075979 0.06291086038174759 0.01838642219460701
-0.04707144031746916 0.06301207173563306 0.016904199537718767
-0.04716538520248698 0.06311284423889163 0.015415262649172368
-0.04725958114465589 0.06321486351711147 0.013921181839737007
-0.04735415408496231 0.06331729110474327 0.012421121306720961
-0.047449106291220136 0.063420129457953 0.01091504507938823
-0.04754444004946896 0.06352338105264649 0.009402916897916391
-0.04149311639973293 0.10483885272180676 0.04833701497159659
-0.04099149845579839 0.10884452037263809 0.05087216631568475
-0.04064780763183556 0.1117806155991643 0.052380877370961865
-0.04037188099436163 0.114254807797941 0.053452692078055974
-0.04013093758938142 0.11648800280641647 0.05430198622057775
-0.03991240764664334 0.11856513258238532 0.055010692055012356
-0.03972608814126139 0.12042249070075983 0.055511983260615516
-0.03955424751603217 0.12217852442942972 0.0559230608971657
-0.03939999916316878 0.12381343203154144 0.05622215948522247
-0.039261916672509306 0.12533740279031702 0.05641791969045368
-0.03912744787899824 0.12683338302026398 0.056594383644793855
-0.03900153791355828 0.12826924170140946 0.05671778963990687
-0.03888673173488233 0.12962879792720478 0.056770339527022096
-0.03877662811082114 0.1309541852886057 0.05679509081395406
-0.038672071310465066 0.13224015000963285 0.0567860031246728
-0.03856882420521344 0.13351436366125657 0.056771836650108376
-0.038467118157535396 0.1347753947479334 0.05675092626962108
-0.0383717820706229 0.13599222819020676 0.05668987386735169
-0.03827789887074765 0.1371967416852041 0.056622334237296956
-0.03818878836059894 0.13836773540274053 0.056525200539758125
-0.03810495452678955 0.13950221295229803 0.05639470030182314
-0.03802245640015677 0.1406255465810562 0.056258018694173795
-0.03794256485632647 0.14172971707855467 0.05610619510593218
-0.0378650892344095 0.14281605654469617 0.05594042006296468
-0.03779837464619148 0.14383187019428387 0.055701898734645316
-0.037733086922168486 0.14483658505121652 0.05545581403513827
-0.03766952935713268 0.14582835846627584 0.05519994273420198
-0.037608396218970754 0.1468029110955789 0.054929268793806496
-0.03754942882703131 0.14776197769387103 0.05464549396924723
-0.03749315706405631 0.1487023485275084 0.05434472271553947
-0.037437914361243635 0.1496345397689057 0.05403870540247141
-0.03738416047741793 0.15055574089012583 0.05372409248397686
-0.03732853817376142 0.1514868456704079 0.05342490100661629
-0.037278976298303436 0.1523787107215647 0.05308416900053675
-0.0372358142495965 0.15322952655929387 0.05269910765472846
-0.03719367871571462 0.1540726702016978 0.052308232645366604
-0.037150790892132454 0.15491911166859054 0.05192438881950723
-0.03711653641065463 0.15571133557872183 0.051479365217465156
-0.03708257533215664 0.15650069314537893 0.0510334825057186
-0.0370510518581526 0.15727413376488536 0.05057105129481532
-0.03702279539172993 0.1580267316196897 0.0500858569712781
-0.03699595725972364 0.1587698461807703 0.04959129828651032
-0.03697251533808061 0.15949158618457018 0.04907272768158388
-0.036951008533865654 0.16020092203112657 0.04854074378077877
-0.036933409901303574 0.16088607778051844 0.04798063184372364
-0.036920088772927157 0.16154502168290757 0.047389431786397485
-0.036911264080273155 0.16217664502211465 0.04676527494223692
-0.036902519626234156 0.16280751283478798 0.04614084936731949
-0.03689583102809918 0.16342587041741274 0.045501377667143295
-0.036893475429059436 0.16401829706513082 0.044829674470368175
-0.03689286762051953 0.16460030215500843 0.04414492469115572
-0.036895375230368906 0.1651638923688283 0.04343672711505009
-0.036897351174265104 0.1657306922361485 0.04273245116204277
-0.0369041924846792 0.16626897776437038 0.041991265534331246
-0.03691232933436455 0.16679988888121072 0.041239991488764616
-0.036926253910340726 0.16729724291708606 0.04044437805757539
-0.03694628411790977 0.16775945985159862 0.039601676136905406
-0.036969311395972045 0.16820488976660233 0.038735310826911284
-0.03699557613027147 0.1686322805835885 0.03784327171100699
-0.03703228700481992 0.1690001231073362 0.03686999203219293
-0.03707743396845107 0.1693204939178132 0.03583036731300093
-0.03712853882382839 0.16960803444128417 0.03474305762305596
-0.03719360292724251 0.16981715863796326 0.03354580501920634
-0.03727129904720829 0.16995611035212826 0.03224812354772577
-0.03735913505566052 0.17003969121898233 0.030868685329064727
-0.0374530232422933 0.17009161791719435 0.02943878668014216
-0.03755092641631166 0.17012372515646534 0.027974006815851438
-0.03765733653143656 0.17011080462005207 0.02643893698040678
-0.0377708012342456 0.17006144514024044 0.02484450319171383
-0.03789841717295219 0.16993607714297382 0.023134459582548506
-0.03809426085680901 0.16943216525212956 0.02088142181110514
-0.050763164591441555 -0.030005432948094546 0.09157790315135547
-0.05061097667926507 -0.027992601037953535 0.09134379026985709
-0.050459837313720904 -0.02599292671567338 0.09111044369932123
-0.05030959795532893 -0.02400516008643183 0.09087848666457204
-0.050160113476841905 -0.02202808790299282 0.0906485375305
-0.05001165099248474 -0.02006382840646248 0.09041932134728228
-0.04986406474579009 -0.018111162129167746 0.09019145801646486
-0.04971721230074421 -0.016168905187066762 0.08996556261713462
-0.04957135620549203 -0.014239127932632989 0.08974036807490363
-0.04942635340811279 -0.01232064040046843 0.08951649098190215
-0.04928206408863409 -0.010412287184219382 0.08929454314562527
-0.049138746343940214 -0.008516092047256785 0.08907326528267515
-0.04899625975114117 -0.006630893637637525 0.08885327069063192
-0.04885446703392026 -0.004755564175471738 0.08863516792054604
-0.048713621948948106 -0.002892082090376613 0.08841770539656896
-0.04857358662966259 -0.0010393137893787152 0.08820149313750461
-0.048434226273692066 0.0008038416995294617 0.08798713645395989
-0.048295790404920096 0.002635450067505929 0.08777339139519541
-0.04815814364309225 0.004456617970330645 0.08756086471783533
-0.048021153592622184 0.006268420359611615 0.08735015850882275
-0.04788506564855791 0.0080689658749456 0.08714003636108081
-0.04774974684948963 0.009859335025540927 0.08693110178640664
-0.04761506714189294 0.011640577500427407 0.08672395366555416
-0.047481267892592945 0.01341084375431656 0.08651736305465993
-0.04734821849400401 0.015171188910748812 0.08631193023872136
-0.04721579117226425 0.016922638125724532 0.08610825091041541
-0.0470842233633819 0.01866338257318878 0.08590510350963196
-0.04695338675090672 0.020394452723574874 0.08570308511320684
-0.0468231557804599 0.022116849902426017 0.08550278824442623
-0.04669376405155791 0.02382880494298667 0.08530299864845436
-0.046565085478423626 0.025531324368105845 0.0851043102131582
-0.046436996668104476 0.02722538634968108 0.08490731231162807
-0.04630972747498638 0.02890926035486746 0.08471079791681174
-0.04633685718568635 0.02941097084154115 0.08372699671110498
-0.04655669774294353 0.02844582232441506 0.08175025532628502
-0.048131744726639475 0.01718686612700565 0.07276505238027184
-0.04817217772502454 0.017616796376641708 0.07167757266615046
-0.04824588958015376 0.017796039788377516 0.07041549910631406
-0.04832377198574669 0.017946031764398185 0.0691289651043775
-0.04840203391438959 0.018095546226198245 0.06783760193613325
-0.04861708572095765 0.01721822292527103 0.06582430868010675
-0.05433078187420869 -0.024941218647111463 0.034797678951100586
-0.054516727435469585 -0.02550311293747426 0.032822472672466685
-0.05469188506038998 -0.025978640436921108 0.030897783585585814
-0.05485931412450436 -0.02639112849656522 0.02900789629240863
-0.05501572804355683 -0.0267164545684766 0.02717081027572571
-0.05516341669937832 -0.02697214363338102 0.02537484024276032
-0.05530706589018683 -0.02719335114670235 0.023595233120505155
-0.05543923562628688 -0.027325193586531682 0.021872405971233466
-0.05556951427553632 -0.02743902202779802 0.02015500896217387
-0.0556929684430288 -0.027498558518069094 0.018469979183838525
-0.055811709641941695 -0.027519648351188586 0.016806166645566445
-0.055924992245510924 -0.027497034614275162 0.015167912025305208
-0.05228728853328876 5.897151779232779e-06 0.0341330532792094
-0.04825299517463241 0.030296524706462657 0.055416947521500004
-0.04821229991877484 0.03133186806538296 0.05476191413578446
-0.04817167324776983 0.03236546653134098 0.054107984695971056
-0.04813136747680107 0.03339549043189266 0.05345375084785281
-0.04809100306462813 0.03442470568545969 0.05280131480520067
-0.04805070629750851 0.03545219611978162 0.05214997215302897
-0.0480104770055386 0.03647796606706305 0.05149972014509058
-0.047970315019384306 0.037502019845005286 0.05085055604432176
-0.04793022017027699 0.038524361756879566 0.05020247712281384
-0.04789019229001172 0.03954499609158191 0.0495554806617709
-0.047850231210945726 0.040563927123688004 0.048909563951467505
-0.0478103367659944 0.04158115911352489 0.04826472429122042
-0.04777050878863081 0.04259669630721652 0.0476209589893401
-0.04773074711288172 0.04361054293675498 0.046978265363102956
-0.0476910515733261 0.04462270322005407 0.04633664073870958
-0.04765142200509339 0.04563318136100286 0.045696082451244235
-0.04761185824385966 0.04664198154953536 0.04505658784464678
-0.04757236012584728 0.04764910796167526 0.04441815427166529
-0.047532927487820786 0.048654564759605556 0.043780779093829714
-0.04749356016708565 0.04965835609171976 0.04314445968141012
-0.047454258001486456 0.05066048609267565 0.04250919341337789
-0.04741502082940326 0.05166095888346217 0.041874977677378133
-0.04737584848975106 0.05265977857144344 0.04124180986968368
-0.04733674082197613 0.053656949250426245 0.04060968739516846
-0.04729769766605436 0.0546524750007113 0.03997860766726863
-0.04725871886248992 0.05564635988914357 0.03934856810794246
-0.04721980425231136 0.05663860796917941 0.03871956614764521
-0.04718095367707132 0.05762922328092884 0.03809159922528349
-0.04714216697884282 0.058618209851220904 0.03746466478818933
-0.04710344400021776 0.059605571693654325 0.03683876029208211
-0.047064784584305464 0.060591312808646436 0.036213883201029806
-0.047026188574729004 0.061575437183498505 0.03559003098742458
-0.04698765581562491 0.06255794879243703 0.03496720113193724
-0.04703354119978036 0.06296482553197025 0.03382964206413508
-0.047124976170395114 0.06306384437110979 0.03241108698037276
-0.047216888832410334 0.0631624259269189 0.030986258461916272
-0.04730903876018603 0.06326221716094677 0.029556613495101358
-0.047401671522240056 0.06336157293552741 0.028120619768910504
-0.04749466775238417 0.06346131855775539 0.02667899155770348
-0.047587906183697064 0.06356228478709713 0.0252324636735341
-0.04768163531062164 0.06366281839027305 0.023779471835694677
-0.04777560999807457 0.06376457999854535 0.022321523725602588
-0.047869955842318665 0.0638667435184847 0.020857817390925182
-0.04796467504655254 0.06396931133585226 0.0193883186506556
-0.04805989570133061 0.06407145051585972 0.017912198227460874
-0.048155368805790605 0.06417483277310188 0.01643100558008398
-0.048251221988358434 0.06427862659488526 0.014943916309611893
-0.048347457523195 0.06438283444376941 0.013450895134163088
-0.04844407770264062 0.06448745880199758 0.011951906489817865
-0.04854121324106422 0.06459165984244791 0.0104460919926882
-0.04250514340540292 0.1048388526336454 0.048337014971903625
-0.04196488289011102 0.10901694855029725 0.051042295283224626
-0.041600608849450244 0.11203211489136145 0.052630310244115075
-0.04130842911336768 0.11456760533717508 0.0537645279840856
-0.04105694476375461 0.11683030445860143 0.05464500400986855
-0.04083138639647969 0.11891761192058875 0.055365738503830475
-0.04063724973595595 0.12079525483594028 0.05588940639375212
-0.040456988270716795 0.12257763283907513 0.05632924901719605
-0.040302380778045 0.12418973651288823 0.05660712052009009
-0.04015703361548464 0.12573777720389478 0.056829622519102396
-0.040020410315587604 0.1272256090033097 0.056999792476255584
-0.03989164993561632 0.12865912213070374 0.05712285655152061
-0.0397719028028207 0.13003136030958035 0.05719074292480836
-0.03965767139485381 0.13136493175940966 0.057226256116463925
-0.039549804578291756 0.1326547160255132 0.057223424365763886
-0.03944540564027094 0.1339192984683767 0.057201300674719124
-0.03934223118507887 0.13517297132873374 0.05717476175443126
-0.0392425320732655 0.13640164522939374 0.05712858295261547
-0.0391464266368641 0.13760473788533392 0.05706177508234073
-0.039057190759490094 0.1387619271818315 0.056951961688646024
-0.03897382322562951 0.13987977472228302 0.05680556401459835
-0.038889409680737085 0.1410015801187859 0.05666932776657718
-0.03880002773061236 0.14215164559272253 0.05657008190959906
-0.03872657796103827 0.14320031193492339 0.05636506319099549
-0.03865967613222514 0.1442062808232536 0.05611779292446545
-0.0385909760124709 0.14522128314977567 0.05588533549600566
-0.03852349008926392 0.14622671922613437 0.05564700822832103
-0.038461720808818434 0.14719503812451312 0.05537160328915519
-0.038401997592435504 0.1481489522330128 0.05508426256777221
-0.03834294026440693 0.1490969757726644 0.05479447050953962
-0.03828326560204238 0.15004694845859498 0.054511136367352775
-0.03822536887375752 0.150984302030881 0.05421755217566421
-0.03817082273206874 0.15189959577043236 0.05390259990136237
-0.038119282510173234 0.1527950651834506 0.053568517832616847
-0.03807348914163037 0.15365433593249467 0.05319583374287029
-0.03803032762752207 0.1544963900530805 0.05280623274430274
-0.03798993774629318 0.1553205105865878 0.05239858109894474
-0.037950025981975714 0.1561405364333731 0.051989008685914995
-0.037912939367942156 0.15694249386989578 0.05156078508319728
-0.037878036088131915 0.15773033002133827 0.051118335332811016
-0.037849675674635236 0.1584782820969012 0.050630353362159264
-0.03782205928567657 0.15922096353043458 0.050138069864985924
-0.03779697427508964 0.15994785966956182 0.04962859281062715
-0.03777511049885304 0.16065502582408267 0.04909681094687002
-0.0377591760224383 0.16132671000671134 0.0485229778676613
-0.0377427115735348 0.16200100997051367 0.047953565626731864
-0.037727967900833256 0.16266475543792727 0.047372255823638854
-0.03771641382500201 0.16330946895645035 0.04676825932932993
-0.03770889586488459 0.1639303786211119 0.046135222391706476
-0.03770393722011817 0.16453622748469093 0.045483731111309156
-0.037701845713445 0.16512535399858402 0.044811387245704826
-0.037700838801793396 0.16570816469529306 0.04413114325055362
-0.03770215566484846 0.166277585487287 0.04343380389157736
-0.03770626165799349 0.16683105492069403 0.042715802684047566
-0.0377166467577082 0.16734874445161946 0.0419511297531
-0.03772835622067643 0.167859199069774 0.041176241621052656
-0.03774364372344146 0.16834966144933228 0.04037428610615135
-0.03776018679172675 0.16883346975574492 0.03956240173560843
-0.037782655732207904 0.16928426150218706 0.03870557674269104
-0.03781192872028807 0.16969735432826039 0.037796900385009824
-0.0378504574440728 0.1700592663653573 0.036817567487356595
-0.037895089594290034 0.1703881105976132 0.03579082954955559
-0.03795112611657649 0.17065450408020427 0.034676304385372225
-0.038023394526724694 0.1708320303670436 0.03343680842929758
-0.03810289977415699 0.17097149413671578 0.03213973852891533
-0.0381928309579916 0.17105552843323918 0.030760430813566553
-0.038281270922593764 0.17115056874367188 0.029389217399877543
-0.0383721273097951 0.17123497913590166 0.027996301600271667
-0.03847865956931714 0.17123589054484917 0.0264799260605047
-0.038593088597492525 0.17119671983524434 0.024898996735421286
-0.03872037010928631 0.17109070500898949 0.023214918397609696
-0.038911100313570535 0.1706422776799699 0.021036431974395475
-0.05221897500068842 -0.031969679818266816 0.09048496161773348
-0.05206168028771887 -0.029941387526242313 0.09025303089018222
-0.05190547374523585 -0.027926413222314428 0.090021853981745
-0.05175020176798866 -0.025923494270765624 0.08979206017719293
-0.051595714294930664 -0.023931405175003417 0.08956427378239934
-0.05144228730286551 -0.02195228335601468 0.08933720793509653
-0.051289770079253984 -0.01998489703774342 0.08911148850876305
-0.05113801535997266 -0.018028050500127846 0.08888773643794018
-0.05098729438371343 -0.01608383268650393 0.0886646729134713
-0.05083732168468723 -0.014149967003301733 0.08844355076859878
-0.0506883654090896 -0.012228510808363624 0.08822309651605179
-0.05054027948520316 -0.010318281684322972 0.088003930377824
-0.05039292113762566 -0.008418131553084796 0.08778666770419502
-0.050246553971658524 -0.006530071470891297 0.08757004291437906
-0.05010103459648656 -0.004652947447534028 0.08735467286279719
-0.04995622283064559 -0.0027856388523309072 0.08714116957273224
-0.049812377851698356 -0.0009301116864881553 0.0869282752834141
-0.04966935887569593 0.0009147604610474924 0.08671660349966034
-0.04952702824411946 0.002750071585956193 0.08650676293586529
-0.049385640816264315 0.004573899537529236 0.0862975035659036
-0.04924505834373859 0.00638734396325874 0.0860894355637008
-0.04910514562257121 0.00819147300540024 0.08588316435356147
-0.04896615329972333 0.009984407199531142 0.08567744755973006
-0.04882794559365306 0.011767220214282281 0.08547289204461683
-0.04869038968901594 0.013540955090670215 0.08527009996185864
-0.048553732122974 0.01530377392504717 0.08506783650288297
-0.048417839514611885 0.017056725162428177 0.08486670523856082
-0.04828258137365531 0.018800827466741166 0.08466730507184084
-0.04814820022673738 0.020534283406755005 0.084468408679229
-0.048014565029717286 0.022258116931017646 0.0842706163605694
-0.04788154755609361 0.023973323023766313 0.08407452378859945
-0.047749386418102766 0.025678143673506515 0.08387891104387432
-0.04761795284679285 0.027373579032649753 0.08368437517619856
-0.04749900676600386 0.028972005015753977 0.08343196207050643
-0.04772452087302432 0.028004469307789215 0.08145196315324185
-0.04795218657202171 0.02702770250525377 0.07945307340088889
-0.04937058750789629 0.017235579220737818 0.07141705088231445
-0.04944842452017413 0.017398067032757647 0.07014201792261104
-0.04952729073220848 0.017555287370724426 0.06885896384100554
-0.04960549205483204 0.01771976193189284 0.06757650181338226
-0.04976316507790088 0.017302520232350183 0.06588320317880714
-0.05593888756076942 -0.02724795847490774 0.03317718427655164
-0.05611381937357217 -0.027692133508544325 0.03127620756509325
-0.05627821394197291 -0.028054110707528057 0.02942366506087718
-0.056436622775889435 -0.028367540472202135 0.02759642569526266
-0.05658382341628559 -0.028594700627734226 0.02582208946932868
-0.05672528477411476 -0.02877579547686937 0.02407259051358096
-0.05686108698744581 -0.028911662967665452 0.022347814098447882
-0.05699010631059994 -0.02899443263201612 0.02065399274544949
-0.05711658667731687 -0.029055027249188126 0.01896901788513944
-0.057233340855196095 -0.029041814585010206 0.01733120871948579
-0.057349697993209825 -0.029022258665202305 0.015691356028471715
-0.05745756585432193 -0.028938357350201838 0.014092760870925813
-0.05173652428831797 0.01285391122431434 0.04376901261947147
-0.04947616310877992 0.02976611944502533 0.05501698948280981
-0.049434373571178934 0.030803466370924515 0.05436130975529774
-0.04939278442499368 0.031838139117852216 0.053706032954115024
-0.049351265198059366 0.032871072383586 0.05305185779748195
-0.04930981571420311 0.033902270551036284 0.05239878150961946
-0.049268565002115024 0.03493082513596918 0.05174609418641096
-0.049227254261677345 0.03595856965517019 0.05109520623342656
-0.04918601273988013 0.036984592126498905 0.05044540888235188
-0.04914484026289837 0.03800889687442954 0.04979669939443088
-0.04910373665748956 0.03903148820896207 0.04914907504006466
-0.04906270175098955 0.04005237042569393 0.04850253309878244
-0.04902173537131094 0.04107154780587602 0.047857070859199824
-0.04898083734694127 0.04208902461646674 0.047212685618976624
-0.048940007506939005 0.043104805110203814 0.046569374684788556
-0.04889924568093312 0.04411889352564985 0.045927135372279104
-0.048858551699119 0.04513129408726302 0.04528596500603127
-0.04881792539225673 0.04614201100545079 0.04464586091952699
-0.048777366591669646 0.04715104847662338 0.044006820455105455
-0.04873687512924016 0.048158410683263264 0.04336884096393623
-0.048696450837409415 0.04916410179396985 0.04273191980597163
-0.04865609354917335 0.050168125963528376 0.04209605434991964
-0.048615803098080994 0.05117048733296259 0.04146124197320428
-0.04857557931823302 0.05217119002958609 0.040827480061924604
-0.04853542204427772 0.053170238167071115 0.04019476601082894
-0.04849533111141069 0.0541676358454915 0.039563097223267896
-0.04845530635537085 0.055163387151389964 0.03893247111116882
-0.048415347612438986 0.05615749615782978 0.038302885094996075
-0.048375454719436196 0.05714996692444446 0.03767433660371161
-0.04833562751371999 0.05814080349750511 0.0370468230747501
-0.04829586583318402 0.05913000990996237 0.03642034195397248
-0.048256169516254166 0.06011759018151197 0.0357948906956414
-0.048216538401887124 0.061103548318644674 0.03517046676238239
-0.04817697232956887 0.06208788831469608 0.03454706762514559
-0.048137471139310904 0.06307061414991078 0.03392469076318083
-0.048106286346776925 0.06399700732833469 0.03325390897322511
-0.048184262651833405 0.06420017857935195 0.03192845623378482
-0.04827799484618648 0.06430166414721344 0.03050529147251202
-0.04837221696902801 0.06440272495941363 0.02907582635032452
-0.04846668255636734 0.06450500272013898 0.02764152848041751
-0.048561643350467136 0.06460685768968844 0.026200854577511312
-0.04865685097206969 0.06470993697004368 0.024755292430723497
-0.04875255915802125 0.06481259547996593 0.023303277409864875
-0.048848517591454164 0.06491648575376613 0.02184631774922846
-0.04894498202766441 0.06501995733542498 0.020382827181759766
-0.049041700189483395 0.06512466822643809 0.01891433466063497
-0.04913880134966869 0.06522979376668919 0.017440026993314817
-0.04923628778771082 0.06533533642404588 0.015959869569805774
-0.049334161801225136 0.06544129868600068 0.01447382750491888
-0.049432555771943505 0.06554684772527919 0.012981054146441962
-0.04953121242233852 0.06565365535281725 0.011483131459978924
-0.04356298166522933 0.1045460039996885 0.048049563312792753
-0.04295088459372996 0.10910088949178398 0.05112511697467026
-0.042559163488905816 0.1122353097803504 0.05283183561877425
-0.04224992470136932 0.1148344493077122 0.05403055160885756
-0.041988926979822844 0.11711884689677154 0.05493415012752889
-0.04175645528917648 0.11921522080064273 0.05566551488552679
-0.041553179407859 0.12112062880223556 0.056218847061965116
-0.041368991599771934 0.12289993626073503 0.05665726973602181
-0.04120431490041314 0.12455134552885583 0.05697704803643816
-0.041056549892147076 0.12609199866086857 0.057193866523541026
-0.04091714700418348 0.12757602918580113 0.05736199040895851
-0.04078435315346061 0.12901473042935907 0.05749231638412583
-0.04065998487612582 0.13039711242227764 0.05757270467965442
-0.04054354608565666 0.1317266278443071 0.05760593267388908
-0.04043107839361973 0.1330281078946574 0.05761740151783834
-0.04032373296554753 0.134294629955815 0.05759936814334787
-0.04021841963367446 0.13554543854654455 0.05757182947307471
-0.04011656724109636 0.1367718540205007 0.05752527861469603
-0.040018809373101386 0.13797015187195608 0.05745535187215267
-0.039927465811247946 0.1391263453845298 0.05734648928060848
-0.03984093119781383 0.14025050450923507 0.05720899314676664
-0.03975527561234543 0.141366733252043 0.05706873575102139
-0.039670573908942845 0.14247461714572598 0.05692517108952766
-0.03958589872233679 0.14357980830845027 0.05678444709957542
-0.039516373605101886 0.14459105639491185 0.0565452004583899
-0.03944999140718101 0.14558130931298763 0.056287310359569354
-0.03938052970652375 0.14658806643293043 0.05605253479382316
-0.039312957395790896 0.14758143149564995 0.05580746999718128
-0.03925160220386405 0.1485356356288163 0.05552270105506074
-0.039190601730868524 0.14948589164851556 0.055237709185436634
-0.03913150212113399 0.1504230251103792 0.054941947509573374
-0.03906998030925202 0.15137275313309995 0.054664827830059826
-0.03901205374055238 0.15229937902783783 0.05436529154274611
-0.03895752974408572 0.15320420063015927 0.05404446872169355
-0.03891081244126887 0.1540614555745602 0.0536718753781682
-0.03886573464504992 0.1549076910441076 0.05328963689581734
-0.03882653765139548 0.15571815051579513 0.05286833270063607
-0.03878293572330383 0.15655316030638272 0.052478968248985125
-0.038743106497679036 0.15736489258044473 0.05206493077175772
-0.038707665028924816 0.1581499433637888 0.05162173202777354
-0.03867435817168277 0.15892156541369892 0.05116488090433069
-0.03864722922174652 0.1596564857808982 0.050665939586345576
-0.03862172617021113 0.1603812223132811 0.05015654631181293
-0.03860030106133463 0.1610817493721556 0.04961934997920253
-0.03858080109617719 0.16177059563265342 0.04906932829215788
-0.03856132082298391 0.16245874626429782 0.04851986204253478
-0.03854597221082421 0.16312274390809947 0.04794177910983566
-0.038533876003932155 0.16376777674600282 0.04734111194433044
-0.038525026090105594 0.16439402532093517 0.04671773030021664
-0.03851831236309917 0.16500791844162147 0.046079395307815074
-0.03851389049825376 0.165608673108001 0.04542487731566802
-0.038512627332363526 0.16619151170026375 0.04474782712154263
-0.03851254843658479 0.1667676626397642 0.04406229391833488
-0.03851641734182289 0.1673217026316952 0.04334826478824905
-0.03852249859071645 0.16786350173289033 0.04261808773347786
-0.038534113533807736 0.1683746581346765 0.04184754971287069
-0.03854755450928725 0.1688760174796336 0.04106331833550081
-0.03856345857881689 0.1693641320592619 0.04026065173435622
-0.03858135644054733 0.16984170545330274 0.03944284791075159
-0.03860323654043139 0.17029786966972407 0.03859523338990367
-0.038631177615352445 0.17072137941233279 0.037702329940500656
-0.03867093622384727 0.17108095686540872 0.03672143724931609
-0.03871516421927644 0.17141729469567452 0.03570614735234212
-0.03877909456887168 0.17164756235002007 0.03454354252357322
-0.03885617059432044 0.17180828414796467 0.03328118658691415
-0.038936377753393044 0.1719543369038865 0.03199281175426072
-0.03902583202176519 0.17205279870061588 0.030632683700807184
-0.039108532823265534 0.1721903425133759 0.029319805308790692
-0.039197226904519995 0.17229813896910393 0.02795911391355055
-0.03930481721075538 0.1723072834881466 0.026453466414720628
-0.039419367410515035 0.172282436339972 0.024891634938286444
-0.039548069289750215 0.17218556912544478 0.023219024616021433
-0.039757549902329825 0.1716631133627959 0.020931353524888008
-0.05352620616934799 -0.031908742010821944 0.08915187877829289
-0.053364842645966575 -0.029878266410487075 0.0889229234727576
-0.053204301865251616 -0.027858859278682424 0.08869598847891863
-0.05304487048389185 -0.025852694136081933 0.08846977209276632
-0.052886391749256335 -0.02385851638650921 0.08824490741210078
-0.05272871252122777 -0.021875108333746895 0.08802202246242519
-0.05257211449977365 -0.019904593963999184 0.08779982380542703
-0.05241644388015626 -0.017945749336994055 0.08757894104894398
-0.052261550372643586 -0.01599738633735498 0.08735999877119432
-0.052107710846509996 -0.014061580774795857 0.08714171170682619
-0.05195477436148267 -0.012137138429609007 0.08692470599174623
-0.0518025933982784 -0.010222899871848379 0.08670960277509598
-0.0516514401173223 -0.008320894046080718 0.086495124872979
-0.05150116636252841 -0.006429955554434319 0.086281894968262
-0.05135162730811913 -0.004548952791766148 0.08607053080003008
-0.05120309052350083 -0.002679869104137922 0.0858597631755546
-0.05105541055949609 -0.0008215670516189544 0.08565021134433878
-0.05090844520974513 0.0010270579736209595 0.08544248965515436
-0.05076245756661297 0.002864067000261483 0.08523533681736695
-0.050617171537739966 0.004691566491288213 0.08502999101686884
-0.0504728472918405 0.006507646402282685 0.08482519618438397
-0.05032934372749442 0.008313399404900779 0.08462156589163466
-0.05018652284698624 0.010109886863313322 0.08441970888141642
-0.05004464052381643 0.011895241158707548 0.08421837684072284
-0.04990355817102607 0.013670529150541622 0.08401817996361818
-0.04976314022571115 0.015436787262096074 0.0838197236582803
-0.04962363837059643 0.017192189182411666 0.08362176728207457
-0.04948491646577093 0.018937776708383924 0.08342491767331375
-0.049346841318442254 0.020674562041192557 0.08322977692738329
-0.04920966052167533 0.02240075909684569 0.08303511198729635
-0.04907324031760541 0.024117385331451413 0.08284152635797934
-0.04893744982114748 0.02582542941636279 0.08264961884428226
-0.04880253263363018 0.027523144449065895 0.0824581638913007
-0.048895130520360146 0.027562920277039604 0.08115353850252763
