# .PCD v0.7 - Point Cloud Data file format
VERSION 0.7
FIELDS x y z
SIZE 4 4 4
TYPE F F F
COUNT 1 1 1
WIDTH 764
HEIGHT 1
VIEWPOINT 0 0 0 1 0 0 0
POINTS 764
DATA ascii
0.021251706794464493 -0.004845231304998476 0.02528020085271593
0.021399389810213092 -0.0030263249009668813 0.02225815205854892
0.02149793293213979 -0.002089321635586505 0.019911919691801394
0.02164314023280363 -0.00033466824872280254 0.016900296366060885
0.021767460562906068 0.001040476807842916 0.014170382783022573
0.021877933879605512 0.002162428864236121 0.011625324176655127
0.022060200300603922 0.004537307344316455 0.008050559774735344
0.022213661061180633 0.0063934260126526365 0.0048698227707552055
0.01965881217731066 -0.04136752741239541 0.03773061699498459
0.019597760412585673 -0.043169570666502066 0.037728448655945546
0.019536983895375226 -0.04496223428942092 0.037727786039415734
0.01947663424488582 -0.04674293167919252 0.0377263836788202
0.019416656285811972 -0.04851266181517844 0.037724989955301325
0.019392525370048496 -0.04966163989362038 0.03720367683693404
0.01939743793755569 -0.05031062918971535 0.0362576085275757
0.019440847331254375 -0.050301134601951625 0.034743471697226136
0.019460661709122803 -0.050697848357578956 0.03357438834349202
0.01950435485878147 -0.05068919213972123 0.032049280897806676
0.019548296098718946 -0.050679622279109826 0.030516544134392032
0.019592435775606213 -0.0506700092013882 0.028976885590680734
0.01965194632137431 -0.05040357468435025 0.02720314638215504
0.019686375831672043 -0.05056520076521431 0.025800638445013013
0.019720873830816256 -0.05072827644909539 0.024393996167347
0.01976316754181872 -0.050762899049629995 0.02286648877917502
0.019808284022605205 -0.0507533701744356 0.021292403963849238
0.019853606963637038 -0.05074379769359594 0.01971111588416674
0.019899137785356926 -0.05073418130710711 0.018122574981798145
0.019886404324366596 -0.051698737926111904 0.017420528221851028
0.019828007924246327 -0.05342138639062488 0.017419666605572925
0.019769953481872635 -0.055133947367121794 0.017418810034735388
0.019712290317941326 -0.05683564351701498 0.017417151724132218
0.019654962548882982 -0.0585274418374368 0.01741550305899542
0.019597915546446423 -0.06021028019616953 0.017414666026359882
0.019541198734646874 -0.061883378210181306 0.017413833838494264
0.019484860370388084 -0.06354598210764117 0.017412209007198365
0.01942879510363394 -0.06519985816631768 0.017411388675932893
0.019373102083564166 -0.06684341919971848 0.017409780173177514
0.019317677198877257 -0.06847840264550509 0.017408971482255897
0.01934157171952956 -0.06882066021035382 0.016161405967027254
0.01938731166013766 -0.06881067441330563 0.014565956652035916
0.019433268449874756 -0.06880064127446733 0.012962943448885211
0.019479443634499553 -0.06879056045637538 0.011352312440151557
0.01952583877449745 -0.0687804316183469 0.009734009194736493
0.019572455445255814 -0.06877025441645002 0.008107978761742574
0.01961934706065368 -0.06875919839513878 0.006473333819511762
0.019666411828534097 -0.0687489214019486 0.004831675706011895
0.019713702946344818 -0.0687385949833369 0.0031821223193143067
0.0197612220509085 -0.06872821878189123 0.0015246165656856436
0.022288741325435114 0.005900798137520091 0.04515821842868817
0.022223112805252042 0.003962029428499658 0.04502581371980674
0.022164364212913897 0.0021475065528002157 0.044813143066176064
0.02212221736631419 0.0006250899108019015 0.044397599494607254
0.022083888689577898 -0.0008282375512366213 0.043937672828919194
0.02205076128771769 -0.0021889976136230116 0.04341543976320866
0.02200947613755523 -0.003687990828467269 0.04299921249968175
0.02197816827353428 -0.0050124327651925316 0.04245987346339608
0.021943703756397995 -0.006388818268101226 0.04196339594020726
0.02192730675355077 -0.007453283504156971 0.041239011883024035
0.02192015604227096 -0.008358538179636443 0.04039749451023045
0.021936542348795846 -0.008861823225462861 0.03925386114270568
0.021976939921542777 -0.008957588113841342 0.03779898691810413
0.02206065812798754 -0.00832043425062512 0.035779812561750834
0.022145951997242397 -0.0076625531366671384 0.0337330456637942
0.022247379216889376 -0.006737889959602061 0.031468771139186336
0.022340914611282476 -0.005953668539639412 0.02929904464282257
0.02248983837941846 -0.0042432638785221966 0.02639482817424188
0.022599317050090068 -0.0032064301999819578 0.023997015459684135
0.022734945576408327 -0.001738861394043556 0.021244651249249513
0.02287414110183373 -0.0002212852157139067 0.018433499177531953
0.02297471048888013 0.0006413166960967387 0.016123733316843303
0.023164120628153116 0.002977149357976494 0.012621179910499436
0.02325673442800736 0.00368992800113771 0.010396897806398464
0.023452871014840726 0.006113768573452971 0.006775985594465961
0.020815212893623137 -0.04136752741239402 0.037730616994983424
0.020750569848620167 -0.043169570666501345 0.037728448655944935
0.020686218242162005 -0.04496223428942092 0.037727786039415734
0.020622318612232005 -0.046742931679193134 0.037726383678820696
0.020558812537918476 -0.04851266181517977 0.037724989955302435
0.02053331576722417 -0.049660769515781744 0.03720293483940318
0.020553976710169775 -0.05005932708245109 0.036042240890791166
0.020598552326512393 -0.050072809946396735 0.03454676242595933
0.020644568078227093 -0.05006624990656999 0.03302737383637039
0.020691007629800223 -0.05005615643180822 0.03149813083226344
0.02073765658213882 -0.05004601744453485 0.029961992312466823
0.020784296634699793 -0.0500393527467457 0.028422008667565946
0.02082083389608869 -0.05019751403505446 0.027020892308086686
0.02085727857749654 -0.050359761446491125 0.02561797891205475
0.020893906577964267 -0.050521694472523415 0.024209356050558295
0.020940137724794375 -0.05053376429464862 0.02266061655085605
0.020987974101671365 -0.050523705389701634 0.02108497342391108
0.021036029537129294 -0.050513600421718874 0.019502114906277623
0.02108430553933371 -0.050503449073569184 0.01791199132172716
0.02105619281403448 -0.051698737926123506 0.017420528221861686
0.020994361331554152 -0.05342138639063715 0.01741966660558425
0.02093289192198197 -0.05513394736713462 0.017418810034747267
0.020871836807231137 -0.05683564351702841 0.017417151724144708
0.02081113681646344 -0.05852744183745073 0.017415503059008464
0.020750734108001163 -0.060210280196184074 0.017414666026373538
0.020690735449025017 -0.061882533314180144 0.017413034086592616
0.020631028627468722 -0.06354598210765694 0.017412209007213353
0.020571665403846646 -0.065199858166334 0.01741138867594849
0.02051269632377273 -0.06684341919973535 0.017409780173193723
0.020454011151751262 -0.06847840264552241 0.01740897148227266
0.02049393386942753 -0.0685963140047155 0.015943463975234162
0.020542433662086093 -0.06858579013561011 0.014346357012388788
0.020591163553050948 -0.0685752163379692 0.012741672870591303
0.020640125183704255 -0.06856459225563 0.011129357498832815
0.020689374639786946 -0.06855309023720202 0.009508535836665166
0.020738804997133497 -0.06854236249854423 0.007880787531821754
0.02078847211482994 -0.06853158337643689 0.006245242676843343
0.02083837769800372 -0.06852075250081763 0.004601845121657899
0.020888523468194913 -0.06850986949806709 0.0029505381757171656
0.023535075613917805 0.006034217238896689 0.045063456501460875
0.02346077976046903 0.0040123385761413055 0.04498988503613821
0.023412609720226144 0.002425602930510251 0.04461344912313858
0.023371280877680343 0.0009545235223990534 0.044159746039832914
0.02332773750901863 -0.0005500679775367612 0.04373573392174562
0.023292653457838673 -0.0019133038798941349 0.04321420502270518
0.023250118589299158 -0.003395822392610992 0.042784789211435637
0.02321741011467541 -0.0047153506319728145 0.0422406562104049
0.02319101149413911 -0.005930065804243823 0.04162304015464657
0.023171591452021908 -0.007029757297192851 0.040923083550301886
0.023173855447746795 -0.007777013596631188 0.039961353431236135
0.02319833481977888 -0.008165449693935567 0.03872875281216209
0.023267648646885346 -0.007832588785706529 0.03694607574906389
0.02335924588824307 -0.007145852717268475 0.03488449566422691
0.023480621358047512 -0.005987156706326935 0.032449088605180754
0.023571697475311137 -0.005322173548699294 0.030377969588897547
0.023681101595191274 -0.004370294864954272 0.02807249036591808
0.023820472234552553 -0.0029476790265811625 0.025385806659936727
0.023961908056968302 -0.0015016114924292223 0.02266213811758172
0.02407120330630997 -0.0005757674687557612 0.02032905509585836
0.024228433730740455 0.0011026601861711671 0.017385688748839556
0.02436775862553771 0.0024871754243147026 0.014655036806699051
0.024479424679522462 0.003425623512045173 0.012262431887924419
0.024682642428399307 0.005798712466866307 0.008700997373915609
0.024891202846277476 0.008242032633026253 0.005055276978870482
0.02197161360993563 -0.041367527412392524 0.03773061699498215
0.021903379284654665 -0.04316957066650068 0.03772844865594438
0.021835452588948787 -0.044962234289420866 0.037727786039415734
0.02176800297957818 -0.046742931679193855 0.03772638367882131
0.0217143652986577 -0.04830616133069149 0.037549874681073236
0.021667775948275132 -0.049757353717095054 0.037285272918009815
0.021708913876669757 -0.04985905741866542 0.035870608409557025
0.021757562192401544 -0.04984853797148525 0.03435354467361812
0.021779653709224498 -0.050247076176168304 0.03318398377197257
0.021828677345502614 -0.05023651966606901 0.031655163377413476
0.021877922173425508 -0.050225915525656306 0.03011944503883951
0.021927389693382635 -0.050215263431845514 0.02857678196604352
0.021991170644046668 -0.04999119791415868 0.026838412277533863
0.02202968778045101 -0.05015318471904112 0.025434308089981483
0.022068398744714047 -0.05031485547858838 0.02402448621520109
0.022118791302235798 -0.05030342676194971 0.022453663654836142
0.022169355321096887 -0.05029283431617315 0.02087645337808175
0.022220151050458294 -0.05028219333034323 0.019292015507646143
0.022271180086703868 -0.05027150347004039 0.01770030024857483
0.022225981303702243 -0.05169873792613572 0.0174205282218729
0.022160714738861855 -0.05342138639064997 0.017419666605596074
0.02209583036209117 -0.055133947367148106 0.017418810034759813
0.0220313832965208 -0.05683564351704257 0.017417151724157864
0.021967311084043737 -0.05852744183746561 0.01741550305902234
0.021903552669555737 -0.060210280196199506 0.01741466602638808
0.02184022075174754 -0.061882533314196186 0.01741303408660777
0.021777196884549183 -0.06354598210767354 0.017412209007229174
0.021714535704059176 -0.06519985816635115 0.017411388675964923
0.02165229056398111 -0.06684341919975312 0.01740978017321082
0.021596973186184594 -0.06838183993401903 0.017315650326536813
0.02164799926741738 -0.06837082665494176 0.01572441341454378
0.021699267033171293 -0.06835976121159448 0.014125639624884778
0.02175077820462686 -0.06834864323248563 0.012519275282928621
0.021802534519347234 -0.0683374723425833 0.010905266203161013
0.021854537731472917 -0.06832624816328187 0.009283557683101351
0.021906789611920382 -0.06831497031235378 0.00765409449711596
0.021959291948582867 -0.06830363840390846 0.0060168208901524856
0.022012104914608328 -0.06829141749697248 0.004370839942225924
0.022065113877770357 -0.06827997426077875 0.0027177696602993517
0.024880488960438072 0.008509912454962687 0.04482600607429299
0.02477580082115759 0.006066207317372507 0.04504073530594055
0.024715884252276634 0.004330901983458757 0.044762380408721825
0.024664677807258933 0.002735675183504427 0.04439079411649377
0.024619300230594356 0.001234716593209395 0.043957444612322316
0.024576577476813573 -0.00022197414755126266 0.04349755219469176
0.02453448493522291 -0.0016661229078756556 0.04303378235553473
0.024496587388476238 -0.0030424951889675422 0.04252548132073214
0.024461887902473237 -0.0043669274050177065 0.041983554304397874
0.024437328651637717 -0.005532490336883966 0.041328072560630646
0.024423190148649677 -0.006535837550382062 0.04055464532961417
0.02444019933172082 -0.007059131701975696 0.039422944921474634
0.02447936250255517 -0.007243436829582894 0.03803349859295291
0.024555306158480686 -0.0068668300246614855 0.03621389181499923
0.024654517620735287 -0.006139420003471341 0.03411734907687303
0.024757690154905206 -0.005357963303533497 0.031966899855031816
0.02492050848459676 -0.00367519317126469 0.029108980450136823
0.025034527736767943 -0.002744153839125296 0.02681280652629814
0.02516190633442681 -0.0016179424942486254 0.024350187288908254
0.02529505361673556 -0.000412662536817876 0.02180948834249896
0.025432429997595492 0.0008478917360263405 0.019208340024359838
0.025564050129154872 0.0020129173767239883 0.016665283681005616
0.025737532766959167 0.0037986529863685004 0.013611531965794732
0.025909621124790304 0.005552326902007687 0.01056121760649753
0.02610350630234873 0.007621132281792953 0.007235393561611514
0.026321705337867693 0.010040554523460532 0.003601166010691159
0.023128014326248142 -0.041367527412390914 0.037730616994980815
0.023056188720689177 -0.043169570666499846 0.03772844865594366
0.022984686935735563 -0.04496223428942092 0.037727786039415734
0.022913687346924342 -0.04674293167919469 0.03772638367882203
0.022872662707104943 -0.04808011889073899 0.03735818755763709
0.022815867564155073 -0.049645101937423886 0.037189578221231034
0.022866916616029336 -0.04963412021278124 0.03567783567484517
0.022918254727093284 -0.04962221481023665 0.034158559756146845
0.022941540575070522 -0.050020794061678864 0.032988005458330194
0.022993275188419305 -0.050008844402671726 0.03145693879896483
0.0230452436587271 -0.04999684072740701 0.02991895122977395
0.023122261605232355 -0.04962699414510102 0.028059198978683586
0.023162959261922137 -0.04978462584627191 0.0266557058700283
0.023203553973332097 -0.049946351272171174 0.02525040901437986
0.023245960794364435 -0.050084732350305694 0.02381880534222769
0.023299016956699413 -0.05007365762140059 0.022247221445893917
0.02335231586192434 -0.05006253222334178 0.020668447228944675
0.023405859179757304 -0.050051355807596065 0.01908243323243386
0.02345964859526488 -0.05004012802243135 0.01748912954277021
0.023395769793369863 -0.05169873792614871 0.017420528221884835
0.02332706814616941 -0.05342138639066357 0.01741966660560862
0.023258768802200215 -0.05513394736716243 0.01741881003477308
0.023190929785810305 -0.0568356435170575 0.017417151724171798
0.02312348535162388 -0.05852744183748115 0.01741550305903694
0.02305637123111014 -0.06021028019621577 0.017414666026403403
0.02298970605446989 -0.06188253331421306 0.017413034086623758
0.022923365141629463 -0.06354598210769108 0.017412209007245827
0.022857465794744555 -0.06519902680558093 0.017410593517963924
0.02279188480418929 -0.06684341919977183 0.017409780173228806
0.022749873182560307 -0.0681573892108503 0.017098734287563477
0.02280366159611417 -0.0681458373791986 0.015505846709802595
0.02285770496055044 -0.06813423079321168 0.013905409028447058
0.02291200509283181 -0.06812256906267233 0.012297367436046147
0.022966563827227716 -0.06811085179364224 0.010681667612633172
0.023021443666934677 -0.06809824890170862 0.009057431850286346
0.023076525469208107 -0.06808641734243037 0.007426244247681457
0.023131871484415593 -0.06807452903028854 0.005787232266681763
0.023187483618167765 -0.0680625835559554 0.004140339474706989
0.023243363794444444 -0.0680505805061622 0.002485508895187283
0.026103776527920616 0.00819912558872804 0.04504553752907142
0.02602418321471578 0.0062096757902814215 0.04493883573647167
0.025958359930906075 0.004430629132750108 0.044691159460484575
0.02591627279693372 0.003009169804780387 0.044194404577831414
0.025862215086256732 0.0014123476851796157 0.04382919367673738
0.02583119753379845 0.00016061513841592046 0.043219809157317324
0.025785172776002216 -0.0013113777827015172 0.04277484631718609
0.02573736228446397 -0.0028069336213016327 0.04235260198222557
0.025704698806654918 -0.004076261015352134 0.04176907123606666
0.02569059194638311 -0.0050705898807717475 0.04098538122929912
0.025693901349669604 -0.005808365825127171 0.04001198958486174
0.0257100288964766 -0.0063585526920139634 0.03889751350506504
0.025788796532068094 -0.005993938215012651 0.037091300043168074
0.025896303600513083 -0.005214859239349001 0.03496146054816701
0.02600308937220248 -0.0044528627096114826 0.032831782089011496
0.02610793613140209 -0.0037255733926383483 0.03071590127908419
0.02623499375633702 -0.0026827024704102476 0.028344271934503396
0.02636087031209678 -0.0016646960405796718 0.025976608728701556
0.026507704288971586 -0.0003518500777119349 0.02336413493929168
0.026620297907226843 0.00045875457668309583 0.021127166547706744
0.02681197494533951 0.0023992888750243857 0.017987068704851228
0.026957712419929027 0.003669115082562735 0.015354518731270306
0.027149315547737078 0.005586529491712178 0.012188970236760244
0.027318748796571625 0.0071755586441278885 0.00926274550418471
0.02756314924860105 0.009822688654620215 0.005464885259084229
0.024284479317860673 -0.041366623130376534 0.037729866203434326
0.024208998156723692 -0.04316957066649901 0.03772844865594305
0.024133921282522345 -0.044962234289420866 0.037727786039415734
0.024059371714270503 -0.046742931679195465 0.037726383678822695
0.02402749079137281 -0.04792398906718093 0.03722578730232784
0.023972872838087144 -0.049419499732094974 0.03699725223143541
0.024026546994540363 -0.049408005446359815 0.035484053762642354
0.02408046203824896 -0.049396459574787055 0.03396406412560693
0.024133603883182485 -0.04939890297961147 0.032449398305008315
0.02417321639104164 -0.049591215279015666 0.031093331634315824
0.024213981553446604 -0.04977008881855882 0.02972049049002734
0.02429341689868564 -0.04942043161520565 0.027877456953884883
0.02433613790369475 -0.049578681783513046 0.02647355491303449
0.024378879873799532 -0.04973926062703371 0.025066281259498613
0.02442508791385995 -0.049855177589257504 0.02361363246803666
0.024480873819360326 -0.049843570913357726 0.022040493909972092
0.024536915133672708 -0.04983191109775581 0.0204601529331655
0.024593213614857973 -0.049820197776670905 0.018872559961059576
0.024638121174268154 -0.04996591258295302 0.017421394928323508
0.02456555828303735 -0.05169873792616225 0.01742052822189727
0.02449342155347682 -0.05342138639067784 0.017419666605621775
0.024421707242309115 -0.05513394736717736 0.017418810034786902
0.02435047627509965 -0.05683564351707315 0.017417151724186397
0.024279659619203843 -0.05852744183749753 0.017415503059052262
0.02420918979266437 -0.06021028019623281 0.017414666026419445
0.024139191357192048 -0.06188253331423077 0.017413034086640522
0.024069533398709556 -0.06354598210770934 0.017412209007263257
0.024000339084480345 -0.06519902680559997 0.01741059351798213
0.023931479044397266 -0.06684341919979148 0.01740978017324768
0.023904481489643924 -0.06793179711188724 0.016880715188137496
0.023961040378338103 -0.06791970322481994 0.015286167808269524
0.024017867542632573 -0.06790755197287157 0.013684057016770501
0.024074964895831136 -0.06789534294692534 0.012074328872452078
0.024132334369475174 -0.06788307573396035 0.010456928919964525
0.024189977913560763 -0.0678707499170142 0.00883180218366536
0.02424789749675998 -0.06785836507513082 0.0071988931613852225
0.024306095106645373 -0.06784592078330831 0.005558145818104987
0.024364637450235736 -0.0678325796259775 0.003908660497561112
0.024423397465401148 -0.06782001309087438 0.0022520598007506054
0.027477208121902824 0.010867359241969077 0.044684620588756996
0.02735070422143234 0.008254785867287062 0.04500622061045939
0.027273718740905013 0.006356564608155479 0.044834506841086585
0.027217188221336844 0.0047542737939128 0.04446002601464044
0.027173176942960186 0.0033332882913849615 0.04396166332771384
0.027112778611102707 0.0016823578554850394 0.0436342443771805
0.027071009994205995 0.00029875047538524546 0.04311952896269139
0.02702701384735122 -0.0011138925166516156 0.04263069760647986
0.026992253271449385 -0.0023937301177948123 0.04204935069610677
0.026959774696068844 -0.0036394237527119233 0.04144672850989084
0.026950099252814712 -0.004562995948710957 0.040608789177804305
0.026951912869672072 -0.005324997992228464 0.03965142253841175
0.026996119566980507 -0.005494258794327356 0.03824929658677556
0.027088327958491847 -0.004996224283310424 0.03633896257869379
0.02719470312958272 -0.004306290104074351 0.034272634569394445
0.027299745888445068 -0.003641088348701804 0.03221301252584452
0.027440732266016534 -0.002483570995928275 0.02976408013682058
0.02758357819456199 -0.0013085589299494105 0.027285502047603383
0.02771185105836939 -0.0003431367892388071 0.024952867979546323
0.027888012053632262 0.0012746883737569381 0.022097361644653424
0.028016770310540715 0.0022303945663856295 0.019739967973371908
0.02814581642343191 0.003182526576668787 0.017370498184427374
0.028380919080561975 0.005579281268032088 0.013842755446454691
0.028523164436019977 0.006693575903879034 0.01130812536100595
0.02683670602937501 -0.017132836226189163 0.02870776482710835
0.02684367612033568 -0.01782211476590212 0.02769704546260171
0.026902353076579504 -0.017809855016723775 0.026118315340960818
0.02696128711591377 -0.017797541553555174 0.02453266828215217
0.027020479931596335 -0.017785174022615313 0.02294005872830235
0.027079933231788252 -0.017772752067003628 0.02134044072056801
0.027139725368857667 -0.01775924400488893 0.01973291615393813
0.025440883094901785 -0.04136662313037481 0.03772986620343288
0.025361807592758218 -0.04316957066649818 0.03772844865594227
0.02528315562930912 -0.044962234289420866 0.037727786039415734
0.025205056081616658 -0.0467429316791963 0.03772638367882336
0.025171657019533295 -0.04792398906718259 0.03722578730232928
0.02513151081256881 -0.04919271915837298 0.036803921682011465
0.025187817442452073 -0.049180708944225215 0.035289259094794134
0.02524444324675639 -0.049167767980647425 0.03376703872456677
0.02530125763120347 -0.0491556475208883 0.0322387197248985
0.025358328321973225 -0.049143472382201736 0.030703506030734795
0.02541545545078184 -0.04913389074361757 0.029163668978713253
0.025466024323054823 -0.049213612965703424 0.027695489584751043
0.025510835220426274 -0.0493715974896346 0.026290395457971683
0.025555600261259234 -0.04953279895645829 0.024882712736416124
0.025605842131443686 -0.04962530606158927 0.023408176472216657
0.025664433798932854 -0.049612275767087655 0.021832680620513467
0.02572322538275984 -0.04960007799220789 0.020250763991299436
0.02578228694226511 -0.04958782420418184 0.018661583073758647
0.02581136503970845 -0.04996591258296651 0.01742139492833583
0.025735346772704698 -0.05169873792617641 0.01742052822191026
0.025659774960784074 -0.05342138639069288 0.017419666605635598
0.025584645682417837 -0.05513394736719318 0.017418810034801557
0.025510022764388823 -0.056835643517089585 0.017417151724201718
0.025435833886783634 -0.05852744183751474 0.01741550305906836
0.02536200835421841 -0.06021028019625069 0.017414666026436265
0.02528867665991402 -0.06188253331424931 0.017413034086658064
0.02521570165578944 -0.06354598210772866 0.01741220900728163
0.025143212374215924 -0.0651990268056199 0.017410593518001227
0.02507107328460502 -0.06684341919981218 0.01740978017326761
0.025060680135010307 -0.0677067036180703 0.01666317795596406
0.025120017091470232 -0.06769406811004192 0.015066973700692432
0.025179635702748407 -0.06768137262504614 0.013463192740320984
0.025239537979012915 -0.06766861673502506 0.011851780999972195
0.025299725949605823 -0.06765580000784199 0.010232683888970084
0.025360268573242726 -0.06764208991521381 0.008605021039806371
0.02542103441939564 -0.0676291481727162 0.006970381020819816
0.025482092167573914 -0.06761614426174423 0.005327888651153301
0.025543443926164255 -0.06760307773326113 0.003677487213858077
0.025605091823907453 -0.06758994813389368 0.002019119444448658
0.028675594961740533 0.010173851597316985 0.045171812680879275
0.028604254874509016 0.00839623420464547 0.04490630532236345
0.028534484194435283 0.006644036124666075 0.044630328019265586
0.028471343674956733 0.004986093878046993 0.04429446983129626
0.028424392459949713 0.0035518567329437256 0.04380471488315718
0.028364299416958075 0.0019418812286212672 0.04344686662117114
0.028323127638659573 0.0005915377791566034 0.04290697822476741
0.02827515188858007 -0.0008484685170734307 0.042436958964124416
0.028241935316816076 -0.002086717090622525 0.041824032917929466
0.02821449923912664 -0.003245301582829929 0.04115590530053764
0.028217668314903334 -0.003991251895900272 0.040184603126360074
0.02824781007697109 -0.004375825255596599 0.038943389469339285
0.028313152509781527 -0.004291221426332481 0.037347023439463056
0.028418524400023133 -0.0036759343594494065 0.035343383042188925
0.02852014997208815 -0.0031164402538662594 0.03337055738468536
0.02863996212079992 -0.002320878427613249 0.031206691366298
0.028775197566945545 -0.0013274277906599186 0.028878058057335287
0.028942859613846003 8.768733113528882e-05 0.026209702138492386
0.029078200636092802 0.0010665084152082227 0.02386089178840728
0.02921175602294125 0.002014228436180432 0.021521396409680205
0.02941242522291911 0.0038372265063955635 0.018481814517064044
0.02960243503713851 0.0055091040391409 0.015538999172274137
0.029795357525414075 0.007208508441572892 0.012553335791600062
0.029934081859941356 0.008188809250965157 0.010118411345981182
0.028056477970098293 -0.017133857782047845 0.02870858200049714
0.0280824302171066 -0.01758023859160135 0.02750252681203763
0.02814385568132966 -0.017567441642555304 0.02592232331657318
0.02820555044978905 -0.01755458858857034 0.02433519182305821
0.028267516297418787 -0.017541679059871307 0.022741086670346633
0.028329755014784914 -0.017528712683426373 0.021139961795149986
0.028392268408258425 -0.01751568908290535 0.01953177072759571
0.02659728687194292 -0.04136662313037298 0.037729866203431384
0.026514617028792754 -0.04316957066649729 0.03772844865594155
0.026432389976095896 -0.04496223428942092 0.037727786039415734
0.026350740448962795 -0.04674293167919724 0.03772638367882414
0.026315823247693756 -0.04792398906718437 0.03722578730233078
0.02629158754819495 -0.048967378066005374 0.036611818291142406
0.026350533157617293 -0.04895485451295212 0.035095700291606524
0.02640981308034373 -0.04894139667746511 0.03357201233122126
0.02646929060341201 -0.04892875817020992 0.03204221549640618
0.026529036629758092 -0.04891606260812903 0.030505512599529272
0.026589052981678383 -0.048903309603995526 0.028961856770059913
0.026640086580789854 -0.04900653771994806 0.02751329645190964
0.026686992529547607 -0.04916425581754613 0.0261070083600885
0.026733850580074145 -0.04932519357774451 0.02469812732330645
0.026788298228843245 -0.049394227734752216 0.023201641855971122
0.026849566453643427 -0.04938155071324074 0.021625379545788526
0.026911115577245574 -0.049368815570912605 0.020041890484757074
0.026972947535859475 -0.04935602190714811 0.018451124859541146
0.026984608905148606 -0.04996591258298061 0.017421394928348655
0.026905135262371885 -0.051698737926191285 0.017420528221923914
0.026826128368091166 -0.053421386390708536 0.017419666605650086
0.026747584122526404 -0.05513394736720956 0.017418810034816767
0.02666956925367782 -0.05683564351710679 0.01741715172421776
0.026592008154363234 -0.05852744183753272 0.017415503059085236
0.026514826915772255 -0.060210280196269395 0.017414666026453918
0.026438161962635782 -0.061882533314268795 0.017413034086676493
0.026361869912869117 -0.06354598210774881 0.017412209007300783
0.026286085663951287 -0.06519902680564077 0.01741059351802121
0.02621066752481255 -0.06684341919983372 0.017409780173288314
0.026218600292095887 -0.06748046501698912 0.016444534057131532
0.026280723539214665 -0.06746728436404797 0.014846663750864741
0.026343141879423135 -0.06745404110139613 0.01324120336344875
0.026405857420320138 -0.06744073478186252 0.011628098685396326
0.026468872289622355 -0.06742736495401269 0.01000729498976366
0.026532188635405515 -0.06741393116209077 0.008378737025954819
0.026595808626348187 -0.0674004329459712 0.0067423690134466585
0.026659734451979944 -0.06738686984109987 0.0050981346354136425
0.026723968322931706 -0.06737324137845041 0.003445977032277281
0.02678858388422487 -0.06735870558827434 0.0017849867817622544
0.029946458245288212 0.010490516184688936 0.04494935445130893
0.02985718184264586 0.00851771632493592 0.044820493631155145
0.029791102066776112 0.006853272374377883 0.044481716388217796
0.029729780870427186 0.005254516009561672 0.04410277400052026
0.029676184556233415 0.0037597259338730815 0.04365544929145321
0.029626631147434003 0.0023203913543682897 0.04317357956755352
0.0295809142331645 0.0009335082483548085 0.04265872266641496
0.029527270809558102 -0.0005535985910454788 0.04222172711157579
0.029500770980354734 -0.0016869662333142132 0.04153065456906013
0.029481113795748682 -0.0027306477077684854 0.04077614160519344
0.02948583908044645 -0.0034594076229620407 0.03979001935935472
0.029511730656692742 -0.003916519877760316 0.038600771752078544
0.029604883380997166 -0.003512788240147391 0.03676320170660835
0.02971916405027156 -0.0028437699425425955 0.03471588006007331
0.02987368378756713 -0.0016671979158501271 0.03227182341584883
0.029995372065674177 -0.00091713630108331 0.030136698343287638
0.03012515099324704 -7.074450209282324e-05 0.027914986064595193
0.03027212977279268 0.0009868797990958966 0.025516879387759372
0.030463943856528616 0.0026041767159772355 0.022669743002165288
0.030602550994227255 0.003539106355467392 0.020333797909323992
0.03082122046013331 0.005475788109679358 0.017198816654492244
0.030996604638672143 0.006856309792493576 0.014478468824055735
0.031155286348672324 0.008017798842179347 0.011912838894682198
0.0313734111601143 0.009915285491768955 0.008744704035149431
0.031645433226705454 0.01247468294200249 0.005023815911487928
0.02784042052355342 -0.03955330954860664 0.03773204575404798
0.027753690648984065 -0.041366623130371094 0.03772986620342983
0.0276674264648273 -0.04316957066649629 0.037728448655940716
0.027581624322882674 -0.04496223428942092 0.037727786039415734
0.027496424816308932 -0.04674293167919813 0.037726383678824915
0.02746006138722917 -0.047923111522181205 0.03722504313199987
0.02745323148811798 -0.048741732549355044 0.036419455378424226
0.027514823166247097 -0.0487286942793661 0.03490187941373052
0.027576764353146974 -0.04871471818214029 0.03337672128164609
0.027638912200914252 -0.04870156023050226 0.031845444005263845
0.02770141397902214 -0.04868745959990706 0.030306480283674053
0.02776412556385867 -0.04867418032936377 0.028761315281469968
0.027815606381050535 -0.048799205400111234 0.027330877134948084
0.0278645385087889 -0.04895754401390501 0.025924178360763717
0.02791356879225184 -0.04911732955911874 0.024513311949126926
0.02797231997042066 -0.04916371947428122 0.02299561675716827
0.028036340505873624 -0.04915050610737659 0.02141779136103583
0.028100654762479454 -0.049137232118604324 0.019832727026768915
0.028165264766239685 -0.04912389708981446 0.018240373822313583
0.028157852770588604 -0.04996591258299532 0.01742139492836209
0.02807492375203891 -0.05169873792620683 0.01742052822193818
0.027992481775398093 -0.053421386390724857 0.017419666605665074
0.027910522562634786 -0.05513394736722671 0.0174188100348327
0.027829115742966624 -0.05683564351712478 0.017417151724234525
0.027748182421942647 -0.058527441837551375 0.01741550305910272
0.027667645477325902 -0.06021028019628888 0.017414666026472236
0.027587647265357337 -0.06188253331428906 0.0174130340866957
0.027508038169948568 -0.0635459821077699 0.017412209007320878
0.027428958953686414 -0.06519902680566264 0.017410593518042083
0.027350261765019847 -0.06684341919985626 0.017409780173309963
0.027378111772270525 -0.06725472598746385 0.016226372959519453
0.027443028924079075 -0.06724100062538546 0.014626839535098801
0.027508254662022405 -0.06722721001929666 0.013019702668067679
0.027573791191656653 -0.06721335370287645 0.011404908014382098
0.027639640739606088 -0.06719943120535393 0.0097824007108821
0.02770580555381584 -0.06718544205144861 0.008152125369072283
0.027772361460160697 -0.06717054921383231 0.0065131920934252685
0.02783916399157614 -0.06715642325332194 0.004867206000606972
0.02790628866615387 -0.06714222917293045 0.0032132824366317703
0.02797373781974195 -0.06712796647872327 0.0015513638471919555
0.03139199973628677 0.013792535103398285 0.04415859484676771
0.031182383236966184 0.01034110375569719 0.04505431732292381
0.031121612507233425 0.00877430233919052 0.044639248195440406
0.031051276835913997 0.0070904567957639775 0.04431325435656769
0.030993829584649663 0.0055718204038422425 0.04387616850742143
0.030935981164373155 0.004051118664574749 0.04344620757516249
0.030883761344788586 0.0026036724281934265 0.042969048579489355
0.03083354523244441 0.0011838789935927352 0.04247696448916677
0.03078739669894982 -0.00018275207013740413 0.0419510383208217
0.030765370691234816 -0.0012476680516995686 0.041208252320691696
0.03075480247064355 -0.0021695636636728244 0.04036211703390469
0.03077915493487308 -0.0026593727203312323 0.03919646067746502
0.030843906355011153 -0.00265223024557687 0.0376576780095762
0.030942641589771357 -0.0022301995889441595 0.0358012654194943
0.03105039413801605 -0.0017025075149360025 0.03385529823014899
0.031176153114768713 -0.0009596883097678366 0.031735429455301944
0.03137784152063263 0.0007052239727308729 0.028900065103476258
0.031516999705993164 0.0015966748701986 0.026637142305379502
0.031645474382266094 0.0023508679092348883 0.024465934202935025
0.03186194236065076 0.004167759177180652 0.02145851991203568
0.03201707044448332 0.005229686661077981 0.019017147828500558
0.03221708460379871 0.006826789596250216 0.01614097908761164
0.03240835921436285 0.00830807731674732 0.013335626675261947
0.032559352885078316 0.009294173217403334 0.010902677615092282
0.03285166338821378 0.011971635719881468 0.007108525514283481
0.03305397107143739 0.01355422670930645 0.004160256243021243
0.029000438045368393 -0.039553309548603754 0.03773204575404554
0.028910094426025233 -0.04136662313036921 0.03772986620342822
0.02882023590086185 -0.04316957066649535 0.03772844865593994
0.028730858669669453 -0.04496223428942092 0.037727786039415734
0.02864210918365505 -0.04674293167919913 0.03772638367882575
0.02860423061169689 -0.04792311152218315 0.03722504313200148
0.028616520782369797 -0.04851490561949434 0.03622608531036947
0.028680765976923442 -0.04850134924727406 0.03470704315537454
0.028745300286437184 -0.048487731868946005 0.033181165036756666
0.028810125666916236 -0.04847405307177549 0.03164840470585012
0.028875320426298208 -0.04845942799538472 0.030107945458217322
0.028940734233906296 -0.04844562306717143 0.0285612744370089
0.02899258643972738 -0.048591615527178056 0.027148231212409724
0.029043620798883226 -0.04874968724885703 0.025740335679581616
0.029094680143753514 -0.04891009638409255 0.024329057468538695
0.029158056793955348 -0.04893200062831499 0.02278850965377377
0.029224837561349942 -0.04891824736327188 0.021209112301417476
0.029291924927249937 -0.04890443095535535 0.019622463746541197
0.029359321007959134 -0.04889055096872047 0.01802851393753907
0.02933109663602845 -0.049965912583010585 0.01742139492837602
0.029244712241705773 -0.05169873792622298 0.017420528221953002
0.029158835182704842 -0.05342138639074184 0.017419666605680784
0.02907346100274298 -0.05513394736724464 0.017418810034849297
0.02898866223225524 -0.056835643517143486 0.0174171517242519
0.02890435668952185 -0.058527441837570915 0.01741550305912104
0.028820464038879327 -0.06021028019630925 0.017414666026491443
0.02873713256807867 -0.06188253331431015 0.017413034086715684
0.02865420642702779 -0.06354598210779183 0.01741220900734175
0.02857183224342131 -0.06519902680568529 0.01741059351806379
0.02848985600522689 -0.06684341919987974 0.017409780173332556
0.028539358040705797 -0.06702783810115726 0.01600710157160029
0.028607077400809394 -0.06701356448473117 0.014405895813947411
0.02867511889985003 -0.066999222969163 0.012797073169168838
0.02874348484191592 -0.06698481306880316 0.011180579157731962
0.02881217755312058 -0.06697033429336452 0.009556358779316432
0.028881199381867194 -0.06695578614786041 0.007924356506570585
0.028950552699116013 -0.06694116813255085 0.006284516278785679
0.02902023989865637 -0.06692647974287957 0.004636781495470532
0.029090263397381227 -0.06691172046942534 0.0029810950098498323
0.03255999783705806 0.012726809453173504 0.044903165454026006
0.03245052253806322 0.010593935572652757 0.04487670188810128
0.03238133121965676 0.008954112736281883 0.04451223498366608
0.03231969702692162 0.007409003333526953 0.04408700426554962
0.03225335113490968 0.0058101392460041534 0.043705971183601644
0.03219612605454346 0.004324286696242019 0.04325005255220021
0.03214619768285846 0.0029288688141060337 0.04273425443236384
0.03209116491807156 0.0014747618860320721 0.04226579627032312
0.032050420760291104 0.00019422029580878908 0.0416758781450276
0.03202701710986762 -0.0008774005808336871 0.04093651191724618
0.03203695270773329 -0.0015508861639255134 0.03990559418444156
0.0320839139438275 -0.0017849055963106708 0.03854767954081373
0.032163308936978253 -0.0016366545263020171 0.036900111798872204
0.03227488594716524 -0.001111517349304092 0.034962258276362124
0.03242208875658426 -0.00017121558488741861 0.03270061024653309
0.03254861605718355 0.000518175431739154 0.030614996349318857
0.03268544271927377 0.001322419385259399 0.02842961203894362
0.03291033987871005 0.00315333226133091 0.025444182114589653
0.033042540377181635 0.0038876982141067273 0.0232818150769753
0.033220727824478095 0.005152872410539411 0.020695405766000874
0.033428565251522616 0.006754954975864036 0.01782924528209351
0.03360598026185999 0.007992787600760554 0.015227999713170182
0.033840644232238135 0.009886540321855375 0.012093048905466086
0.034071044801544985 0.01171929497109031 0.008983362920737148
0.034295697345270604 0.013474203842907595 0.005912975429758327
0.031742605989803704 -0.016827134968202095 0.02846322515674704
0.031812031428570045 -0.016812691989043616 0.026885260023334023
0.0318817612189325 -0.016798185693861156 0.025300377307307054
0.031951797366641305 -0.016783615665383333 0.023708531420136847
0.03202214189510951 -0.01676898148266953 0.02210967637183109
0.03209279684560829 -0.01675428272106455 0.020503765766500925
0.030160455567183404 -0.03955330954860059 0.03773204575404293
0.030066498203066425 -0.0413666231303671 0.03772986620342644
0.02997304533689641 -0.04316957066649435 0.037728448655939106
0.029880093016456236 -0.044962234289420866 0.037727786039415734
0.029788730908372193 -0.046732349697153175 0.03771745728070852
0.02974847774056216 -0.04792223397258394 0.03722429895777307
0.029781467931929668 -0.048286893085827565 0.036031704514493224
0.02984837415483243 -0.04827281520566867 0.03451118790767621
0.029915581673960703 -0.0482586739291474 0.032983824016768415
0.02998309252913128 -0.04824446882705852 0.03144956648472064
0.030050908778615125 -0.048230199466320345 0.029908368535084884
0.030117834684650572 -0.04822918044607172 0.028371836725483823
0.030171029479462624 -0.04838376762094221 0.02696535826178975
0.030224171264526634 -0.048541571663689165 0.025556264080255964
0.03027733918343092 -0.04870171474401791 0.02414378186847499
0.030345359650365448 -0.048700852985793075 0.02258191308412666
0.030414907895673686 -0.04868656041833397 0.0210009469900021
0.030484775667242843 -0.0486722021863894 0.0194127174461165
0.030554965172147223 -0.04865777783639469 0.017817174281401116
0.03050434050146813 -0.04996591258302652 0.017421394928390566
0.030414500731372463 -0.0516987379262398 0.01742052822196838
0.0303251885900114 -0.053421386390759606 0.01741966660569716
0.030236399442850996 -0.055133947367263125 0.01741881003486645
0.030148208721543657 -0.05683564351716286 0.017417151724269997
0.030060530957100838 -0.05852744183759129 0.017415503059140136
0.029973282600432544 -0.060210280196330346 0.017414666026511316
0.02988661787079977 -0.06188253331433213 0.0174130340867365
0.029800374684106776 -0.06354598210781459 0.0174122090073634
0.029714705533155954 -0.06519902680570888 0.017410593518086326
0.029632078081301597 -0.06681537730030518 0.01738281983512019
0.029702196622976643 -0.06680145075498123 0.01578831392096186
0.02977272582695112 -0.06678662932130036 0.014185438769063197
0.02984359077771421 -0.06677173733177505 0.012574933300133873
0.029914793878416602 -0.06675677428138971 0.010956742899204952
0.02998633755519787 -0.06674173966030245 0.00933081242884748
0.030058224257462435 -0.06672663295378234 0.0076970862229058246
0.030130536376450967 -0.06671061465657296 0.006054671674153411
0.030203116957846634 -0.0666953601535728 0.004405178451353742
0.030276048058140357 -0.06668003198086259 0.0027477192060022526
0.033830923447849305 0.012944719960328921 0.04475092199567776
0.03371412531969306 0.010775050364122907 0.04474946797099727
0.0336473884353543 0.009194489729953625 0.044342439162641356
0.03357346060351123 0.007533455340664519 0.04399861128491961
0.033520227661960285 0.006116189230242097 0.04348740311823218
0.03345881001598514 0.0046066358499655125 0.043047304798760844
0.03340830490400706 0.003226171510271325 0.0425195997313641
0.03335182182218713 0.0017791402379418453 0.042044830939951316
0.033312171401702124 0.0005286068354293239 0.04143180227279697
0.033289797884999334 -0.0005215265416753101 0.04067533489634684
0.03332242814071573 -0.0009399091947283056 0.03945475356546285
0.03338410145420265 -0.001027522796358149 0.03798576513564539
0.03348150639734097 -0.0007100674487193204 0.03620892644663404
0.03358674745718225 -0.0003079589421015605 0.03435959272963479
0.03372125698249119 0.0004219501631330669 0.032253326911401814
0.03391963969101948 0.0018702356818201538 0.029589940369577628
0.034076805353993336 0.0028423591687531946 0.027271048131087883
0.03422222496858119 0.003674274058084459 0.0250449530814153
0.03446126034261603 0.005554854338784387 0.02199728063818024
0.03463793350023514 0.006722356118085138 0.019479611298276744
0.03486005107751019 0.008391702651428246 0.01655452088588044
0.035036268409087065 0.009536191113024672 0.014019510875550534
0.03519494509060343 0.010476175275892396 0.011628883902035592
0.035496557855990284 0.013003303682752376 0.007967159596419027
0.035862160470437304 0.016228465271414083 0.0037214891116381654
0.032985227876275156 -0.016585484724776778 0.02826992182767646
0.03305741881089439 -0.016570503322113406 0.026690490063831562
0.03312992643042065 -0.016555456199519758 0.025104129698701516
0.033202752823269434 -0.016540342923600126 0.02351079504081577
0.033275900096260295 -0.01652516305713375 0.021910439996056963
0.03334937037481896 -0.016509916159044402 0.020303018063225486
0.03132047308899844 -0.039553309548597426 0.03773204575404032
0.03122290198010763 -0.04136662313036504 0.03772986620342472
0.031125854772930985 -0.043169570666493295 0.037728448655938274
0.031029327363243014 -0.044962234289420866 0.037727786039415734
0.03095531323198686 -0.04650555894090058 0.03752614864204146
0.030883753421569904 -0.04801873688238523 0.03730613476341604
0.030947923115688284 -0.04805944826098579 0.03583780769066647
0.031017497212573773 -0.04804484947450399 0.03431581970593983
0.031049336760324172 -0.04844018409142681 0.03314020104781101
0.031119450189662536 -0.04842551343783802 0.031606365521156476
0.031189963451491796 -0.0484098916719945 0.030064816851818
0.03129562881378344 -0.0480213452013431 0.028189932473282497
0.031350938229671166 -0.048175661200003106 0.026782257859532643
0.03140619264965267 -0.04833319677468184 0.025371963134952158
0.03146231346201431 -0.04848415089582586 0.023950342213659437
0.03153430656713392 -0.048469385272725096 0.022375030439847232
0.03160662990189767 -0.048454551920287026 0.020792492770624782
0.03167928574365523 -0.04843965037142911 0.01920267937433856
0.031752276390744266 -0.04842468015476953 0.017605539960081462
0.03167758436690764 -0.04996591258304306 0.017421394928405665
0.031584289221038966 -0.05169873792625729 0.01742052822198442
0.03149154199731778 -0.053421386390777925 0.01741966660571409
0.031399337882958796 -0.0551339473672825 0.01741881003488438
0.03130775521083185 -0.05683564351718312 0.01741715172428887
0.03121670522467962 -0.05852744183761227 0.017415503059159787
0.03112618329046739 -0.06020942843349364 0.01741386395558775
0.031036103173520627 -0.061882533314355004 0.01741303408675815
0.03094654294118551 -0.0635459821078383 0.017412209007385937
0.030857578822890346 -0.06519902680573336 0.01741059351810975
0.030793782849279663 -0.06658921088793479 0.0171653765426793
0.03086678334609688 -0.06657391078434421 0.015568412338815507
0.030940130778903594 -0.0665585379667904 0.013963858537869855
0.031013827626818636 -0.06654309191567892 0.01235166090645562
0.03108787639263796 -0.06652757210644822 0.010731764693229284
0.031162279603116964 -0.06651197800952002 0.009104114622702553
0.031237039809258443 -0.06649630909023369 0.007468654888950044
0.03131215958660456 -0.066480564808781 0.00582532914922651
0.03138764153553171 -0.06646474462015334 0.004174080517505896
0.031463488281551176 -0.06644884797407241 0.002514851557911313
0.0350761749244874 0.012857299951881174 0.044811998097921024
0.03497969161156703 0.010965344036423186 0.044615785850777634
0.034913903302087906 0.009422841104010038 0.04418113791476491
0.03484071995453178 0.0078004055591561205 0.0438090078704384
0.03479038623628395 0.006437119227564014 0.04325820837147115
0.03472491314027522 0.004907014374512297 0.04283161061221852
0.03466469478331092 0.003438498283561464 0.04236629826244809
0.034621823381512165 0.002165742021841943 0.04176417500510643
0.03459157322270955 0.0010350830838546377 0.041062114449122
0.03458805237030896 0.00020196493336821497 0.04014436234059421
0.03463260482095743 -9.945882310913312e-05 0.03883458425489206
0.034727278909761794 0.00015010183311814362 0.03711206660007621
0.034843002292582956 0.0006270852497837764 0.03521148067896562
0.034967793447106 0.001198390668866789 0.033229836630115916
0.03510002649756291 0.0018455660484686942 0.031179833266052615
0.035229509303516815 0.0024565771769839984 0.029145409250678045
0.03548261220219794 0.004411447806766999 0.026075020838446872
0.035637036879534706 0.005279498081676659 0.023814773358919017
0.03590089658004945 0.007330351762348586 0.020629269836551778
0.036061011225345385 0.008243446188265502 0.018301304774071214
0.03623532800180126 0.009302957762740705 0.01584482131586984
0.03652188849424787 0.011567168279553341 0.012429250638543665
0.036731003717043305 0.012983266322729059 0.009655283259149383
0.03701731104010611 0.015220217131265534 0.006212627251238445
0.03422958661982694 -0.016342489369391255 0.02807554250291805
0.03248049061081351 -0.03955330954859404 0.037732045754037546
0.03237930575714886 -0.04136662313036282 0.037729866203422946
0.032278664208965566 -0.04316957066649224 0.03772844865593733
0.03217856171002979 -0.044962234289420866 0.037727786039415734
0.03212355443374058 -0.046277577843106044 0.03733383589446043
0.03204395503726588 -0.04784762545357518 0.037161029899114795
0.03211663904761213 -0.047824654331649674 0.0356376457516831
0.032190500558627384 -0.0477927579745025 0.03409977555414251
0.0322213624082011 -0.04821106101216244 0.03294280390801041
0.03229417236238605 -0.048195862544616774 0.03140746957711993
0.03236731211614236 -0.04818059523418733 0.029865180804204028
0.03247488617026098 -0.047813251753414665 0.028007802233135537
0.03253231542656164 -0.04796729578176201 0.026598929581028496
0.032589600887357344 -0.048125454251515876 0.025188221497072116
0.03265013807463471 -0.04825290219454842 0.023744735127172456
0.032724988501473866 -0.048236701265314874 0.02216706068848745
0.03280009496321789 -0.048221323544116235 0.020582942519230596
0.03287554696866477 -0.04820587507436447 0.0189915362678737
0.032948152019731336 -0.04822281991115951 0.01742226677023262
0.032850828232346974 -0.04996591258306021 0.01742139492842132
0.032754077710705286 -0.051698737926275384 0.01742052822200102
0.03265789540462395 -0.05342138639079702 0.017419666605731687
0.0325622763230664 -0.05513394736730243 0.017418810034902865
0.03246730170011984 -0.05683564351720405 0.017417151724308355
