# .PCD v0.7 - Point Cloud Data file format
VERSION 0.7
FIELDS x y z
SIZE 4 4 4
TYPE F F F
COUNT 1 1 1
WIDTH 783
HEIGHT 1
VIEWPOINT 0 0 0 1 0 0 0
POINTS 783
DATA ascii
-0.0360375916448501 0.04692420949819348 0.13709215857515042
-0.033777756598239006 0.046753240562722544 0.13689012594240438
-0.031519237085561314 0.04658181706099464 0.13669628444148602
-0.02925371944299704 0.046409000735386785 0.1365143972863068
-0.026858949158220458 0.046220997945460446 0.1363997499589638
-0.02449711740415844 0.04603605017868927 0.1362798434752271
-0.022252662290786707 0.04586372930061223 0.13611583865551247
-0.01995916107839424 0.04568523560796079 0.13598332508341934
-0.017761841966311587 0.045517029689016754 0.13581553700432966
-0.015584680379873372 0.045350517086071344 0.13564709896095836
-0.013336408395034638 0.04517530453877551 0.13552067895925293
-0.011157925208890085 0.0450074331766849 0.13537046394002258
-0.008946513647400844 0.04483519322990928 0.13524465966510563
-0.00681319912594941 0.044671283568366985 0.1350905498880618
-0.00464726452505676 0.04450303924880434 0.1349607239334689
-0.002483271661511466 0.04433441154884644 0.13483879816438055
-0.00038950043017577096 0.044173264989114856 0.13469155396874744
0.0017509330235074283 0.044006149502782976 0.1345756712276218
0.003761065363896865 0.043853494678497494 0.13440437361068244
0.005855755401840301 0.043690490326567466 0.13428310372040123
0.007694154811810405 0.04355663523607915 0.13404254451345265
0.009743919670044232 0.04339771862311813 0.13391525322572978
0.011582427222997738 0.0432628274749184 0.133689661204778
0.013587433734062737 0.04310801462863051 0.1335559161617933
0.016009370082509078 0.0429038951175162 0.13364372517606693
0.017765033374596728 0.0427770565380067 0.13339953168905883
0.01909182540894072 0.04270007092923767 0.13294005532555014
0.0201280394707527 0.04265695800983522 0.13233332814995535
0.02121466594326349 0.0426077491490116 0.1317553438210984
0.022346774365610944 0.0425529922227518 0.13120399530714577
0.022800839518441196 0.04257817708862249 0.13029590093647386
0.023061108493076077 0.04262640470957834 0.12928301522169422
0.023155650511696213 0.04269447353942646 0.12817853527508746
0.023210124611672267 0.042767558563125495 0.12704871705377813
0.02321315519051076 0.042847042513308925 0.1258869701166965
0.023139442718981218 0.042935979668353344 0.12467894235255092
0.023116425664163165 0.043019190576210696 0.12349393346520787
0.023043947419331356 0.043108637082810555 0.12227701320834408
0.022970298876268003 0.043198560497245034 0.12105453878687203
0.022858046519151243 0.0432934632041457 0.11980551891719607
0.022752280878233277 0.043387943075736 0.11855492947888877
0.02263293047728565 0.04348441952827621 0.11729143818313303
0.02254023559446361 0.04357803933669503 0.1160378033285778
0.022410216074102096 0.043676535364155826 0.11475760041263944
0.0223166291600419 0.04377098513015077 0.11349293559286547
0.02223147157681976 0.04386477012214474 0.11222791129798065
0.022122035987117705 0.04396187066840628 0.11094351052098061
0.02201744235188624 0.04405875186125772 0.10965653545617784
0.02194086856900329 0.044152578274646054 0.10838067784921496
0.021830065825212297 0.04425095863381124 0.10707925863812282
0.021776902191227576 0.0443426424803618 0.10580672056065502
0.021693940309362725 0.044438344655684234 0.10451114486544705
0.021596242867728543 0.044536232368846435 0.10320128555196989
0.02151432785606222 0.044632550493498686 0.1018954874447087
0.02143025198684173 0.04472950951124402 0.10058292629859902
0.021330423197044923 0.04482879778532106 0.09925519990132026
0.02123740937898627 0.04492762636529703 0.09792604979337827
0.021145803762937565 0.04502666530117677 0.09659215642710706
0.02103373163474509 0.04512864291910538 0.09523983550161483
0.020918407777946457 0.04523142613599661 0.09387965171009577
0.020805307477107793 0.04533433441855941 0.09251499569602947
0.020665955817606163 0.04544093937378793 0.09112776179486845
0.02050013739166917 0.04555128991441279 0.0897174940278164
0.020392670926934642 0.04565472961918937 0.08833838068657279
0.02025320839903627 0.04576261471501409 0.08693262639373342
0.020135387194893994 0.0458681919676238 0.08553470782322839
0.020194878190974486 0.04595173206379401 0.0842465731789667
0.004088138061232427 0.04808711554007231 0.0723278471169024
0.004054636671642298 0.04818723645783248 0.07090894262266384
0.0027344760324398143 0.04845168799112802 0.06862900992778387
0.0027741480278514197 0.048543597834829186 0.06724254173092148
0.0028139708199614866 0.048635857035769905 0.06585080344888561
0.0028539452701947243 0.04872846758964849 0.06445376497638816
0.0028940722465492508 0.0488214315073928 0.06305139597840204
0.0029343526236598194 0.048914750815305795 0.061643665887965604
0.0029747872828613797 0.04900842755521268 0.06023054390396215
0.0030153771122528594 0.04910246378460997 0.05881199898887274
0.0030561230067629452 0.049196861576815985 0.05738799986650439
0.003097025868215142 0.0492916230211233 0.05595851501969129
0.0031380866053947742 0.04938675022295288 0.054523512687969455
0.0031793061341161555 0.04948224530401 0.053082960865224516
0.0032206853772904775 0.049578110402442005 0.05163682729731217
0.0032622252649952 0.04967434767299784 0.05018507947965123
0.003303926734543161 0.049770959287189574 0.04872768465478755
0.003255927931960334 0.04987975030817601 0.04719972820031976
0.0027280341726622637 0.05005215132813019 0.04531684728027996
-0.001025302866522082 0.05065065749594519 0.041069257787652635
-0.0005240272548560077 0.0506893555159814 0.03990800433659325
-2.306982093830401e-05 0.05072825636853717 0.03874417466716723
0.0004808253870445811 0.050766929223464166 0.03758016597576702
0.000984405942009825 0.05080580518301652 0.03641357290062336
0.0014021039909581368 0.050856288649305116 0.03518020133267674
0.0017209420396613329 0.050920185584579974 0.03386920314748032
0.001976595827595462 0.0509928061677968 0.03250639554082235
0.0022318943461639984 0.0510657797580302 0.0311388677752642
0.0018971220048585313 0.05121835885100682 0.029314652690230758
0.0012987085600649206 0.051407087047179445 0.027277915786551865
0.0007905522982975532 0.051584433124678336 0.025299459781574885
0.0006545444800138411 0.051712201121781584 0.023599880926708117
0.0005045773327296277 0.05184240398094911 0.021881460554240728
0.00047816209668444243 0.05195638075003361 0.020252221930492476
0.00034484259724143485 0.05208539445036363 0.018531288518636613
0.00017626505281037597 0.05221976908232697 0.01677426158422296
1.912874765563899e-05 0.05235315572985687 0.015017995118156435
-0.0011203017191281917 0.05262167464235251 0.012463412123672468
0.05845400315767407 0.04533720292274939 0.0476052344309546
0.061842412732329544 0.044962358967101865 0.049028816901754146
0.06429612053629502 0.04471700389021428 0.04967959242191866
0.06637492778593107 0.0445232812619896 0.05002483708631017
0.0682348132323588 0.04435955291340545 0.050193945515875804
0.06993816438440198 0.04421720702634047 0.050238047227430194
0.07149647971125561 0.04409475840499224 0.05016507919330715
0.07296170334856594 0.04398497104668501 0.05001857028982576
0.07428655840705262 0.043894651233004074 0.04975569076209524
0.07552853437825935 0.043815737576158004 0.04942538721180029
0.07671145704310178 0.043744904078944546 0.04904772722312328
0.07779530750488944 0.04368793314720117 0.048586149869310535
0.07882447366212997 0.04363855066748419 0.04807917381824123
0.07981590122330606 0.04359437153689656 0.04754135653436531
0.08074726790229009 0.04355864772427786 0.046951917281922606
0.08164415860155938 0.0435277414636162 0.04633336988948039
0.08248650531657059 0.04350459053492083 0.045666825018317536
0.0832879411497271 0.04348726988623814 0.0449640846875452
0.08403214594477276 0.04347819261893917 0.04420943797183652
0.08472030220848614 0.04347724289251805 0.04340316348957507
0.08535207690738661 0.04348452519980836 0.04254413560289905
0.08592202897053164 0.043500892903058336 0.041626404658625826
0.0864326078320013 0.04352604924599323 0.040651375475926343
0.0868415263055265 0.04356627520410532 0.03957792587102188
0.08720295363758868 0.04361368890917212 0.038456343637040036
0.08749601949409386 0.04367142443497137 0.0372658354805544
0.08784606686687108 0.04372098809817032 0.03612648900019749
0.08838769097619442 0.04374234042030924 0.035169888705621655
0.08941689149827586 0.04369123641247962 0.03468795553604137
0.09039949124336777 0.043646844246698076 0.034163762900687344
0.09122668146826662 0.04362547878931609 0.033489265297958704
0.09193331567476454 0.04362207925448479 0.03269666503789154
0.09256628526485261 0.04362972895709102 0.031830859935724876
0.0931345089046477 0.043647163297625614 0.030899647215080484
0.10833703759025609 0.04145604132196682 0.04470811829885857
0.10931319242012766 0.04140669114875814 0.044263847955420266
0.11028702594144879 0.04135745833088721 0.04382063409247555
0.11125917311239125 0.041308247193079406 0.04337911405024247
0.11222838581259742 0.041259248059383934 0.04293800212964616
0.11319530191005445 0.04121036503182878 0.04249793544797448
0.1141605473527581 0.041161503116644405 0.04205955215336149
0.11512289172696394 0.04111285129019816 0.041621565081455814
0.11608296385484379 0.04106431433836164 0.04118461216586067
0.11704077177460448 0.04101589185475902 0.040748689748187183
0.11799632348658295 0.04096758343492904 0.040313794187281426
0.11895023017186923 0.04091929520456044 0.03988056491852038
0.11990129044017889 0.04087121392602868 0.03944771244811052
0.1208501182885664 0.04082324550848783 0.03901587601055073
0.12179731618296163 0.040775296739986686 0.038585695776504336
0.12237547130345916 0.040784858910361294 0.037757350054240524
0.12282294259165649 0.04081496723220768 0.036785375841459134
0.12323849602318704 0.04085024299610417 0.035776146699840916
-0.04974978934732238 0.049124145563363426 0.1384213488484455
-0.047241433951064504 0.04892441333252335 0.1382729507029581
-0.04488178758040795 0.0487409236072317 0.1380707475692271
-0.04283953622113057 0.04859300941697004 0.1377407832024828
-0.040685475994111375 0.048431797429064054 0.13746671489980453
-0.03850795971609061 0.04826733457656585 0.13721093228191303
-0.03631110516494079 0.04810007607275034 0.1369718678809293
-0.03400414891231007 0.04791957774345646 0.13678990948325243
-0.03171336292095789 0.04774030480849688 0.1366097923369909
-0.029423617877202657 0.047560519143497355 0.1364382086924202
-0.02708116503020369 0.04737400912194552 0.1362994559682516
-0.024760158339058314 0.04718932024746661 0.1361603582177423
-0.022534055032114142 0.04701497789951892 0.13598719540414217
-0.02025845602141141 0.04683426772104457 0.13584562040136047
-0.017953387851181446 0.046649485585205756 0.13572684396623627
-0.015732068871926297 0.04647380501535662 0.13557841743833585
-0.013510409648290367 0.04629745687834526 0.1354390807377173
-0.011283743685190306 0.04611989177381689 0.13531108709096265
-0.009053477879507776 0.04594126800705147 0.13519386147615048
-0.006809310569283522 0.045760370611844965 0.13509240823848406
-0.004683866034857875 0.04559278343094327 0.1349431219993513
-0.0025462526554599907 0.04542315834234426 0.1348083202053359
-0.000351685339837593 0.045246198718710495 0.13470996801978247
0.001842701201268504 0.04506862004562664 0.13462063648334452
0.004053306572272819 0.044888476440244574 0.13454845907940977
0.006155406256942775 0.044720554248300036 0.134431759263382
0.008173578088499278 0.044561998364233135 0.13428185665088443
0.010247849713255097 0.04439618317894907 0.1341683514670746
0.012247756501830298 0.04423863519987134 0.13402588008556127
0.01431146462131766 0.04407288446386931 0.13392404728514534
0.016836422467471635 0.04385129083721514 0.13406681434651607
0.018731520664898582 0.04370444859084251 0.13389697320485217
0.02076960933073213 0.04353987980319505 0.13380886072919093
0.022523979670517003 0.043408867986512105 0.133581564282238
0.023340631869413098 0.043390494831320986 0.1328696514974669
0.02335835781929979 0.04346861112695825 0.131737419138039
0.02346232813170679 0.043536574216488995 0.13064682151796617
0.023558082314276974 0.04360578634007483 0.12954824953954616
0.023527508405338793 0.04369060901383494 0.12837818879734061
0.02349166921625495 0.04377638891633331 0.12720078757993816
0.02344537509302419 0.043863764480107675 0.12601314976488132
0.02331101673756969 0.04396222970628928 0.1247727261174405
0.023205428530060523 0.044057541226757334 0.12354287309658735
0.02311756707541701 0.044151036018897895 0.12231773486246728
0.022992004453177117 0.04424951619991504 0.12106661615511594
0.022869362068359878 0.04434800797251473 0.11981185236868572
0.022761879332314716 0.044445001436935146 0.11856033359271695
0.022645177821460416 0.04454350132423309 0.11729837432737589
0.02252971189834213 0.0446422215652647 0.11603180828751777
0.022419887544069372 0.044740616756836916 0.11476314231350074
0.02231839190744367 0.04483835100982047 0.11349395159247866
0.02221821896183962 0.04493629310957251 0.11222022818735691
0.022114064515638465 0.04503510611841886 0.1109388621481052
0.022020993950855938 0.045132911538990864 0.10965861854748876
0.021939088583526722 0.045229693390739796 0.10837962778031829
0.02184077244688276 0.04532890660796132 0.10708561144751291
0.02175901680143505 0.045426419313280036 0.10579604676341223
0.021676012200312345 0.0455244654063517 0.10450038374754128
0.02160073570323634 0.045621914812157854 0.10320399787266821
0.021528738893774046 0.0457193266724015 0.10190423745761976
0.02143476639236619 0.04581990109814584 0.10058568307971957
0.021338569331408597 0.0459211488235634 0.09926020297589627
0.021255555972646223 0.04602111366317641 0.09793725860776856
0.021138526770721255 0.046125804177601135 0.09658763587846006
0.0210182278521186 0.04623132150605111 0.09523014944169172
0.020910178743506813 0.04633568463484623 0.0938744813090964
0.020766802707122667 0.04644498661209454 0.09249066517441287
0.02065216741439818 0.0465510262634346 0.09111899969649587
0.020519495118210107 0.046659805341453406 0.08972986493471333
0.020439799663707292 0.04676218142623279 0.08836866947137484
0.02030602564315842 0.04687195074833829 0.08696676269980294
0.020180911940718915 0.04698103377016166 0.08556429673383789
0.020172539229203534 0.04707540422956022 0.0842319722307095
0.0038723643206190483 0.04928802177243707 0.07218602325139192
0.0031820392974663547 0.04947619533798771 0.07033218499363042
0.003222431677347426 0.049569750714561676 0.06895333806369647
0.003262977103920983 0.049663660572322625 0.06756926668470492
0.003303676448678905 0.04975792692978763 0.0661799411071507
0.003344530589742545 0.04985255182082827 0.06478533135522968
0.003385540411925847 0.04994753729481687 0.06338540722468283
0.0034267068067988515 0.050042885416774506 0.06198013828061549
0.0034680306727526977 0.050138598267520595 0.06056949385529198
0.0035095129150645166 0.05023467794382434 0.05915344304590442
0.003551154445964211 0.05033112655855775 0.0577319547123164
0.003592956184700624 0.05042794624085063 0.05630499747477985
0.0036349190576096535 0.050525139136247156 0.05487253971162637
0.003678090491378405 0.05062256775484733 0.05343528877168702
0.0037203803482162567 0.05072051303861061 0.051991739533164716
0.0037628341683871303 0.050818838069041784 0.050542593465517816
0.0038054529073044963 0.050917545058921605 0.0490878179560677
0.003830315899301051 0.051019047535570065 0.04761444058904779
0.003673507592991565 0.05114546261970189 0.04600321969383653
-0.0014732188936872337 0.05194655426330557 0.040742314229770094
-0.0009162282429550639 0.0519787786473551 0.03962016678058261
-0.0003650660380401516 0.052011927555745144 0.03849181519034961
0.0001216405299842016 0.052053976918033526 0.037313680916553904
0.0005385534883201593 0.05210570959605571 0.03608099026859929
0.000956295950246544 0.052157545203094575 0.03484584701925847
0.0013021046583550078 0.05221943842342598 0.03355337400160646
0.0015563545907090193 0.0522941429033103 0.03218779220245782
0.0018124209377480827 0.05236891197853411 0.030819126896164672
0.0020692205698946697 0.052443895166418245 0.029446542207800408
0.0023267566414765795 0.05251909338799782 0.028070021277601886
0.002585032324939174 0.052594507569598166 0.026689547148967763
0.002329393988502404 0.052741439544569495 0.024904279969527154
0.002207326385849473 0.05287045162213938 0.02321471770891348
0.0020659551055209335 0.05300269884942146 0.02150214468270184
0.0019249783324314373 0.05313545546681946 0.0197818560586403
0.0017810801675182675 0.05326918805855927 0.018051166989293044
0.001636455842317197 0.05340359551160289 0.016311744259185634
0.0014432282104321348 0.05354540057578262 0.014525022849263214
1.6341753258097835e-05 0.053861302855345794 0.011732201765515371
0.05507139591770588 0.04682446825953804 0.046210390161943005
0.060193508006893104 0.04619407981143897 0.04907258873439885
0.06304631464400057 0.04588635552134291 0.05004974268459822
0.0652899416325679 0.04566482946969056 0.05052682561227373
0.06726255279473958 0.04548136329757834 0.05078553803181646
0.06903955452847821 0.045325323885200865 0.05088725704187791
0.07067138994169264 0.04518959552107059 0.05087307905992278
0.07220037722579542 0.045068177418850185 0.05077792497404987
0.07359383987616169 0.04496591358466344 0.050571837145559906
0.07490490889747947 0.044875193932577724 0.050299740544671456
0.07611856945841022 0.044798287524196664 0.04994725456295335
0.07726995534224695 0.04473014723136324 0.049544297527563064
0.07834962275534779 0.04467221675125654 0.04908158931135648
0.07935931315277522 0.044624309058019146 0.04855971473995363
0.0803286044227619 0.04458213555901839 0.04800442417113393
0.0812557804432133 0.044545988447982375 0.04741360670613176
0.08213474541282745 0.044516810546067 0.0467811165762384
0.08295727227689542 0.04449586927136778 0.046098730952693234
0.08375508995369396 0.0444785051266894 0.045394912352940464
0.08447705679654521 0.04447236082112275 0.04462190095841656
0.08514396616406189 0.044474408736064154 0.04379798032967347
0.08576122339444503 0.04448389627141162 0.042927413438735185
0.08630176288118346 0.04450493421538699 0.04198398495442818
0.08677668200075223 0.04453593397428797 0.04097706531403961
0.08717610044261559 0.04457845324402885 0.03989627312038119
0.08751807918182664 0.0446298441639684 0.03875774667580373
0.08788384370028762 0.04467787252975574 0.03763870160664762
0.08852387632317615 0.04468450899871377 0.03678154494419206
0.08955719474655932 0.04463136384462482 0.036306007973091414
0.09053334626595805 0.04458668517621989 0.035778174604886304
0.09136453974699066 0.04456394646881005 0.03511102676061878
0.09212145170778407 0.04455247764197837 0.03437210410868119
0.09279273393269577 0.04455410023203796 0.033549021830588
0.09337193391971227 0.044569899606683845 0.03263403170927559
0.09394803301037757 0.044586251847530706 0.03171487325623479
0.09446493814379459 0.044611833036795764 0.03073498906742811
0.09491445636766555 0.044647978499671725 0.029685149778212683
0.09529744311737376 0.044694630699898666 0.028565154302387652
0.09563568542030415 0.04474847232989336 0.027396222458612063
0.09588921681796625 0.044815792885500354 0.026136524138249184
0.09608455872057409 0.044892539810088256 0.024812094948185426
0.09620465964210984 0.0449814551550123 0.02340425377791372
0.11476949971415817 0.04217115939846789 0.04125251122643264
0.11573125455435762 0.042121307434060506 0.040815418868970554
0.11669073823303738 0.042071573193899474 0.04037935869486159
0.11764856648915745 0.04202186003175432 0.039944971567770715
0.11860352901317156 0.04197236021908508 0.03951096505535556
0.11955624438062601 0.04192297688620046 0.03907797981922223
0.12050672051399558 0.041873709622444646 0.03864601225880332
0.12145556147034275 0.04182446269132591 0.03821570421980125
0.12203320291945713 0.04183447448084609 0.03738489270999257
0.12248100923668104 0.04186539823729777 0.03641136588750693
-0.04996538554342794 0.05031882317479026 0.1383301965384235
-0.04743538869017783 0.050111859619416325 0.13819040327014892
-0.045093294870624356 0.049926087401062635 0.1379801334006317
-0.042969263177643324 0.04976514078316751 0.1376848384060177
-0.040901416046864814 0.04961020612422589 0.13737297756921527
-0.03875313939386654 0.049445299575867886 0.13710380377065598
-0.03652225107308488 0.0492701123556984 0.13687900633659258
-0.03420026393721748 0.04908359176556058 0.1367030957879052
-0.03190227076058011 0.048899241699235915 0.13652562509273322
-0.0297028115540785 0.048725873762027194 0.13631300816445388
-0.027461606905012537 0.04854695568495014 0.13612774890917395
-0.025052941274421148 0.048347563566001166 0.136027362779476
-0.02273677507024041 0.04815844243069198 0.1358945186538484
-0.02044793046606075 0.04797189751466451 0.1357584437925755
-0.018166544842971366 0.047785576743255676 0.13562814416276334
-0.015970543911185187 0.04760877959973261 0.13546729052078874
-0.013668543185848259 0.0474186798721295 0.13536492371190037
-0.011479069933460484 0.047241374676749985 0.13521890780615473
-0.00926954691200721 0.04706102830342653 0.13509124852484833
-0.007110903895387766 0.04688614869273122 0.13494827607504245
-0.004830341212617273 0.0466959609432982 0.1348726810136435
-0.002646492113739629 0.04651675231811193 0.1347598120140139
-0.00044718280977257274 0.04633502822838447 0.13466346554499342
0.0017434397918186795 0.046153697995708724 0.13457199963810904
0.003879871692920034 0.04597828199462579 0.1344629494210557
0.006012993619501361 0.0458026309777423 0.13436110894623562
0.00811166835821825 0.04563053338667667 0.13425095337479884
0.010256868306964984 0.04545213550155211 0.13417288104461841
0.012359455265373964 0.04527829148105246 0.13408232617091834
0.014484066776425053 0.0451011160771609 0.13401180628323667
0.016726130753790314 0.04490889125292161 0.13401039321709637
0.0186985479800017 0.044749080663007486 0.13388000248778276
0.020668157463773762 0.04458902764114029 0.13375632599627443
0.022541034552580275 0.044440309927554406 0.13359044952905064
0.023570118329590106 0.04439525840651357 0.13298993495123845
0.023709032015988285 0.044460186830874784 0.1319223351454241
0.02366865189591394 0.04454758220929008 0.13075627654691038
0.0236656787522308 0.044630656297540816 0.12960567362630193
0.023609658913448295 0.04472063986509945 0.1284222960721339
0.023535406392827307 0.04481323166208395 0.12722441131609172
0.023460845762199034 0.044906207667709155 0.1260215559504517
0.023353238508521945 0.04500366645210001 0.12479580488351932
0.02322184172528674 0.04510447275010885 0.12355189815118567
0.02311843300939387 0.04520214240516362 0.12231821384139455
0.022984190746422384 0.04530405931844973 0.12106226846999235
0.02287197324766116 0.0454035837369105 0.11981331387772345
0.022761006766277736 0.04550332596760778 0.11855984232129485
0.022646052599538558 0.045603950180420315 0.11729886974800291
0.022530588896063297 0.04570502041216008 0.11603230788740046
0.02241549148510885 0.045806427950520166 0.11476062330418549
0.022304289442426906 0.04590772558344363 0.11348582331556975
0.02222175308722102 0.046005754213098896 0.11222227707176982
0.022122921683656926 0.04610623901337083 0.11094402699372716
0.022028984793476203 0.0462064818574512 0.10966330535333921
0.021937308580494363 0.04630681912637322 0.10837857770106493
0.021857723299981868 0.04640598827576122 0.10709566929227968
0.02177869063207366 0.04650546797230556 0.10580778788181455
0.021693940308675497 0.04660606878531845 0.10451114486503454
0.021619604393732506 0.04670571239196407 0.10321538888391119
0.021542248198156033 0.04680613282086727 0.1019124399611539
0.02144018353026278 0.04691014832736824 0.10058899112623856
0.021336759110641035 0.04701474481669205 0.09925909120077755
0.02123831675128518 0.04711909971822963 0.09792661026042082
0.021135797822984692 0.047224393724626085 0.0965859406257194
0.02101913987576448 0.04733194800898905 0.09523071923268389
0.02092937924108451 0.047436399837542984 0.09388654521192638
0.020791556712747183 0.047547570335688065 0.0925063068174918
0.020681581405212535 0.047655515464995225 0.0911376913663838
0.020519495117919673 0.04777075308771676 0.0897298649345277
0.02041392657933716 0.04787898299348007 0.08835204130906205
0.020301393166654524 0.04798856245994839 0.08696376868452582
0.020177196062802716 0.04810012240328064 0.08556188159065573
0.020123197609538623 0.048202801088460014 0.08419972210006144
0.004356494337785899 0.05039711260820654 0.0725042324563169
0.003667878591074092 0.05058941010604235 0.07065330848925988
0.003709136713492156 0.05068494789264061 0.06927683496092363
0.0037505509621912347 0.05078084720701144 0.06789515267248258
0.0037921222250558717 0.05087711010514907 0.06650823200192196
0.0038338513967157706 0.05097373865866718 0.06511604310218821
0.003875739378610188 0.05107073495494744 0.06371855589904779
0.003918819591956502 0.0511679617379994 0.062316445703089085
0.003961029783260739 0.05126569931287587 0.06090827594124998
0.004003401537293283 0.051363810985716934 0.05949471630304559
0.004045935783423549 0.05146229890847333 0.05807573578390057
0.004088633458162794 0.051561165249632585 0.05665130314098282
0.004131495505233007 0.051660412194378134 0.05522138689091077
0.004174522875635633 0.05176004194475047 0.05378595530743324
0.0042177165277232365 0.051860056719809804 0.0523449764190837
0.0042610774272694996 0.05196045875580095 0.050898418006806
0.004304606547541945 0.052061250306319945 0.04944624760155347
0.004348304869373987 0.05216243364248272 0.04798843248185897
0.004246760739413713 0.05228408301518296 0.0464193764437022
-0.002053143831936166 0.053263592153087944 0.04031901452376063
-0.0013255793672088956 0.05327310734626881 0.03931974268495109
-0.0007632008751610742 0.05330560544090841 0.03819803094896196
-0.00028610678485369023 0.0533501089283665 0.03701116658388448
9.819068161598388e-05 0.05340774065534562 0.03575250262635982
0.0005094451067728656 0.053461845564529584 0.0345107106077851
0.0008823461279765521 0.053521548709086736 0.033236850252677475
0.0011362748840806347 0.0535982002895425 0.03186931132727627
0.0013920223378257046 0.05367491839043544 0.03049868079585283
0.001669233613180221 0.05374893459462278 0.029140008061254052
0.0019941493968984036 0.053816525545323915 0.027813749193098203
0.0023100559640442664 0.053885677671466514 0.02647653772008768
0.002647531039739248 0.05395206378162429 0.025152050090374023
0.0029497756322782176 0.054023739689070704 0.023796057494696266
0.003255011359495519 0.05409529477140518 0.022438178823945998
0.003517289308103133 0.05417328733644166 0.02104205945472848
0.0033790821234228052 0.054308903868158294 0.019322651359116205
0.0032390806200524036 0.05444535888695177 0.01759373256967084
0.003099477608943524 0.054582342760589396 0.015856991508903517
0.0024648143886630836 0.054791193144190134 0.013711800612208391
0.0012395939398461286 0.05508615400889233 0.011074077662273474
6.658942737797213e-05 0.05537483966222619 0.008461307537356244
0.05799822665229459 0.04751149702866331 0.04866629286659602
0.061561913957943415 0.04709346936351976 0.05022690363155696
0.06408787801951477 0.04682596537777539 0.050933003101597374
0.06617068321978853 0.04662249233589509 0.05127765844085597
0.06807593628610231 0.046444305361767746 0.05148261346885197
0.06978694297828447 0.046294039343384184 0.051531157173696995
0.07137898493519967 0.04616072899875048 0.05148591277926251
0.07286005883031416 0.04604330010767331 0.05135227433544409
0.07422642467201357 0.04594241506609608 0.05112549634054003
0.07551703494288359 0.045852376262399984 0.05083831380864917
0.07668245868936219 0.045780643547270905 0.050445996738122556
0.07780117078609916 0.04571558602314418 0.05001661018291137
0.07887014738204151 0.04565770255189967 0.04954682715283221
0.07986725393779237 0.04561037173091239 0.049016087796312946
0.08082125263449774 0.04556932782923849 0.04844937837350466
0.08173264821035803 0.045534537175055755 0.0478465651626474
0.0825895381052229 0.04550784517902486 0.04719619483864723
0.08341133408464363 0.045486359922237304 0.04651531071692411
0.0841687107086862 0.04547457919474538 0.04577637381172861
0.08488962279096224 0.0454683059716019 0.04500437803565738
0.08554194969465695 0.04547248793022494 0.04416886531503228
0.0861412174668103 0.045484818176660516 0.04328338204727411
0.08665683801343105 0.04551004995080126 0.042318345060964935
0.087103459490665 0.045546017748553845 0.04128638265737605
0.08749844581013805 0.04559011713386985 0.040202984697035926
0.08789849890939105 0.04563363693104051 0.039121600587332495
0.0885527604329962 0.04563796022290053 0.038281818737607
0.08958426443790363 0.04558370139718593 0.03780633669212646
0.090589931823161 0.045533212884182994 0.03730926467109369
0.09144513619841388 0.045505971314691876 0.036668538280978435
0.09219441937086997 0.04549517194940843 0.03592561273515088
0.09290541833989902 0.04549032492264098 0.0351456168369495
0.09355739686695436 0.04549473127040695 0.0343074018628059
0.09414093913117405 0.04550993972186749 0.03340067269580721
0.0946941298490282 0.04553001279916207 0.03246253096890345
0.09519616836245115 0.04555827744583832 0.03147154479806208
0.09563188547203211 0.045597198683617786 0.03041154564643317
0.09600908675812136 0.04564561114293572 0.029289421635680823
0.09634037299081782 0.04570157391746297 0.02811712071561223
0.0966243419463183 0.045765365184474584 0.02689244928162632
0.09682253365762489 0.04584320166069711 0.02557487344851067
0.0969437829672995 0.045933765926142324 0.02417216714370568
0.09701086013665683 0.04603348497860497 0.02270683345627217
0.09698832421372244 0.046148143028907435 0.021140749372669576
0.09680074794433857 0.04629004713112893 0.019392824001433995
0.09642997689977922 0.04646233857059699 0.017441051150314746
0.09591960045778786 0.046658154933359786 0.015328822366238226
0.09496163286442821 0.04692784193105667 0.012723729073238543
0.12016242198232857 0.04292692917944453 0.03827517832779542
0.12111291136617458 0.0428763774396709 0.0378447432914964
-0.050120840704815206 0.05150751442577548 0.13826447136645262
-0.04774332065833997 0.05131393337620661 0.13805934695480507
-0.045336900788731094 0.051116228772077194 0.13787576750519814
-0.043195063625955654 0.05094946153151786 0.13758746188179985
-0.04111645574740719 0.05078968238375946 0.1372796310721549
-0.038988602556132235 0.05062343587656119 0.13700092078190987
-0.036823942391684183 0.05045218264289995 0.13674632310344656
-0.03448168402366386 0.05025894787792477 0.1365785203370397
-0.03224814765812439 0.0500781432362062 0.13637152081957588
-0.029942727632769894 0.0498880165546256 0.13620542113004863
-0.027586808832307685 0.04969110634822571 0.13607124079019386
-0.025243107846056045 0.04949497985669202 0.135940980400302
-0.02301154994867599 0.04931177692395694 0.13576890086573462
-0.020703590948090267 0.04911862754455505 0.13564081519171112
-0.018386057782830367 0.0489236234532987 0.13552650131332214
-0.016081795018428102 0.048729543986455744 0.13541544864811297
-0.01389896313806499 0.04854962380718384 0.1352568678332477
-0.011676575761061625 0.048364212571524935 0.13512569992398368
-0.009487821747073244 0.048182264979842744 0.13498758801986052
-0.00726187562230618 0.04799508995448525 0.13487612632988613
-0.00503385543713375 0.04780698567726949 0.13477480953261997
-0.0028318336219623763 0.04762141177065969 0.13467012097322936
-0.0006818736041567797 0.047441604457496844 0.13454918290738532
0.0014941220540554134 0.047257921514421 0.13444983707469918
0.0036561197516333244 0.04707530960954587 0.13435263163419017
0.005821715834242902 0.04689158709282646 0.13426621683248532
0.00800874371405319 0.04670452691260483 0.13419957681928477
0.010122446047382494 0.04652593349590368 0.1341053676308891
0.012303167501064916 0.046338310735921436 0.13405388159509715
0.014441595086453707 0.04615529773482204 0.13399021169215633
0.016562321321009377 0.045973834609989314 0.1339265944175437
0.018635188967339733 0.04579772018915537 0.13384739222625736
0.020524480121480115 0.04564407297233942 0.13368192568182144
0.022464274870104328 0.04548348855043855 0.13355045929507967
0.023590502954564663 0.04542513005903296 0.13300061938592747
0.023826338015825843 0.045479292061127295 0.13198419244013562
0.023731695368466366 0.04557557550373024 0.13078972119222054
0.023693848128061912 0.045664998651282186 0.12962070758757746
0.02363361240608952 0.045757604970498286 0.1284351568968141
0.023555127520165364 0.04585288425375301 0.12723506327731546
0.023475455727409777 0.04594867098213801 0.1260294944615368
0.023392866254011935 0.046045189602934966 0.12481746573401825
0.02326157273495255 0.04614831747931711 0.12357374487429704
0.023139214184387247 0.04625068430805756 0.12232970864951168
0.023016311592213845 0.046353506289420254 0.12108014107870269
0.022894601885420696 0.046456561932605195 0.11982597940344242
0.022764497003050055 0.046561091758968706 0.11856180739157021
0.022650426427796078 0.046663940801653134 0.11730134681594964
0.0225472510491031 0.04676576622015414 0.11604179982734905
0.02243131679397764 0.04686963674179175 0.11476969144927068
0.022319273274097495 0.04697339580365574 0.11349445958822355
0.02223588889754846 0.04707381109560476 0.1122304722087043
0.02213797787186972 0.047176508913240406 0.11095280664966364
0.022037863092639665 0.0472798883686661 0.10966851267207126
0.02195154811011879 0.047381853300497816 0.1083869780432915
0.021875564584463325 0.047482851568448725 0.10710625547745309
0.021786738399524608 0.04758593034240636 0.10581259069791335
0.021706488925948786 0.04768827462021755 0.1045186770118802
0.021616908986742622 0.04779224819061166 0.10321376166916979
0.02153864581527981 0.04789512483892663 0.1019102526865587
0.021428446191940675 0.04800264017569205 0.10058182356618747
0.021332233479926577 0.04810871293346477 0.09925631171458732
0.02123650200053362 0.04821513458652499 0.09792548932253461
0.021136707476373418 0.048322513973282 0.09658650571254007
0.021025523914479094 0.048431836860129036 0.0952347076904062
0.020952234321656438 0.048536508138428726 0.09390090533306789
0.020788806434400287 0.048653697191393605 0.09250456896249887
0.020709152685114363 0.0487600727251591 0.09115521205120236
0.020571105617113616 0.04887474141318343 0.08976284756185646
0.020440723633560753 0.04898882713164764 0.08836926329005049
0.02031158445787057 0.049103195859418525 0.086970355416605
0.02015954460431385 0.04922112426312244 0.08555040898563862
0.02007291121252025 0.04933063119035975 0.08416685445435634
0.02003163500989308 0.049434396816136116 0.08280719627489683
0.004153495535187901 0.05169964173252541 0.0709742850193234
0.004195616651263945 0.051797150965658734 0.06960018224263465
0.0042378969544934475 0.05189502871265023 0.06822088635856305
0.0042803373490024055 0.051993277066525755 0.06683636787213082
0.004322938745776828 0.052091898136191375 0.06544659706457512
0.004365702062727683 0.05219089404658428 0.06405154399122209
0.004408628224756794 0.05229026693882544 0.06265117847933593
0.004451718163823448 0.05239001897037394 0.0612454701259435
0.004494972819012344 0.0524901523151831 0.059834388295634255
0.004538393136601149 0.052590669163858426 0.05841790211833475
0.004581980070129776 0.0526915717238174 0.05699598048705701
0.004625734580470331 0.05279286221945098 0.05556859205562181
0.004669657635897662 0.0528945428922871 0.05413570523635536
0.00471375021216025 0.052996616001156106 0.052697288197758485
0.004758013292553709 0.053099083822357805 0.05125330886215046
0.004802447867992554 0.05320194864983093 0.0498037349032836
0.004847054937084483 0.05330521279532421 0.048348533743931166
0.004819334893896299 0.053419118909289694 0.046835040275071904
0.004484748018659668 0.05357692897270843 0.0450911626342303
-0.0021337720529738813 0.05462664272200189 0.03872660749530299
-0.001210182048147601 0.054608797612603184 0.037868202929464856
-0.0006521867201904064 0.05464294627609911 0.03673956595449457
-0.0002700989823433697 0.05470234234378683 0.03547777778235994
4.954586543148842e-05 0.05477091688471174 0.034165787948169435
0.0005467464873242234 0.0548143322279323 0.03298378748274938
0.0009084360730858831 0.05487739120627664 0.031696576718150904
0.0012327696832488688 0.054946091512219 0.030377291495001513
0.0015437242083742309 0.05501701084410382 0.029043822629104488
0.0018511133719125161 0.055088744929124085 0.027703540708827967
0.002216123827546268 0.05515243722913092 0.026403773535254416
0.0025317076510120717 0.055223573296512306 0.025061845020231288
0.002832796886583444 0.05529711984643284 0.02370446281763189
0.0031379716962893767 0.055370384108052166 0.02234604430947329
0.003445050974986985 0.05544368286167224 0.020984887838058353
0.0037518490546258887 0.05551733626515712 0.01961925132563086
0.004059463342011627 0.05559118561665894 0.018249981664460235
0.004367897098647933 0.05566523169917168 0.0168770643367529
0.004556445490816852 0.05575725855509668 0.01540289180826987
0.0037583760976008795 0.055995348814353495 0.01312138881035857
0.002851148586480279 0.056250619537332056 0.010736712362596046
0.0019378518409455814 0.05650789616340959 0.008332034348730089
0.05975914420217454 0.0483530211643848 0.05014387820226762
0.0627212907034369 0.04801486937987421 0.05120489254465299
0.0649946873731656 0.04777870726673806 0.051701990209509885
0.06701136334836894 0.04758015938029665 0.05199433884749699
0.06883090927503255 0.04741048243217087 0.05212963068987625
0.07049390427118069 0.047263730985886175 0.05214022795851425
0.07204678841515866 0.047133018630801785 0.052064283873132056
0.07347530975979438 0.04702061703501507 0.05188794029311766
0.07480828921417981 0.046922260695915395 0.051634763487198865
0.07606467605396627 0.0468351522798267 0.051320150618075266
0.07723684187625762 0.046760533700582876 0.05093633111823248
0.07832980342457829 0.04669771997606731 0.050486626422223346
0.0793660585997038 0.0466433347693561 0.04999006586361954
0.08036102783795995 0.04659506095372055 0.04945973223404471
0.08129914801412713 0.04655534121942621 0.048881007987485015
0.08218617160404035 0.0465233439405667 0.04825832876264524
0.08302409286018692 0.046498812472341874 0.04759280242629743
0.08383653931271223 0.046478127137109394 0.04690541596391018
0.08458191108237445 0.04646779137014594 0.04615744757414619
0.08527082618265341 0.046466218940156956 0.0453577798212173
0.08592307211615774 0.04647037488391875 0.04452403725771764
0.0864901270854117 0.04648790541503179 0.043610231544336686
0.08698026453150348 0.04651760261730977 0.04262290292835197
0.08741663154068796 0.04655590495818397 0.041582821517183066
0.08785085606686871 0.04659472216168364 0.04053830301199085
0.08848871662573382 0.046601499235855555 0.039686116592114296
0.08951245348184311 0.046547112380601434 0.0392044971667696
0.09053946247716466 0.04649195280839425 0.0387294695098962
0.09141329896948042 0.04646094085380467 0.03810912808567951
0.09220379154367447 0.04644309404691464 0.03740936589713101
0.09293553176645025 0.04643456834057668 0.036653067351001656
0.09360759395330387 0.04643557780178203 0.0358384291993622
0.09425527185778315 0.046440513572168385 0.03499954271901462
0.09483972873620794 0.04645566396100217 0.034097313946342966
0.09535920188339259 0.04648138612686023 0.03312899436911315
0.0958584093041362 0.04651051235624609 0.0321386088063777
0.09630063032483799 0.0465490284427029 0.031088648784590223
0.0966714144153335 0.04659935296544216 0.029963498179878367
0.09700135704363444 0.04665657951977062 0.028793310095869218
0.09727725726842062 0.04672291608776372 0.027563838531480644
0.09749139743484309 0.046799693065529516 0.026266217941790182
0.09763595699036937 0.046888270527839886 0.024891302456656272
0.09770785752968947 0.04698924064081588 0.023434720803803155
0.09770248948252142 0.04710345406338315 0.021890416867239137
0.0975603706892289 0.04724085050113304 0.02019432510114122
0.09725613803994027 0.04740580599591077 0.018317257576376422
0.09678969504502943 0.047598537444781326 0.016256384424562176
0.09608189498978148 0.04783244138946647 0.013924141160794545
0.09472769882588866 0.04817550347896133 0.010880178045530875
-0.0506344030038996 0.05274059834776544 0.13804734142284802
-0.04804593623962766 0.05251702678642022 0.13793055330182422
-0.045636665615674865 0.05231454525343563 0.1377473419528691
-0.04352629383669654 0.052147898551633584 0.13744461873476913
-0.04148993299290271 0.051989732867407545 0.13711750848497295
-0.03923211667168541 0.05180384379176655 0.13689452001939184
-0.0370709030868725 0.05162917446808987 0.1366377102880374
-0.03478862417963102 0.05143898578037507 0.13644264798762362
-0.03247435997444542 0.051244182158676405 0.13627073269283657
-0.030181849878251843 0.05105137867535792 0.13609819007912424
-0.02781512745285125 0.050848708319846225 0.13596819241023858
-0.025516585662512692 0.05065377363921717 0.1358167542325075
-0.02322204580690118 0.05045864432207432 0.13567266927328372
-0.02082018888898246 0.05024946808496725 0.13558716883799254
-0.01852605881597047 0.0500529751089332 0.1354616755042276
-0.01643618892663079 0.04988128760267933 0.13525030472890687
-0.014141694172170816 0.04968338889036341 0.13514303864912433
-0.011894160119917452 0.049490666752855884 0.13502301648659443
-0.009686643351253799 0.04930227733432155 0.13489316601337678
-0.007471481565363924 0.049112249516045196 0.1347759551542392
-0.005252074521308603 0.04892100280790508 0.13466986637689443
-0.0029810003906475813 0.0487225448840642 0.1345979357252397
-0.0008106970117577883 0.04853611260831684 0.13448645237359966
0.0013430607501898617 0.04835110162558292 0.1343758189311134
0.003482321053798143 0.04816725973440941 0.1342669426001866
0.005610901749428077 0.047984107902495556 0.13416163284177582
0.007840116716064993 0.047787471691090266 0.13411540383628742
0.009915661658073005 0.047609727500987714 0.13400151042694405
0.012015207294606423 0.04742826600853048 0.1339083631857834
0.014200737151250142 0.04723512855540169 0.13386774826716225
0.016346605422945304 0.047046371949533344 0.13381624220524851
0.01848060470986257 0.046858447840600254 0.13376782922721034
0.0203712135052177 0.04670117551051679 0.1336025597618856
0.022342245006749972 0.04653294782156591 0.13348688421725785
0.02354463429513326 0.046463448026585016 0.1329765777027187
0.02387221951605334 0.046506971058321654 0.13200838647526858
0.023785350084190526 0.046604423318387954 0.1308181850896545
0.02376382564220575 0.046693744370865195 0.12965805450090995
0.023702033367575925 0.04678864114760384 0.1284718926665537
0.023612563692102795 0.046887502309330795 0.1272660862439963
0.023510686642231216 0.04698835425913351 0.1260486376288075
0.023441096942399098 0.04708535561657837 0.12484382902361987
0.02328402551124359 0.04719419728788429 0.1235860908879231
0.023171247128020545 0.047297625919596666 0.12234742721165309
0.023053634023818215 0.047402080304009185 0.12110090794208217
0.02291200659486925 0.04751009664574672 0.1198357210325009
0.022785437005640008 0.04761653051516108 0.11857359701483641
0.022682789460062858 0.04772019903414764 0.11731967525162806
0.022580570735191152 0.04782420361290671 0.11606078107537252
0.022470873990551088 0.04792959725517576 0.11479235833057233
0.022351880840825622 0.048036630074331774 0.11351325370197438
0.02223500544143575 0.048143788327909186 0.11222996003121666
0.022141520321523445 0.048248228687041095 0.110954872344426
0.022041414289795558 0.04835395559760226 0.10967059552770952
0.021960447245684744 0.048457519264120376 0.10839222792065728
0.021869320334903353 0.048562846926234 0.10710255043131814
0.021789420908744972 0.04866706735838311 0.10581419158891164
0.021717244189849105 0.0487706472472255 0.10452513272132583
0.02161601050857026 0.048878557164603445 0.10321321925871663
0.021535943980910965 0.04898401652163399 0.10190861220194658
0.02144289203782218 0.04909164795719017 0.10059064511201013
0.021343094802233675 0.04920061526502552 0.099262982363888
0.021243760892654617 0.04930994372209087 0.09792997300558767
0.021130339804017018 0.04942162252589792 0.09658255004352195
0.02103737938927419 0.049530938222416526 0.09524211445313302
0.02094309263521532 0.049640863916678206 0.09389516150187383
0.02082180701439762 0.04975492979625047 0.09252542147831172
0.020701800753693544 0.049869268105591356 0.09115054012905402
0.020569262637740893 0.04998578515552218 0.08976166977239938
0.02046474521165559 0.050098890218517024 0.08838470152284314
0.020343081192750467 0.05021481669640924 0.08699071206716338
0.02020320560754718 0.05033372910558019 0.08557878655257245
0.02008874361791968 0.050449581115135436 0.08417720265828785
0.020137081262855794 0.05054321911286905 0.08287650403753866
0.005364140656006322 0.05270567686915008 0.07177448088301544
0.004679832242847848 0.052906647196463645 0.0699220244875951
0.004722972220794208 0.05300649345902298 0.06854510233040728
0.004766275335536474 0.053106717297041854 0.06716297324803544
0.004809742514197413 0.05320732085631851 0.06577560764901408
0.0048533746909386055 0.05330830629894176 0.06438297571722401
0.0048971728070269505 0.05340967580344587 0.06298504740975619
0.004941137810902663 0.05351143156496722 0.06158179245475143
0.004985270658247276 0.05361357579540279 0.06017318034921487
0.005029572312053809 0.05371611072357033 0.05875918035680672
0.0050740437426956 0.053819038595370634 0.05733976150560549
0.005118685927997968 0.053922361673951376 0.05591489258584731
0.005163499853309994 0.054026082239873034 0.05448454214763848
0.005208486511576349 0.05413020259127672 0.0530486784986412
0.005254688972515575 0.054234575438354644 0.05160801390399661
0.005300025997043656 0.05433950174688096 0.050161033213904804
0.005345538786517112 0.05444483483913058 0.04870844279442477
0.005390180603069505 0.05455072843941523 0.047249449330629634
0.005237552979347915 0.05468561537075869 0.04564065119304961
-0.0029310834471540925 0.055983809998503255 0.03814145812025266
-0.002068899048793149 0.055974725025320735 0.03723455447904134
-0.001289040982603018 0.05597759364777344 0.0362670734690983
-0.000972680368749701 0.05604812659904164 0.034953688782134784
-0.00034147353503583 0.05607290311976862 0.033872524903905354
0.00029247565122864083 0.05609738143601977 0.03279205163354171
0.0006573899496818414 0.05616147812145554 0.031506247626240325
0.0010056594950383357 0.0562282942380041 0.03020417823019378
0.001382077434024076 0.05629124006505221 0.028919942949565902
0.0017626175076519979 0.05635384240069718 0.027635355123656002
0.0021352613918301233 0.05641787924731681 0.026341133746169698
0.002416907373773758 0.056495695051524124 0.024972436765348605
0.002716840377375185 0.05657112131324983 0.02361366855452568
0.0030219547077294795 0.05664609641540019 0.02225471485227276
0.0033278788624804267 0.05672127051398549 0.02089215426003016
0.0036346160700267416 0.05679664440231305 0.01952597239878423
0.003891721898670708 0.05687978738843927 0.018115800181349173
0.004020009206921915 0.05698265524580282 0.016597290186033842
0.004220251959985877 0.05707512417184053 0.015131078141139176
0.004523497111415087 0.05715243886013536 0.01374329284298531
0.00489910750021344 0.05721913718188547 0.012410203686696153
0.005276696238926182 0.05728582444977674 0.011074903570553518
0.00457438742453492 0.05751692530328136 0.008843901150933642
0.003650210595390224 0.057782824856293886 0.006415340275072123
0.057202305151041966 0.04973441469556918 0.04944118354434318
0.061154038262671184 0.04923856615906594 0.0513143333486461
0.06369670723835918 0.0489565729235634 0.05202770235217463
0.06585076392648515 0.04873305173889482 0.05242795518796828
0.0677775585137313 0.04854354263367578 0.052647520770097544
0.06954448007316338 0.048377870630302966 0.052741165938925194
0.07118161752118612 0.04823153994717027 0.05273271591099338
0.07268364370819974 0.04810550482021504 0.05261585136795166
0.07406549900499626 0.047997579320629154 0.05240178638759946
0.07535948282363641 0.0479028552836871 0.0521171864162529
0.07659695626604385 0.04781652720345098 0.051788472286989184
0.07777217577605638 0.04773954961178203 0.05140981700690023
0.07883742981788461 0.04767946386282639 0.05093796565289166
0.07985668345117702 0.047626334966259114 0.05042857969210751
0.08085246464822204 0.047576662829036276 0.04990127685050866
0.08175003874468045 0.04754226433261848 0.049288247312809674
0.08261873238939615 0.047512278186343536 0.04865105996169061
