# .PCD v0.7 - Point Cloud Data file format
VERSION 0.7
FIELDS x y z
SIZE 4 4 4
TYPE F F F
COUNT 1 1 1
WIDTH 778
HEIGHT 1
VIEWPOINT 0 0 0 1 0 0 0
POINTS 778
DATA ascii
-0.06723462985090761 0.04070479082180059 0.05781488021841796
-0.06840834412735636 0.040642115605849766 0.05740141900854301
-0.06957844950663822 0.040579633101546456 0.05698922909524973
-0.0707449626079798 0.040517342421439645 0.05657830462413127
-0.07190789994871488 0.04045524268351974 0.056168639776667584
-0.07306727794507539 0.04039333301117545 0.05576022876996023
-0.0742231129129523 0.04033161253315405 0.055353065856450834
-0.07537542106867273 0.040270080383518966 0.05494714532366102
-0.07652496081422422 0.04020863832309502 0.05454310776116428
-0.07767025970158054 0.04014748054949263 0.05413965498396217
-0.07881207985612176 0.04008650853661922 0.05373742765488987
-0.07995043710328043 0.04002572143941283 0.05333642019914908
-0.0810853471726386 0.039965118417930275 0.05293662707569996
-0.08221682569866307 0.03990469863730696 0.05253804277701568
-0.08334488822141212 0.03984446126772007 0.05214066182881949
-0.08446955018725838 0.039784405484349056 0.05174447878984423
-0.08559082694958253 0.03972453046733949 0.05134948825157393
-0.08670873376948296 0.03966483540176427 0.0509556848380075
-0.08782328581645737 0.03960531947758813 0.050563063205405157
-0.08893519865853167 0.03954588769480114 0.05017226406795661
-0.09004308262234789 0.039486727924313646 0.049781990055696335
-0.09114765679786346 0.039427744892838734 0.04939288198172653
-0.09224893599487571 0.03936893780954987 0.04900493462900091
-0.0933469349349626 0.03931030588833095 0.04861814281155674
-0.09444166825212807 0.03925184834774261 0.048232501374274095
-0.09553315049346317 0.039193564410986134 0.04784800519265703
-0.09662139611977932 0.03913545330587047 0.04746464917259602
-0.09770641950625769 0.0390775142647767 0.04708242825015341
-0.09878823494307193 0.03901974652462562 0.04670133739133053
-0.09986685663602424 0.03896214932684308 0.04632137159185512
-0.09913085221664375 0.03915455828257778 0.04417364677560748
-0.09765778755882115 0.039449760859878745 0.04128829784218613
-0.0961623420625628 0.03974944856358994 0.0383591106915071
-0.09464400176238619 0.0400537243925406 0.03538507859942541
-0.09310223683411406 0.040362694523647144 0.032365163778751815
-0.09153650097845362 0.04067646843544378 0.029298296171849314
-0.08994623077560548 0.04099515903741919 0.02618337218647876
-0.08833084500928612 0.04131888280548231 0.02301925337174049
-0.08668974395848222 0.04164775992389545 0.01980476503079831
-0.08502230865509519 0.04198191443404225 0.016538694766803697
-0.08332790010556851 0.042321474390413866 0.013219790958265254
-0.08160508387163584 0.042666681672044335 0.00984596052238984
-0.07985393121111822 0.04301756683191591 0.006416638214068515
0.06951937793218482 0.05121390609282455 0.03381780688850866
0.06592446324916124 0.05090715755536639 0.034486282559369974
0.06351016142263827 0.05073333489512027 0.03441555127621598
0.05999411121906134 0.05043340060689606 0.03506799185494991
0.05701752669784271 0.050193812582504514 0.035388998471753086
0.0541460947937496 0.04996529133107758 0.035656638200306845
0.05222337761086737 0.049844507990803116 0.03531538766437431
0.05051529636764468 0.04974787228829743 0.0348400451818765
0.04904340555455022 0.049678007216595155 0.03421394783788445
0.047809656695199654 0.0496352983485763 0.03343319595056343
0.04686024630632868 0.049625241952040655 0.032464102250619575
0.046150951359208436 0.0496429195485298 0.03133337699598837
0.04547800844189709 0.049664881679674484 0.03017679677915841
0.04444841049001008 0.04964551129153693 0.029262521944853348
0.04347198613167541 0.04963225053189497 0.028312971543276944
0.042694700852812795 0.04964215732912584 0.02722668503505421
0.042190062485260194 0.049683961795481346 0.025950310212693783
0.041277367122485364 0.04967815989264516 0.024956279190595232
0.040527565025508194 0.0496914452018969 0.023848196780497488
0.04004532794950555 0.049736239986475174 0.022550237429625142
0.03906180658676622 0.049722166036162876 0.02160535883450554
0.03828093488977974 0.04973195576935782 0.02051668830283604
0.03746352837273542 0.04973746418917362 0.01945360288207304
0.03671956045979141 0.049751699920945275 0.018337127964687727
0.03621780413449788 0.04979476281042668 0.017043869466099315
0.03572808827808083 0.04983943683078173 0.01573894709817386
0.03522458665086703 0.04988265180258925 0.014441153125528405
0.035156737376188074 0.049978112648952695 0.012818993277554536
0.03491515446892446 0.0500531639757745 0.011319315601892144
0.035044908655889384 0.05017309318157432 0.009537586955431221
-0.06623075719960675 0.03967310247478125 0.05837364202059736
-0.06740718639656357 0.03961195502925469 0.05795890826931116
-0.06857922543985007 0.03955109255023049 0.05754480546153068
-0.06974843368985417 0.039490320341760844 0.0571326187632184
-0.07091405435979775 0.03942973460577448 0.05672169681200284
-0.0720761039365006 0.039369334485331905 0.05631203379570843
-0.0732345988059111 0.039309119128737045 0.05590362393771414
-0.07439030458823281 0.03924899239598705 0.055497107073277374
-0.07554173486736165 0.03918914432316097 0.05509118634255361
-0.07668965901998848 0.03912947848882567 0.05468650164793559
-0.07783409303609629 0.03906999406186744 0.05428304735237455
-0.07897505280858969 0.03901069021621804 0.05388081785305204
-0.0801125541340193 0.03895156613081784 0.05347980758111087
-0.08124661271332212 0.03889262098957653 0.053080011001408245
-0.08237724415253256 0.03883385398133698 0.05268142261225073
-0.08350446396350991 0.03877526429983657 0.05228403694515227
-0.08462828756463608 0.038716851143671835 0.051887848564573846
-0.08574944117849059 0.0386585212684235 0.0514934975062582
-0.08686651450962413 0.03860045905546069 0.05109968749362276
-0.08798023735142307 0.03854257099116072 0.05070705865341679
-0.08909062475522805 0.03848485629319901 0.05031560567947868
-0.09019769168236641 0.03842731418392917 0.04992532329738625
-0.09130145300481407 0.038369943890349416 0.04953620626421085
-0.09240192350587129 0.038312744644066726 0.049148249368291264
-0.09349911788081322 0.038255715681263715 0.048761447428992466
-0.09459305073755353 0.038198856242663407 0.04837579529648389
-0.09568373659728274 0.03814216557349685 0.04799128785150142
-0.09677118989512123 0.03808564292346837 0.04760792000513081
-0.09785542498074523 0.03802928754672382 0.04722568669857291
-0.09893645611902913 0.037973098701816387 0.046844582902931864
-0.10001429749065976 0.037917075651675534 0.04646460361898347
-0.10021531896078606 0.03797854058931187 0.0452326295111522
-0.098756068460845 0.03826377465726382 0.042366338793117075
-0.09727473298125244 0.03855332559103051 0.03945666829047695
-0.09577149761540943 0.03884719878561127 0.036503310310460835
-0.09424447008300929 0.03914568128819359 0.03350388535271581
-0.09269379501883013 0.039448786087576924 0.030458011332521906
-0.09111891882825796 0.039756621392881546 0.027364600865750266
-0.08951927050106412 0.040069298817394586 0.02422253236009092
-0.08789426092112085 0.040386933513497224 0.021030648659183082
-0.08624328214302973 0.04070964431405955 0.017787755621749446
-0.0845649489833642 0.041037658057052846 0.014491841544277018
-0.08286011831181472 0.04137089473421456 0.011143177053837272
-0.08112659468675931 0.04170969527440808 0.007738873976076477
-0.07936365382726851 0.042054200143960704 0.004277527521593938
0.06783977585542045 0.04974260061006734 0.03326226723502829
0.06585710826823415 0.04962160819111525 0.03290721108261002
0.06408105784976653 0.04952302297349648 0.032426557918093124
0.06001775291566319 0.04917019915020595 0.033438994715360104
0.05607326904075066 0.04882918759365084 0.03439701961321123
0.054048081995265285 0.04870067730913917 0.034116045110115234
0.05223380293519181 0.04859520198486722 0.03370416991716707
0.050416675616281326 0.048488986657157195 0.033301180204444836
0.049171168326438364 0.04844642151171047 0.03252318497419354
0.04820785777872377 0.04843538172811525 0.031558354678477174
0.047343033804560175 0.04843538172948298 0.030527697649427255
0.04641870076507132 0.04842867080788064 0.029537484129091962
0.04560678623885661 0.04843463598227085 0.02847089373664552
0.04500031055334269 0.04846388658607923 0.027262728399715497
0.04397709616098666 0.04844597386321349 0.02634055969410576
0.04314358606797125 0.0484495553500476 0.025287788540537648
0.04227064882052223 0.04844865993042072 0.02426232145119095
0.04145658032457178 0.04845448076003956 0.023195559370605245
0.04065798045809638 0.04846209472449638 0.02211747611183723
0.04014079682127775 0.048501995149932066 0.020838997636424883
0.03941286317456 0.04851785399492578 0.019708312362925695
0.038514059332078576 0.048514112768548785 0.018699243083855233
0.037769831875893556 0.04852818278102559 0.017578824183010322
0.03679584368105426 0.04851575884046873 0.01662423799876217
0.036271020375081064 0.04855529803873258 0.015342649263945074
0.035825572097773095 0.04860421197426051 0.014000087989324006
0.035471135489645866 0.04866391219086472 0.012586998479199696
0.035410063435219574 0.04875804529196351 0.010952134629209631
0.03627730518109573 0.04896096870692569 0.008618283547636718
-0.06640325807286601 0.038579837330273224 0.05851686308385934
-0.06757878193352862 0.03852040724371799 0.05810213419352689
-0.06875068970672177 0.038461159973012804 0.05768868107134478
-0.06991823360422239 0.03840218843541421 0.05727585299173149
-0.07108372352778985 0.038343210515285775 0.05686557865692521
-0.07224488258953438 0.038284506659206186 0.05645591771728131
-0.07340249159310613 0.03822598228078238 0.056047509250425676
-0.07455656679426165 0.03816763655818395 0.05564034752127495
-0.07570712434965604 0.038109468674591016 0.05523442682970259
-0.0768541803176081 0.038051477818154864 0.054829741510281804
-0.07799775065883674 0.03799366318196145 0.05442628593201321
-0.07913785123721151 0.03793602396399266 0.05402405449807246
-0.08027449782047585 0.03787855936709059 0.05362304164554216
-0.08140770608098341 0.03782126859891954 0.05322324184516419
-0.08253749159641405 0.0377641508719302 0.05282464960108113
-0.0836645875111513 0.03770711500671979 0.05242790425210564
-0.08478757012566696 0.03765034129041884 0.052031710742912685
-0.08590717618660731 0.03759373827978508 0.051636708497560024
-0.08702342089990411 0.03753730520606476 0.05124289215132122
-0.0881363193803254 0.03748104130511278 0.0508502563716377
-0.0892458866521541 0.03742494581735856 0.05045879585787466
-0.09035213764986016 0.037369017987772445 0.050068505341078706
-0.09145508721877932 0.03731325706583068 0.049679379583749794
-0.09255475011576741 0.03725766230548309 0.04929141337959758
-0.09365114100986854 0.03720223296511855 0.04890460155331888
-0.0947442744829568 0.03714696830753331 0.04851893896035747
-0.09583416503039344 0.03709186759989697 0.04813442048668615
-0.09692082706165733 0.037036930113721424 0.04775104104857092
-0.09800427490098956 0.036982155124827464 0.04736879559235624
-0.09908452278801366 0.036927541913314224 0.04698767909423396
-0.10016158487836874 0.036873089763526365 0.04660768656003228
-0.10123547524431825 0.0368187979640241 0.04622881302498827
-0.09984659557520947 0.03708679500811856 0.04343676884905179
-0.09837920614075857 0.03736635471267431 0.04054641371064105
-0.09688952636306936 0.037650161062078046 0.03761215270321122
-0.09537704445361811 0.037938311559722895 0.034632977743589866
-0.09384123283542001 0.03823090671694043 0.031607849649666786
-0.09228154752947304 0.03852805016989295 0.028535696931846655
-0.0906974275123476 0.038829848801961754 0.025415414527684088
-0.08908829404335544 0.03913641287193186 0.022245862476587608
-0.08745354995958987 0.039447856148297336 0.019025864531242
-0.08579257893703096 0.03976429605003162 0.015754206702192297
-0.08410398290345783 0.04008595595582378 0.012428848314724406
-0.08238784542280236 0.04041286221960337 0.009049252453949441
-0.08064348714244435 0.040745144250948453 0.005614081268246807
0.06859265897153877 0.04853723303749602 0.0311491222340346
0.06515915717751647 0.04826348114562396 0.03172977168403118
0.06321226875484348 0.048149051048312325 0.03136271198399199
0.061376495040622925 0.04804617970261757 0.030930782944989466
0.05812671380053852 0.047789719414085316 0.03143524008271187
0.054953647550674944 0.047540563736108765 0.031906443751365976
0.05231839576789388 0.04734890695636351 0.03203716910377041
0.0505426521766274 0.047250152691247174 0.031606508738052486
0.04935424778248665 0.047215139262898345 0.030787850728409838
0.048789774796713536 0.04724825480293901 0.029549905096784346
0.047927369702236766 0.04724883875449113 0.028512163615113995
0.04684445917988067 0.04722520031198504 0.027625074222877355
0.045989075421712766 0.04722651293967606 0.026583263026475457
0.045400920848380155 0.047257307658978495 0.025356707734787487
0.044385089419344936 0.047240956649647295 0.02442517445185316
0.04353066965863761 0.04724241610261927 0.023382006013839163
0.042710394631216286 0.04724767087655912 0.022314749202678952
0.04180460883814269 0.04724343777511198 0.0213075285448171
0.0413604535706405 0.047290628650643485 0.019972726953157827
0.040498492896418437 0.04729135990189026 0.018933000924381438
0.03935566032739285 0.0472606668662334 0.018094910625721772
0.03846425374643797 0.04725803788956009 0.017077446422519016
0.037670449035679454 0.04726636399158137 0.015989312706040093
0.03709845906561071 0.04729969775476313 0.014738683937846775
0.03635820543677504 0.04731418627049245 0.013609186683105456
0.03615460534057158 0.04738940550841945 0.01208266514048073
0.03587104385459755 0.04745587902383112 0.010610125794651815
0.03620422642202381 0.04759264553866882 0.00867279648310687
-0.06657634694715903 0.037487670257927465 0.05866057234252381
-0.06775019098363239 0.03743004573215083 0.05824520446245263
-0.06892119943496383 0.03737250675412876 0.057831755728109335
-0.07008861316923798 0.03731514440706776 0.05741957618287796
-0.07125244871347913 0.037257957878891385 0.05700865999155508
-0.0724127224935483 0.03720094636249441 0.056599001354648126
-0.07356945083492727 0.03714410905570344 0.056190594508112146
-0.07472264996347355 0.03708744516124066 0.05578343372307032
-0.07587233600618959 0.03703095388668521 0.055377513305555015
-0.07701852499196365 0.03697463444443762 0.054972827596233065
-0.07816123285232612 0.03691848605168178 0.054569370970152686
-0.07930047542217589 0.03686250793035013 0.05416713783647242
-0.080436996745885 0.03680661071567486 0.0537667668012512
-0.08156935203420873 0.03675097108944006 0.05336696400211144
-0.08269828898399861 0.036695499427343424 0.05296836812212391
-0.08382382305077346 0.036640194969959815 0.052570973704376356
-0.08494596959702522 0.03658505696243464 0.052174775324809464
-0.08606474389290608 0.036530084654450935 0.05177976759195907
-0.08718016111693216 0.03647527730019401 0.05138594514672207
-0.08829223635665934 0.03642063415831899 0.050993302662103945
-0.08940098460937435 0.03636615449191608 0.05060183484298891
-0.09050642078275767 0.036311837568478826 0.05021153642589116
-0.09160855969556331 0.03625768265986984 0.0498224021787298
-0.09270810339971991 0.03620360332991189 0.049435070765523725
-0.09380368828323304 0.03614977053857561 0.04904824924346035
-0.09489533973789227 0.036096182806509385 0.04866193260211521
-0.09598443604029605 0.036042668762107356 0.04827740333370817
-0.09707030786486254 0.035989313156266765 0.04789401253770187
-0.09815296951044711 0.035936115286396494 0.04751175516556988
-0.09923243519149144 0.035883074454052775 0.04713062619859687
-0.10030871903863459 0.03583018996491 0.04675062064764862
-0.10138183509934079 0.035777461128729024 0.046371733552964756
-0.10092812490607539 0.03591889568529621 0.04449836693944731
-0.09947450311913453 0.03618860992169492 0.041627105310642065
-0.09799956535270371 0.03646231841908466 0.038713070986295284
-0.09650145810695998 0.03674028706912915 0.035753934506456364
-0.09498033390228827 0.03702252643679499 0.03274933377616901
-0.09343565818248106 0.03730913570714927 0.02969821291323005
-0.09186687970915391 0.03760021716057964 0.026599483083965203
-0.09027342990586856 0.03789587629449015 0.023452021207705787
-0.08865472217105896 0.03819622195078511 0.020254668599651915
-0.08701015115803828 0.038501366449461824 0.017006229548697738
-0.08533833648650718 0.0388115242338734 0.013704688899110973
-0.08363936759023666 0.03912671971435254 0.010349523419841467
-0.0819125774792197 0.03944707663197341 0.006939415922646686
0.06526601596807746 0.04698863335458054 0.030027874378514008
0.06297959436321021 0.04684179886521387 0.029882982671177394
0.06066557657670879 0.04669147603140348 0.029766495165496065
0.05850746573537097 0.046556993435145216 0.029557488997569215
0.05595568340301532 0.046380380075369085 0.02961958313916846
0.054697541898459434 0.046340013426633186 0.02882945185089708
0.05258894982174889 0.04620926978075425 0.028613764518340246
0.050995738146764724 0.046132781658917606 0.028058985473450204
0.04941047353791872 0.0460568319236405 0.02750421763728983
0.04865618514349718 0.04606925853252732 0.026386949737131293
0.04765165845219976 0.04605497565252564 0.025440759246770306
0.04675031947921077 0.04605169184376313 0.024424283610807396
0.04597145266812264 0.04606154468044564 0.023322946828663205
0.04551521680235182 0.046106149316986776 0.021995499192747958
0.044229817959988094 0.0460615446830749 0.02124734750669066
0.04331537573884353 0.046056831932821986 0.020240363282862106
0.04268750609076033 0.04608312140348355 0.0190301775892191
0.04164106783060745 0.04606411568532878 0.018117021591801785
0.0404760372551799 0.04603214146484388 0.01729039619836803
0.039422507566717335 0.04601218010862881 0.016385580030094937
0.038574823187134955 0.046014603065576136 0.015332776566847062
0.03801790346153566 0.04604883675055899 0.014067561665260464
0.037316717104821706 0.04606740127414478 0.012905731912949192
0.036904181635220024 0.04611774350835898 0.011529551766434165
0.03675558530302114 0.0461973422273295 0.00995387017689342
0.0379559669034758 0.04642603996006289 0.007366089622747318
-0.06792141385071848 0.03634086856177215 0.05838811932969801
-0.06909152424157305 0.036285034204121804 0.057974675217192795
-0.07025804461699786 0.036229371151853554 0.057562499592445304
-0.07142099147347236 0.03617387861780223 0.057151586626624507
-0.07258038120656596 0.0361185558196174 0.05674193052656196
-0.07373623011169644 0.036063401979728 0.05633352553446919
-0.07488855438490527 0.03600841632530452 0.05592636592767819
-0.07603737012360268 0.03595359808822425 0.05552044601836431
-0.07718343242581466 0.035898859750854946 0.0551164036466682
-0.07832527511998089 0.0358443743258801 0.05471294620377837
-0.07946365700767433 0.03579005404056434 0.05431071159841694
-0.08059859379910145 0.03573589814526228 0.05390969427955411
-0.08173010110953022 0.03568190589485836 0.053509888729712185
-0.0828581944599947 0.03562807654873396 0.05311128946470306
-0.08398288927801661 0.03557440937073221 0.05271389103338764
-0.08510420089829629 0.03552090362912582 0.052317688017416375
-0.08622214456342187 0.035467558596582405 0.05192267503099418
-0.08733673542454845 0.03541437355013292 0.0515288467206258
-0.0884479885420934 0.035361347771137634 0.05113619776488376
-0.08955661641863494 0.0353083966214683 0.0507453661727828
-0.09066123520775216 0.03525568748900177 0.050355060055050804
-0.09176256091554769 0.035203135492610546 0.04996591751498941
-0.09286060824607134 0.03515073993066074 0.049577933357072224
-0.0939553918159568 0.03509850010569013 0.04919110241665342
-0.09504692615508098 0.03504641532437584 0.048805419559748764
-0.09613522570719663 0.03499448489750498 0.04842087968279857
-0.09722030483057909 0.03494270813994303 0.048037477712451926
-0.09830217779864814 0.03489108437060488 0.047655208605334565
-0.09938085880060399 0.03483961291242376 0.04727406734783712
-0.10045636194203672 0.03478829309232291 0.046894048955885725
-0.10152804299486323 0.0347372054712472 0.046514505692354824
-0.1020020818975596 0.03475980217206451 0.04555253223925815
-0.10056206896154724 0.035019811676157565 0.04270016886650618
-0.09910035055903149 0.03528374033087169 0.03980481152037685
-0.09761643221016464 0.03555167741975208 0.036865480740081
-0.09610980430028082 0.03582371495909496 0.0338811670859272
-0.09457994149637539 0.03609994780330815 0.030850829983495753
-0.09302630213638663 0.036380473755182795 0.027773396513930515
-0.091448327589771 0.03666539368134797 0.02464776014737846
-0.08984544158780872 0.03695481163319147 0.021472779416457477
-0.08821704952192555 0.03724883497355494 0.018247276526384748
-0.08656253770825789 0.03754757450952453 0.014970035898231426
-0.08488051293810278 0.03785124107832319 0.011639013372377216
-0.0831710595378174 0.03815985951118468 0.008253672154742875
-0.08143193887405664 0.03847375121793031 0.004811032804739601
0.06732356813120927 0.04590691066999803 0.02704372197197391
0.06314215015111879 0.04557115413582243 0.028138691724050646
0.060685182554455985 0.045410545145738036 0.02811809114186531
0.05831472934607679 0.04525816639914369 0.02805160256300321
0.05640279701188894 0.04515229214145774 0.027689688638356635
0.05520765433956959 0.045119793309861024 0.026853698425285344
0.0539281472849637 0.045078460321341475 0.026077091110752015
0.052521735457572605 0.04502384224897857 0.02538974401620947
0.05146835845140302 0.04500557196968397 0.024465124527026483
0.05010095210327037 0.044954634145268575 0.023757638943818438
0.0494397011361728 0.04497693155760223 0.022565941473615958
0.04830662689252763 0.04495014929073408 0.021700434748227915
0.04706903603425994 0.044912343908485176 0.02090992106949352
0.04595502322383577 0.04488731537599137 0.020035383079339608
0.04498474952603576 0.04487725589924669 0.019061162365709816
0.04408269454744246 0.04487432273535806 0.01803923414690406
0.042883847773228456 0.044840130785299914 0.01722948002426067
0.041752828683082555 0.04481295400152337 0.016373564461661216
0.040713999039608095 0.04479541113181971 0.015453113571537225
0.039941327399351634 0.044805990903203335 0.014340754185141524
0.03918141431444572 0.04481796877826866 0.013218290027688262
0.038621679879078885 0.044851289779966524 0.011948015571010162
0.03829457643170475 0.044909546052194646 0.010503577542554654
0.03840167628168489 0.04501442419600147 0.00873260863622205
-0.06809322085476888 0.03525278760920806 0.058531521759487726
-0.06926166442721665 0.03519874040333968 0.058117439790884795
-0.07042729269371328 0.035144772999482175 0.05770526831989642
-0.07158935210347073 0.03509097083006582 0.0572943588128923
-0.07274785902183412 0.03503733313739154 0.05688470548301583
-0.07390282971423567 0.034983859168386505 0.05647630257873326
-0.07505502645699919 0.034930463548770115 0.056069787182305875
-0.0762029691858267 0.03487731504353977 0.05566386801845352
-0.07734742391344696 0.034824328028989736 0.055259182231898574
-0.07848840651307609 0.03477150177020746 0.05485572420977741
-0.07962593276176733 0.034718835536732225 0.05445348837323727
-0.08076001834112656 0.034666328602522826 0.054052469177168994
-0.08189067883804452 0.03461398024592288 0.05365266110996225
-0.08301792974539945 0.034561789749629056 0.05325405869324318
-0.0841417864627747 0.0345097564006572 0.05285665648163268
-0.08526226429715561 0.034457879490310324 0.05246044906249486
-0.08638008634753352 0.034406076210139525 0.052066073758649356
-0.08749384825519907 0.03435451031386244 0.051672239791444696
-0.08860427667120241 0.03430309875441944 0.05127958457008369
-0.08971138653889954 0.03425184083995049 0.05088810281048861
-0.09081519271246657 0.03420073588272417 0.05049778926012177
-0.09191570995755977 0.03414978319910744 0.050108638697746455
-0.0930129529519701 0.0340989821095356 0.04972064593319081
-0.09410693628628503 0.03404833193848101 0.049333805807125375
-0.0951976744645247 0.033997832014424356 0.04894811319082487
-0.0962851819047933 0.03394748166982377 0.04856356298595105
-0.09736947293990428 0.033897280241086604 0.0481801501243187
-0.09845056181801987 0.03384722706853913 0.047797869567682116
-0.09952846270326537 0.03379732149639876 0.04741671630750527
-0.10060318967635773 0.033747562872744274 0.04703668536475247
-0.10167475673520848 0.033697950549488605 0.04665777178966207
-0.10274317779554143 0.03364848388234953 0.04627997066154077
-0.10164066301378288 0.033860024695026296 0.04376438026768287
-0.10019266579816455 0.03411423078544867 0.04088815168129234
-0.09872276227440308 0.0343722826822712 0.03796840950992003
-0.09723113804399652 0.03463418512743667 0.03500484671909787
-0.09571591272592561 0.03490019387055154 0.0319950744329357
-0.09417723180313942 0.035170320414409394 0.028938711036930853
-0.09261454639006977 0.03544466111983442 0.02583466625060926
-0.09102729034051649 0.0357233153778793 0.022681815507790637
-0.08941487956378708 0.03600638572988196 0.019478998598197794
-0.08777596809729737 0.0362940693547852 0.01622425005365996
-0.0861106565680324 0.036586387071233295 0.012917073072393315
-0.08441830190677851 0.036883451759321687 0.009556190569799283
-0.0826974654253042 0.03718547589970824 0.006139470577386508
0.0663464348032966 0.044596302756839776 0.02437619307864336
0.06104682911572734 0.044158387807035196 0.026235665326359903
0.05865182700768384 0.04400813284297481 0.026186475639363382
0.05704891134563789 0.04393635650131853 0.02561616513241982
0.05560947580117437 0.043880646214295965 0.024940750528288758
0.05405997015910391 0.043813678008044525 0.024344330038404527
0.053148442155776576 0.04381052029417548 0.023316963704549998
0.05225886749938041 0.043809559342032865 0.022274749697909657
0.05124686523637145 0.04379624761304314 0.021317204914591326
0.05027211384578362 0.043786646235332356 0.020334786612741018
0.049213879270113225 0.04376855222844469 0.019411423144613693
0.04795422421132056 0.0437299469035318 0.018630935428540663
0.04706236374848122 0.043728579171854784 0.017593591342735415
0.04607527438940906 0.04371750368877562 0.016623988831313052
0.04480514985011552 0.0436774873275454 0.01585736626657963
0.04361990895089918 0.0436459902002163 0.01503286119008207
0.042696672104517996 0.04364122187170064 0.014021608857707146
0.04163712071403086 0.043622431178088755 0.013109682295374347
0.04100959914676411 0.04364803409288196 0.011883858533177971
0.04063013695227574 0.04369933018847372 0.01047400251942815
0.04080017677590425 0.04380763757805669 0.008654691618217303
-0.06826484060724386 0.03416589255051141 0.058674767895702196
-0.06943238544230962 0.03411354020020807 0.058260691738376336
-0.07059711883724024 0.034061265062135575 0.05784852467394075
-0.07175828804973428 0.03400914989039678 0.05743761887545851
-0.07291590941484416 0.033957193951848014 0.05702796856240139
-0.07406999916796031 0.033905396517818195 0.05661956798951612
-0.0752205734455576 0.03385375686407612 0.05621241144654576
-0.07636764828595982 0.0338022742707954 0.055806493257973544
-0.07751123963007289 0.03375094802252226 0.05540180778274911
-0.07865136332213457 0.033699777408141215 0.05499834941403697
-0.07978803511043558 0.033648761720843405 0.0545961125789482
-0.08092127064805532 0.03359790025809281 0.05419509173829318
-0.08205108549356926 0.033547192321595316 0.05379528138631762
-0.08317749511177253 0.03349663721726542 0.05339667605046072
-0.08430122948579372 0.03344615424406637 0.05299991235294044
-0.08542087092403067 0.03339590297874103 0.05260370074487336
-0.08653715299289655 0.03334580248718801 0.05220867792909606
-0.08765009078891178 0.03329585209185156 0.05181483856335156
-0.08875969931827143 0.033246051119230235 0.05142217733733989
-0.08986599349753038 0.033196398899845436 0.05103068897248919
-0.09096898815426097 0.03314689476821258 0.0506403682217097
-0.09206869802772577 0.03309753806281021 0.05025120986916842
-0.09316513776952401 0.03304832812605171 0.049863208730047626
-0.09425832194425271 0.0329992643042549 0.04947635965032415
-0.09534826503014077 0.03295034594761427 0.049090657506531354
-0.09643498141969903 0.03290157241017114 0.04870609720554292
-0.0975184854203428 0.03285294304978641 0.048322673684338235
-0.09859879125502968 0.032804457228111275 0.04794038190979005
-0.09967591306287721 0.032756114310559845 0.04755921687843917
-0.10074986489977639 0.032707913666281806 0.047179173616273384
-0.10182066073901158 0.03265985466813402 0.04680024717851927
-0.10288831447185687 0.03261193669265444 0.04642243264941809
-0.10271170681556824 0.03270898495387148 0.0448211420981946
-0.10127727252837943 0.03295360784549615 0.04196384667074754
-0.09982122096989782 0.03320191726320992 0.03906349111070345
-0.09834305976375507 0.03345399717498004 0.03611909463785978
-0.09684228146605062 0.03370993411833264 0.03312964645851507
-0.09531836298453955 0.03396981729940198 0.030094104608534566
-0.0937707649707572 0.034233738696595545 0.027011394742497086
-0.09219893118357286 0.034501793169130865 0.02388040886594206
-0.09060228782261459 0.03477407857071086 0.020700004007594586
-0.08898024282987127 0.03505069586862559 0.017469000828209735
-0.08733143791805631 0.03533183855560948 0.014185405816664831
-0.08565596890514177 0.035617527818715265 0.01084870924715825
-0.08395241560709549 0.0359079670689355 0.007456806213401612
-0.08222007210930321 0.03620327571787864 0.004008308734000543
0.06045217214705234 0.0428925061596079 0.023328788339188777
0.05767730074997257 0.04270977637726799 0.023543192951590353
0.05613530591624877 0.04264603381031994 0.022933891821793118
0.05514756368559648 0.04263596539249164 0.02195077402368273
0.053808345146519776 0.04259158683569634 0.021209970353983143
0.05290601337138767 0.04258971183450428 0.020170746254415117
0.05208721735153299 0.04259600713993015 0.019073627023644846
0.05093512479733303 0.04256963288054855 0.018208872390492348
0.0497708637532186 0.0425419549926599 0.017354738011202908
0.048843989050223635 0.0425375459026459 0.016335098963164763
0.0481827135199171 0.042559333038610536 0.01512716381355067
0.047232643855648626 0.04255264749701969 0.014123751359403303
0.046173667208826374 0.04253514133264168 0.013199071764826542
0.04592213195589073 0.042597748731418375 0.01169280283152585
0.04628645885677174 0.042721900943637856 0.009734465844168372
-0.06843550507394813 0.0330802622425445 0.05881721668199835
-0.06960215645715867 0.033029600843958284 0.058403146540976336
-0.07076600024115176 0.032979014079695335 0.05799098409560466
-0.07192628448719479 0.032928582031650874 0.0575800822213231
-0.07308302550026691 0.03287830399112473 0.057170435143905185
-0.07423623948591207 0.03282817925373899 0.056762037124333475
-0.07538594255100534 0.03277820711940403 0.05635488245853987
-0.07653215070449126 0.03272838689228721 0.055948965477130075
-0.07767487985813892 0.03267871788077923 0.05554428054513072
-0.0788141458272662 0.032629199397463456 0.055140822061718386
-0.07994996433148122 0.03257983075908294 0.05473858445997121
-0.08108307619391875 0.03253053315455803 0.054338203621742576
-0.08221204274647265 0.03248146240830186 0.05393839120813504
-0.08333760844542565 0.0324325394807968 0.05353978317339053
-0.08445978863456316 0.03238376370512209 0.05314237408366207
-0.08557859856550082 0.0323351344183635 0.052746158537737065
-0.08669405339838615 0.03228665096158211 0.052351131166802234
-0.08780616820257287 0.03223831267978575 0.051957286634191246
-0.08891495795730964 0.03219011892189831 0.05156461963515413
-0.09002043755240252 0.0321420690407317 0.05117312489660958
-0.09112262178889202 0.032094162392955636 0.05078279717691869
-0.09222152537970252 0.03204639833907022 0.050393631265640726
-0.09331784738763782 0.031998700645258386 0.05000626314648132
-0.09440954903937115 0.031951295473948094 0.049618764181204644
-0.0954986980993946 0.03190395540260479 0.04923305274111123
-0.09658462449735045 0.0318567554048833 0.04884848257510688
-0.09766734251532067 0.031809694860010014 0.04846504862533635
-0.09874686635111385 0.03176277315087461 0.04808274586378258
-0.09982321011889533 0.031715989664002006 0.04770156929205632
-0.10089638784979277 0.03166934378952672 0.04732151394116879
-0.10196641349251562 0.03162283492116521 0.046942574871325526
-0.10303330091394947 0.03157646245619083 0.0465647471717025
-0.1037739771204822 0.03156674813452913 0.0458692474231569
-0.10235293343484109 0.03180192718238574 0.04303066934038419
-0.10091055665235055 0.032040636802500834 0.040149477746180495
-0.09944703865921983 0.032282880152171844 0.03722538311551976
-0.09796053758823559 0.0325288924937774 0.03425604678237626
-0.0964512067194549 0.032778683111856714 0.031241107153278547
-0.09491851605028029 0.03303233972056139 0.02817950553004972
-0.09336191904455077 0.03328995277030799 0.025070150188156948
-0.09178085198275754 0.0335516155553155 0.021911915078751176
-0.09017400209452286 0.03381750876220549 0.018702882706745194
-0.08854222164698738 0.03408756419817582 0.015443351516445047
-0.086883418377452 0.03436205467857878 0.01213055757192849
-0.08519692145235525 0.034641090319298816 0.008763178309264097
-0.08348203764478135 0.03492478491203049 0.005339847015709498
0.03346344220369363 0.04010887829680429 0.019043415942610387
0.03322819197227306 0.04016910852495173 0.01756367526816388
-0.06977250724200135 0.031946756632474066 0.058546087828386884
-0.07093469916599932 0.03189793248678983 0.05813328958757996
-0.07209409967925123 0.03184917995929196 0.0577223918685314
-0.0732499615652068 0.03180057623026742 0.05731274825781946
-0.07440230099964107 0.031752120619528715 0.05690435302266017
-0.07555113405989461 0.03170381245102713 0.056497200465162434
-0.07669647672560964 0.03165565105282248 0.056091284922053175
-0.0778390808124455 0.03160755953709618 0.05568724150175025
-0.07897748638532925 0.03155968991063563 0.05528378313583493
-0.08011244894377095 0.03151196506194213 0.05488154499668424
-0.08124398408385658 0.031464384335204876 0.05448052155694061
-0.08237210730762401 0.031416947078567466 0.054080707322584465
-0.08349683402376007 0.031369652644099175 0.053682096832674164
-0.08461817954831236 0.031322500387764435 0.053284684659106074
-0.08573615910537447 0.03127548966939461 0.05288846540635955
-0.0868507878277835 0.031228619852658172 0.05249343371126031
-0.08796208075779988 0.03118189030503227 0.052099584242735586
-0.08907005284777897 0.031135300397774807 0.05170691170157021
-0.0901754135545687 0.031088775767449315 0.051316051408758556
-0.09127678482215817 0.031042463489211358 0.05092571692110537
-0.09237487959264407 0.03099628898653683 0.0505365436493177
-0.09346971246531305 0.03095025164553068 0.05014852641929818
-0.09456129795284562 0.03090435085593964 0.04976166008764277
-0.09564965048195356 0.030858586011125653 0.049375939541410396
-0.09673478439402505 0.030812956508038128 0.04899135969790647
-0.0978167139457437 0.03076746174718864 0.04860791550444915
-0.09889545330972366 0.03072210113262349 0.04822560193815856
-0.09997101657511781 0.030676874071898858 0.04784441400572714
-0.10104341774824155 0.030631779976053857 0.04746434674321237
-0.10211267075317088 0.030586818259586077 0.04708539521581151
-0.10317813735496356 0.030542059507863723 0.04670691445724173
-0.10424113889746012 0.03049736059919013 0.04633017977135906
-0.10342106615591679 0.030658935255581818 0.04409002568045289
-0.10199220642830903 0.030888183075268964 0.04122780210466731
-0.1005418175295007 0.031120885058770434 0.03832245232105691
-0.09906940918362978 0.03135711986648273 0.035372994232421906
-0.09757447611447212 0.031596968565476835 0.03237841569355493
-0.09605649746733802 0.03184051472224986 0.029337673353208693
-0.09451493620401724 0.0320878444998005 0.026249691442084222
-0.09294923846931741 0.03233904675926268 0.023113360503902947
-0.0913588329275985 0.03259421316635243 0.019927536066389473
-0.08974313006765738 0.032853438302893105 0.016691037248846963
-0.08810077632935281 0.03311690345645873 0.013401867134148426
-0.08643111280542609 0.03338471347240977 0.010058723164073524
-0.08473345868359966 0.033656976681624144 0.006660259477759223
-0.08300788704113399 0.033933717194947206 0.003205908859514328
0.02407072710632513 0.03789751929875187 0.025862116915699895
0.02465372778653324 0.03803026484500759 0.023822361400841152
0.02524943517766992 0.03816474828805977 0.021761948605411863
0.02554925806734476 0.038272073820122196 0.019908365412900975
0.0261730405698663 0.03841025532603825 0.01780523140331114
0.026904860744154824 0.038559175429790406 0.015609637331924497
0.027765366926789325 0.03872084775195799 0.013304710488488414
-0.06994267294854795 0.03086508888145204 0.058688873816660214
-0.07110321590737917 0.030818018389126386 0.05827544139921592
-0.07226248861929774 0.03077086705869412 0.05786518806211888
-0.07341671790038767 0.030724008792372953 0.05745490815198662
-0.07456818399746712 0.030677218746899246 0.05704651593158844
-0.07571689116464647 0.030630496950406445 0.05664000575152639
-0.07686136564887552 0.030583991077056585 0.05623409188514672
-0.07800237012098343 0.030537626208113768 0.055829408737336106
-0.0791399203385435 0.030491401703266696 0.05542595071931744
-0.08027403196385935 0.030445316926075713 0.05502371227609637
-0.08140472056469444 0.030399371243942482 0.054622687886215604
-0.08253200161497437 0.030353564028082106 0.054222872061493566
-0.0836558904955027 0.03030789465349339 0.053824259346782866
-0.08477640249465018 0.030262362498931477 0.05342684431971284
-0.08589355280905858 0.03021696694687862 0.05303062159045324
-0.08700806143429501 0.03017163553667159 0.05263622578616517
-0.08811852991104102 0.030126511566600216 0.05224237159127598
-0.08922568176830492 0.030081522367612266 0.05184969371475412
-0.09032953184248033 0.03003666733682957 0.05145818689452203
-0.09143009488159609 0.029991945874965002 0.05106784589983587
-0.09252738554598383 0.029947357386294705 0.05067866553106237
-0.09362141840891847 0.029902901278632665 0.05029064061943861
-0.09471220795727342 0.029858576963303532 0.04990376602685215
-0.09579976859215028 0.029814383855117574 0.0495180366456055
-0.0968841146295224 0.02977032137234395 0.04913344739820025
-0.09796526030085306 0.029726388936686218 0.04874999323710488
-0.0990432197537282 0.029682585973255963 0.04836766914454388
-0.10011800705246326 0.02963891191054882 0.04798647013226842
-0.10118963617872401 0.02959536618041863 0.04760639124134891
-0.10225812103212872 0.029551948218053247 0.047227427541955636
-0.10332347543084558 0.029508657461950503 0.04684957413314211
-0.10438571311219691 0.029465493353893094 0.046472826142642254
-0.10448045073504708 0.02952467882884733 0.045140705758245525
-0.10306493632007263 0.02974460271158542 0.04229723400219676
-0.10162884138202855 0.029967756648020892 0.03941175028493399
-0.10017036138289165 0.030194356200136153 0.03648196460978165
-0.09868965690126563 0.030424408701754075 0.03350753453040617
-0.09718621604828598 0.030657993683473328 0.030487431767596163
-0.09565951109325221 0.0308951931371901 0.02742059621915338
-0.09410899784600585 0.031136091612055893 0.0243059347192226
-0.09253411501019604 0.03138077631495879 0.021142319739132498
-0.09093355436103745 0.03162941617270734 0.017927830480362728
-0.08930742764317107 0.03188202760360497 0.014661995554985652
-0.08765511736722287 0.032138706531833296 0.011343574826948533
-0.08597446683453219 0.0323997176944836 0.007969684984576564
-0.08426629432812094 0.03266500312012393 0.004540545043498823
0.015267213452183181 0.03572570567598895 0.033825882216515946
0.01616421929613493 0.03588004817097356 0.031601896302193566
0.01666635705217262 0.035999463640235374 0.02965251537534075
0.017116321791793454 0.03611466506254277 0.027730866458207215
0.01760833020642727 0.03623414741051334 0.025767986953190547
0.018003499519745725 0.03634535032377979 0.023866346140448913
0.018454941980351802 0.036462127660021125 0.021912835171475575
0.018979012598258016 0.03658600282306344 0.01989444239255389
0.019690344208602217 0.036727474934081725 0.01772377642659373
0.020527606275434762 0.03688104965724275 0.015444971558785547
0.021343743485831235 0.037033335457028464 0.01316849107319551
0.022367511072022173 0.03720531857953663 0.010719199847020133
0.023430637330334514 0.03738164776535882 0.00822408841792932
0.024962342206354293 0.03760190967029506 0.00535007455954134
-0.07011189204392365 0.029784668190605795 0.05883086550381206
-0.07127230861429745 0.02973919760146458 0.05841807906492236
-0.07242994138624204 0.029693793561061162 0.05800719036772589
-0.0735840447367625 0.02964852794969904 0.05759755439882669
-0.07473463478218295 0.02960340013527245 0.057189165437919465
-0.0758817275408546 0.029558409489518253 0.056782017799473505
-0.07702533893389463 0.02951355538798722 0.056376105832464996
-0.07816548478593272 0.029468837210014177 0.055971423920124164
-0.0793021808258298 0.02942425433869047 0.05556796647966622
-0.08043544268741243 0.0293798061608345 0.05516572796204483
-0.08156528591017881 0.02933549206696468 0.05476470285168761
-0.08269172594001944 0.02929131145127055 0.054364885666253804
-0.0838147781299104 0.029247263711586202 0.053966270956374796
-0.08493516932218764 0.029203278536455192 0.05356949264500788
-0.08605148779527366 0.029159494965611484 0.05317326665470745
-0.08716446395595534 0.029115842484933138 0.052778226984482035
-0.08827411279236447 0.029072320506564803 0.05238436831444254
-0.08938044920315535 0.02902892844616026 0.05199168535646553
-0.09048348799816192 0.028985665722857233 0.051600172853947135
-0.09158324389906797 0.028942531759250538 0.051209825581577995
-0.09267973154005232 0.028899525981367347 0.05082063834510092
-0.09377296546844821 0.028856647818640745 0.05043260598109056
-0.09486296014537615 0.028813896703885494 0.05004572335671531
-0.095949729946392 0.028771272073272014 0.049659985369520265
-0.0970332891621088 0.028728773366302623 0.049275386947193744
-0.09811365199883282 0.028686400025785947 0.048891923047354235
-0.09919083257917521 0.028644151497813568 0.04850958865732069
-0.10026484494267657 0.02860202723173489 0.04812837879390347
-0.10133570304640738 0.02856002668013424 0.047748288503178415
-0.10240342076558229 0.028518149298806122 0.04736931286028162
-0.10346801189414978 0.02847639454673272 0.046991446969187556
-0.10452949014539581 0.028434761886059614 0.046614685962507285
-0.10553248195039766 0.028398919232001555 0.0461840928916436
-0.1041301600676704 0.028609652646408475 0.04335918283240425
-0.1027068708138244 0.028823536924943036 0.04049203501127557
-0.10126214039385956 0.029040643266977882 0.03758169499099007
-0.0997954806294521 0.029261045033334515 0.03462717935976378
-0.09830638840896888 0.029484817828931892 0.03162747462338311
-0.0967943451120657 0.029712039589255133 0.028581536046076716
-0.0952588160074595 0.029942790670854834 0.025488286437361896
-0.09369924962242593 0.03017715394609565 0.022346614881926186
-0.09211507708244693 0.030415214902390363 0.019155375409383002
-0.09050497837387173 0.030657138572672087 0.01591262006752614
-0.08886906073928857 0.03090294163824805 0.012617865143273177
-0.08720519152523759 0.03115287682811349 0.009268260099227155
-0.08551418895535728 0.031406887807346795 0.005864031756053767
0.007906402442077354 0.0337436352452294 0.04067782988333174
0.008409728244673731 0.03385665385519102 0.038777037590190966
0.008940140239154126 0.03397248651075282 0.036846262216082615
0.00951049222727185 0.0340922670464841 0.034875735273022956
0.010186375676023762 0.034221728558255546 0.03281677601421551
0.010367944123594874 0.034308617119216615 0.03111067775633758
0.010767445346625049 0.03441491328861744 0.02923489185413758
0.011358706508458383 0.03453844633494285 0.027206256013222685
0.01162141891670787 0.03463366235258526 0.025412609314529766
0.012249818235360976 0.03476143669923836 0.023334390635983526
0.012888726265705086 0.034890673306837136 0.021236341988059904
0.01319011510838708 0.0349906460577973 0.01938354130748854
0.013855676481300538 0.03512326895096912 0.017242332434249885
0.014487096678757416 0.035253424030802345 0.015115038158155347
0.015283309022465441 0.035398775518234546 0.012847902096068009
0.016397827522194874 0.03557309231895981 0.010319226393425751
0.018529743039533808 0.03583895369647315 0.006977535766172049
-0.07144121808869991 0.028661545847352917 0.05856056216536798
-0.07259721378665124 0.028617880199609317 0.05814903971997004
-0.07375044167577632 0.028574278183910402 0.057739407907506146
-0.074900160809803 0.02853080882958578 0.057331022420842315
-0.07604638717776252 0.028487471532111206 0.0569238775806058
-0.07718913667168059 0.028444265690630428 0.05651796774187351
-0.07832842508732307 0.028401190707926325 0.05611328729392129
-0.07946426812491314 0.02835824599039441 0.055709830659955495
-0.08059668138986287 0.0283154309480146 0.05530759229686644
-0.08172640250500401 0.028272677233589682 0.05490720537975202
-0.08285199888460404 0.028230119989498897 0.05450738705794583
-0.08397421176545561 0.02818769067082279 0.054108770574367526
-0.08509305638066433 0.028145388701618514 0.05371135051813408
-0.08620854787202487 0.028103213509395847 0.05331512151078993
-0.08732070129071445 0.028061164525090398 0.052920078206074195
-0.08842953159795924 0.028019241183039008 0.05252621528967022
-0.08953505366571468 0.027977442920953468 0.05213352747897615
-0.09063728227732593 0.02793576917989584 0.05174200952286451
-0.0917362321281836 0.027894219404253812 0.05135165620144544
-0.09283191782638539 0.02785279304171523 0.05096246232584217
-0.09392503546469849 0.027811423975434898 0.05057506121632305
-0.09501423276261567 0.02777024298927996 0.0501881707539637
-0.09609953479008027 0.0277292489585987 0.049801785945444155
-0.09718230823518104 0.02768831079051542 0.049417178576479204
-0.09826188928108509 0.027647493322636444 0.04903370516608713
-0.0993382920254966 0.02760679602194687 0.04865136070668635
-0.10041153048322865 0.027566218358566107 0.0482701402201316
-0.10148161858682214 0.027525759805723853 0.04789003875750791
-0.10254857018713837 0.027485419839738304 0.04751105139890671
-0.1036123990539668 0.02744519793999256 0.04713317325322336
-0.1046731188766073 0.027405093588913246 0.046756399457936804
-0.10573074326446752 0.027365106271947274 0.04638072517891095
-0.10518666100220886 0.027483370731591593 0.04441243566691566
-0.10377732724188887 0.02768798586009545 0.041564730890761736
-0.10234618722707861 0.027895736548128536 0.038673636881397744
-0.10089340836390553 0.028106628428216714 0.03573882950757279
-0.09941849614455067 0.028320733285327786 0.032759309797429415
-0.09792094087769532 0.0285381251085343 0.029734048106413058
-0.09640021710126712 0.028758880176261988 0.026661982930939243
-0.09485578296771158 0.028983077145526354 0.023542019666563774
-0.0932863621548986 0.029210869477477846 0.020372283916576306
-0.09169280331458202 0.029442197357038284 0.017153087756598517
-0.09007306646675323 0.029677293025709775 0.013881723799790857
-0.08842576004725111 0.029916325124112957 0.010556119130887776
-0.08675170210809074 0.030159238996917324 0.007176508129064396
-0.08505253974627669 0.03040589485896098 0.003744020725929109
0.00036845101734878094 0.031801967708242826 0.047592202005245
0.0007576274972380115 0.03189966692532028 0.04581118495195846
0.0015391662442324483 0.032030448691200884 0.04373763450571927
0.002131944764471261 0.03214601572861143 0.04178871481120178
0.0027213475096837803 0.03226177834385452 0.03983127826396282
0.0033348327698944913 0.032380038993139786 0.037845145204617625
0.0037304319975722255 0.03248049208917757 0.03600850704137554
0.004357374330010044 0.0326008324063348 0.03399062729466534
0.004744361338889558 0.03270143842235905 0.032140211871054813
0.0051359859424621734 0.03280285674547717 0.030276659065321954
0.005546930390442295 0.03290633585758776 0.02838878032858
0.006053187114946623 0.033018337720587564 0.02641866443001839
0.006034130458060727 0.033086136832705615 0.024838144095204573
0.00671226649582185 0.03321363722745606 0.022716758653835045
0.007054461751951957 0.03331298629526004 0.020841843202534904
0.007471070934827351 0.033419124248441096 0.01889962366190534
0.009548295101016513 0.03366813206406843 0.015653749578141918
0.011659063775355027 0.03392108106107763 0.012357296377193405
-0.07160994462825676 0.02758506122763534 0.05870289095165171
-0.07276430611178558 0.02754312510094042 0.058290736365843976
-0.07391740808062863 0.027501116550231654 0.05788174688621739
