# .PCD v0.7 - Point Cloud Data file format
VERSION 0.7
FIELDS x y z
SIZE 4 4 4
TYPE F F F
COUNT 1 1 1
WIDTH 763
HEIGHT 1
VIEWPOINT 0 0 0 1 0 0 0
POINTS 763
DATA ascii
-0.04373386846103509 0.0034086701727158997 0.027327576392980668
-0.04372686539353164 0.004272517606721149 0.026417616274406974
-0.04372899118305087 0.005057203828894519 0.02544618068983029
-0.04373899740263853 0.00577399947770979 0.02442114662270295
-0.04375426566869772 0.0064458741866708635 0.02335983187611379
-0.04377743867774577 0.007050421704158316 0.022243832249989437
-0.04380703555381023 0.007600768505185818 0.021082780589579186
-0.043873774977035186 0.007834576766553136 0.01966499638288205
-0.04397837640507868 0.007747753648416789 0.017983077208462928
-0.04410738250990046 0.007456971665198819 0.01612767491857814
-0.044259810230663145 0.006971927933441591 0.014104012339912486
-0.044442337433557334 0.006237297479069648 0.01186404188648904
-0.0446558284899994 0.005247426341285444 0.009399748143837872
-0.039654634654032885 0.0541104959864156 0.03653001926526056
-0.039580324189052704 0.05545376518808809 0.0361975443844782
-0.039544807213764174 0.056473960485468155 0.03558794635873125
-0.03953662795291794 0.05726760704544981 0.03478172415622938
-0.03954030829751283 0.05796345589801449 0.033889626757661384
-0.039548796061472234 0.05862000664528094 0.03296230746287232
-0.039573256972872325 0.05914614134296353 0.03191777390819256
-0.03959118689755801 0.05972650561758808 0.030920086367194177
-0.03961877942171129 0.06022880251048668 0.02985050959601382
-0.039653298486215176 0.06067580616684437 0.028728602917493407
-0.0397014789471788 0.06101327339736906 0.027504056793123344
-0.03975411678164846 0.06131643949670207 0.026244308379949288
-0.039836033686040495 0.061385138896838554 0.024764235987394023
-0.039948008991705114 0.06121470672899537 0.023056096955878846
-0.04015012578834569 0.060323893250739946 0.020667892730342807
-0.03884317705501534 0.0772485563408436 0.02280555973540932
-0.03854902866036135 0.08027206314429908 0.02422296454323314
-0.038444941988263384 0.0817955786008216 0.02418391636738315
-0.03841577488811296 0.08272963088220286 0.02356859654390664
-0.03849827198448687 0.08279179295949857 0.02208641200584538
-0.03864830772979224 0.0823315220273832 0.02007405385285338
-0.0388191178282736 0.08171551523745624 0.017892706935098812
-0.03900785578622935 0.08096695887054028 0.01556332436600033
-0.03920698058382664 0.08014509573150058 0.013144017397139718
-0.03941698622662725 0.07924669093089853 0.010630209274807456
-0.039650009963169405 0.07817902844752389 0.00792522973754245
-0.03993246699417024 0.07674077209096036 0.0048181534380031255
-0.04859955038759753 -0.06702464253513807 0.05125895807600234
-0.048006077097244325 -0.06067173285476113 0.053536189555828395
-0.047775251389327596 -0.05768529733800837 0.053807509616405236
-0.047572376183992945 -0.05496443802203399 0.053931509235637776
-0.04742320564171863 -0.05274430999955687 0.053761060500825575
-0.04728008350179813 -0.050584979070705305 0.05356269730544733
-0.04715421540775011 -0.04858868857344856 0.05327231758473855
-0.0470712384957382 -0.046988717968172666 0.05274250008381154
-0.04699739835947639 -0.04547501482819516 0.052163872829673164
-0.04694185491039798 -0.04413044143969469 0.05148318401682672
-0.04689231346310283 -0.04284236029917804 0.050770220423087264
-0.046855714498421776 -0.04167335778847886 0.04998439648019809
-0.04682544485495301 -0.04056291762382325 0.049163333134955856
-0.046791594810505634 -0.0394212338360565 0.048364449693453604
-0.04676168597187811 -0.03831627046763908 0.04754392599698204
-0.04673611992793734 -0.037251427687952254 0.046699150083710006
-0.046716547486459245 -0.036241288264930116 0.0458201068559147
-0.04669907109271054 -0.03525062161801212 0.04492948772421357
-0.046686180254564155 -0.03430156898723696 0.04401236770246031
-0.0466785600200949 -0.03339999610355293 0.04306436933538188
-0.04667731337298497 -0.032555440740180186 0.04207855594685084
-0.04667911429250645 -0.031738008612657576 0.04107449423350312
-0.0466859034126173 -0.030964745049279985 0.040040294371444685
-0.04669976481016396 -0.030253826195156708 0.03896303384336597
-0.04672293165298767 -0.029624596089068644 0.03782870789810494
-0.046755153672860476 -0.029074350430264018 0.03663824672716698
-0.0467999493038362 -0.028633552598979373 0.03536956887378967
-0.04684971446205705 -0.02823477872391894 0.03406850690314922
-0.046906019251340234 -0.027891517298379298 0.03272508084604914
-0.04696049656017347 -0.027530268430823845 0.03139054413356501
-0.04702845500307638 -0.027284692453046766 0.02997014968269962
-0.047108600249860036 -0.027142797759547033 0.0284710850875714
-0.04720445583335575 -0.027134547350918692 0.02687058795177616
-0.04731251164846915 -0.027228663243071327 0.025189630712140643
-0.046159648707775766 -0.016407890252875035 0.03142500475022647
-0.045714375438277326 -0.011738594235657984 0.03324939799171078
-0.0454667357910137 -0.008788312330882009 0.033842821224104314
-0.04534692616627226 -0.006946170067092972 0.0336356114165573
-0.045279305251328304 -0.005556180226782226 0.03310121559433554
-0.04522267495412546 -0.004262728395162951 0.03249948658955354
-0.045176694060570795 -0.003062309799951757 0.03183190982090878
-0.04513469173649598 -0.0018974634474654417 0.031140704428196553
-0.04509936148244124 -0.0007908989794454535 0.03040823768590406
-0.0450688641323797 0.0002733601910284711 0.02964598929467349
-0.04504176132759514 0.0013077625799176595 0.02886299238975265
-0.04502190666532318 0.002279900800017609 0.028033920461308037
-0.04500709156278574 0.0032088012785468356 0.027172748800723623
-0.04499949459047734 0.004076387959592864 0.026264867544958492
-0.04499897970267618 0.004884190715640668 0.025310711060494318
-0.04500631908466759 0.005626113813741174 0.024304730008820552
-0.04502152042529217 0.006302513636633311 0.023246372078414845
-0.04504395467110375 0.006919063722651886 0.022139314573961677
-0.04507506431717373 0.0074641328638784255 0.020973481691253737
-0.04513844891001823 0.0077419794045772705 0.01959052896527791
-0.045242317900021506 0.007686225480246001 0.017933331563237953
-0.045371912098900104 0.007421220331198131 0.016098615690278206
-0.045527670523140565 0.006944715484625996 0.014081775759191173
-0.045713978485801374 0.006221966206368612 0.01185144730019505
-0.045935599421086486 0.005215431027787376 0.009373324169249853
-0.04100422075857171 0.05089957813741497 0.03676234843877246
-0.040845031825349945 0.05291826189703397 0.036998220413629546
-0.04076563586312522 0.054287809207103854 0.036683586719277406
-0.040728373595938484 0.055315506795139746 0.03607717033120417
-0.040720149245976146 0.05610874847796976 0.0352683008403788
-0.04072447198880664 0.05680118860929256 0.03437135050354778
-0.040731221482453644 0.05747438707074254 0.03345706102628271
-0.04075074419842528 0.05804596344225271 0.03245191610044784
-0.040776838832410414 0.05856594498857903 0.03139920246845407
-0.040815143196361696 0.05898992498874478 0.03025828590286267
-0.04087050451173164 0.0592801617840194 0.02899370843855431
-0.040934217477325126 0.05950636980687701 0.027666846886498897
-0.04102464885538283 0.05952416599697907 0.026144984911103453
-0.041146887881633114 0.059294941434837545 0.024389682028521542
-0.04133178129499578 0.05857826065550642 0.022175595001563575
-0.04171035854900044 0.05635127057482048 0.01854735774861127
-0.0400227223106389 0.0774294234655124 0.021432711770367263
-0.03961966742210426 0.08121436271937271 0.023610450980811104
-0.03949868262604451 0.08284123828283324 0.023679286990607618
-0.039474891355424514 0.08372687950474944 0.023018623656446024
-0.039559082682246824 0.08379488334278973 0.021540476432877098
-0.039717311442270864 0.08330719141565024 0.019495975020796252
-0.03990351894454494 0.08261451591503638 0.017231473148951792
-0.04009699969041392 0.08187386425137777 0.014903451953856672
-0.04030176074554992 0.08105560248942367 0.012480732943440542
-0.040528769049624574 0.0800783592681773 0.009878300972061715
-0.04078762633875097 0.07887172673303211 0.007020729827755978
-0.041095930804634834 0.07730649650503868 0.0037699726718651294
-0.049962196841348956 -0.06713869873311101 0.05119049738816511
-0.04932919087011303 -0.060578312532027334 0.05359258737851241
-0.04911591781533106 -0.057807145742370225 0.05373352647209645
-0.04889590163678672 -0.05498298484015818 0.053920183449976566
-0.04726873576977454 -0.03958578127507906 0.06184257315892028
-0.04718746759271627 -0.0380394279199458 0.06131185013464463
-0.04711183240459879 -0.03654606453619613 0.06075332840609926
-0.047100302250020515 -0.03562512213094321 0.05984195782248786
-0.047098792831546714 -0.034793474856598616 0.058875211205408784
-0.04822147386043813 -0.04391510606730148 0.05161925089052288
-0.04816744990978042 -0.04259999879355841 0.050924233611003955
-0.04812772774393009 -0.04141289515338875 0.05015084990011354
-0.048100376255798535 -0.040336053001594485 0.04930913495974382
-0.04806476570492017 -0.039187611991630844 0.0485154418408108
-0.04803463095332528 -0.03808841363027643 0.047692022104201814
-0.048008810868117195 -0.0370280132589193 0.04684517582897685
-0.04798643692153772 -0.0359986019567069 0.045979619870112065
-0.047970773350976756 -0.035028446973453864 0.04507633776710124
-0.047950710428314065 -0.034020573615149596 0.04419913616254373
-0.0479411829033432 -0.033104844146156276 0.043261643869157984
-0.047936918116424185 -0.0322350346263956 0.04229390518690679
-0.04794018785274806 -0.03143051083532178 0.04128231933235954
-0.047946301968600856 -0.030650414286041594 0.04025391965810249
-0.047957965700100906 -0.02991789007849699 0.039192610943242945
-0.04797789245476344 -0.02925596554158394 0.03808202567849778
-0.048005960275400196 -0.028663164152388454 0.03692237332174858
-0.04804805219290286 -0.02818941063992897 0.03567816500923454
-0.048100377399211185 -0.027801596898766323 0.03437115005319685
-0.048156402781923346 -0.027443503936877278 0.03303981226009012
-0.048213852963691455 -0.027095584025692288 0.03169759357364582
-0.0482874452644264 -0.0268826961351763 0.030255670718232763
-0.04836936585016667 -0.02673780419671329 0.028760314614853233
-0.04845882685832844 -0.026653813478404287 0.02721579084371284
-0.04857035338856723 -0.026752875466961534 0.025533153047079538
-0.048694125680301015 -0.026951163987673388 0.023771049970573388
-0.04707520444194793 -0.012503051553282907 0.03269140431215767
-0.04679828675471749 -0.009363380572088631 0.03342077696784085
-0.04665013928248859 -0.007310783589289549 0.03336656273088162
-0.04657272668982206 -0.005853961509651118 0.03288028696349443
-0.04651162370626212 -0.004535729029398805 0.03229584250217349
-0.046462696403737645 -0.0033208619726819433 0.03163799680558166
-0.04642093579677214 -0.0021671624184567695 0.03093733493681
-0.04638390781109358 -0.0010541017801851127 0.030208692203045062
-0.04635172288493534 1.765404431391948e-05 0.029451079065897112
-0.04632290081407055 0.0010605626966807558 0.028673548318105035
-0.04630167248402697 0.0020399865851224996 0.027849067973647945
-0.046285233922535536 0.0029793446009917512 0.02699500114496428
-0.04627450215668149 0.0038713726958030104 0.026105198559375986
-0.04627225050058949 0.004693693265868382 0.025161551150555406
-0.04627860896279415 0.005445687566827895 0.024162697204930028
-0.046292656670404456 0.006135301538929383 0.02311403544308427
-0.04631400956605846 0.006766056024189004 0.022017570841686984
-0.04634494645510337 0.007319858257160916 0.020858072153307705
-0.046406411441133014 0.0076277848921235125 0.01949869295435469
-0.04650801189643489 0.007613877115368595 0.01787483775206461
-0.04663870068802433 0.00736920628871357 0.01605633784434124
-0.04679801728787854 0.006898989778689024 0.014044411057838324
-0.0469847670972263 0.006214300046610055 0.011845149622669138
-0.04721627667622489 0.005177912397694662 0.00934233863643219
-0.04757240000728569 0.003154521575462532 0.006003790920666441
-0.0421880994578002 0.049813025742069916 0.03733274004779008
-0.042049610250211165 0.05163735240200584 0.03739462620166706
-0.04196446845355114 0.05303737296730959 0.03710083864899938
-0.041907246729432315 0.05421537244258401 0.03662085079895766
-0.04189790598156089 0.055016538116872626 0.035816874484747296
-0.041894757177292345 0.05576901196751993 0.03497095231818953
-0.041905834678185754 0.05641049728767633 0.034027604618721286
-0.04192061377290546 0.0570235817634302 0.03305833816126441
-0.04195042091439517 0.05752057403898675 0.03198478364860885
-0.041994229324577956 0.05791020648998768 0.03081311249871349
-0.04204709531410627 0.05823139616553541 0.029576765497086377
-0.04211885145351676 0.05840883464721902 0.028206736014622702
-0.04222457465557323 0.05832756929218025 0.026596588941098842
-0.04237277109446757 0.05792410811636689 0.02468465123515534
-0.0425987663767536 0.05693024829883869 0.0222201908404997
-0.04298993618486576 0.054682704323320286 0.01858292157164726
-0.041035998233935944 0.07887384472369396 0.02130114343061279
-0.04064864244370945 0.08245100431215596 0.02329225956661979
-0.040554723839395825 0.0838500169439797 0.023141382596332527
-0.04054058710465623 0.08465860096030775 0.02240600093504236
-0.0406565143947737 0.08451172969237031 0.020709285768228503
-0.040819436137267684 0.08402465720785784 0.018659238889169538
-0.04101018118392707 0.08333992624047659 0.016395519932083658
-0.04121931651780408 0.08252775493298914 0.013986750725108965
-0.041442491493612815 0.08162074299669286 0.011464325530903652
-0.0416902328666254 0.08054324634681265 0.00874842952078203
-0.0419790732491235 0.07917688186235616 0.005713212299579162
-0.05130887938295578 -0.0671067016796853 0.051209703276780316
-0.05064494919831424 -0.060425404692685536 0.05368489775346669
-0.048684494832488386 -0.04243611497418992 0.06306642077237234
-0.0486075267563557 -0.040941263806117734 0.06249494347344958
-0.04852782279893036 -0.03942519996365362 0.06194119670711462
-0.048443432080209334 -0.037871112348413505 0.06141581559007675
-0.048359756946081044 -0.03632608490325201 0.060889982247164576
-0.04827931844624957 -0.03481189979566374 0.0603500222076202
-0.0481998467405242 -0.03330878679078786 0.059808058403126974
-0.04811463970724433 -0.03175891990514618 0.05930054063038376
-0.048033485211025795 -0.030246802779433313 0.05877430129123651
-0.04796618079051688 -0.028856359857893477 0.058175330443378026
-0.04793349880914452 -0.027764906307460757 0.05738838154764819
-0.047929762673302394 -0.026922133089923694 0.0564427404124076
-0.04931176479739338 -0.037908305881248994 0.047809083590386436
-0.04928190477055026 -0.03681979041404343 0.04698127221874937
-0.04925851045023436 -0.03578725840926733 0.046118531903706295
-0.0492395189274056 -0.03479287721400798 0.045232041530346545
-0.04921995836878992 -0.033794319670726714 0.044349519795459424
-0.04921310130612517 -0.03290378794178822 0.043396026430709556
-0.04920843378513048 -0.03203195615050136 0.042430396978049234
-0.04920026769648191 -0.03113083235635017 0.041484859690932574
-0.049206537978782466 -0.030351261751987213 0.04045722952926156
-0.049217915997205396 -0.029614301638981544 0.03940008180603627
-0.04923484685056802 -0.028923416941364855 0.03831054845453874
-0.04925909572434212 -0.028293065247947224 0.03717810886108347
-0.0493001979479711 -0.027802334316288424 0.03594711114143173
-0.049350462030503736 -0.027386404824904953 0.03466122463890425
-0.049413473196648336 -0.027074566686809853 0.033298992361936175
-0.04947266483951591 -0.026728962072839202 0.0319565655299211
-0.049549589682301276 -0.02652792811314758 0.030507647495858603
-0.04963535926154715 -0.026397247969949245 0.029003525694542898
-0.04971919280759423 -0.026247729442006706 0.027507389580160857
-0.04982423427395685 -0.026269591865571318 0.02588208742246556
-0.04995120200172565 -0.026467647833357644 0.024122061600582723
-0.04845078559173509 -0.013347959917660468 0.03207468769172489
-0.04814840911561461 -0.010059798436834966 0.032909673852772825
-0.04796133298802141 -0.007721225240004959 0.033063697412910764
-0.047870202302001924 -0.006169031096823707 0.0326465318623842
-0.04780789687314688 -0.00485378584237095 0.0320585888662952
-0.04775674050589654 -0.0036309147162593702 0.03140545856779081
-0.047711588525044056 -0.0024582860761065972 0.030717809917091
-0.04767336540648398 -0.0013430487892108212 0.029989628908958454
-0.04763889390850076 -0.0002592885363199571 0.029239981506512025
-0.04760733880538587 0.0007998907983179926 0.028473779830171297
-0.04758387038734785 0.0017932142225898229 0.027658931321379365
-0.04756778336151839 0.0027267307954650377 0.026799314908419747
-0.0475557933551895 0.003627017502775387 0.02591489102617739
-0.04755075394995777 0.004471564926774085 0.024987624172622347
-0.047553477933471054 0.005254268942365248 0.02401201111936946
-0.047566284565216076 0.005957138381404936 0.022973031807194844
-0.0475865985345097 0.0066010562304303355 0.021886285344610623
-0.04761621432968266 0.0071722389798978825 0.020739987112207925
-0.04767610419362424 0.007505972682666173 0.019400730733376503
-0.04777543119438345 0.007531776558155845 0.017808459260130693
-0.04790846668016579 0.007296579305248407 0.015997305434714226
-0.048068116326081094 0.006857609309151302 0.014010597069384678
-0.04826051684602533 0.0061682970919553215 0.011807358175729477
-0.048494233573465134 0.005163565000846804 0.009330489600376801
-0.04891615247382053 0.002703483496850567 0.005629310930485576
-0.0434011476235528 0.048518792088313 0.03773019529262356
-0.04327275667733628 0.05024031296030945 0.03769700272370169
-0.04316351877423192 0.05181052081742937 0.037543032823545486
-0.04309282620703328 0.05308191035203852 0.03713920917313185
-0.04306365339142051 0.054033714277721245 0.03646352044894219
-0.043063541760504566 0.0547630072138956 0.03559613886314389
-0.04306510564538399 0.055479552796710574 0.03471760818348835
-0.043076726204299615 0.05611983272786086 0.03377186631075596
-0.04310166444058006 0.05665966525509997 0.03273646567490485
-0.0431401908271367 0.05709768277623556 0.03160878401472034
-0.04319395141762552 0.057422166724286794 0.030376909352063663
-0.04326982513023677 0.057582152566622136 0.02899343532239218
-0.04338005596821751 0.05748688016875181 0.027374037566317788
-0.04352859174812809 0.05710853433375346 0.0254898012899627
-0.04374662584466659 0.056216030721239874 0.023125730786221765
-0.04409190896084153 0.05438244994312086 0.019882709494215944
-0.041940667147087635 0.08105847155993512 0.02191116899138279
-0.041688970610452875 0.08357582243128064 0.022868031209991424
-0.04160164119893038 0.08490680999079558 0.022654729283443087
-0.04163847136225228 0.08534722083597773 0.02155086169700754
-0.04178139868483454 0.0850321790952725 0.019679353170682923
-0.04196770167899166 0.08441334557468 0.017487980322823782
-0.04216702256805728 0.08370840996975792 0.015194565523808712
-0.042385119152155364 0.08287725970941145 0.012756394654567293
-0.042618170031356234 0.08194784374589226 0.010200235710075167
-0.04291250248090554 0.08059442711309212 0.00718597305414681
-0.04327185702400139 0.07879382137714452 0.003682436796052402
-0.0526747406983816 -0.0672402853523863 0.051129521474681805
-0.05195837480108673 -0.0602604366414245 0.053784488865842806
-0.05175636555231493 -0.0576839590706279 0.05380832238924055
-0.05027851987372397 -0.04427139561976695 0.060461355149198426
-0.04980909288064291 -0.03946101151004755 0.06191920256425737
-0.049701582015057505 -0.037729929424789144 0.061503021715334505
-0.04961691825038212 -0.036195428559789244 0.06097114747650323
-0.04953139056594622 -0.03465643341275937 0.060447150599713784
-0.04944859660222331 -0.033143264908762016 0.059912057835190824
-0.04936536387088194 -0.03162914009358769 0.05938254638139151
-0.04928112807191103 -0.030109350041516214 0.058861648254038446
-0.04920627174704488 -0.0286708117982839 0.058293908349684564
-0.049121161462034685 -0.027149118440885578 0.05778413724007475
-0.04904170811268665 -0.025677373942062598 0.05724724044652779
-0.048963918340432726 -0.024222084875398175 0.05670447195158357
-0.04887866216023301 -0.022707383195240405 0.056205267997022634
-0.04881830610665323 -0.021401771369637612 0.05557382981213704
-0.048805022668346146 -0.02048733576821321 0.05468752337538363
-0.04886814885156757 -0.02020381766440521 0.053382679695130664
-0.050473771983788156 -0.03262041921822134 0.043585425254817345
-0.05046898815610351 -0.03174920820403132 0.042620435668277445
-0.05046913771542274 -0.03091861786670802 0.041628286758640554
-0.050470034709672554 -0.030094140644427114 0.04063197403751273
-0.05047810848426662 -0.02932826028047253 0.039595561083390796
-0.05049635865232628 -0.02864507602738875 0.038501820474598714
-0.050521811201521036 -0.028019888325686915 0.03736687206535383
-0.05055988811110635 -0.02749636458424848 0.03615970327719925
-0.050607489864507006 -0.027048765279194087 0.034897117045344206
-0.050666176632519065 -0.02668923576453691 0.03356968908962171
-0.05072983223348031 -0.026367870275222915 0.03221163113329967
-0.05080243141272102 -0.02611643386041118 0.030799914511844384
-0.05089180106702766 -0.025997389456784925 0.029289087984046502
-0.05098377382143856 -0.025896277457832184 0.02775975842441919
-0.051082051233690084 -0.025842596737764956 0.026190381108327
-0.05120623993899477 -0.025992645596984942 0.024466892498942072
-0.04986740311702508 -0.01447664558541456 0.03125083594330719
-0.049507503523898475 -0.010791871956654153 0.03237240294393079
-0.04929267763545583 -0.008270579965631963 0.03265832796616441
-0.04917545814486204 -0.006529575737380111 0.032379038089556944
-0.049106440929147926 -0.005173483865654749 0.03182011097365067
-0.04905399301926977 -0.003950377550410611 0.031165862799763577
-0.04900602584215425 -0.002764273470818479 0.03048707672765466
-0.04896701600538467 -0.001650117185232447 0.029756826998194208
-0.04893158083026564 -0.0005652695341771263 0.029006749606574678
-0.04889844198549337 0.0005004463451162011 0.02824429759893682
-0.048873196771034265 0.001503449766885323 0.02743566949990439
-0.04885301937485868 0.0024661436088574407 0.02659745212273701
-0.04884013700735254 0.0033714655846614483 0.025715863309745957
-0.04883369840789956 0.004226379507773881 0.024795643441644144
-0.04883327862708738 0.005034493260912376 0.023839002146729016
-0.04884237716494181 0.005769074672543006 0.022824192575005064
-0.04886156510962245 0.006426192765533745 0.02174715160854751
-0.04889114681390434 0.007004005656676415 0.02060541227177992
-0.048949574014029905 0.007361420330732726 0.01928448071620903
-0.049047216516379326 0.007420451407134598 0.017718452584382316
-0.04918014316166064 0.007213077799626488 0.015929434020805988
-0.04934378128811587 0.006775910712029987 0.013943837095601652
-0.049539890596615725 0.006097079956107143 0.011748853218189192
-0.04978406643458507 0.005059790548730847 0.009244785170730185
-0.05024146228787886 0.0024152890063029453 0.005390033894179802
-0.044648093087909076 0.04699582816918135 0.037939720571525504
-0.04450221714942042 0.04882718127314484 0.03799171370337556
-0.04438814346726802 0.05041542667528515 0.03784628734782941
-0.044289613478721 0.05188369674664034 0.03760574518903986
-0.04423695188533688 0.0530065320822064 0.037074268371257046
-0.044226733101619724 0.053811699708095184 0.036271238239023784
-0.04422340445029467 0.054565355926605275 0.035424054614627665
-0.04422604449369983 0.05527466995936586 0.03453828804783082
-0.04424143156381749 0.05588981617603972 0.03356948856480618
-0.04427534376381065 0.05636879528863903 0.03247920053109932
-0.04432532951293571 0.05673057009157062 0.03128237805133943
-0.04439450471095207 0.05695304963690101 0.029957619035493988
-0.04449117910610981 0.05697628614364081 0.02844907853111267
-0.04463324120757557 0.056670841185863574 0.02663700075949693
-0.04482828057240787 0.05598359034204203 0.024468440827476123
-0.04511360315718311 0.054645607190026535 0.021692443659346083
-0.04289504992615161 0.08281295484554946 0.02210750921160287
-0.04271611544565958 0.0847692992490951 0.022516930982602212
-0.04267898958398146 0.08573194406223322 0.021938386869743143
-0.04276961752363724 0.08580557153679991 0.020462411789010815
-0.0429457541820943 0.08528937400273379 0.018379548368128995
-0.04314540428486175 0.08461635675099732 0.016123398714718573
-0.04336026617192451 0.08384496227121796 0.01375147782098396
-0.04359857524749665 0.0829192557388061 0.011204297078529657
-0.043881629669583616 0.08169414536393216 0.008328526994925811
-0.04421927527978469 0.0801043960038555 0.005051094125081368
-0.054050104011988016 -0.06744638219272031 0.051005814581007725
-0.05329584140759224 -0.06030369522206447 0.05375837377574205
-0.05306427169240935 -0.057524721686572966 0.053905007300436625
-0.05162666629689443 -0.04475988889433641 0.06016305043361053
-0.05153213183239077 -0.043148463256093006 0.05965449748977697
-0.05144248521884241 -0.04158041990906397 0.059124645690931066
-0.051052820723235755 -0.03754375076649946 0.0601335549342229
-0.050789762879763 -0.03456053927013675 0.06050706096642783
-0.05069370694405453 -0.032956154228805545 0.060029621765086194
-0.05060900293342516 -0.03144782473878588 0.05949711657570561
-0.05052531186021041 -0.029950496921018477 0.058962594486959286
-0.05044364425929449 -0.028472365398184984 0.05842072917317093
-0.0503616597301149 -0.026994278372531266 0.05788365019636965
-0.050277626874617995 -0.02550218285990502 0.0573604682205377
-0.050199785286655266 -0.024062995011831956 0.05680787281617389
-0.05011643503573501 -0.022581726028415627 0.056287398717838055
-0.050035366559503865 -0.02112156615488331 0.055758003263256195
-0.04995555948139098 -0.019674180032526467 0.05522499204069664
-0.04987387156122062 -0.018214227436924413 0.05470509497355036
-0.04979684854700201 -0.016794354586442573 0.05416329290645261
-0.04972077033984364 -0.015384527848169571 0.05361935267239193
-0.04967582795964321 -0.014226133822947518 0.05291004599092908
-0.049697582466822925 -0.013601475419697473 0.05184070540887353
-0.04977585803837758 -0.013426290060205459 0.05046288619373651
-0.051762758521695824 -0.028419505521208255 0.03865682941614362
-0.051786379713115914 -0.027775069536138675 0.03753604002065564
-0.05182323492598011 -0.027234641133657922 0.03634155247654347
-0.051868608038470446 -0.026760323056479185 0.03509863767514304
-0.051926863381736486 -0.026386114499500513 0.0337826331756218
-0.0519949935417173 -0.026087731299093198 0.03240951384321161
-0.052067025367556065 -0.025817795068471594 0.03101202507493711
-0.05215217108764639 -0.025648305864680532 0.029538388950735073
-0.05225571421934832 -0.025619948864510578 0.02795818306561726
-0.052354493113356014 -0.02555108401848849 0.02640085550486987
-0.0524752234657614 -0.025650000541143636 0.024715637882309516
-0.051373984405953255 -0.01624808127041366 0.029957827199054154
-0.05088203748159236 -0.01160708744129002 0.03177411389371987
-0.05063261146875481 -0.00885894470300097 0.03222417298397856
-0.05049028115013121 -0.006945986408193716 0.03207009641255554
-0.050411925624224606 -0.005530692410283811 0.03155365219760159
-0.05035411635634507 -0.004275948165090415 0.030921686220857503
-0.050305705283121074 -0.0030951970233161763 0.03023754014520358
-0.05026389172616874 -0.001966534513414664 0.029516937252814734
-0.050226333353795664 -0.0008717394631810316 0.028773145022251312
-0.05019214632695221 0.0001961344979803381 0.02801108519077905
-0.05016549259315346 0.001205572705998359 0.02720615696126627
-0.0501426074096418 0.0021855318460454187 0.026380077375574185
-0.0501273622418489 0.0031068517313957433 0.025509778017635487
-0.05011758722937121 0.003986311199661807 0.024607669421823686
-0.05011528783690088 0.004809038984955327 0.023661522942161894
-0.05012161195081318 0.005566750979661805 0.022664067559378
-0.050139011367474166 0.0062414383312878186 0.021600147913103773
-0.05016822922404209 0.006828062438502702 0.02046467005306346
-0.05022647844159504 0.007198395841234828 0.01915337526501215
-0.050322798948462234 0.007286341315395906 0.017610024206344888
-0.05045558950491249 0.007105664200875661 0.015842126433903092
-0.050622346505644684 0.006676735440299064 0.01386279604533025
-0.05082196476148782 0.006009391162617561 0.01167681675423421
-0.05107624992766379 0.0049438048735815365 0.009148995821302242
-0.04590863740430431 0.04540893002137808 0.03810261508306939
-0.04575431183719259 0.04727910307617428 0.038178676343978646
-0.04562137603300018 0.04898770265932384 0.038127838160243066
-0.04550567446272317 0.05056611950939294 0.03797475315737309
-0.04541556476484391 0.05195425935655129 0.037666217921677236
-0.04538690404146933 0.05289254277088923 0.03697606287260691
-0.04537782984004901 0.05368775364334222 0.03616389116334856
-0.04537712297343376 0.05442208045505631 0.03529931246150364
-0.04538101144690381 0.055123181037007696 0.03440570002918264
-0.04540282250270385 0.0556951954516568 0.03339825349458392
-0.04543811820325379 0.056170911300089776 0.03230417852660383
-0.04549679006535982 0.056479984631052305 0.03105957839956419
-0.04558127790362986 0.056606070400799346 0.02964749385202109
-0.04569628949374423 0.056516775528072105 0.02803621902694753
-0.04586923707467243 0.05601814816184991 0.02604749611905066
-0.046104231883617106 0.05508373817366036 0.023651446014811117
-0.04649860598806669 0.05302577928597224 0.020214066368367034
-0.04410539780147388 0.08205910315358744 0.021355975387448378
-0.04385317544837217 0.08448490786498303 0.02223194478379087
-0.043764881872719465 0.08578926897565498 0.021996129363555994
-0.04379262751983608 0.08630456607799708 0.02096764300331555
-0.04395564120909196 0.08590641703492718 0.019007536978410067
-0.04415353607162025 0.08527829005966692 0.01680055916498613
-0.04436526844498798 0.08456343404345124 0.014490278376813326
-0.044606690536524655 0.0836561280629981 0.011965935871144806
-0.04488162328982909 0.08253222155355355 0.009199247544036837
-0.045209499278577016 0.0810635378597202 0.0060527437369172765
-0.055473757553818726 -0.06803507378404561 0.05065246013332669
-0.05468226715540512 -0.06074216325684745 0.05349367114679887
-0.05437700966117172 -0.05741238812631311 0.05397321341710737
-0.05418210945986315 -0.05498431013027161 0.053919374426497135
-0.054006668793996966 -0.05271934865670286 0.053776391246681765
-0.05277421815516732 -0.04194818891936547 0.058897481708091615
-0.05264842683856792 -0.04010983001472912 0.058539478300471404
-0.0525762638671618 -0.03870558248843292 0.05791742662361782
-0.052479226229304 -0.03710446138227674 0.057423191231965376
-0.05192384790972182 -0.031844282789748934 0.0592466014685889
-0.05177078343058265 -0.029809661815449473 0.059052090837943105
-0.051684745080505905 -0.02831327126702249 0.05852240121901103
-0.05160047857100462 -0.026833652008028064 0.057986881899523834
-0.05151396788383969 -0.025338884933065298 0.05746600933235374
-0.05143202884283659 -0.023882999118123305 0.05692486159920601
-0.05134843651885571 -0.022416628486640167 0.05639530802076581
-0.05126584905141869 -0.02096079737394213 0.05586367349431476
-0.05118455056152194 -0.0195176929840285 0.055328424788873676
-0.05110248901205179 -0.01807114864527498 0.054800194814291214
-0.05102214338018502 -0.016640618399680285 0.0542660475845006
-0.050939877054805266 -0.01519759250489 0.05374499444855951
-0.05086264092952044 -0.013796390608181885 0.05320049171839908
-0.05078203939853638 -0.012371407116260391 0.05267668347020521
-0.05069925344904067 -0.010931977081553301 0.05216748698674667
-0.05061845333433227 -0.009510542483269602 0.05165080164130631
-0.05055202967864498 -0.008202901759056691 0.0510602556104679
-0.050531637703726665 -0.007252864250866908 0.05022517110337277
-0.050564301500158906 -0.006712404581597109 0.0491051432137094
-0.05319058178603169 -0.026121099237883527 0.03396880762848009
-0.053261591627599934 -0.02583228686620581 0.03258995299260892
-0.05333533201270693 -0.025562165753355626 0.031193587828610647
-0.053419629570763044 -0.025370442036940943 0.0297368277435881
-0.05351938008723095 -0.025293970692060352 0.0281922598110651
-0.05362351656831247 -0.025247764784137317 0.026619854291465572
-0.053750629300825796 -0.02537286636478997 0.024916825236925566
-0.05389715055988484 -0.025641143272305045 0.023101630259804717
-0.05229080239694832 -0.012641548565293204 0.031014919800171348
-0.05198849787795082 -0.009539065510207612 0.031722311085212895
-0.05181631027244378 -0.007426525286745145 0.03171357698936167
-0.05172280178532132 -0.005911017678297215 0.0312699495572768
-0.05166074941362826 -0.004634485556857748 0.030652784690880508
-0.051608211063796504 -0.0034311422121933166 0.029984216940919184
-0.051563199572279214 -0.0022856910048077994 0.029274970828027602
-0.05152345282177337 -0.0011809096194341784 0.0285374822077753
-0.05148820667904952 -0.00011086437985796671 0.027775813549332562
-0.051458477528547604 0.0009171092205418896 0.02698389753040875
-0.051434837078022023 0.0018990344061300402 0.026158143311213744
-0.05141844929575698 0.0028265909884180873 0.02529150668500274
-0.05140575964998988 0.003726347110566186 0.024404116954200195
-0.05140103956650397 0.004567027063172635 0.023471009435180434
-0.05140693997271218 0.005329528998753386 0.022476322981060837
-0.05142169680542398 0.006027285561640394 0.02142975280891496
-0.05145153138868916 0.006615199556253726 0.020294394677508765
-0.05150404736575933 0.007038472882585134 0.019024764088684976
-0.051597360473828985 0.00716620988026373 0.017512897619947232
-0.051734304998407865 0.006979727712908224 0.015739763114461736
-0.0519047440660676 0.006554601795964898 0.01376299454534563
-0.05211236613992632 0.005865712694411995 0.011558784637620612
-0.05237596399640166 0.004779093490751063 0.009012965223840652
-0.047164762521087034 0.043891692126271586 0.03833118974556088
-0.047005233623853275 0.045775696030474156 0.03841036834836781
-0.04687068249153118 0.047475882325449414 0.038344668966765694
-0.04674299720337067 0.0491228048483745 0.038242406783665917
-0.04663165981808176 0.050649201902583596 0.03804558102844802
-0.04655180058017843 0.05194823678546984 0.03766105662143221
-0.0465335405837423 0.05280764242314945 0.03690291848390914
-0.04652290562966698 0.053612485646023 0.036098703170214574
-0.04651819400306526 0.05437514756517753 0.035258450607411174
-0.046522543291683566 0.05507378915690925 0.034362470712142434
-0.046548050991352896 0.05562374806422615 0.03333539129077029
-0.04658969698974136 0.05606125001850065 0.03220718669972944
-0.04665558654266581 0.056330299359096836 0.03092649079959886
-0.046751659407424866 0.056390538038322724 0.029454854077769488
-0.04688859530212427 0.05616893892309294 0.027723696022499078
-0.04707626407958147 0.05559877737239405 0.02566872540130366
-0.04735778379914394 0.05438322182203853 0.02301543242615328
-0.04785012948767414 0.051716772299944924 0.019019367742043214
-0.045336865890161095 0.0812014211658133 0.020500930501805403
-0.045024409368190264 0.08398741903712026 0.021733415368695608
-0.044881369896479735 0.08564107194930692 0.02184685314909518
-0.04486147534170158 0.08647621921815202 0.02114144161020548
-0.04499240614224658 0.08631611168213704 0.019424499133112505
-0.04518021165658154 0.08578593594174727 0.017319882976905288
-0.04539523069814787 0.08508304024905256 0.015024586595904776
-0.04564961800209214 0.08412912075882628 0.012454826008954312
-0.045919817200487364 0.08307989637411073 0.009768255178043861
-0.04625024299887667 0.08164669573579003 0.00666174635216904
-0.04674409772212545 0.07916148263016742 0.002427705068818675
-0.05608634801326393 -0.061299617549206986 0.05315713663733562
-0.05572848418296046 -0.05761168612337847 0.0538522048737764
-0.05551537856265268 -0.055077067882948305 0.0538627307665383
-0.05534576351244474 -0.052891512799493945 0.05367065406407456
-0.05518830005950421 -0.050806671836500616 0.053425762248047404
-0.05502248948730889 -0.04866116262837428 0.053227296330091656
-0.05487916411149688 -0.04669679413186473 0.05292488124326372
-0.053759207436068594 -0.03710446149499008 0.05742319123145401
-0.053685444322739834 -0.035706376798636474 0.05680620926588903
-0.053599199190472256 -0.03421338528799878 0.05625366312393365
-0.05348250538725733 -0.03248647599393334 0.05585543950365107
-0.052871972451498044 -0.026934028913889962 0.05792237156512137
-0.05275842038721079 -0.025246133537673132 0.05752595553365941
-0.05266529919496078 -0.023719504567577154 0.05703112529929688
-0.05257928480203958 -0.02225050405589446 0.056503888507459354
-0.05249580348823515 -0.02080362217393389 0.055966981735215304
-0.05241108986425029 -0.019349834834497537 0.05543937345233718
-0.052326947634000066 -0.017903018474262344 0.054911945483133884
-0.052243670088802485 -0.016465389548067977 0.054383167587531256
-0.05216110199651894 -0.015035723728601624 0.05385378865526752
-0.05207982911300985 -0.013618449570012903 0.05332075477533754
-0.05199630430547399 -0.012186546862013703 0.05280231811452735
-0.05191392816989489 -0.010765913912127778 0.05228097378033103
-0.05183225184672704 -0.009353100066837039 0.051758993918785745
-0.051749956462471595 -0.0079381093687943 0.051243225164444794
-0.05166704913190503 -0.00652102388305581 0.05073366411966074
-0.05159078819977374 -0.00515648488421222 0.05019218869761655
-0.05150665475676075 -0.003735166359120856 0.04969502284791166
-0.05143144282339831 -0.002383277145859175 0.04915370213114706
-0.051392120018901866 -0.0013020789898053886 0.04842449975967411
-0.05138535628488875 -0.00046507195830175485 0.047523200327827364
-0.051586437589501925 -0.0011762330880287775 0.04551059597669471
-0.0548993608109863 -0.025009583920641565 0.026791822698136736
-0.055030907045454186 -0.025145064315342858 0.025082199628443103
-0.0551785113970752 -0.025395376480976117 0.023281020785465234
-0.05375842209251755 -0.014061477585214033 0.029972829642210708
-0.0533736158762445 -0.010402269935699648 0.031085351559579644
-0.05315469420107393 -0.007975061361225166 0.03130660935559337
-0.053039619206458756 -0.006316844258027254 0.030967224274738026
-0.052971180073312106 -0.005003768058272573 0.030375824371718374
-0.05291329048349987 -0.003769903124891394 0.029728770508236024
-0.052864968056403276 -0.002607598994134319 0.029030918372341563
-0.052823119417038426 -0.0014938987380074265 0.028298908414771284
-0.052786195547574494 -0.0004172530329345503 0.02754100955999944
-0.0527541759364232 0.0006227129168714929 0.026757066896157866
-0.05272886094234832 0.0016132015559443547 0.025936724068880534
-0.05270917148739872 0.002562309611239655 0.025085680330672266
-0.05269479235604835 0.003472565804336303 0.0242054056216503
-0.05269206883312175 0.004298607259528686 0.023259707446387556
-0.0526960030821597 0.005076814551920439 0.022276317195804085
-0.0527106858409165 0.005778216426635452 0.02123157575848189
-0.052738105391595215 0.006389106909143405 0.020113536412654398
-0.05278574068689743 0.0068567737145624474 0.018878640318564954
-0.05287608901927319 0.007022167430260129 0.01739643889647896
-0.05301648134280237 0.006835231156175459 0.01562231384229923
-0.0531941415307207 0.006388722183733042 0.013627445998060317
-0.05340654909681501 0.0057021589886736 0.01142442496555357
-0.05367853818867125 0.004602062342779822 0.008866760064633827
-0.048406504978182746 0.0425094290938513 0.038678702298853396
-0.04825413844413341 0.04431974780514947 0.0386884756894767
-0.04812076639364798 0.0459923684214289 0.03859217813102478
-0.04799063960231725 0.04763822704816084 0.038481614449100476
-0.047870953535256916 0.04920729705082316 0.03831405743318028
-0.04775956844561201 0.0507149459990886 0.03810162799194128
-0.04768820166536041 0.05194135359295782 0.03765515776263795
-0.04766763809232496 0.05281364680650513 0.03690809154541341
-0.04765971474491066 0.053597941192181475 0.03608610660097755
-0.04765303147957708 0.05437344056651838 0.035256964501939214
-0.047664419088553636 0.055024382394671556 0.034319228369788846
-0.047689813155336276 0.055579503058730106 0.03329646283899512
-0.04772987920545706 0.05603488626490394 0.03218386888630326
-0.04780348793946284 0.05626221517023833 0.03086595609268239
-0.04790869845180215 0.05627626717102513 0.029352720436254698
-0.048057125973122186 0.055999452951605355 0.02757141691153281
-0.04825401257244423 0.05539816532529601 0.025487535029682595
-0.04857192025713437 0.05398307443824213 0.02265213020590312
-0.04914033086470993 0.05088457324782031 0.01825984007717857
-0.046506555790154315 0.08078606475266348 0.020086851228846958
-0.04619234298347554 0.08353501764302534 0.021280067704843753
-0.04600231594131455 0.08547109663026087 0.02167564003580119
-0.045946222091076745 0.08653710455252578 0.021203088003658555
-0.04605080286569172 0.08656704080740446 0.01967987948747013
-0.04623668766213017 0.08607802187774971 0.017618688124731385
-0.04645757589260464 0.08537042693075991 0.015320104793055234
-0.04670779413582991 0.08448212567439806 0.012819695562549749
-0.04699367432137747 0.08337409011694147 0.010073908286313604
-0.047322704839664595 0.08200032358789217 0.007031046535003638
-0.0478156972161886 0.07959616795265362 0.00288399927250782
-0.057433323085490554 -0.06138926639217368 0.05310301579403165
-0.05710790307233129 -0.0580175266914541 0.05360578899799334
-0.05686504303168388 -0.055291886415389235 0.05373154910074607
-0.05669464101804776 -0.05313092855883078 0.05352361326801497
-0.05654312002412066 -0.051120035197173785 0.0532322036209702
-0.056362123748607836 -0.04888779895495182 0.0530865074180753
-0.05620497313648473 -0.04684334995489969 0.05283331990442386
-0.056085172529142135 -0.04508870060943798 0.05240659913863177
-0.055987396557884796 -0.0435054229093943 0.0518781232220944
-0.05487376786672093 -0.03420119873999322 0.05626140736285917
-0.05477936792367496 -0.03266457164119052 0.055741624337727336
-0.05469277454364457 -0.03118988936123429 0.05518720781369518
-0.05460899410608756 -0.02973905757621681 0.054622135034660624
-0.05445009020756562 -0.027724033615712296 0.054428373249420015
-0.05383780585531218 -0.022300443384314583 0.056471247786874235
-0.05372295768790577 -0.020632717471079698 0.056079314108369305
-0.05363339112369942 -0.01915800425199876 0.0555661670876717
-0.053550074874499004 -0.01773274459858215 0.05502512100192114
-0.053464886875259264 -0.0162959961395574 0.05449638728137124
-0.053377087939187606 -0.014842333027048349 0.05398376916250858
-0.05329471666289544 -0.01343167068186818 0.053446990969254315
-0.05321094137097542 -0.012013047657451592 0.05292023157173803
-0.0531259267191777 -0.01058774685309144 0.052402732310036504
-0.05304417844286381 -0.009189139509172939 0.051871665370732456
-0.05296088974791417 -0.007781609291666158 0.05135136557333542
-0.05287786219913374 -0.006378492291484794 0.05083269714120103
-0.052795242933575376 -0.00498085813850796 0.05031489063688965
-0.05271184615518209 -0.003579991584113873 0.04980403387705146
-0.052627238181787335 -0.0021727532407296857 0.049302410624562365
-0.05254495874779294 -0.0007850529365456271 0.04879172153738681
-0.052466012911665694 0.0005758874639441025 0.04826661003759025
-0.05238248375171163 0.001967808849033803 0.04776825287907838
-0.052301112862540765 0.003341564941640729 0.04726155944933863
-0.05226706481509485 0.004370054611929575 0.04650888304442746
-0.05225020276172436 0.0052732781011567975 0.04566672832335589
-0.05233039497651212 0.005475782616175651 0.0443112845884277
-0.05478639867162879 -0.011424504224627652 0.030331043702480964
-0.054512656707010554 -0.00863875181654028 0.030814206839113456
-0.05436249068575853 -0.006747201730207042 0.0306462002319281
-0.05428254129836526 -0.00536253270669973 0.03010675240046179
-0.054220659947233255 -0.0041092584668667165 0.02947287583954733
-0.05416938205835392 -0.0029333837816537534 0.028783926746368982
-0.05412490527136147 -0.0018073982221112894 0.028059945599167968
-0.054086262060595656 -0.0007241321114074273 0.02730582972828971
-0.05405233898327456 0.0003245594879084934 0.02652734141784302
-0.05402575937918004 0.0013203538655288116 0.025709870807445412
-0.05400432823941759 0.0022790556822903096 0.024865077858582163
-0.053990205436594364 0.003185700493268162 0.023980789427967997
-0.05398508585277999 0.004028717394140902 0.023047248214128235
-0.053988809218367746 0.0048096328922140885 0.02206486161995419
-0.05400339713016463 0.005514711694680929 0.021021912719411506
-0.0540310425909374 0.0061291437469878085 0.019905584097613394
-0.05407770012081967 0.0066120679023211615 0.018681846124125157
-0.0541673525917916 0.006797761354143894 0.01721500590711894
-0.05430654964798203 0.0066427589454901015 0.015465869108544583
-0.05448752011135778 0.006203025689745734 0.013475704072482664
-0.04982585659749895 0.039186526227631635 0.03893191341684832
-0.04962672172264177 0.04130255473734812 0.039176707182716985
-0.049496368420530526 0.04294004137736129 0.03903622369012161
-0.049370200800587696 0.04454493417458322 0.03887643240980537
-0.0492393830714671 0.0461778661271568 0.03874782925027087
-0.04911657497778825 0.04775221314603534 0.03857776716018191
-0.049001661955384836 0.049269114732573394 0.03836647977315771
-0.04889377408110009 0.05073483704329418 0.03811858520290007
-0.04881538902400393 0.05199727034404017 0.03770307889231922
-0.04879725789814482 0.052849669017273615 0.03693912596388921
-0.048789147667599904 0.05363387187181795 0.03611722551648733
-0.04877964690974905 0.05442719928770173 0.0353037694125356
-0.0487868672662621 0.05510785384819544 0.03439228542802958
-0.04881133085956954 0.05567308384990316 0.033378799078095545
-0.048855884527909205 0.05610461303498104 0.03224554008392427
-0.048929429575934186 0.056343912573798116 0.030938594714238155
-0.04903811515381038 0.05635131957113315 0.029419801329035378
-0.049187817372203374 0.056089353607604475 0.027652190648466524
-0.04938616478099741 0.05550926400662559 0.02558787815420044
-0.049706816872611734 0.054125847268045535 0.022781756783418594
-0.050255430262937655 0.05124706626735803 0.01859067869963943
-0.04763703478264594 0.0806389246229175 0.0199401635887963
-0.04733028607405984 0.08329357941690801 0.02103812451720799
-0.047133647597418574 0.08524341334620245 0.021446298683960696
-0.0470440666813583 0.08651260479082962 0.02117828213381212
-0.047132819993152365 0.08665777695171989 0.019772225261505905
-0.04731908057152582 0.08619394790728196 0.017737281002522032
-0.04754047924993447 0.08551579451100777 0.015469585552142007
-0.04780236331148391 0.08459150937805215 0.01293275576601366
-0.04809680510524564 0.08347228205292284 0.01017592503911896
-0.04845081016008767 0.0819917840319887 0.0070221286223436374
-0.05885858878355311 -0.06206687497204011 0.05269394426576546
-0.05850517361391178 -0.05853965357755697 0.0532887670633726
-0.05821761843952501 -0.055518867972521424 0.05359293992548836
-0.05804044460611771 -0.053336351498419365 0.05339744968451776
-0.057875494989140436 -0.05125073698050753 0.05315147164036893
-0.05769190943440892 -0.04903037795978521 0.052997935840536026
-0.05753926347064643 -0.04704663650358659 0.052706315789400604
-0.057409530890091556 -0.045238283130412005 0.052312614737678675
-0.05730257814636481 -0.043603319355539294 0.05181626417562046
-0.057212364253641124 -0.04209585907473862 0.05124459905485762
-0.05714128060040388 -0.0407329030385431 0.05058541163996355
-0.05708477805776241 -0.03947994329869908 0.049859341549331915
-0.05586240841169252 -0.029616716381227426 0.054701205412396425
-0.055774079627990726 -0.028149464184161144 0.05415186382404574
-0.055683932852074056 -0.026671416891694222 0.05361434044527519
-0.05560163433500286 -0.02525363230129074 0.05304207770665953
-0.05494624670836318 -0.019638499899991946 0.0552485756969327
-0.05479167727686285 -0.017705331549399406 0.05504334162670371
-0.05468646849834251 -0.016136965403249937 0.054602680744483156
-0.05459669920989711 -0.014684141323845379 0.054090091959905884
-0.05451170640411599 -0.013268664339301961 0.053557160283376926
-0.05442374205330304 -0.01183411141340257 0.05304184014509167
-0.05433744337922145 -0.010414189130696416 0.05252134084261684
-0.05425371455915985 -0.009015358083968694 0.0519910855839808
-0.05416642758392062 -0.007593314116805916 0.051481476147070104
-0.054083376722797546 -0.006204306903166534 0.05095372366415818
-0.05399967003628428 -0.004813015984936997 0.050432153860237194
