# .PCD v0.7 - Point Cloud Data file format
VERSION 0.7
FIELDS x y z
SIZE 4 4 4
TYPE F F F
COUNT 1 1 1
WIDTH 767
HEIGHT 1
VIEWPOINT 0 0 0 1 0 0 0
POINTS 767
DATA ascii
0.07237090594291062 -0.024760903257223767 0.08557798789949639
0.07078467981437014 -0.024720128095786418 0.08496964974641047
0.06920501380597455 -0.02467956037845446 0.08436260718310495
0.06763052402086156 -0.024639125592745677 0.08375755376669491
0.06606118505860054 -0.024598823086346474 0.0831544797361688
0.06449564774478034 -0.024558579556935474 0.08255408197937389
0.06293522448408578 -0.02451846748881183 0.08195564550826276
0.06138120069318298 -0.024478558420014118 0.08135845292404126
0.059830923950860315 -0.02443870711450572 0.08076390970508943
0.05828698381623343 -0.024399057067688745 0.08017059018592454
0.056748045430631944 -0.024359535471180176 0.0795791927848212
0.055212800641617044 -0.02432007045189211 0.07899041833975581
0.05368379965735831 -0.0242808041203683 0.07840283783132607
0.052158457232946764 -0.024241593589713673 0.07781786293381104
0.05063929769113307 -0.024202580058050854 0.07723406246710987
0.049125020051937085 -0.024163691898516713 0.0766521380752036
0.04761434932229508 -0.02412485839706642 0.07607279367124384
0.046109771524901255 -0.0240862193999601 0.07549459493615676
0.04461000556223771 -0.024047703975374705 0.0749182453554709
0.04311379590379072 -0.024009242091165908 0.07434445059658829
0.04162359088585099 -0.02397097226102512 0.07377177332614981
0.04013690899403721 -0.023932755239517864 0.07320163434487006
0.03865617377061281 -0.02389472866223148 0.07263259438036421
0.03718013654107083 -0.0238568227335442 0.07206535983396348
0.03570757351670295 -0.02381896853616641 0.07150063914822227
0.034240871549187646 -0.023781302404471134 0.07093699023739541
0.03277880099687347 -0.023743755211388943 0.07037512116466754
0.03132133995735925 -0.023706326394447797 0.06981502351301822
0.029867289419650056 -0.023668947908900104 0.0692574078194671
0.028418988221912578 -0.023631754382891 0.0687008284252057
0.028318581772718898 -0.02367198515300347 0.06731623303350864
0.028294201932125673 -0.023716756621198105 0.06587947401520539
0.028269729696254076 -0.023761697765290832 0.06443726993584642
0.028245164538868106 -0.023806809551675294 0.06298958978294478
0.0282216875538 -0.023852161488336934 0.06153565565952246
0.028196937139229772 -0.023897617749432797 0.06007692375373247
0.028172092208298694 -0.023943247597897233 0.05861262127464595
0.02814715221856917 -0.023989052029970096 0.057142716252042924
0.028123307025409494 -0.024035101639079428 0.055666407102056836
0.028098177487215548 -0.024081258525248162 0.05418519432465463
0.028072951246015942 -0.02412759303141188 0.05269828157419659
0.02804882481565174 -0.024174176582033018 0.05120484907269579
0.028023405724315387 -0.024220869690075225 0.04970643133411157
0.0279978882475303 -0.024267743525322183 0.04820221392054186
0.027972271812977845 -0.024314799139073993 0.046692163094951666
0.027947761926558512 -0.024362109086819413 0.045175434233948986
0.027921948113517003 -0.024409531722856027 0.04365360826918352
0.02789603360747367 -0.024457139342268352 0.04212584605689418
0.027870017818112935 -0.02450493302952969 0.040592112795566404
0.027845115379191654 -0.024552986498356483 0.03905153832297431
0.02781889754009792 -0.024601155894014806 0.03750575124680833
0.027792576627567955 -0.02464951466392107 0.03595388702844665
0.027767374214074603 -0.024698137408957193 0.03439505588065028
0.02774084765562368 -0.024746878583402358 0.032830923021623215
0.027714216191076613 -0.02479581251730032 0.031260604398728964
0.027688708411110596 -0.024845014714884425 0.02968319018552784
0.027661867618544167 -0.024894337909538038 0.028100382960685066
0.027634920043388744 -0.02494385733001602 0.026511278746022382
0.027607865047147406 -0.02499357414964039 0.024915839889024072
0.02758070198621354 -0.025043489551105736 0.023314028436393186
0.027553430211835983 -0.025093604726573952 0.021705806131030236
0.030156663471243128 -0.025305032166055116 0.018160518110158175
0.03483635686107173 -0.025644773864864266 0.01305540249828352
-0.048651650478901576 -0.02169195249297606 0.03784286466649339
-0.052823899782220796 -0.02146839974855978 0.039899516081838005
-0.05563890841069791 -0.021332299207841472 0.04082399212512966
-0.057961084759737325 -0.021227781197319943 0.04134278502562566
-0.06003788318336545 -0.021138859974372037 0.041663613820447476
-0.06186769658113961 -0.021065744787265844 0.04178181459428887
-0.06354512487145336 -0.021002322127079875 0.04177686847642026
-0.06501033987516558 -0.020952598659703225 0.04159409834236705
-0.06632588859501332 -0.020912536004584488 0.04128593832128008
-0.06752059573498664 -0.020880291397713024 0.04087597664694542
-0.06861924109116802 -0.020854273832216427 0.040384706339782084
-0.06965303773948894 -0.020832450310632796 0.03983885060206516
-0.0706282865352047 -0.020814429376162968 0.03924320854996577
-0.07155113020460518 -0.020799826594225582 0.038602546957870965
-0.07243768531871303 -0.020787586493621352 0.037930844965368526
-0.07326738241624137 -0.020779105009692184 0.03720872530876357
-0.07406548123448392 -0.020772709452044957 0.03645867732966329
-0.07481605793544821 -0.020769487167481403 0.03566548996569724
-0.07553409534925498 -0.02076844793450016 0.03484244191550734
-0.07620523945603325 -0.02077057847589816 0.03397561509987529
-0.07687039250584748 -0.020773125306028088 0.033102839199377176
-0.0775609364470553 -0.02077395705970884 0.03225372903926982
-0.07805004539818039 -0.02078852352865426 0.031212832893428133
-0.07857188479489646 -0.020800921098199837 0.03020112464723257
-0.07905243017801156 -0.020816203974640877 0.02914790888306834
-0.07956566526662578 -0.020829314002249133 0.028124053748746658
-0.08014570590542464 -0.02083788884028102 0.027163178271350952
-0.08070268933529368 -0.020848093724169584 0.02617852941072185
-0.08121775210446952 -0.020861243963504247 0.025151231794795004
-0.08164176532376116 -0.0208807641024736 0.02403216045006673
-0.08197789342095052 -0.020906479279686852 0.022823042149513195
-0.08224886804856751 -0.020936850910895127 0.0215451625239792
-0.08244850864450598 -0.02097234321608934 0.02019129127763386
-0.08247313016827057 -0.021020244220475815 0.01865584537276288
-0.082316227879221 -0.021081098231375047 0.01692946274906376
-0.08177633283574665 -0.021169155259327853 0.014804195971404754
-0.07943137175848447 -0.02138477987651984 0.010819143532450726
0.08313676998364977 -0.026389033609319247 0.08870277105098681
0.08151425348232538 -0.026345115903955833 0.08808094855510831
0.07989712852444691 -0.026301344134994405 0.08746119234507913
0.07828536828083488 -0.026257717576232176 0.08684349213873149
0.07667756702317158 -0.02621415686508943 0.08622854320631584
0.07507646350516861 -0.026170818827128 0.08561492510414678
0.07348064523515474 -0.02612762384817505 0.08500333255728479
0.07188872812606378 -0.026084493355898835 0.08439446302239406
0.07030340910202976 -0.026041582634021947 0.08378689225981917
0.0687219533479761 -0.02599873550825644 0.08318202595364535
0.06714703027809171 -0.02595610624670607 0.08257843741557105
0.06557726345166948 -0.025913616551880517 0.08197682500535164
0.06401262758805426 -0.02587126573949527 0.08137717903418393
0.06245178080796826 -0.025828976782611816 0.08078020109927908
0.06089602839520325 -0.025786825850476328 0.08018517160980701
0.05934664877011797 -0.025744888118822935 0.07959136863644725
0.0578010038869069 -0.025703010970104367 0.0790002069489337
0.05626166922316256 -0.025661345195453173 0.07841025176646055
0.05472603370314727 -0.0256197391713252 0.07782292030966637
0.05319664661537388 -0.02557834271685514 0.07723677562029127
0.05167219393150008 -0.025537079823621096 0.07665252206401263
0.050151387916948065 -0.025495875455676737 0.07607086629445048
0.04863673911275179 -0.025454877992092725 0.07549036819046245
0.04712695361035979 -0.025414012164991975 0.07491173397556139
0.04562076336859461 -0.025373203664918877 0.07433567207284525
0.04412064080400979 -0.025332599451513112 0.07376073932444202
0.04262407979747712 -0.025292051780699633 0.07318836215406391
0.04113352768448486 -0.025251706676819526 0.07261709545066225
0.03964772336389066 -0.02521149008248903 0.07204764837878638
0.0381654309102718 -0.025171328875915253 0.07148073216023731
0.03668906054552784 -0.02513136769553638 0.07091489885049057
0.03521616946681039 -0.02509146114681987 0.07035158015006931
0.0337491434778141 -0.025051752954910616 0.06978932629394236
0.03228675340126158 -0.02501217024387598 0.06922884920221656
0.03082897729706785 -0.024972712419860592 0.06867014046611597
0.029375793363378533 -0.024933378892750685 0.06811319172984032
0.02792717993547772 -0.024894169076144345 0.06755799469015178
0.02764186768843724 -0.024925413294074494 0.06628471131587205
0.027616200186951545 -0.024972569685827086 0.06484556552029452
0.02759043538065742 -0.02501990484615468 0.06340096396284184
0.02756457271518603 -0.025067419793548 0.0619508755606325
0.027539791656142287 -0.025115187739518194 0.06049451912580428
0.02751373376675975 -0.02516306562307476 0.05903335719979985
0.027487576337631603 -0.025211126397554438 0.0575666137143217
0.027461318797306677 -0.025259371112912442 0.056094256626289196
0.02743614934722688 -0.02530787412429913 0.05461548099842206
0.0274096920594446 -0.02535649018544266 0.05313179380110983
0.027383132927864817 -0.025405293387584474 0.05164239534916365
0.02735766679270285 -0.02545435896147017 0.05014646246314708
0.02733090443301761 -0.025503539988713558 0.04864553621735784
0.02730403845660634 -0.02555291143173957 0.047138798786577285
0.027277068260541215 -0.02560247439855185 0.04562621635631153
0.027251197650303483 -0.025652305311578413 0.0441069408360833
0.027224019452598613 -0.025702254978062587 0.04258255984061643
0.02719673520666077 -0.025752399546077918 0.04105223077356457
0.027170555532258556 -0.02580281635069509 0.039515086404860233
0.02714305961027802 -0.02585335445841273 0.03797275008263562
0.027115455768353725 -0.02590409092530356 0.036424360178804294
0.027087743369861805 -0.025955026921486143 0.0348698809833492
0.027061142238391567 -0.026006241024497927 0.033308419122537014
0.02703321312282092 -0.0260575799324825 0.03174164672060542
0.027005173519397407 -0.02610912193762653 0.030168676153600915
0.026978250248506475 -0.026160946569284804 0.02858859395556318
0.026949990046174266 -0.026212898712430734 0.027003109710066586
0.026920385186508744 -0.026264978659769473 0.025412205466680327
0.02689313157278672 -0.026317424487175698 0.02381317452977516
0.028757100170892502 -0.026491758685107735 0.020827221496716175
0.03248594265428878 -0.026787040271607918 0.016451052688961743
-0.04955613477544213 -0.02277186840937706 0.03860988009321875
-0.05325287411078261 -0.022568957116030373 0.040265217001581866
-0.05584405540885162 -0.0224409808713199 0.040999804561591746
-0.05804751005432246 -0.02233909187666952 0.04141724330577479
-0.060059265806469087 -0.022249958434169746 0.04168213287805267
-0.06186851155397027 -0.022174411926424015 0.04178252414738487
-0.06350308891950113 -0.02211061637593204 0.041740077217018
-0.06494370467849336 -0.022059988421598658 0.04153546999999047
-0.06623810443755629 -0.02201929756959827 0.04120829601276921
-0.06738086353854544 -0.021988988472589656 0.040751738382597935
-0.06844933530138841 -0.02196373014984186 0.04023284685256939
-0.06945237432916468 -0.021942937053694392 0.03965855916540473
-0.07040645914178872 -0.021925483649190763 0.03904285659790324
-0.07133245796919552 -0.021909925659757145 0.03840400975311775
-0.07218393328160372 -0.021899547632817012 0.03769925163414933
-0.07300353856279218 -0.021891372941798826 0.03696666132454801
-0.07378381076193191 -0.021885944809660312 0.036198906928733454
-0.07452352708549781 -0.021883368760200205 0.03539429373041397
-0.07520988601276751 -0.02188457449602441 0.034540307867808095
-0.07585169883549941 -0.021888960108515983 0.03364442740010404
-0.07658052812369998 -0.021887150831292796 0.032829885458340535
-0.07712306472664282 -0.021898669525460303 0.031839253374754795
-0.07763094875230248 -0.021912727771062217 0.030814062487587057
-0.07815478535455761 -0.02192570371549448 0.029802188283350073
-0.07864026855349776 -0.021941504506435602 0.028751644014082978
-0.0791928729886659 -0.021952528982313216 0.027763775804434565
-0.07979252534816661 -0.021960197520873418 0.026820079560458066
-0.08034541920776367 -0.02197129603829976 0.02582965481495969
-0.08085326291969636 -0.021985724297907776 0.02479345969238217
-0.08125464810148969 -0.02200798424243312 0.023650205292165383
-0.0815899710034339 -0.02203517804177769 0.022438307121419365
-0.08183563099956676 -0.02206906985952098 0.021133195928440596
-0.08198077164190615 -0.022110504498729106 0.019722575744504423
-0.08199520033761315 -0.022161758294647355 0.01817443480379266
-0.08176923207118103 -0.022230995329475513 0.016375630332068403
-0.08095596484119061 -0.022344004390410187 0.01396927564651862
0.08103410115466664 -0.027684239796122317 0.08688663223270221
0.07941649831827285 -0.027638206803833238 0.0862683727913815
0.0778042660096484 -0.027592326643538518 0.08565216600433731
0.0761973775274567 -0.027546598555383776 0.08503800166612949
0.07459443471282495 -0.027500939354784846 0.08442657991104122
0.07299816152722882 -0.02745551342351076 0.08381647077624715
0.0714071530795658 -0.02741023731347638 0.0832083738688206
0.06982003275115839 -0.02736502866767511 0.08260299145111916
0.06823813918627808 -0.027319968904665204 0.08199960270118051
0.06666278339347648 -0.02727513837142204 0.08139748434595004
0.06509258927134048 -0.027230454725918934 0.08079733883809603
0.06352753149295515 -0.02718591724741766 0.08019915649739276
0.06196758489682874 -0.027141525219887438 0.07960292770684335
0.06041141487560192 -0.027097197904749203 0.07900935875569348
0.05886031961448007 -0.02705301514354214 0.0784177254670265
0.057315570559294204 -0.027009055737287492 0.07782730139733626
0.05577454399420079 -0.026965159712466664 0.07723951057374456
0.05423980135930728 -0.026921485130961726 0.07665290913311859
0.05270874578403656 -0.026877873060272898 0.07606892348111816
0.05118391263994765 -0.026834480544274626 0.07548610764711777
0.04966399504095809 -0.026791227911039092 0.0749051706137106
0.04814771227351283 -0.026748036507134566 0.07432682358100481
0.04663756113972661 -0.026705061868189665 0.07374961751895576
0.04513101060000674 -0.026662147619707987 0.07317498451868074
0.0436305320838703 -0.026619448303544183 0.07260147358265653
0.0421348519032273 -0.026576885534252255 0.07202979666008441
0.04064272184021922 -0.026534381920524704 0.07146066777363033
0.03915657578116544 -0.026492090531734767 0.07089263307197591
0.03767394674602387 -0.026449857490042205 0.07032712996575952
0.036197243921403666 -0.026407834894517958 0.06976270277038954
0.0347252259199205 -0.02636594561520866 0.06920006621389668
0.03325667614556893 -0.026324113492712863 0.06863993695972997
0.03179396723410266 -0.02628248918826317 0.06808085666662117
0.030335876759056468 -0.026240996310651177 0.06752354164388141
0.02888238288116024 -0.026199634238396947 0.06696798354404593
0.027433463898615895 -0.02615840235393237 0.06641417407220129
0.02696474425701123 -0.026179599639045113 0.06525256562644283
0.02693778753956594 -0.026229143834616508 0.06381103042623926
0.026910728598908806 -0.026278875907883477 0.06236402874687719
0.026884743114228726 -0.026328872482425367 0.060910781957438265
0.02685748013537126 -0.02637898381924464 0.05945274800778039
0.02683011318018036 -0.026429286272079213 0.05798915336751398
0.026802641652701964 -0.026479780936343594 0.05651996616458349
0.026776249910327732 -0.02653054563057214 0.05504438411684415
0.02674856962451788 -0.026581428332111436 0.05356390942774575
0.026720782959102074 -0.026632506583669717 0.05207774504752671
0.026692889299653966 -0.02668378151471064 0.050585858113503857
0.0266660818104395 -0.026735332167020336 0.04908742204067712
0.026637974525807573 -0.026787004181782963 0.047583984471432195
0.02660975838351609 -0.026838876318797947 0.046074724189142546
0.026581432749942457 -0.026890949742911226 0.04455960730170949
0.02655419972777573 -0.02694330474836223 0.043037782247341616
0.02652565544969887 -0.026995784586047854 0.041510843331793
0.02649699975819919 -0.02704846926187809 0.039977944501926044
0.02646944154967007 -0.02710144002928109 0.038438215005831
0.026440563349798496 -0.02715453830967977 0.036893284977072394
0.026411571768988562 -0.027207845063291256 0.03534228928053096
0.02638368257433016 -0.027261442520102923 0.033784337571786616
0.026354464529640687 -0.027315170239932688 0.03222109654169081
0.02632513108979062 -0.02736911015456626 0.03065168157332565
0.026295681569801166 -0.02742326352356889 0.029076056018858876
0.02626611527927125 -0.027477631616495104 0.027494182939826306
0.026236431522304315 -0.02753221571298663 0.025906025104258545
0.02787696769675968 -0.027699618269377828 0.023098952468704137
0.030943351731739954 -0.027964031382513865 0.01923142938306127
-0.050162471800751285 -0.023866985749404677 0.039124062433349704
-0.053547307398712274 -0.023676246835180912 0.04051622158863971
-0.05595744843344669 -0.02355486346758448 0.04109698319014243
-0.05810565505430443 -0.023451849676770126 0.041467337166822105
-0.060066666824088455 -0.023361920981930715 0.04168854274979594
-0.06185058119657355 -0.023284432445112118 0.04176691314769981
-0.06344567581101695 -0.02322031881092382 0.041689827360187615
-0.06487623821034649 -0.02316790085915532 0.041476110271333744
-0.06609994540136338 -0.023130345886704342 0.04108609871860597
-0.06722033645928238 -0.02310018008220577 0.04060901103545561
-0.06826658059663143 -0.02307531474085932 0.04006950317966629
-0.06923883840247175 -0.023055773826033524 0.039466702070282744
-0.07017331890556616 -0.02303892682550572 0.03883228701624697
-0.07108060500954855 -0.023024010887040484 0.038175347058361675
-0.0719141596658745 -0.02301448174579144 0.037453035796619405
-0.0727229060507476 -0.02300674873032262 0.03670919455745125
-0.07348067444432876 -0.023002768831320648 0.035919339666866446
-0.07420876546797223 -0.02300098120937189 0.03510248804325633
-0.07490353196669308 -0.023001673160030607 0.03425481335067809
-0.07556057025051105 -0.023005191216955993 0.0333717056793173
-0.0761423916628795 -0.02301436629344876 0.03241730980768809
-0.07668162939897094 -0.023026784488296894 0.031421404511154105
-0.07721684202225287 -0.023039563212685805 0.030420039986029046
-0.07773117193557233 -0.023053977963910392 0.029397021599538276
-0.0782576395677621 -0.02306754080643439 0.02838377273280729
-0.07886812675615223 -0.023074792456241958 0.027449931038890096
-0.07945532354475032 -0.02308384891317369 0.02649250347597293
-0.07999340633658919 -0.023096691069552023 0.025485913934682025
-0.08048560593843523 -0.02311309865722815 0.024432578172030928
-0.08089167851129814 -0.023136178490479636 0.023292075766639442
-0.08117894547728349 -0.023168485896395304 0.022030658812865533
-0.08138921734561994 -0.02320686927371352 0.02068815472590768
-0.08151768937325188 -0.02325174218721494 0.019258524683269995
-0.08150655707381238 -0.02330761907658807 0.017682232776298046
-0.08116177083243953 -0.023389614144149015 0.015760576759192457
-0.07986294524895465 -0.023546098423615353 0.012856867216262335
0.08055318907115067 -0.029025482614309393 0.08569042611655481
0.07893510886565663 -0.028977181300557174 0.08507366895317586
0.07732240500890486 -0.028929040476198972 0.08445896107108353
0.07571505074957563 -0.028881059342681027 0.0838462922735867
0.07411301951353932 -0.028833237106739112 0.08323565243152656
0.07251492068695953 -0.028785486775297398 0.08262774652509511
0.07092346348611722 -0.028737980259956813 0.08202113510736353
0.06933590036900894 -0.028690544654954245 0.08141723894637326
0.06775491284215268 -0.028643350743940553 0.08081461620085195
0.06617778160588572 -0.02859622676401765 0.08021469026287892
0.06460716076068823 -0.028549342381933365 0.07961601695882722
0.06304168164667634 -0.02850261148494659 0.07901930352758335
0.06148000312705576 -0.028455949078002248 0.07842525965862382
0.05992473876138543 -0.028409523173391217 0.07783243778940441
0.05837454095990158 -0.02836324850983916 0.07724154714808973
0.05682808920387755 -0.02831704092736866 0.07665329931973616
0.05528795717198165 -0.02827106680785979 0.07606624348651647
0.05375153543303679 -0.028225158847261695 0.07548181289912034
0.052220095440218606 -0.02817939974019971 0.07489927728927837
0.05069488246336096 -0.028133871109777508 0.07431790428121302
0.049174590020435005 -0.028088489360596054 0.07373840685744909
0.04765793782374805 -0.028043171966716168 0.07316150017710943
0.04614742170256553 -0.0279980821185437 0.07258572730779439
0.04464175521885555 -0.027953137035076417 0.07201180300503543
0.04313967770399907 -0.027908254989316702 0.0714404441142368
0.04164364700772888 -0.0278635976106771 0.07087019082867202
0.04015117166367338 -0.027819002407188986 0.07030248631455582
0.03866468453595967 -0.027774629979685276 0.06973586891899275
0.03718293187014332 -0.02773039887837739 0.06917105619991959
0.03570468499194129 -0.027686228682375982 0.06860876766545138
0.034232339793298705 -0.027642278468388324 0.068047538987758
0.032764661703918396 -0.027598467569864345 0.06748808931914052
0.031300440831230236 -0.027554716334474712 0.06693113968106185
0.029842036683357775 -0.027511182336363998 0.06637522318640815
0.028388233563700405 -0.027467785680948785 0.0658210605179449
0.026939009733308206 -0.027424525719312115 0.06526864338918537
0.026287211106903408 -0.027434544876084606 0.06421979539888584
0.02625896361631863 -0.027486479759657848 0.06277586816323993
0.02623060897521773 -0.027538611646520023 0.061326463714667656
0.026203321236437704 -0.027591020858528173 0.05987080013892199
0.026174752611377472 -0.027643550431559378 0.05841034172509646
0.026146074997199453 -0.027696280404532383 0.05694431167294495
0.026117287769017616 -0.027749211926425 0.05547267803789685
0.0260895736322187 -0.027802426572120578 0.053994635192171736
0.026060567468337514 -0.027855764982925392 0.05251169179518922
0.026031449794992167 -0.02790930844450743 0.05102304746537201
0.026002219967919238 -0.027963058141569682 0.04952866926495891
0.025974069473108485 -0.028017096931703043 0.04802772719926618
0.02594461560462763 -0.028071263006569588 0.04652177548652836
0.02591504762788094 -0.02812563892808339 0.045009989514612714
0.025886563701819132 -0.028180308536037868 0.043491520570190734
0.02585676775389595 -0.028235108147464133 0.04196795784636048
0.025826855697368867 -0.02829012130150693 0.0404384581174303
0.025798032439076468 -0.028345432837811064 0.038902153561476416
0.02576788838910249 -0.028400877166094768 0.03736066905425567
0.02573762618305475 -0.028456538820271784 0.03581314236905603
0.025707245124857003 -0.028512419080633865 0.03425953791070813
0.025677959234807923 -0.028568604147978783 0.03269896175692638
0.025647340665710783 -0.02862492583711538 0.0311330874886262
0.02561538179416334 -0.02868138445349322 0.029561897726276543
0.025585739915128636 -0.028738238066318266 0.027982743336683047
0.02737433259688521 -0.028923469323808175 0.025084452056758244
0.02994281034348678 -0.02916454228039509 0.021599240924229213
0.035421050430279655 -0.029612531181626503 0.015963060637937176
-0.04669972469245692 -0.025208295086294952 0.03768994669975817
-0.05082181258542623 -0.02495398101369317 0.039683192708191595
-0.053775004463366416 -0.024786545561833143 0.040710333497961104
-0.056065728355451705 -0.024668354082529025 0.04118977985340805
-0.0581920035012396 -0.024562075175251042 0.04154172924015204
-0.06006584450556529 -0.024474455727031552 0.04168783055634678
-0.06180167004409881 -0.024396929779411703 0.04172432883278715
-0.06337934203336121 -0.02433109758073442 0.04163176983781641
-0.06476774997760426 -0.024279410724757297 0.041380657934270426
-0.06599604714356122 -0.02423973496149133 0.04099420399842291
-0.06706760483670643 -0.024211892622234756 0.04047321476098853
-0.06808678349415048 -0.024187948187461412 0.039908802971506785
-0.06903922301199478 -0.024169033334637494 0.03928735225523439
-0.06996028463680681 -0.024152453986315874 0.038639876913306614
-0.07082442441182674 -0.02414020111774649 0.03794275520833368
-0.07164000869870063 -0.024131655738037515 0.03720282485656923
-0.07242773356742027 -0.02412523553468649 0.036438388069405636
-0.07316683451545908 -0.024122571548244272 0.0356299010068194
-0.073878621103377 -0.024122026714961907 0.034796421490640106
-0.07455941196641513 -0.024123903469677223 0.03393412434861326
-0.07518545020050293 -0.024130080658257495 0.033020302928728984
-0.07577477655982606 -0.024139170507737437 0.03207114131021144
-0.07628902793536413 -0.024154214089055007 0.03104978025470584
-0.07678852031445932 -0.024170491956108514 0.030012491934935492
-0.0772963793591882 -0.02418618318061492 0.02898116256763722
-0.07788172869585663 -0.024195802598067112 0.028022360452900075
-0.07850588608945214 -0.024202382300214067 0.02709985049682745
-0.07908368742041105 -0.024212685499377523 0.026131476028222245
-0.0796183988212455 -0.02422647745900922 0.02511971876401997
-0.0801201090753258 -0.024242975191405343 0.024073816961540373
-0.0805102687225358 -0.024268499217916243 0.022915751935741302
-0.0807247562915257 -0.024308269278747626 0.021580201501681773
-0.08088943625108519 -0.02435224120359844 0.020189910155320623
-0.08102941893026527 -0.0243984160501518 0.018769232752711307
-0.08099711277583349 -0.02445876179514279 0.017169078221765888
-0.08047457232190414 -0.024559188367560277 0.01506478932087707
-0.07798260749409192 -0.024820339767854055 0.010943174556865887
0.08007151542708552 -0.03036884939173653 0.08449232571771717
0.078452958366109 -0.030318272633170038 0.08387707636205938
0.07683978348233272 -0.03026786405717056 0.08326387289098366
0.07523196397433712 -0.03021762282624578 0.08265270511668005
0.07362947321835916 -0.03016754810845489 0.08204356291886775
0.07203228476681861 -0.03011763907736237 0.0814364362442388
0.07043901552661547 -0.030067804944860953 0.08083203490083538
0.0688523600156854 -0.03001822512610994 0.08022890999253068
0.06726958557370788 -0.029968719170717528 0.07962849184807483
0.06569335913746627 -0.029919465317668523 0.07902932925115241
0.0641209761573246 -0.029870284308266166 0.07843285507864589
0.06255507629106749 -0.02982135321683037 0.07783761585519561
0.06099298278853016 -0.029772493964576336 0.07724504694097883
0.05943730832654204 -0.029723882472520682 0.07665369266168179
0.05788670568578069 -0.029675429464008567 0.07606426631985114
0.056341150103825344 -0.029627134165267317 0.07547675850261854
0.05479932825588274 -0.029578908742333567 0.0748918854342438
0.053263799749743435 -0.02953092684413172 0.07430818721011778
0.0517319693937941 -0.029483013861420663 0.07372710627079881
0.05020637068465994 -0.029435342323021734 0.07314718068696185
0.048684435027980144 -0.029387738754008814 0.07256985513403927
0.0471686700913842 -0.029340374573886212 0.071993665714112
0.045656533587406956 -0.029293077431009902 0.07142005927801923
0.0441505076330716 -0.029246017646216815 0.0708475700144075
0.04264807596141529 -0.029199023980254882 0.07027764689107063
0.041151695413483846 -0.029152265665806212 0.06970882223745989
0.03966009970819978 -0.02910565686625282 0.06914181646365603
0.03817204793798973 -0.029059112833528626 0.06857735194484954
0.03668995954382154 -0.029012801187988446 0.06801395831711898
0.03521258765556223 -0.028966636921750447 0.06745235759816132
0.03373871036800047 -0.028920536099893895 0.06689327368880671
0.03227071031926143 -0.028874664753345627 0.06633523364873545
0.030807359734905615 -0.02882893869098564 0.06577896103857822
0.02934745540501238 -0.028783274779359196 0.06522518122220855
0.02789334375025354 -0.028737837482434445 0.06467241879693514
0.02644381578301519 -0.028692543414108127 0.06412139880329265
0.025609267866124996 -0.028690249694195195 0.06318640006618104
0.025579728043100103 -0.028744578153881574 0.06174007816080984
0.0255500761333442 -0.028799112758953353 0.06028826829222739
0.025521484561106644 -0.028853937534096392 0.058830185258950285
0.02549160870359457 -0.028908888281364724 0.05736729969668597
0.02546161883505965 -0.028964048729385947 0.05589883153144809
0.02543151430162277 -0.029019420080831398 0.05442474874600328
0.02540247615437169 -0.02907508767159193 0.05294424236292844
0.025372142489269223 -0.029130884798035973 0.05145882750517822
0.02534169217543908 -0.029186896493426293 0.04996770045537402
0.025312312819307126 -0.02924320909751998 0.0484700339741978
0.02528162938446943 -0.029299653989444126 0.04696737733214407
0.025250827270935028 -0.029356317201273335 0.04545890865207969
0.02521990578882566 -0.02941320000210228 0.043944594148601024
0.025190061396311303 -0.02947039009791811 0.04242358164527121
0.02515890132308002 -0.02952771626011211 0.040897467011002386
0.025128821430788928 -0.029585352982725018 0.03936457324525533
0.025096216078422162 -0.02964304026692242 0.03782735647602625
0.025065895637771507 -0.029701128525701146 0.036282447916127836
0.025034247694825706 -0.029759356759267268 0.03473232162055928
0.0250024754182816 -0.029817813750958978 0.033176105427253855
0.024970578073997773 -0.029876500851493727 0.03161376337800176
0.025200011508756892 -0.029954604630934058 0.02985853784861564
0.02706070498243829 -0.03015297427432362 0.02692360810543798
0.029281221955741343 -0.03037867280099525 0.023707663742907392
0.03256561295150545 -0.030683851130233232 0.019695200770756482
-0.04750133941700657 -0.026291312399116244 0.038366146490923014
-0.05131181191671702 -0.02604977241188354 0.04009871904471579
-0.053904006269755056 -0.02590305371307981 0.04082030762952071
-0.05616135793111776 -0.025782099843906597 0.04127173507988957
-0.058172081010367305 -0.02568010805388088 0.0415245653483336
-0.060041173002041814 -0.025588885641626407 0.04166646306589711
-0.06175682173227737 -0.025509442224347072 0.04168528181513831
-0.06329112400309944 -0.0254440769184176 0.04155455849170475
-0.06470262151584505 -0.02538821475359787 0.04132335527823927
-0.06585127529517454 -0.02535311345848914 0.04086615788119924
-0.0668995886729235 -0.025325893666976212 0.04032382874185797
-0.06789725958026849 -0.025302617995610628 0.03973940907142848
-0.06882117091115192 -0.025285173393529144 0.039091437482011604
-0.06971623625723594 -0.02526997674614781 0.03841945522195567
-0.07055682727120599 -0.02525911503667902 0.03769979803455603
-0.07135675952693182 -0.025251498358326924 0.036944310205801134
-0.07211481503681738 -0.025247247711231654 0.03615130044063436
-0.07284222763516723 -0.025245471745788586 0.03533053253317714
-0.07354232765291929 -0.025245915714644747 0.0344846543121356
-0.07421064290651269 -0.025248960488914465 0.033609102839602334
-0.07483884883390651 -0.025255306127277218 0.032695615742381556
-0.07541092032952124 -0.025266291616479718 0.03172851239345603
-0.07587532546783388 -0.02528619140251455 0.030658182448436044
-0.07637752920218355 -0.025303063984825118 0.029621433943297415
-0.07688348905305298 -0.025319703910835042 0.028586252046352123
-0.0774663840112022 -0.025330043153433447 0.02762303529194532
-0.07806129048499094 -0.025339432368958564 0.026670179605300326
-0.07862054856942352 -0.025351834238313165 0.025681557878786454
-0.07917345194121439 -0.025364824456266907 0.02468522774183557
-0.07968172455322431 -0.025381609847306412 0.023643511320962596
-0.08014473951741541 -0.025402269675292834 0.022555096926800855
-0.08037497929931792 -0.02544259525393876 0.021233298474563234
-0.08052540586792745 -0.0254898362090532 0.019826998944951768
-0.080587237579693 -0.025544783242807383 0.018326126335384108
-0.08044815368617347 -0.02561700053119515 0.0166161210913624
-0.07959619517330785 -0.025750058033966943 0.014175433804637039
0.07959047757733029 -0.03171444109743574 0.08329160639638891
0.07797004501345461 -0.03166148582552356 0.08267859053548374
0.07635639962799373 -0.03160880238515248 0.08206689700199543
0.07474811540403847 -0.03155629397979204 0.08145723575375194
0.07314516566808021 -0.03150395973858648 0.08084959667948108
0.07154752392326591 -0.0314517987964477 0.08024396973487388
0.0699551638479356 -0.03139981029400745 0.07964034494203245
0.06836670984549403 -0.03134789966153233 0.0790394369188763
0.0667848417822191 -0.03129625379156971 0.0784397873548403
0.06520684183182085 -0.031244684715608238 0.07784283610395448
0.06363403369335646 -0.031193285308187078 0.07724784889528735
0.06206771366249553 -0.03114214722264677 0.07665408919738628
0.06050520577397178 -0.03109108434682456 0.07606300054485515
0.05894912181597345 -0.031040280534754622 0.07547311912821789
0.05739811494242969 -0.03098964248189552 0.07488516233630674
0.05585216034606061 -0.030939169378326584 0.0742991207651632
0.05431123338094096 -0.03088886041939521 0.07371498507199317
0.052774027893368214 -0.030838624109913202 0.07313347610324239
0.05124308946432238 -0.03078864134091633 0.07255312490047114
0.04971583709681143 -0.030738730223216715 0.07197538306054457
0.04819352833836249 -0.0306889806643157 0.07139951133046946
0.046677394794293836 -0.03063948140871788 0.07082476848935987
0.045164895077557665 -0.030590052334348212 0.07025260935314209
0.04365851031041429 -0.030540871438124086 0.0696815601836474
0.04215696152290532 -0.030491848428398666 0.06911234426559909
0.040658995416572086 -0.030442894163065917 0.06854568686393486
0.03916705527900166 -0.0303941849365553 0.06798011152849376
0.03767988178161863 -0.0303456313324818 0.0674163431650377
0.036196240852497674 -0.030297145067471637 0.066855108576591
0.03471853855083262 -0.03024890075774037 0.06629492871931858
0.03324433596135712 -0.03020072286701435 0.06573726638241462
0.03177601465064683 -0.030152784905627394 0.06518064086002262
0.030312347319934374 -0.030104998888038737 0.06462577961356814
0.028853311877401033 -0.030057364092991538 0.06407267426827024
0.027397711775086597 -0.030009793917664822 0.06352205451485754
0.025947880386228195 -0.029962459692846832 0.06297243646522444
0.024930914162243023 -0.02994671478321384 0.062152379060618046
0.02490008044534614 -0.03000343971105873 0.06070365984777071
0.024869129696583947 -0.030060379942919106 0.059249441904877465
0.024839232709371273 -0.030117623210866515 0.05778893673930979
0.024808048030985297 -0.03017499807442262 0.05632362134077773
0.024776744310533616 -0.030232591956458096 0.054852712357665145
0.024745320865083187 -0.030290406113468393 0.05337617769992831
0.024714957089125522 -0.030348529647016887 0.051893205036488366
0.02468329429741084 -0.030406788499624516 0.050405315961410735
0.024651509708282615 -0.03046527145679034 0.048911703417524266
0.024620789251860398 -0.030524068668576834 0.04741153676380955
0.024588761147789573 -0.030583004075076844 0.045906371831791803
0.024556609125685636 -0.03064216750500824 0.04439538335676779
0.02452552572383493 -0.030701650175630424 0.04287772200880735
0.024493125920683756 -0.030761273989945364 0.041354978545599
0.024460600029245494 -0.030821129838470875 0.03982630911834967
0.0244279473120545 -0.03088121907833719 0.03829167906706776
0.024396369230876402 -0.030941634379414752 0.036750213538628174
0.024363462882377562 -0.031002194873623812 0.03520355095664501
0.02432922074447108 -0.031062900876964995 0.033651674490890404
0.025379769579022382 -0.031206746224015192 0.03132313193203967
0.0269966632907368 -0.03139454574283753 0.028575444129271432
0.02889617343053752 -0.03160480108746105 0.025605604484669864
0.03143753175550251 -0.03186527010690683 0.022150792013792386
-0.048244092256797766 -0.027373680538642933 0.03899269350880136
-0.051429574823394664 -0.027172721002528707 0.04019858364873741
-0.05407613400480815 -0.02701513721925854 0.04096704664589346
-0.0562493883266848 -0.026895815155570078 0.04134717775497937
-0.058196983742181074 -0.02679458028408325 0.041546019884193375
-0.060009917019135384 -0.026704029877358246 0.0416393928909638
-0.061691565463974474 -0.026623955237233512 0.0416284666852787
-0.06320690726435113 -0.026557334456271307 0.04148084920864109
-0.06457469920788461 -0.026502696472236468 0.041210804055413386
-0.06569515759344108 -0.026468444612447434 0.04072807671583717
-0.06673298882625539 -0.02644094678707574 0.04017570199428111
-0.06769161821947223 -0.026419961474503765 0.0395556096162083
-0.06856322616694333 -0.026406189254393857 0.03885968009068036
-0.06944813240563896 -0.02639123572614546 0.03817730690476295
-0.07027460862298601 -0.02638114336885434 0.03744356568095225
-0.07104788551553015 -0.02637550298120075 0.036662408385258305
-0.071783262025432 -0.026373048507436794 0.035847116576331994
-0.07249351161702744 -0.026372716857494805 0.03500892942362116
-0.07319205481039648 -0.026373380168025897 0.03415992727486672
-0.07384008558444821 -0.02637835605576717 0.03326377662280389
-0.07448913722928618 -0.026383267438915056 0.03236801496558067
-0.07500898390190619 -0.02639927530234464 0.03135002487193439
-0.07554495331442307 -0.026413971796064705 0.0303454625091506
-0.07608074618989802 -0.026428751273293805 0.02933904494443551
-0.07660477527551474 -0.02644461431921434 0.028319675181888493
-0.07721354813617376 -0.026453220317546846 0.027379951101341338
-0.07775261371476083 -0.02646791014268716 0.026371864863256822
-0.0782514834387939 -0.026486161579665213 0.025323028033492567
-0.07873873576697482 -0.02650551014523839 0.024260727012911987
-0.07921209875037155 -0.02652616190375665 0.023182540137583085
-0.0797115401649276 -0.026544628187163664 0.022127674126773023
-0.08006969942262787 -0.026575574782595764 0.020930526949559047
-0.08016588120151724 -0.026629702420630248 0.019468579598982405
-0.08009440379018079 -0.026698862418214134 0.017832261511537773
-0.07979187582718023 -0.02678876176445213 0.015955063594562335
-0.0784692901534596 -0.026969417861589882 0.013034444199793327
0.07910727502216763 -0.03306207511207795 0.08208969969923266
0.07748636699578731 -0.03300682591737872 0.08147820697671057
0.07587225163825279 -0.0329518604746479 0.08086802892796915
0.07426350323531322 -0.03289707779273327 0.08025987972911988
0.07266009506360233 -0.03284247696162439 0.07965374927803034
0.07106200057688378 -0.03278805707734289 0.07904962753952088
0.0694691934045703 -0.0327338172418915 0.07844750454481905
0.0678802982990952 -0.03267965878922797 0.07784809905325227
0.06629799428981853 -0.03262577670327882 0.07724994448796477
0.06471956430383086 -0.032571974875296526 0.07665448896590679
0.06314765989396326 -0.032518447011075584 0.07606026370710817
0.06157959199184204 -0.03246499829686198 0.07546871925796697
0.06001798497488936 -0.03241182117282594 0.07487838469537497
0.05846017746914273 -0.03235872210740411 0.07429071293152195
0.056908766973595815 -0.03230589228748626 0.07370423095912254
0.055362413979670344 -0.032253234689494766 0.07311966088137267
0.05382109379690447 -0.03220074847265125 0.07253699336449704
0.05228478189528507 -0.032148432801640786 0.07195621913538175
0.05075217926946557 -0.03209619253276325 0.07137806364569621
0.04922581751750177 -0.03204421577432704 0.07080104891600314
0.047703129792250054 -0.03199231338234351 0.07022663566604398
0.04618536672086854 -0.031940578852302705 0.06965408017476249
0.04467375310810778 -0.031889104471314475 0.06908263682250881
0.0431657615332135 -0.031837702931419694 0.06851376944195564
0.04166385943284745 -0.03178655933385107 0.06794599544592633
0.04016677485873121 -0.031735579785342374 0.06738004265118336
0.03867326141558425 -0.03168467158702904 0.06681664078604277
0.03718574887947196 -0.03163401807117904 0.06625430465221238
0.0357017740998824 -0.031583434929501754 0.06569450299682578
0.034223742077070796 -0.031533104328636284 0.06513574894870106
0.03275041327182099 -0.03148293388382027 0.0645787729011334
0.03128057301458376 -0.031432832376269475 0.06402430702381523
0.029816589643733515 -0.03138298024540011 0.06347086202721264
0.028357242643175573 -0.03133328599401698 0.062919169766262
0.02690251002295957 -0.03128374887330964 0.062369221927874474
0.025452369931979857 -0.031234368139195702 0.06182101025144793
0.02425214962236688 -0.031203940833812623 0.06111773181380281
0.024220020448045387 -0.031263065125802826 0.059666612652246265
0.02418893701619007 -0.03132250371815938 0.058209229262842055
0.024156565301912625 -0.03138207859143035 0.05674705400107888
0.024124070212049153 -0.03144188051735651 0.055279306074889345
0.024091451039931877 -0.03150191079643546 0.05380595356551804
0.02405988336735332 -0.03156226194060788 0.05232618681914414
0.02402701604835006 -0.03162275321730802 0.050841522619493706
0.023994022502382972 -0.031683476810760704 0.04935115656685002
0.02396208480330725 -0.031744526319723264 0.0478542607738508
0.023928838795330643 -0.03180571893572615 0.046352386125336154
0.023896651549709547 -0.03186724089686675 0.04484390325688237
0.023861960769341273 -0.031928814657804415 0.043331198988516506
0.023828327254484583 -0.03199072051897761 0.04181181888075691
0.023795756870710616 -0.03205296096083249 0.04028571065138625
0.023761863465796562 -0.03211534963564232 0.03875448354471295
0.023727837861614864 -0.03217798165381408 0.03721728397660212
0.024398395341821533 -0.03229672213143431 0.035179010747376505
0.025620875112979224 -0.03245978852656494 0.03273928445117957
0.027095853175644724 -0.03264362012945268 0.0301042702231481
0.028814153625412064 -0.03284761283107799 0.027277468385290216
0.03130259350239689 -0.033113995609166204 0.023877614896461896
-0.04904532897726416 -0.028446006363556837 0.039668574435710924
-0.05186808525879549 -0.028267486235904412 0.040570446676120975
-0.05426670572893644 -0.028124464855737916 0.04112950917605129
-0.05632396744602036 -0.0280100799413993 0.04141109259067077
-0.058189513323561426 -0.027911663034466842 0.041539583868845265
-0.05997947774875384 -0.02781931911318044 0.04161303005423783
-0.0616124066712212 -0.027740118713138726 0.04155954737366657
-0.06313156048181906 -0.02767040752364068 0.041414903205457654
-0.06444264642489839 -0.027618423462826926 0.04109461867352321
-0.06552926439465234 -0.027585710276875678 0.040581349432767755
-0.06655902761559701 -0.027557801548138857 0.04002103013320374
-0.06748093499108432 -0.02753918079184435 0.03936730380821429
-0.06834847711799791 -0.027525231730350007 0.03866673303325091
-0.06917798817069842 -0.02751455394701889 0.037933315736786266
-0.06997690210214597 -0.027506516410298068 0.037173271556169396
-0.07072424502153979 -0.027502984152084912 0.036367029554118635
-0.07144315621473207 -0.027501945425818856 0.03553508593200727
-0.07213148595014296 -0.027503607427592447 0.03467505149960093
-0.07281286848151503 -0.02750589300775108 0.03380839544538289
-0.07346629892290735 -0.027510673174930167 0.03291544095100962
-0.07409505363030011 -0.02751767322756153 0.03199884765329636
-0.07466740492240365 -0.027529741082145127 0.031028373554777222
-0.07520377867463623 -0.027545083912327233 0.030022517274395255
-0.07574230128483822 -0.027560304772927924 0.029017014659838913
-0.07630774654937489 -0.02757317569066447 0.028035580914395286
-0.07692860716305094 -0.027581112947345526 0.027106000081480452
-0.07753747969281888 -0.027590169783385503 0.026163952715502592
-0.07807432239752005 -0.027605789370110354 0.025150924208317715
-0.07857096891920251 -0.027625129136733564 0.02409690253756752
-0.07900829626071493 -0.027649954411195138 0.022982493474341725
-0.07940333101588437 -0.02767875157431393 0.021823574832252668
-0.07963064534884795 -0.02772300983977094 0.02049508039173492
-0.07966820795493018 -0.027784856334302575 0.018972436395988168
-0.07958448384076544 -0.0278581299485975 0.017321274782638674
-0.07900275508541243 -0.027977579496412528 0.015160195727122405
-0.07635626056973865 -0.02828805765171567 0.010895004985938816
0.1410314760781216 -0.038992003254421495 0.05002354398347908
0.07862330545506274 -0.03441184829466805 0.08088588515449271
0.07700331371809455 -0.034354401860053715 0.08027519197676758
0.07538733769974681 -0.03429704335602583 0.07966726417859665
0.07377812565908798 -0.03423997927024301 0.079060632573032
0.07217425960015245 -0.03418310475771521 0.07845601626519161
0.070575712927196 -0.034126418875333714 0.07785340522916367
0.06898245922059493 -0.034069920686235135 0.07725278950543146
0.06739447223540079 -0.03401360925975052 0.0766541592003192
0.06581038420577079 -0.03395738216264044 0.07605823786645677
0.06423285953819663 -0.03390144182806537 0.0754635495448571
0.0626591959645818 -0.033845584657683114 0.07487155184500333
0.06109203054267276 -0.03379001175882746 0.07428076667825576
0.05952868887811669 -0.033734520876438384 0.07369265400834712
0.05797178097945316 -0.03367931180498484 0.07310573367613832
0.05641866001756818 -0.03362418361942027 0.07252146793682276
0.054871909247260375 -0.033569334814144126 0.07193837461888863
0.053330196474001945 -0.03351466465957818 0.07135718052245077
0.05179349712355391 -0.03346017228430357 0.07077787638352756
0.050261786781247986 -0.033405856822560163 0.07020045299828609
0.048733773567438576 -0.03335161949479905 0.06962564040672775
0.047211975140980744 -0.03329765560185733 0.06905195164112315
0.04569383875998123 -0.03324376876999506 0.06848085651078711
0.044180608152751044 -0.03319005607045308 0.06791160684272118
0.04267350134451109 -0.03313661332094473 0.06734345263428232
0.041170004836954655 -0.03308324605231482 0.06677786670212416
0.03967257242364858 -0.03303014644595184 0.06621335764191433
0.038178716407926305 -0.0329771212866736 0.06565140020716198
0.03669086551991707 -0.03292436152917315 0.06509050130968203
0.03520776782208873 -0.03287177032160436 0.0645313942981075
0.03372819653713166 -0.03281925203924918 0.06397481431032642
0.03225454330945593 -0.03276699581917587 0.06341926582439594
0.030784383722491315 -0.0327148115279586 0.06286622819907295
0.02932008502200517 -0.03266288710491535 0.062314204355765235
0.027860427178410252 -0.032611127247899704 0.06176393006230524
0.02640538816394744 -0.032559531175801334 0.06121539701448264
0.02495494609004978 -0.032508098112445975 0.06066859696055443
0.02357297387315438 -0.03246192853750044 0.06008245775665266
0.02353954767572425 -0.03252345509357006 0.05862893600167057
0.023507160657102733 -0.032585308791453896 0.057169136005854604
0.02347348195894272 -0.03264730437923538 0.05570453646463441
0.023439674864818016 -0.032709536317652374 0.054234353315828376
0.02340573863908929 -0.032772005960873554 0.052758554568215765
0.02337284720888938 -0.03283480958111339 0.051276327222101736
0.02333865264343149 -0.03289775910226014 0.04978919451786279
0.02330550570244916 -0.03296104609425016 0.04829555630947335
0.023271049818086975 -0.03302448104411061 0.04679695855858296
0.02323646105430366 -0.03308816063135876 0.045292581453534875
0.023201738640942715 -0.03315208627389808 0.043782391497548034
0.023168069521344814 -0.033216356526795575 0.04226553875029676
0.023133079675468626 -0.03328077895476033 0.040743615520368315
0.023954516152622063 -0.03341578182293416 0.03862062573297631
0.02488987178892721 -0.03356070651853856 0.03640542724059004
0.026048220304808578 -0.033724605970250725 0.03402000131910898
0.02735138648444496 -0.03390113834916176 0.03151689758250403
0.028825183379179276 -0.03409251800727896 0.028876000008767777
0.031342494235991114 -0.03437124129629278 0.02547183304162781
0.03618149189185205 -0.03484408801954498 0.020374200959098476
-0.04535304584618499 -0.02984555098790422 0.038055725820287156
-0.04944928307559343 -0.02954806415396824 0.040009328751425266
-0.05210787343858053 -0.02937689850599588 0.040773790430948975
-0.054402089113968155 -0.029237398363252867 0.041244923607936135
-0.056311400316869376 -0.029131603703803206 0.041400322471608575
-0.05818038234526396 -0.029028945530396123 0.04153171722582866
-0.059926812491589265 -0.028936808640738505 0.04156741773967332
-0.06154219202404104 -0.028856025923744668 0.041498415249483944
-0.06299536013254847 -0.028789476348479334 0.041295696142266025
-0.0642879088151812 -0.028737111556930112 0.040958474263150246
-0.06537443469715098 -0.02870312933121066 0.040444407466377896
-0.06637368427295243 -0.028676899010081355 0.039856238225647767
-0.06726758014778161 -0.028660113610898978 0.039176610147095836
-0.06810564010037279 -0.02864833216913489 0.03844854958510152
-0.06889074645833415 -0.02864132572346963 0.03767388232371793
