# .PCD v0.7 - Point Cloud Data file format
VERSION 0.7
FIELDS x y z
SIZE 4 4 4
TYPE F F F
COUNT 1 1 1
WIDTH 764
HEIGHT 1
VIEWPOINT 0 0 0 1 0 0 0
POINTS 764
DATA ascii
-0.019692734151058357 -0.08413215845007183 0.0584182308417035
-0.019721553304133083 -0.08436194879093656 0.05723824551832635
-0.019753840807994517 -0.08454128223261903 0.056009340514116046
-0.019788073641178364 -0.08469347215003858 0.05475161886531843
-0.01982682830565114 -0.08477995930987536 0.05343002331240815
-0.019866781012349705 -0.08485108783016498 0.05208906263391799
-0.019909902982304547 -0.0848774608635558 0.05070179150463272
-0.019955562872791578 -0.08486883287517455 0.04927643568098328
-0.0200036979544299 -0.08482639655475571 0.04781354610756938
-0.020056426033486445 -0.0847189045486677 0.04628377387418908
-0.02012361856916168 -0.08440033673309849 0.04455076060748797
-0.020196175144045786 -0.08400689777219256 0.042738319196862995
-0.020292395653692896 -0.08326881127857422 0.040592571378487596
-0.020408385048419492 -0.08224588375197439 0.03816471067739119
-0.020542571405593808 -0.08096323522145088 0.035474224593300074
-0.025323791521913573 0.07061651612850989 0.021553818535584468
-0.025239268834594136 0.0682011107157024 0.021480454511419278
-0.025155228027270816 0.06580033974437421 0.021408538131177823
-0.025071585177969834 0.06341265724110828 0.021339012242809707
-0.024988655520531106 0.06104362249779077 0.02126803992802878
-0.024906193792719102 0.058688809386380714 0.021198486285483042
-0.024824274516725888 0.05634948676598467 0.0211293901824417
-0.024742970203625127 0.0540268773273086 0.02105980221136655
-0.024662119388064722 0.05171806890044567 0.02099161062021543
-0.024581948904177035 0.049427003400977165 0.0209219848544952
-0.024502145282819954 0.047148104543087654 0.020854683011749253
-0.02442300982989789 0.044886612122497616 0.02078594966405961
-0.024344233188536187 0.042637045447742994 0.020719520352775467
-0.024265963102829212 0.0404019441106655 0.020653518200367538
-0.024188269097317097 0.03818246451548302 0.020587013921517017
-0.02411099709974524 0.035975867496199354 0.020521856574389652
-0.02403421723722236 0.03378332399908329 0.020457114205697235
-0.023968731456639244 0.031791724799535015 0.020257011203911768
-0.024030618704764754 0.032004630763756925 0.018456780600640543
-0.024083161251452788 0.03205206036205566 0.01676948211865592
-0.02100905549003156 -0.02168052541041271 0.054759278488825225
-0.020885028693725338 -0.024559516571410867 0.05544452744892192
-0.020799303191680652 -0.0267736284640277 0.055650975701135696
-0.02072929342341993 -0.02871300129075066 0.05566325930000682
-0.02066626820241521 -0.030528242097637104 0.055591669126121346
-0.020608538288047304 -0.03224885134102062 0.055457111728235364
-0.020550915191582055 -0.03396352315618506 0.05532608512764675
-0.02049660447906156 -0.03561793669632396 0.0551569375843356
-0.020461514746980828 -0.036943374407268914 0.05474192740762984
-0.02043896731722624 -0.03805461777441094 0.054165920482749486
-0.02042627968511423 -0.03899818982570852 0.0534625018632755
-0.020418430803085034 -0.03985953317755225 0.052696487412770165
-0.019835211528105693 -0.050369741843606264 0.059527240563459094
-0.019739175865158047 -0.052685231638338326 0.05995505294682779
-0.019659829094294395 -0.054715168230081435 0.06016929053205977
-0.019584628590190768 -0.05667034576378843 0.06033501298727739
-0.019527198481795946 -0.05832466688864979 0.06026950451563956
-0.019480280282713137 -0.059800470026928676 0.060067868121877976
-0.01943473960164623 -0.061250115289740115 0.05985168733787194
-0.01941113866186091 -0.0623340451708444 0.059343196074867655
-0.01936425136576653 -0.06380016791944121 0.05915207069030193
-0.019255912203873755 -0.06627378908108184 0.059799767497719425
-0.01917169872861834 -0.06834368071529251 0.06012790847647226
-0.019095448908433472 -0.07027712906946226 0.060354352282779855
-0.019023115698589946 -0.07214112524664312 0.060533578478959904
-0.01895105440936955 -0.07399552123242131 0.06071522102709159
-0.01890327065416274 -0.07544975415252536 0.060568017773282856
-0.01882062045682703 -0.07746663626499106 0.060907449770316924
-0.018760280223594952 -0.07911620649645934 0.060944186679673606
-0.01871011341081596 -0.08059702675639224 0.06084438862884406
-0.018684642159369137 -0.0816759735631693 0.06040390932128881
-0.01867594539101217 -0.08248316102344183 0.05973057567328366
-0.018682067782491565 -0.08305178204955965 0.0588497246922689
-0.018702415822964266 -0.08339293280763921 0.0577678303789142
-0.018731459485590518 -0.08359653577233284 0.05656126210852819
-0.018762249522396395 -0.08377435932140898 0.055327456531793384
-0.01879597064057431 -0.0839077374036199 0.054049340003671786
-0.01883260883896273 -0.08399720634048202 0.05272673804236955
-0.01887260516239268 -0.08403609146192953 0.051352967472848565
-0.018914090820189404 -0.08405429180309876 0.04995441888287794
-0.018959415135390848 -0.08401491594328497 0.048497086605404915
-0.019008356403213876 -0.08392186369288135 0.04698368113711243
-0.019058797979840593 -0.08380875277874317 0.04544438724342931
-0.01912344825527681 -0.08347668245247647 0.04369446972805063
-0.019206721453799987 -0.08285818908716475 0.04166782592048335
-0.0193076779831459 -0.08196991824387306 0.039375802327905995
-0.019434499470781037 -0.0806864856210941 0.03669628796037522
-0.0238393059543864 0.06824310993548127 0.021452539013504135
-0.023759919329080774 0.06584197638753048 0.021380708922322023
-0.02368113517797533 0.06345820517502515 0.021308398880031387
-0.023602721763650962 0.06108736757828609 0.021238474441130195
-0.02352482592343298 0.058732178887536235 0.02116901154414169
-0.023447516569963568 0.05639387184405037 0.021099057650029118
-0.0233706401376293 0.05406950784443493 0.021030507125106068
-0.023294266161266276 0.051760335634215726 0.020962404638910304
-0.023218389730923876 0.04946620676071206 0.020894745813251236
-0.023143078110987092 0.04718831517468469 0.020826589801850315
-0.023068325121408977 0.04492648215968709 0.02075794079208665
-0.02299398230194173 0.04267789582295328 0.020690664750198706
-0.02292004638797304 0.04044244932150798 0.020624749067592874
-0.0228465844239586 0.03822133265936434 0.020559255922986852
-0.02277366169407845 0.03601569331118504 0.020493258668531744
-0.022701202999006232 0.033824089277258385 0.02042768137945411
-0.022641068512176482 0.03186379955791385 0.020204688091257028
-0.022700439807286737 0.03209342127965553 0.018391970507990407
-0.02275008458192703 0.0321410552277987 0.0167041685207181
-0.019848672812169982 -0.0215569256591166 0.05466807408802238
-0.019758488478797492 -0.023946366554512044 0.05498962165089444
-0.019659592688599604 -0.026486973588125684 0.05543714620128121
-0.019593366081224108 -0.028428867315831385 0.055450159971067337
-0.01953611031217771 -0.030203741184388122 0.05534697554559087
-0.019484451447658348 -0.03187341782682607 0.05517247916937018
-0.019434132848187347 -0.03351508433633954 0.05498426564427211
-0.019390702778858793 -0.03502932146768817 0.054705846329795416
-0.01936512149525255 -0.03622062811135446 0.05418505544232838
-0.01934267983826137 -0.037353892737286176 0.05362310655009367
-0.01933487529036211 -0.03822443748444554 0.052859891576570894
-0.01932818350367763 -0.03907459029820465 0.052081875161130886
-0.019324562814558213 -0.03986970258709405 0.05126153188362065
-0.019325719276343585 -0.04057989227888459 0.05037452129829023
-0.019335831638861184 -0.041131813846648824 0.049361407526700984
-0.01859001600496755 -0.05502201213927749 0.05901646113100578
-0.018585643369797893 -0.05580190476958258 0.058240680120207944
-0.018410720328372463 -0.05957774232529267 0.05988779202962202
-0.01836887693108396 -0.061007404593133086 0.05965440779879244
-0.018349091673734823 -0.062048047299931075 0.05910949273946681
-0.018339758412178254 -0.06290475592241174 0.0584164876367001
-0.01831872547825959 -0.0639645322412225 0.057892614697009015
-0.01820744891634717 -0.0665910814096769 0.05867279080059851
-0.018121093851928848 -0.06877704186233552 0.059102272398794786
-0.01804230089408119 -0.07082562035401857 0.05942973904777715
-0.017969057708781797 -0.07277241919799016 0.05968347710143784
-0.01790961157377516 -0.07447598406219791 0.059742247234165324
-0.017834912535377622 -0.0764372533329366 0.06002990031995831
-0.01777579615155263 -0.07812559458341484 0.060095225447292844
-0.017726880400660415 -0.0796348862144492 0.06001547260835588
-0.017695964942600853 -0.08083309265531252 0.05967390739738132
-0.017686062751369136 -0.08167091792520476 0.059023399393597464
-0.01769082284719427 -0.08225871929525519 0.058155610046512485
-0.01771031116023056 -0.08259704156144887 0.05706757323801109
-0.017736616589887306 -0.08282145458580148 0.05587572751246711
-0.017767164354770028 -0.08297621371728736 0.05461781193119969
-0.017799950146506694 -0.08309557249350302 0.05332343822683688
-0.01783538362723725 -0.08317289752060486 0.05198611581077106
-0.017874700117123686 -0.08318776757923763 0.05058677129160538
-0.017917777214245173 -0.0831426717019918 0.04912673968824155
-0.017962104897995546 -0.08307995033728727 0.04764376638944495
-0.018008617098806853 -0.08298418530992713 0.04612340676083826
-0.018068679442667337 -0.08266669368061719 0.04439112429302705
-0.018125339071405483 -0.08241017874338896 0.042705747629168844
-0.018215709774271262 -0.08160011883248003 0.04049541748794794
-0.018329665630305313 -0.08040751241093391 0.03791218137438701
-0.02236463792225734 0.06588936541388846 0.021349034920480903
-0.02229018819928436 0.06349949101887187 0.02128065012379593
-0.02221644431692789 0.06112970973407028 0.021209857132899912
-0.022143256908129842 0.058776956338771724 0.021138579933034196
-0.022070410756352004 0.05643687844079853 0.021069667164607786
-0.02199804232668695 0.05411214667887848 0.021001206323303268
-0.021926215707380424 0.0518039744324183 0.020932250571850997
-0.021854719958870245 0.049508121661296534 0.020865622755598168
-0.02178382471678624 0.047229874058943966 0.020797554633480875
-0.02171332050263854 0.044965030258625915 0.020730860587399424
-0.021643338204700886 0.042716117789045105 0.02066366578488754
-0.021573805565117156 0.04048165529192499 0.020596902730170397
-0.021504784417928417 0.038262799920287305 0.020529641744052474
-0.021436072036503336 0.036055526697787665 0.02046465532568814
-0.021367797358007905 0.033862313968241464 0.020400082875573655
-0.021320224267532554 0.032077642187247346 0.020049447723662628
-0.021380345016460956 0.03238924073938676 0.018176045570525434
-0.02142707052335591 0.03243628267081661 0.01648750021797396
-0.018717618121456975 -0.020850401422925213 0.05414672902916279
-0.01859365239823076 -0.02399603050580512 0.05502646813017931
-0.01852953240837948 -0.02597853767134184 0.05505787967929432
-0.018454105066441746 -0.02817331887078317 0.05525849967360813
-0.018400866201112448 -0.029936274868695156 0.05514528954784459
-0.018351497959002455 -0.031620837052055595 0.05498098664266465
-0.018308769285273266 -0.0331745623514878 0.05472470504472404
-0.018271443101979066 -0.03462183962372489 0.05439356848298915
-0.018242548417207023 -0.035905684464909826 0.05394239313005328
-0.01822514139525318 -0.036969083589910634 0.05332501563633685
-0.018212463771902068 -0.037941473777281465 0.0526395150664038
-0.018205728547349375 -0.03880049042901301 0.05186725427315242
-0.01820387960415249 -0.03956677567348982 0.05102306557335595
-0.018207056225820372 -0.040238296129969264 0.05010417177577592
-0.018217922009188557 -0.04076561700634601 0.049070035270982415
-0.018235315236988354 -0.041171443310866196 0.047936972751013496
-0.018259845634768616 -0.041445155941206124 0.04669487402063627
-0.01828922581961056 -0.041630312033933636 0.0453772345679071
-0.018326144326931654 -0.041677419134596716 0.04394265436154321
-0.017282371028559822 -0.06181316399754716 0.05891755770504936
-0.017277843244705087 -0.06259144098260377 0.05815909867951885
-0.017281687437706077 -0.06321442579576281 0.0572731220604184
-0.017275580242558174 -0.06402147600400415 0.056539343506722184
-0.01718676901010141 -0.06635187737751419 0.05707805697160245
-0.017078146860353086 -0.06903936795637644 0.057930895644292324
-0.016993909823587314 -0.07127078862257774 0.05841678128936012
-0.01692126514277252 -0.07328324615674864 0.058730788951566526
-0.016873763188708875 -0.07483064634697167 0.05866026708282862
-0.016793865132085622 -0.0769646284051943 0.059100269436330566
-0.01674149990509066 -0.07859152840104983 0.059116585212049266
-0.01670489441938431 -0.07992827583897455 0.058890264049247965
-0.01669472139543878 -0.08078355281740002 0.058250818429816276
-0.016696675250166323 -0.08141895643080427 0.057420621926071835
-0.016715079849453064 -0.08175801704863711 0.05632936571367719
-0.016740176919572813 -0.08197820356803337 0.055129898874268835
-0.01676876784238721 -0.08213771587150881 0.05387228947791123
-0.016801816835602307 -0.08221971268031458 0.05254060682556355
-0.016836902080553457 -0.08226799176150762 0.05117307911077695
-0.016874700024724697 -0.08227074245748722 0.04975852495701
-0.016916638008184465 -0.08220291010074787 0.04827351022969484
-0.016958826105665296 -0.08213400980258312 0.04678042962477574
-0.017007015750617437 -0.08196225922485467 0.04518583920951624
-0.01706626427468288 -0.08159905944537088 0.043406499603804605
-0.017136800588886326 -0.08104170949515488 0.04143708276111435
-0.017244768571990404 -0.07983191903467224 0.03884761415928828
-0.02090138344339468 0.06359205599695911 0.021218435990001727
-0.020830034915621354 0.06117488360043244 0.021179325988849695
-0.020761210476328788 0.058817543745572576 0.02111099595615412
-0.02069297001823224 0.05647850574407581 0.02104121928119901
-0.020625241602556483 0.054156169686276734 0.02097095433749324
-0.020557761632176978 0.051844893762331645 0.020903975636035743
-0.020490849906293438 0.049551397178070056 0.020835554322835848
-0.020424308686022616 0.04727144097326452 0.020768513854898696
-0.020358198233837298 0.04500624452735974 0.02070190738700639
-0.020292577213378276 0.042756983343487265 0.020634799460110986
-0.020227315439001 0.040520868522693876 0.020569051236028035
-0.020162534118534876 0.038300386678011444 0.020502798857784277
-0.02009816641914935 0.03609408234765421 0.020436969493130286
-0.020034269635766086 0.03390309469971642 0.020370638891936077
-0.020009313257288205 0.03252628815617775 0.019723750432371512
-0.020068993756148998 0.032905711620518974 0.017799062451117786
-0.020112846304227553 0.03295266568115551 0.016108525183429923
-0.01754466652540327 -0.020914392503986023 0.05419394812259681
-0.017443101590608388 -0.023758091892038036 0.05484993766945334
-0.017379913138710564 -0.02580431586278903 0.054927919349579524
-0.01732294830940169 -0.02771747377807554 0.05491661770266831
-0.017263899561821297 -0.02966840272109983 0.054943297527966395
-0.01721799902171336 -0.031345719594107924 0.05477240807127065
-0.01717868870459247 -0.0328847800856063 0.05450382045572061
-0.0171465529442617 -0.03427454651797246 0.05412741688658873
-0.017118828858925156 -0.03557201772916041 0.05368530478253375
-0.017102880088070118 -0.03662862120885407 0.053061277773135906
-0.017089099663019653 -0.037640034069889194 0.05240474916159332
-0.0170828634120911 -0.03849811632585731 0.051630494588763176
-0.017082106463065894 -0.03924539332541782 0.050770071008373
-0.017084600196353845 -0.03992732487119394 0.049858059717450554
-0.017095474250992965 -0.04044153467417638 0.048812172313768776
-0.017110515706482293 -0.04087334337762061 0.04769851360992061
-0.017131089843703123 -0.04119604452017339 0.04649453672987386
-0.017156472971839677 -0.04142475856468919 0.045211043900022896
-0.017193290618477682 -0.04142846873128386 0.043740303078695864
-0.017234072679355894 -0.04135673983790755 0.04220157817270237
-0.01730853683721016 -0.0406222019254483 0.04011131731788509
-0.016240284899357933 -0.06245045727162829 0.05664218110776692
-0.016240486122851068 -0.0631424307119901 0.0558095050672085
-0.01624350507175159 -0.06377904297538639 0.05493058568831671
-0.016253536035601424 -0.06427840318598949 0.053935972726491144
-0.016112397880579676 -0.06773668319117637 0.055435597619623245
-0.01596559566463305 -0.0712934579299816 0.05704342094440734
-0.015892961907878315 -0.07339268763528684 0.057434406581568065
-0.015817167667378167 -0.07554712994616097 0.05788546349382956
-0.015756702274946032 -0.07739775067728033 0.05808810606893361
-0.01571736434677903 -0.07883429623218735 0.057942790675220734
-0.015701022050669398 -0.07982340694445622 0.05741487117725341
-0.015703354583584395 -0.08045129195596135 0.05657369010318508
-0.015715216068412922 -0.08089618214746708 0.05557108869189481
-0.015739824477897648 -0.0810975746969611 0.05435101071661408
-0.015768948050866365 -0.08121465896622626 0.053051584151098896
-0.015798522352334067 -0.0813256319307562 0.05174148980307991
-0.015833982296286672 -0.08132699655346431 0.050327616883394266
-0.015871023742072297 -0.08130133465012995 0.048882967195147176
-0.015910749294556815 -0.08122793537958656 0.04738831003388766
-0.015953275687679163 -0.0811049346025951 0.04584121788665435
-0.016010567112957626 -0.08070678158054362 0.04403399944545666
-0.016064017851129035 -0.08038589493602571 0.042287659753456386
-0.019379155674003806 0.058863738487587414 0.021079601127162784
-0.019315268302143463 0.05652014093430702 0.021012766007886707
-0.019251982562253845 0.054196073196434824 0.020943533211713494
-0.019189110174658446 0.05188718516147661 0.020874752611150182
-0.01912664710280938 0.04959332859365717 0.020806419790328545
-0.01906452994256831 0.04731301591997178 0.020739467464479133
-0.019002873984986242 0.04504879661536848 0.020672014362839997
-0.018941556884865818 0.04279785674384756 0.020605927593189632
-0.01888063421918662 0.040561396490697676 0.02054026593980718
-0.018820160100320713 0.03834057304333449 0.02047409944077644
-0.018760014601353677 0.03613264509250802 0.020409278565842348
-0.01870030947484411 0.033940059129861255 0.02034395030551317
-0.018723721728001658 0.03360241441110717 0.018942529981080425
-0.018764561106104145 0.03364959355320418 0.01725608715144572
-0.018805579027834814 0.03369697895541651 0.015562271447003784
-0.01638612041660252 -0.020668970476740545 0.054012850922125044
-0.0162937586962274 -0.023459506405797914 0.05462841232466986
-0.016228224133409026 -0.025650784115167413 0.05481339271994373
-0.01617676519888793 -0.02752672239635895 0.054773554939935964
-0.016131330212906043 -0.029265831542059917 0.054639734181313904
-0.016086911245733845 -0.030978534125468693 0.05449402871629727
-0.016046566071640185 -0.03259819458177926 0.05428537257715699
-0.016016733318902934 -0.033985063234288626 0.053905568434063966
-0.015991901549211627 -0.035260440464070064 0.05344523624820163
-0.015975361952147864 -0.03635359561391799 0.05284823026254487
-0.01596106361347359 -0.03739669911961735 0.05221523614001178
-0.01595610894387129 -0.038236588105674485 0.05142571733362411
-0.01595340391056554 -0.03902751441348423 0.05059855511500083
-0.01595719121439463 -0.0396784996112719 0.04966113188198451
-0.015964271216798335 -0.04025913624086075 0.048667043145229905
-0.015979410154411258 -0.04066776252460269 0.04753406327575893
-0.015996376461613365 -0.041038711976122466 0.046368008706817954
-0.01602311071497071 -0.041202840777069316 0.04503162262595978
-0.016058488155974895 -0.04118543708468625 0.04354276266579793
-0.01609385278187884 -0.04117155419555951 0.04205025361162479
-0.016155274383879887 -0.040608636970945355 0.04010017367597685
-0.01624158209032852 -0.039525037555752984 0.03770869667939247
-0.014896577496694634 -0.07275853729104093 0.05549562038178507
-0.01478824471646371 -0.075693854912534 0.056620143297312076
-0.014734383109662632 -0.07748970905703467 0.05677827120921625
-0.014707033365867064 -0.07873208385301367 0.05646471499197214
-0.014704098957877281 -0.07946791217283261 0.05571300372483029
-0.014715029380733666 -0.07991787929769262 0.054710338482868714
-0.014737471649403585 -0.08013225439477262 0.05349721568851917
-0.014765077387412985 -0.08024280582489834 0.05218749327500827
-0.014796436684092897 -0.08027909234575531 0.050806107179653226
-0.01483019435977398 -0.08026929646670578 0.04937729804690072
-0.014867647097073621 -0.08018733677826084 0.047876817382848214
-0.014909576612541674 -0.08001783556613323 0.04628963478768311
-0.014955874350176115 -0.07976361064081411 0.0446170243490559
-0.015017193480204995 -0.07920973963078803 0.04266053616316928
-0.01799664078212552 0.05890574209052157 0.021051054676341274
-0.017937418828913716 0.056564560499587024 0.020982409907090604
-0.017878641640386973 0.05424011311048138 0.020913269607894747
-0.017820136575271848 0.0519281201547212 0.020846466852096013
-0.01776206870422592 0.04963256211673256 0.02077915979117484
-0.017704488410265964 0.04735459890139132 0.02071041546059743
-0.017647225402584555 0.045090027019506984 0.02064304982725601
-0.017590277144469785 0.04283873799238569 0.020577050182527257
-0.01753374937914671 0.040603239948718506 0.02051054630683863
-0.017477476202312773 0.0383794703740824 0.02044632059821
-0.0174216699521238 0.03617250071794664 0.020380659253855626
-0.01737923759273812 0.03429218684805713 0.02008971154132444
-0.017429956648273893 0.03464823743393991 0.018183308346884974
-0.017468016040742048 0.03469653743548612 0.016491900466376164
-0.015385326718862946 -0.015868272290257 0.05193835746633668
-0.015228207219912209 -0.02037071875446822 0.05379277062800625
-0.015144603300541268 -0.023110528781667194 0.054369500247325675
-0.015081549172289927 -0.025354721185397333 0.05459254530543883
-0.015030305246952548 -0.027313176411721707 0.054613396317452156
-0.014982846105152724 -0.029177180088106103 0.05457288555068912
-0.014949562614886027 -0.030702409615944226 0.054284686655080516
-0.014920070703871748 -0.03213517816674616 0.05393244141960213
-0.014894131108819618 -0.03348166327971347 0.05351978276968172
-0.014868787544447138 -0.03481162483418676 0.053099426323911514
-0.014851991477275499 -0.035939329818428345 0.05252732087055684
-0.014834768348878799 -0.03707533290424597 0.05196495116269456
-0.014829036179544945 -0.03794223170421679 0.05119523552985933
-0.014826907110397091 -0.038724895634730805 0.05036033137077317
-0.01483085605084445 -0.03936651137377245 0.04941421495594228
-0.014835969567885889 -0.039981590020492286 0.04844620762893209
-0.014851719631964818 -0.040351759614052074 0.047281283002337415
-0.01486882646933926 -0.0406922492890201 0.04608938079085739
-0.014887221306645533 -0.04100484029495327 0.044871538573449166
-0.014913489233400619 -0.04113876415638945 0.043504826085702386
-0.014943544824883095 -0.04118864282806234 0.04206421759814194
-0.014993406242972785 -0.04078941470418951 0.04024868300741763
-0.015085434605124494 -0.039434718404347535 0.03763410453373439
-0.013754420914828059 -0.07655093377473277 0.05456570519903736
-0.013718807217810217 -0.07802279510280324 0.05444818966352727
-0.013725603404179476 -0.07855036595343717 0.05350714522100164
-0.013745067738751386 -0.07879822066175401 0.05231730538726481
-0.01376598850298044 -0.07901583659063188 0.05109657441547266
-0.013797925065534764 -0.07899279451277613 0.049656431946375645
-0.013831660431572005 -0.07893336398147405 0.04817699389556973
-0.013884813768219715 -0.07845132583344416 0.04630887265837069
-0.016613810388513436 0.05894635316455876 0.021023454614755355
-0.016559238539554873 0.056607600515799605 0.020952996582980443
-0.01650492010753033 0.05428140858829883 0.020884891941697403
-0.01645100848537739 0.05197179264193397 0.020816289506195074
-0.016397396626684754 0.04967586253936568 0.020749074053473815
-0.01634418401292916 0.047396189919857834 0.020681357841622505
-0.016291214408669593 0.04512860458848833 0.02061594891973767
-0.01623873791746767 0.042879627091360006 0.020548167226528635
-0.016186498464660984 0.040642475699387726 0.020482678817766498
-0.01613464369180627 0.038420968776574194 0.020416684179272948
-0.016083169436429488 0.036214936003563736 0.020350187553438037
-0.01611228127855338 0.036110724896458724 0.01877671389256036
-0.016147613512286267 0.03616487447074462 0.017082296393213126
-0.016183101044979505 0.036219262053535095 0.015380431267468964
-0.016218694731082596 0.03627259215029044 0.013672021225838216
-0.014063744614832336 -0.020191726587142467 0.05366069209873614
-0.01401374891389692 -0.022232220825667226 0.05371786953603763
-0.01393308380006152 -0.025055313438019533 0.05436920283246366
-0.013884856831943227 -0.027038105341126495 0.054407094130002887
-0.013842186619654938 -0.02887356249942613 0.05434393927703374
-0.013806609786651727 -0.030523346071461344 0.054148930754398694
-0.01377324128159099 -0.03211305534698328 0.05391557844858469
-0.013748681085911613 -0.03347524701304888 0.053514865598602246
-0.013728233137746466 -0.03473047784923089 0.053036903027360416
-0.013713331588074557 -0.0358431004130908 0.05245277713488167
-0.013701755883377239 -0.03687010459641005 0.05180511618342587
-0.013695635477349711 -0.037758341800757655 0.05105124927226984
-0.01369348926218881 -0.038545947735562025 0.05021946225902374
-0.013694490745724146 -0.039254308180497355 0.049325413955630004
-0.013700431121734052 -0.03983906120567432 0.04833280156501285
-0.013709172119580235 -0.04035444764897905 0.04728343324267109
-0.013722232719175814 -0.040763031243309655 0.046146304174371655
-0.013739277551775054 -0.04107385292083021 0.04492733551246014
-0.013766586927843551 -0.04113158257464422 0.04349898876927433
-0.013798288827407744 -0.0410833856875078 0.04197820666126395
-0.013843977587767505 -0.040692722367161704 0.0401692500259892
-0.013897959756613046 -0.04010232118430962 0.03818545962321174
-0.014990159498110436 0.047625755890329746 0.02052097127871666
-0.014935098244828814 0.045171181009832084 0.020586038801299167
-0.014886893016068024 0.04291920466393695 0.020520210697381525
-0.014838997965111664 0.04068171871868276 0.02045480616609785
-0.014791592203105509 0.03846377256540984 0.02038611550814695
-0.014821836587928666 0.0384594680829804 0.018738446095661165
-0.01485468382688708 0.038525492987156906 0.01703323383274863
-0.014887676977250072 0.03859181118192484 0.015320446810900334
-0.014920863336859498 0.03865973378347398 0.013599078863705927
-0.014954151448845406 0.03872664758159494 0.011870982610642344
-0.012901178830396482 -0.019926805583137586 0.05346520658054554
-0.012853460425455645 -0.02202090453239347 0.05356109060041253
-0.012782966022166845 -0.02474778070370598 0.05413979954546139
-0.012738513286599558 -0.02673805729905182 0.05418205931523323
-0.012700037787171254 -0.028556310311721567 0.05410471167991143
-0.012673346536610838 -0.03004184958923939 0.053783887223020244
-0.012645402941567525 -0.03155907679794884 0.053493312014343264
-0.012621492359149054 -0.03296118135003279 0.05312090616030596
-0.012601900180715157 -0.034240971513163854 0.052659741142292216
-0.012581018290128868 -0.03555409177309671 0.05222889771266148
-0.012570488197504946 -0.03657947590780902 0.05157877006720396
-0.012562339491962792 -0.03753813749232637 0.0508788287441187
-0.012559187989984292 -0.038358707782196355 0.05007206558078875
-0.012560074190223218 -0.03906833847569602 0.04917823190731119
-0.012565656842898853 -0.03964973621963086 0.04818216113840035
-0.012576738313642751 -0.04008184555657163 0.047065370594659484
-0.012589125301408158 -0.040479727657806386 0.04591846928608073
-0.01260619730452378 -0.04075185475450743 0.044666998917240575
-0.012623183050592436 -0.04102831398544948 0.0434150502368465
-0.012649130511627452 -0.041064486518416043 0.04196276319366421
-0.012679599024090448 -0.04098173320994353 0.040406673110516544
-0.01272859445045127 -0.040403847718353536 0.03843448223687884
-0.012825333851233365 -0.03854934312187247 0.03539078394708245
-0.014153634596775825 0.061525709376106796 0.0056502039357932965
-0.014104880762008878 0.059087768282615694 0.005657322578062451
-0.014080969929545063 0.05743318873266473 0.005113899376186171
-0.014068410661272195 0.05613603253825272 0.0043182966641924225
-0.0140931879561935 0.05600358588750609 0.0026802622312887547
-0.01187827128347261 -0.014521728783685794 0.050950125162599835
-0.011739184660068453 -0.019591203892717568 0.05321756570131886
-0.011693720816395825 -0.021750367615930244 0.05336037493787038
-0.011631118093889234 -0.024432082374676756 0.05390430515315847
-0.011591434901947698 -0.026400607686498823 0.05392897347427961
-0.011560366050772155 -0.02809955666810765 0.0537602914335793
-0.01152906779734851 -0.02980153980514838 0.05360169787076463
-0.011496607340162796 -0.03153503151815701 0.05347498366106007
-0.011476314241574666 -0.032893138118956666 0.05306876053957471
-0.011457444554478556 -0.03420530074193184 0.05263225701322499
-0.011443790048134896 -0.03535659882613945 0.052075910567162154
-0.011434745012784247 -0.03636640075083364 0.051412823840501776
-0.011429689623749406 -0.03725434615890333 0.050656619415236304
-0.011424817949000726 -0.038136095792431546 0.049896823773488475
-0.011425295966488296 -0.03885606942510639 0.049010235761412946
-0.01142867310357675 -0.039488960177887555 0.048054236282714824
-0.01143429612926408 -0.040054920519583814 0.0470438324442678
-0.011445019120550305 -0.040468960050152325 0.04590980989448612
-0.011458345997639735 -0.040806610294491175 0.0447112689545876
-0.011472758263196126 -0.04111362730022183 0.04348439440523677
-0.011499996503976 -0.04104108465248629 0.041943640344585253
-0.011523472769617439 -0.041083673611504556 0.04049041738925574
-0.011567068693809206 -0.04053355877597009 0.03854160709304322
-0.011640445580285689 -0.039109179960157 0.03585559554228446
-0.012734929521354655 0.061409091631073054 0.0057330325724298525
-0.012698492163606459 0.059230541571905215 0.0055553598816612815
-0.01268006533430671 0.057683166042342804 0.004934397021460923
-0.012673648995826752 0.05655499867056968 0.00401580008067165
-0.01067109353156071 -0.01518874642501794 0.0514396514030146
-0.010581528770259465 -0.019031792993738084 0.052804775745764976
-0.010533624150859571 -0.021431968149287883 0.053124149284323074
-0.010478187683731271 -0.024083310168691585 0.053644139383662026
-0.010441737920529862 -0.026077684435092285 0.05368678234527707
-0.010418029444192331 -0.02763220888048501 0.053407882553242414
-0.010380297087687618 -0.029660741527127388 0.05349495254132092
-0.010355530010028596 -0.031243452092874824 0.053252729199354476
-0.01033470925459173 -0.03268884962201457 0.05291220197654306
-0.010318573126687656 -0.03397280478997283 0.05245312018689474
-0.01030507927349389 -0.035165262746967796 0.05192769281541709
-0.010294476667757938 -0.03625840312185907 0.05132871361725705
-0.010288631646774576 -0.03719011213958656 0.050606324016318927
-0.010284756585507909 -0.03805491061583122 0.04983291420110442
-0.010285267711244835 -0.03877234904445226 0.04894397692036212
-0.010288227858579796 -0.03940806616771275 0.047989871253788674
-0.010293668205206594 -0.039961547649149 0.04696914066475999
-0.010302406331347047 -0.04040613551110006 0.04585928592454952
-0.01031421553935959 -0.04075005919424041 0.04466554720075483
-0.010327679095455946 -0.04104088914863713 0.04342527155149062
-0.010350242040718412 -0.0410329832603073 0.0419370202870038
-0.010372520719524875 -0.041037672636203115 0.04045262748026063
-0.010407716633823836 -0.04062058244336181 0.03861347758753714
-0.010467142476259917 -0.039413114007700534 0.03610794061823158
-0.011319680730708947 0.06139901642651063 0.005740188562776749
-0.011292508181662952 0.05942486129427327 0.0054165848842148145
-0.011278443048642922 0.05796757581190842 0.004730169592140843
-0.011281100347903127 0.05716505803861477 0.00357533279622102
-0.009491572626244038 -0.01495001788846495 0.051264447816577075
-0.009425638268625712 -0.018264211500451988 0.052238376465601644
-0.009371505954005568 -0.02111203661337302 0.05288678696409416
-0.009322291264886219 -0.02376164836208783 0.05340419654992534
-0.009289315005547782 -0.025778862830029337 0.05346266735329264
-0.009269631162243535 -0.02728065368932514 0.05314278838873704
-0.00923487810679994 -0.029356383343551173 0.05326420529759468
-0.009212970731710573 -0.030935612545741342 0.05301808056880175
-0.009194334277095236 -0.03238658128742783 0.05268055557049861
-0.009179267170369479 -0.033698721141557586 0.0522419402738149
-0.009166869124320486 -0.034907081214965385 0.051727693492857774
-0.009157430598006933 -0.036001297922452435 0.051128476112741295
-0.009150693839907626 -0.0369918314296907 0.05045106972104202
-0.009147652364117239 -0.03784184341042235 0.04966518611875037
-0.009147580542754033 -0.038579547363899735 0.04879138783982695
-0.009148657982909482 -0.039274057861289846 0.047883244712458695
-0.00915440861933538 -0.03979352808704917 0.04683473674179056
-0.009161342945409564 -0.04026963713331949 0.04574951289573914
-0.009170909853866734 -0.0406485794279427 0.04458350047004411
-0.009183729029507034 -0.0409079049047259 0.04331717961030146
-0.00920152302892938 -0.04098436684549378 0.04189729335385961
-0.009220237311111917 -0.041029553532191454 0.040445957617291195
-0.009250887426441179 -0.040635988275599055 0.03862620084793472
-0.009297864886651613 -0.03964436597189985 0.036299940477873605
-0.009962116253625235 0.06488912620646764 0.005001251044957189
-0.009905971799364643 0.06145515552703157 0.005700315341451767
-0.009885256165878408 0.05961792115281739 0.0052787096286824875
-0.009874882979820122 0.058246653760612443 0.004529770807912059
-0.009884681081075573 0.057776813079787104 0.003133641223484973
-0.008313976185005616 -0.014557791489292593 0.05097659169002122
-0.008243943188009632 -0.01841857635822758 0.05235228247439855
-0.00820788013223858 -0.02076723513387091 0.05263097323520072
-0.008164953375813926 -0.023411570144401206 0.05314305656421142
-0.008136107919869701 -0.025429129002833173 0.053200368401172926
-0.008118743092475534 -0.026937855123519094 0.05288429725653049
-0.008088168694644314 -0.02902154491354214 0.05301034964662987
-0.008068708016871802 -0.030614217954087142 0.05277309969645777
-0.008051968565863318 -0.032084714843155615 0.052449217157175654
-0.008038402972448419 -0.033414099296722066 0.05202264073952845
-0.008026968147467145 -0.0346485161505532 0.05152739706840448
-0.008018865366270831 -0.03573652685241796 0.05092226830965518
-0.008012835745779712 -0.03673345416213136 0.05024875966974374
-0.00800943626867764 -0.03761584935405021 0.049487281923564774
-0.008008429570129826 -0.03839465152708982 0.04864505568311156
-0.008009771891268584 -0.0390723989065066 0.04772279050293449
-0.00801399054580555 -0.03962714349739144 0.046701640682664025
-0.008019706452507033 -0.04011864391199288 0.04562808300401178
-0.008028211320173478 -0.04049220082625493 0.044457067847170795
-0.008039227030805519 -0.04076042313204781 0.04319730382178738
-0.008053834501092276 -0.04087808285767869 0.04181044332811373
-0.008069410554005894 -0.04095736677160611 0.04038665602432928
-0.008095019270219614 -0.040615144759798494 0.03860898675167246
-0.008131500309105007 -0.03981874140241198 0.036444717878140354
-0.008526098243101113 0.06421463059347976 0.005477696542654287
-0.00849259343152157 0.06154731197118751 0.005634860529025898
-0.008477872079617808 0.05986843483233828 0.0050998032633781665
-0.008470284201949244 0.058564605995462926 0.004301457386508667
-0.008484347575594376 0.05838884224680696 0.0026917517299006044
-0.0071435873365057025 -0.013662153454289727 0.050319280259439214
-0.007071574274527809 -0.018143184630170783 0.05214907059670393
-0.007042488998601682 -0.020398397263343138 0.052357326523611525
-0.007005619868164384 -0.02304734152145732 0.052871361118488724
-0.00698088235011033 -0.02506631823945671 0.05292826179994892
-0.006965338725799341 -0.02660954795181464 0.05263673352380055
-0.006939157315797362 -0.02869263747975359 0.05276099054316824
-0.006922427481551513 -0.030288510296049176 0.052524831218184465
-0.006908034670013424 -0.031761965424019545 0.052201874864116704
-0.0068960772294603566 -0.03310876368351212 0.051787381362945084
-0.006886041770358265 -0.03435568265832628 0.05130055473923467
-0.006878832140468099 -0.035457671631200005 0.05070509155186609
-0.006873511412016551 -0.036462878285191236 0.050036898076574465
-0.006869890814435356 -0.03738140720580929 0.04930272732788238
-0.006868342867922668 -0.03819510231987572 0.04848712640592351
-0.006869584769788816 -0.03886869949970595 0.04756071276463686
-0.00687244825413229 -0.039461498198116285 0.046569136004245726
-0.006878056064221072 -0.03991801277275797 0.04546673392290479
-0.006884649262155427 -0.040326679471497595 0.044323243277839375
-0.0068937922281609 -0.04061011279880322 0.043075128929308815
-0.006906269342497104 -0.04073025638554917 0.04168964683586407
-0.006919796185073573 -0.040801158650124736 0.04025833068652068
-0.006939212422130203 -0.04058432795697153 0.03858353598725078
-0.0069691903485181415 -0.0398515881413361 0.036471989297369
-0.007101732690167939 0.06400381298025792 0.0056266124150790575
-0.007079546447974681 0.06169714772544521 0.00552843854975521
-0.007068779696270758 0.06011206264887059 0.004925814492680369
-0.007064573542226565 0.05894017936950541 0.004031767689073484
-0.005963243226149711 -0.013025945907652103 0.04985236563959938
-0.005899407831250015 -0.0177450997426557 0.05185532329338216
-0.005874501140733336 -0.02004247333734338 0.05209326087388211
-0.005844029337987142 -0.022676590543343145 0.05259480033796393
-0.005823294713621012 -0.02470372567934037 0.05265631885028521
-0.00580979008472368 -0.02628158357652388 0.05238942828058002
-0.0057880548300469105 -0.028360299246864118 0.05250903040093374
-0.005774132953865805 -0.02995566765685037 0.05227112414836571
-0.005762025132227654 -0.031436767120027964 0.05195265584329406
-0.0057517544070477995 -0.03280289426505689 0.05155171069241571
-0.005743346708789006 -0.03405318205963043 0.051066223823526824
-0.00573692145193524 -0.03518110868055774 0.050489700049843156
-0.005732360117106623 -0.036194609533927724 0.049826842968621166
-0.005729172998569733 -0.03712396942068574 0.04910007039651004
-0.005727956214299163 -0.037933804407236704 0.04828032733590981
-0.005728361751690683 -0.03864579614623065 0.04738335500028362
-0.0057305105554773415 -0.03925331494074635 0.04640260392823392
-0.005734466763057063 -0.039753193812736454 0.04533418526744737
-0.005740162448373601 -0.04015018719537633 0.04418054868186483
-0.0057475777272950205 -0.04044615112247535 0.042941857984167775
-0.005756953459255669 -0.040627423678401775 0.04160561702622978
-0.005769359907586873 -0.040631244631391505 0.04011874592200537
-0.005784146880034187 -0.040497285857624576 0.03851165027030329
-0.005808075525842954 -0.03982695367661865 0.03645153622236713
-0.005862818726938757 -0.03734592390628516 0.03286761728210247
-0.005680573609514949 0.06393988003899875 0.005671772919359441
-0.00566587726860771 0.06187304537579763 0.005403505911398598
-0.005658722474594251 0.06040189850761052 0.0047188258758464885
-0.0056595287777197875 0.05955561275543625 0.0035898406113983317
-0.004725204665437315 -0.017305608614485934 0.051531022276733285
-0.004704180227128173 -0.019688784035908402 0.0518308531278352
-0.0046800436139960945 -0.02230507507858126 0.05231766929050391
-0.0046632599888886414 -0.024348054396447216 0.05238956683047091
-0.0046523110022726084 -0.025937806510740347 0.052130199299408264
-0.004634889332524667 -0.028019805210789894 0.05225088698778102
-0.004623803860913259 -0.029611911245354783 0.052009098128797115
-0.004613989116625258 -0.03110353341610922 0.051697278812182945
-0.004605574904023536 -0.03248540473447126 0.05130708679069623
-0.004598691339032546 -0.03374831798515582 0.05083006205047241
-0.004593312763650438 -0.03489495569966944 0.05026683968398882
-0.004589428689750085 -0.035926836629429526 0.0496171761099341
-0.00458686301874337 -0.03685797117916567 0.04889067461045227
-0.004585767761391863 -0.0376775473219878 0.04807751772913316
-0.004585719630250682 -0.038418082813052534 0.0472021700739188
-0.004587501157147201 -0.039021403106799135 0.04621709064706597
-0.004590441293214029 -0.039538602062484274 0.04516160895726756
-0.004594931055564111 -0.03994104288425726 0.044011454806306194
-0.004600386081229487 -0.04027301027443997 0.04280112604621139
-0.004607809212949987 -0.04046041448356452 0.041469145360369386
-0.004617975903417813 -0.04044667886583292 0.03996712471314251
-0.004628923067692294 -0.040378438245747994 0.038413497240317285
-0.004646892834843658 -0.03979501484684567 0.036425018606160986
-0.004684622548415366 -0.03776103967160832 0.03321410253763751
-0.0042605825425348605 0.06395586155982153 0.0056604840043602556
-0.004251351342719968 0.0620765103379638 0.0052589933810400225
-0.004246750727196233 0.06068492562304928 0.0045166997779720885
-0.0042505517184521485 0.060171325286673516 0.00314771308657108
-0.003548374275335272 -0.016844242419832234 0.051190579622983456
-0.0035316810274455958 -0.019323625536273648 0.051559936200322065
-0.003514286465452979 -0.021867927452983382 0.05199158009404414
-0.0035011070736451996 -0.02397249615136121 0.052107899669659674
-0.0034925989330814567 -0.02559336623674685 0.051870470218591536
-0.0034797107300745694 -0.027657902847863736 0.0519765129861951
-0.0034712509797267034 -0.029265611080908804 0.05174513315059953
-0.0034639487372962966 -0.030751979994398937 0.05142786227940871
-0.0034574795452928563 -0.03215068018024242 0.05104918339997433
-0.0034521615336627408 -0.03343003084706264 0.05058350215323931
-0.0034480023332785145 -0.03459000083386199 0.0500293361194552
-0.0034449211930469245 -0.035639477878038506 0.04939217348379715
-0.0034428490560761424 -0.03658610378208399 0.04867665858166176
-0.003441981128684255 -0.037410926341028494 0.04786650582187507
-0.0034417822903092254 -0.03816833671563269 0.04700345431301289
-0.003442930446803858 -0.03879098656753094 0.04603277349727908
-0.003445310562609876 -0.03929121857194845 0.044962661281292615
-0.0034481565351867577 -0.0397460928293914 0.04385383703443735
-0.003452270643517725 -0.04007621098006103 0.04264116410539465
-0.003457588991636705 -0.040288721853761866 0.04132884662275821
-0.0034651850191667033 -0.04027822481041299 0.03982873931190989
-0.0034728328985124935 -0.04026586526313797 0.03832052625702803
-0.0034863747371260954 -0.03967633284362637 0.03632648137626532
-0.0035127230489593424 -0.03783413750391518 0.033275115207407335
-0.0028543986238881006 0.06707797432538909 0.005196422624175079
-0.002840923963821693 0.06404014666391844 0.005600947281516333
-0.002835742652261605 0.06231339885854775 0.00509074151517569
-0.002833241752315657 0.06101006194758085 0.004284501048698763
-0.0028376580862771303 0.06079019459412405 0.002703318760951645
-0.002368898373678485 -0.01633101931773262 0.0508118716966785
-0.0023568417495811503 -0.01895478648744714 0.051286288614534215
-0.002345385562728483 -0.021478245686849362 0.051700897938742774
-0.0023365803663546406 -0.023586539636004877 0.05181843384831386
-0.002330678490940178 -0.02524348951836458 0.051606641725450986
-0.0023221929758505326 -0.027292425812693644 0.05169942886931733
-0.0023164924207940392 -0.028910183063003914 0.051474210527310604
-0.0023115349879069347 -0.030410917066360288 0.0511664852429316
-0.002307171203336753 -0.03181809766145216 0.050792930435537675
-0.0023035766334297703 -0.03310562845110204 0.050332205095213745
-0.0023006957053165423 -0.034282674836107585 0.04978998588070016
-0.002298511014728671 -0.03535255744280441 0.04916751406031511
-0.0022970367301658294 -0.036313809015800225 0.04846230612466973
-0.002296499449460658 -0.03713298528548825 0.04764653486526149
-0.002296270125281011 -0.037905532033013 0.04679434821279377
-0.002297000501150698 -0.03853400219877395 0.04582720393816886
-0.002298432419153775 -0.03905795487577185 0.04477506885083915
-0.0023003504782492315 -0.0395102323788728 0.04366314307075364
-0.0023030666391913694 -0.03984481850687194 0.04245308421812416
-0.0023064952259190924 -0.040075221734633126 0.041154384869635685
-0.002311290424494215 -0.04010506992587526 0.03968649216854253
-0.00231643715346168 -0.040085958192282445 0.038171945870417334
-0.0023251898982085675 -0.03953746206521069 0.03621118216115804
-0.002340598456521502 -0.03801351230911171 0.033424834226550515
-0.0014257741515142962 0.06662851711084661 0.0055121682433633135
-0.0014208915979369342 0.06417535983553074 0.0055054363462285205
-0.0014186724047740508 0.06256500763982265 0.004912034472668969
-0.0014176780978556844 0.06134144248934331 0.0040478429613133304
-0.0011864723535332964 -0.015704671230687584 0.05034968871189177
-0.0011795948708334298 -0.018592086055737256 0.05101719536690391
-0.0011739090036425918 -0.021103281435247423 0.05142119427721925
-0.001169622516872111 -0.023176634363109017 0.05151100655593294
-0.001166515338267659 -0.024882409237677483 0.05133436505955308
-0.0011623073155313016 -0.026921459666145287 0.051418183217151914
-0.0011594172527071064 -0.028552158829724894 0.051201308956261904
-0.0011568753225405957 -0.030072931342222275 0.05090746645289551
-0.0011546800944931875 -0.0314848840509071 0.05053619121844538
-0.0011529006953006054 -0.03276768462101293 0.05007041821775304
-0.001151509039955323 -0.03393064917511612 0.04951582285309469
-0.001150638687457901 -0.03493412151357572 0.04883987767377479
-0.0011494611090986293 -0.0360292186107275 0.04823827444974538
-0.0011491950502858696 -0.03684822322276521 0.04742116555728826
-0.0011490106954247276 -0.03764232649093935 0.046584923160277736
-0.0011494550609691724 -0.03824761048210917 0.04559811055318058
-0.0011499966234453727 -0.03882437436849895 0.044587221638503594
-0.0011510630852930952 -0.039245067717712634 0.04344875655468328
-0.0011523290414236895 -0.0396076792357174 0.04226033323201189
-0.0011540152246987377 -0.03984695318163922 0.040967855081734006
-0.0011563823522609353 -0.0398863367270893 0.03950680233322551
-0.0011588606358042687 -0.03989585128035672 0.03801494171078662
-0.001163136580910386 -0.039377438760859196 0.0360783207946338
-0.0011703054977638832 -0.03801166403535278 0.03342329152531115
0.0 0.06650089409316878 0.005601823960160235
0.0 0.06433685040445458 0.005391363766655333
0.0 0.06284876974741715 0.0047104902866244025
0.0 0.06196086276179147 0.003605478976434595
0.0 -0.010201100206709945 0.046288597227046424
0.0 -0.01817738974987204 0.0507095255491441
0.0 -0.02067296188417933 0.0511001984661662
0.0 -0.022765793099924492 0.05120287727463124
0.0 -0.024521557529469773 0.05106226075131609
0.0 -0.026535478813108526 0.05112555425964266
0.0 -0.02818869708594357 0.050924262679294674
0.0 -0.029724933301500833 0.05064077462242683
0.0 -0.03113986738389274 0.050270357812576494
0.0 -0.03240686142886723 0.049790907931199446
0.0 -0.032617409461162206 0.04849305145928423
0.0 -0.03249425647010151 0.046929457199214875
0.0 -0.032418962178556054 0.04539625384402862
0.0 -0.03650187490550699 0.0471470550250363
0.0 -0.03733959830932004 0.0463440510842788
0.0 -0.03796074218337897 0.04536863593580248
0.0 -0.03853785092035311 0.044356797312298635
0.0 -0.03897586493965416 0.04323110520758472
0.0 -0.03935569955019519 0.04205551969510507
0.0 -0.03959750359927916 0.040764017202711555
0.0 -0.03965732121854526 0.03931866555634972
0.0 -0.039661794312986554 0.037821640388412736
0.0 -0.03913391757212309 0.035876134256590364
0.0 -0.03796175315720435 0.03338163234294844
0.0014253415783196607 0.06649209517610333 0.005608005237102975
0.001422057025979127 0.06454215532802149 0.005246341909426078
0.0014205081647286559 0.06314159687832538 0.004502507599115746
0.0014216405823014161 0.06258346225209988 0.0031608445274718955
0.0011992351011897795 -0.011753477983205085 0.04743409860095821
0.001182314517325494 -0.017751864350754876 0.05039382145401028
0.0011768591770224429 -0.02019373589150658 0.05074272101524885
0.0011722459966472696 -0.022369495582953702 0.050905655744010514
0.0011688652786920742 -0.024160937981498765 0.050790331506129105
0.0011648328258378551 -0.026147708868079156 0.05083156891328516
0.0011618375113169417 -0.027812210131322013 0.05063728802270634
0.0011592142254539415 -0.029359359040477817 0.05036061307714257
0.0011569856094633553 -0.030782979981770764 0.049995378071920005
0.0011556513256135129 -0.031932035180223584 0.04942308561902403
0.0011573196620025235 -0.03216910039471588 0.048143901426830005
