# .PCD v0.7 - Point Cloud Data file format
VERSION 0.7
FIELDS x y z
SIZE 4 4 4
TYPE F F F
COUNT 1 1 1
WIDTH 777
HEIGHT 1
VIEWPOINT 0 0 0 1 0 0 0
POINTS 777
DATA ascii
0.0319778602712435 -0.11028401434313272 0.015758338603487965
0.03300734895195212 -0.11020514654732241 0.015049194110953845
0.03405566456050174 -0.11011998612943116 0.014358922442310518
0.03501953323643403 -0.1100611528490933 0.013596457992315403
0.07373105280488018 -0.0980370567908447 0.04639779929640925
0.0771268627851262 -0.09717825501768143 0.04798870305772779
0.07984885329211688 -0.09653013380789231 0.048999555241429404
0.08194733468199628 -0.09607806297388885 0.04946644273568562
0.08406436309983889 -0.09561801745713343 0.04996357903764431
0.08616121441971969 -0.09516235656903788 0.050455977203881064
0.08806884472557669 -0.09476542219713835 0.050788351636892104
0.08966817889019629 -0.09446595969313479 0.050848254585982966
0.09127816672114819 -0.09416169323654926 0.05092699803659695
0.09287713164501932 -0.09385960209318336 0.05100459755298831
0.09446586972592941 -0.09355944309895141 0.05108170074946672
0.09604515191908142 -0.0932609790168502 0.0511589462537988
0.09753562197491766 -0.09299006984573607 0.05116114112297493
0.09884581330734965 -0.09277676786086969 0.051000003443420705
0.10015198341097864 -0.09256379568155416 0.05084149296595292
0.10145282456228999 -0.09235158451860967 0.05068433735667455
0.10140392100409407 -0.09258211683784781 0.04922921699813998
0.10124952876314736 -0.09284848247662678 0.04766457413982794
0.10109424556296898 -0.09311638524534888 0.046090902116144694
0.10093740110731486 -0.0933860578335636 0.04450747219183471
0.10078031040228042 -0.09365707632434803 0.04291550013868972
0.10062230524811783 -0.09392967245547984 0.04131426097115032
0.1004633776367958 -0.0942038600427016 0.03970367353506277
0.10030351946650484 -0.09447965306354497 0.03808365572591904
0.100142722540281 -0.09475706565970561 0.036454124474905425
0.09998097856460586 -0.09503611213946021 0.034814995734704535
0.09981760020173369 -0.09531703549032447 0.033165493475117824
0.09965393444843723 -0.09559939469661141 0.03150690759310687
0.09948997992720704 -0.09588320051375068 0.029839169122949538
0.0993243628369666 -0.09616892902930739 0.028160789871518987
0.09915844439304011 -0.09645613155058595 0.026473093188887187
0.09899084083903775 -0.09674529004471362 0.024774564147986566
0.09882222937167401 -0.09703618744422905 0.023065820704340323
0.0986526008716338 -0.09732883948225822 0.0213467704409096
0.09848264476231405 -0.09762302238058793 0.01961806079685019
0.0983109569386163 -0.09791923020258754 0.017878121686184023
0.09813752031704703 -0.09821748363166258 0.016126837685554563
0.09796373026095062 -0.09851731540610244 0.0143656133511042
0.09778887588648033 -0.09881898339883907 0.012593602993822839
0.09761294738652065 -0.09912250452962851 0.010810707226356686
0.09743593483309376 -0.0994278959267429 0.009016825436520937
0.09725782817549322 -0.09973517493019211 0.007211855768374575
0.09707789772371117 -0.10004461083480212 0.0053948999626287075
0.09689756951254824 -0.10035571950247497 0.0035674368129208767
0.09671611626987425 -0.10066876911476269 0.001728572486882074
-0.02260798196309588 -0.11694907551584559 0.02852579269974831
-0.020384567276343524 -0.1165480245924519 0.028538107974632465
-0.018691328048388856 -0.11629880457937451 0.028174445420349303
-0.017002953650414487 -0.11604996313491954 0.02781406769872974
-0.015803346355879433 -0.11594217735839522 0.027099887007666412
-0.026156915089973254 -0.11919954309161243 0.01781719515785052
-0.025123707364386128 -0.11914645006775895 0.016938284677430415
-0.024000197086389286 -0.11906671888548204 0.01612857336651291
-0.02266581485816166 -0.11892483808777005 0.015480088552096871
-0.02098922678365478 -0.1186818360346254 0.015094996777476388
-0.01940311301218206 -0.11846444566016712 0.014647724038153176
-0.01868410209884619 -0.11850193150022573 0.013542018459027694
0.023515458886888663 -0.11023371619291414 0.018132926081351253
0.025079421970618465 -0.10999504885150371 0.017853282782870017
0.02654608121505131 -0.10978529860663355 0.01749765709159523
0.02800023230648102 -0.10957848427985828 0.01713745013231016
0.02922454635339833 -0.10944185267037447 0.01658529663700742
0.030372289985359124 -0.10932835432712464 0.015970843262747392
0.03145027870987904 -0.10923602562608249 0.015299001658547529
0.03243984305931924 -0.10917082145725984 0.014552494130616045
0.03337098683912082 -0.10912355923632545 0.013756515278058101
0.07168126292232879 -0.09738427462236247 0.04602259739232095
0.07506146224042676 -0.09654265627549008 0.04758068887628797
0.07808014734500507 -0.0958108462010379 0.04884073584965776
0.08018486477794257 -0.09536355301194627 0.04930145379590939
0.08231139772335411 -0.09490735812840177 0.04979526029012121
0.08442413732411891 -0.0944534651215052 0.05029022575937819
0.08643735443537737 -0.09402906913916856 0.0507080035002514
0.08804212747407097 -0.093732533574253 0.05076383984985511
0.08965772351238654 -0.09343120206972451 0.05083861212093893
0.0912678022168234 -0.09313025778446785 0.05091738942761115
0.09286685701604841 -0.09283146512935671 0.05099502251954474
0.09445636310478472 -0.09253436583726027 0.051072795192914966
0.095999370323265 -0.09225084757028397 0.05111583554886795
0.09731109497520807 -0.09204053129194753 0.0509486108930744
0.09862482226986924 -0.09182859836472432 0.05078973049905322
0.09993317305356686 -0.09161742572817773 0.05063221095805864
0.10123486513626706 -0.09140743458909259 0.050474784457374466
0.10213060485765468 -0.09132845860816123 0.049931506665614744
0.10197869746462157 -0.0915905374142825 0.04837292808615362
0.10182525886543725 -0.0918543392540181 0.04680473725304385
0.10167159295648714 -0.0921194492950342 0.045228133798340786
0.10151703745880886 -0.0923860940871044 0.043642403213565606
0.10136158462508765 -0.09265428699618002 0.04204746601170589
0.10120456063846212 -0.09292426113846977 0.040442577848230965
0.10104728721115752 -0.09319559228856927 0.03882897947200209
0.10088909264347884 -0.0934685126078868 0.037205930353079064
0.10072996881906476 -0.09374303609892287 0.03557334721900435
0.10056923217877467 -0.0940194017302411 0.033930458489148496
0.10040822272649258 -0.09429717556488848 0.032278547576098826
0.10024625907251133 -0.09457659559032765 0.030616846826103106
0.10008333270919123 -0.09485767648395642 0.028945268953208647
0.09992011999921557 -0.09514020290436113 0.02726443728322997
0.09975524473503872 -0.09542464889069083 0.025572845360892604
0.09959007052248275 -0.0957105678634092 0.023871832389453895
0.09942321115841796 -0.09599843973640998 0.02215986483079957
0.0992553450293619 -0.09628804851724908 0.020437567920212285
0.09908716037374288 -0.09657917276351952 0.01870559132744065
0.09891725572129123 -0.09687230141129902 0.01696235982199651
0.09874631656963279 -0.09716721483285232 0.015208514294644315
0.09857433344177607 -0.09746392937839589 0.013443957510900661
0.09840058911747362 -0.09776270465639667 0.011667821003268908
0.09822648653170668 -0.09806307280078434 0.009881538399128253
0.0980513108161647 -0.09836529234796734 0.00808424554411391
0.09787505201837504 -0.09866938046831825 0.006275840326404214
0.09769770006241024 -0.09897535454519259 0.004456219367576342
0.09751924474697621 -0.09928323217823856 0.002625278002916065
-0.023448167038144396 -0.11588918736929672 0.02791917282040063
-0.020725622295239166 -0.1153504857301264 0.02829051692506762
-0.01889816540862288 -0.1150658111199622 0.02802347037512498
-0.017228572316761392 -0.11482524531494204 0.0276484854399332
-0.015536584229296102 -0.11457724246317234 0.02729673114608938
-0.025803713750116697 -0.11777335453608265 0.018079240948801034
-0.024958058093011604 -0.11777478138270991 0.017061850377721344
-0.02404703599180108 -0.11775730493663732 0.016093444367863086
-0.022603249718594454 -0.11758531421369682 0.0155272665153659
-0.021337051929457118 -0.11746419029903453 0.014831295258223298
-0.01956927728272756 -0.1171965453527186 0.01452106640295342
-0.018194409171802317 -0.11704239079127465 0.01391729970493183
0.021838147332507052 -0.10927817533200733 0.01832438222842825
0.023430781483635532 -0.10903457283139396 0.018061496701821944
0.024983274227761587 -0.10880209934705687 0.017771748142303978
0.026333963443683717 -0.10863006281200054 0.017316826540864583
0.027700209353096028 -0.10845251953047355 0.016880328327439076
0.028895351349145337 -0.10832653202190239 0.016301684137125183
0.02993543354700684 -0.10824752402641045 0.01559249073285457
0.030885839658809866 -0.10819571881777383 0.01480757487582851
0.0318167783890374 -0.10814967793236846 0.014007167265299547
0.0696134436649869 -0.09672575076571689 0.045644095317867894
0.07297663318671277 -0.09590155050820325 0.047168311386925454
0.07629874305580181 -0.09508639450228605 0.04868077622142153
0.07841932665569107 -0.09464089736429157 0.04914388971075184
0.08054651130483231 -0.09419134076529347 0.04962638484233606
0.08267530541026119 -0.09373925514633998 0.0501239375302025
0.0847837621876576 -0.09329148850474726 0.050616736873296875
0.08641040196113176 -0.09299275175449997 0.05068340463055859
0.08802736060050087 -0.092695701146975 0.050750291957023574
0.08964796448732665 -0.09239615113835761 0.050829611866742896
0.09125743697605482 -0.09209874904419432 0.050907780135891256
0.09285726670577044 -0.09180303860957997 0.05098608520979803
0.09444617674415179 -0.09150943638146145 0.05106325287400981
0.09576687081529356 -0.09129973457810996 0.05089690002453823
0.0970882239568337 -0.09108885785774425 0.05073764816327114
0.09840415244102524 -0.0908787406303246 0.05057976318466284
0.09971336331835728 -0.09066980195628578 0.0504219730914261
0.10101722406262675 -0.09046161136849588 0.05026553763185143
0.102315110829515 -0.09025437466007807 0.05010981892202443
0.10270345078950949 -0.0903392960232004 0.04907699269666016
0.1025531445396764 -0.09059860998822683 0.04751551825820899
0.10240197291428865 -0.09085941693160754 0.04594505376189317
0.10224992841827973 -0.09112172978411243 0.04436552134431326
0.10209634325341327 -0.09138577639603736 0.042776187448638425
0.10194252790282227 -0.09165114170940872 0.041178276310536166
0.10178781665512565 -0.09191805264242575 0.03957105814270434
0.10163153455537433 -0.09218674128924426 0.037953779431135704
0.10147500554489186 -0.09245678553190817 0.03632769576162598
0.10131755679388582 -0.09272841651331483 0.03469205747267179
0.1011585060372504 -0.093001870692859 0.033046090461220756
0.1009991909438599 -0.0932767187132913 0.03139108254578027
0.10083893141304129 -0.09355319606315278 0.029726263560523825
0.1006777190217355 -0.09383131727378194 0.02805154600443649
0.10051554524641826 -0.09411109704983278 0.026366841332881197
0.10035308763371503 -0.09439232113691093 0.024672780224754276
0.10018896756827761 -0.09467546148732965 0.022967837747275344
0.10002385994754137 -0.09496030557071977 0.02125263616428613
0.09985844942505845 -0.09524663550984754 0.01952782200269293
0.0996913422739899 -0.09553493210389499 0.017791828955732558
0.09952391906579061 -0.09582474311146182 0.01604604731871967
0.09935477581955032 -0.09611655536903585 0.014288882480792076
0.09918459925277429 -0.09641015034994783 0.012520982868362007
0.09901337986739428 -0.09670554444062329 0.01074224980959304
0.09884110804857454 -0.09700275422893395 0.008952583419632565
0.09866706252356822 -0.09730203998531993 0.0071510962551866175
0.09849265387918243 -0.09760293326204593 0.005339251623032393
0.09831716321902134 -0.09790569325408435 0.0035161664667520687
0.09814058044265866 -0.09821033738689348 0.0016817358580347164
-0.02124369087375605 -0.11420076164554553 0.027914421761545682
-0.019208821125365594 -0.11386087518226168 0.027796716074879824
-0.017396474764663994 -0.11358270120019343 0.027525261297926984
-0.015655231668420366 -0.11332358310745368 0.027209181038322483
-0.014504085608586403 -0.11323147013365274 0.02646261796259236
-0.024618527003955115 -0.11635455549313428 0.017315122827649354
-0.02325960558039919 -0.11620896010109968 0.016684014143474923
-0.022082623055273476 -0.11611490406884532 0.015919851040374078
-0.021003859984775664 -0.11604866500409287 0.015083902705027408
-0.019603254753300603 -0.11588951012534299 0.014495167296853628
-0.01800731158121882 -0.1156733411407958 0.014060683881059688
-0.017545617812813996 -0.11578411408069153 0.012758464152927751
0.018589254795214283 -0.1085478679663208 0.018818673394439545
0.020247576841535497 -0.10828952968781765 0.018596120730457577
0.02176098855441877 -0.10807341316577981 0.018259638323167404
0.023318825142104094 -0.10784303101321006 0.017967056252507996
0.024723617781123253 -0.10765762256176303 0.01755155581726081
0.026081683119312693 -0.10748546945847563 0.017101757385176275
0.027298395803158404 -0.10735521670221289 0.016535971257368387
0.028379632284476763 -0.10726536460909633 0.015857374924415524
0.02939301484960899 -0.10719568318719302 0.01512271286441852
0.030361847302213085 -0.10713922695662012 0.014351362858811056
0.06752735611014521 -0.09606140913287492 0.04526224933966033
0.07089220119185352 -0.0952487225099071 0.04676919793398987
0.07435527409115278 -0.09440236296093778 0.04838767562677254
0.07664112708389847 -0.09391305923552372 0.04898519566428733
0.07876810793716033 -0.09347036686859396 0.04945562568291623
0.0809131425174967 -0.09302012444557582 0.04995579451373061
0.08303761109900148 -0.09257419882250427 0.05045116786395282
0.08476801988595761 -0.09224813852719377 0.05060244410050824
0.08638628243675034 -0.0919553662835472 0.05066139132551262
0.08801751519666468 -0.09165723535772591 0.050741259274822925
0.0896375076685289 -0.09136124843470578 0.05081996807274869
0.0912477620868205 -0.09106695130952105 0.05089881084756637
0.09284699066981517 -0.09077475841921814 0.05097650886517108
0.09421713345303961 -0.09055305558013546 0.05084869104907169
0.09554277623633584 -0.09034431962900505 0.050685879087024766
0.09686567581177502 -0.09013548723656535 0.05052699105524211
0.09818313990168864 -0.08992740772273874 0.05036946978128187
0.09949387359457018 -0.08972049607358405 0.050212041300949306
0.10079924653492578 -0.08951432598792952 0.05005596732904105
0.102097981413871 -0.08930930870424394 0.04989997836431226
0.10335189197413025 -0.0891176204146576 0.049706923563354766
0.10327727164092992 -0.08934936491392856 0.04822262901352681
0.10312791827916074 -0.08960611849383082 0.04665762085654851
0.10297835862505639 -0.08986414189792714 0.04508423820484703
0.10282793516095834 -0.09012365556493822 0.04350176818435475
0.10267664038154722 -0.09038467244319887 0.04191013183833564
0.10252446669430193 -0.09064720563148426 0.040309249292694915
0.10237074281370462 -0.09091148334273483 0.03869837130509496
0.1022167858741736 -0.09117709031804648 0.03707874720773807
0.10206192669758213 -0.0914442538355273 0.03544963159301018
0.10190548676306266 -0.09171320638776183 0.033810254788481764
0.10174879680403898 -0.09198352561178821 0.03216189814638759
0.10159050515742812 -0.0922556644113057 0.03050309792825756
0.10143195177630243 -0.09252919558622713 0.028835157336146833
0.1012724554013919 -0.09280435358366611 0.027157296692586097
0.10111200759494299 -0.09308115296016349 0.025469427234583508
0.10095059981823495 -0.09335960844644556 0.023771459136997464
0.10078822343006505 -0.09363973495003744 0.02206330149660085
0.10062555952634034 -0.09392131812607135 0.02034559771919503
0.10046122205899999 -0.09420483072017724 0.018616790345549916
0.10029658426889854 -0.09448982791140448 0.016878262528102816
0.10013024995901965 -0.09477678836436845 0.015128428720978748
0.09996290227518967 -0.09506549709321428 0.013367934238393553
0.0997952343643782 -0.09535573363015372 0.011597449690386452
0.09962583452574097 -0.09564798573214665 0.00981534628342079
0.09945539312087442 -0.09594203476580584 0.008022285493976433
0.0992839005139457 -0.0962378973550704 0.006218165952111221
0.09911063410529858 -0.09653583271153221 0.004402089131460285
0.0989370070588102 -0.0968353746162923 0.0025755358684375063
-0.021958209860160838 -0.11310257594828178 0.027395712181048082
-0.019403075892140242 -0.11262136507453002 0.02765492533569397
-0.017577541470485125 -0.11234276638699968 0.027392375865049667
-0.015908033386549336 -0.11210685712539051 0.027022638304410818
-0.014266569108149385 -0.11187786343407084 0.026638835298704644
-0.023989114904820474 -0.11485473052227912 0.017784631363097936
-0.023145435530239844 -0.11485611872126932 0.0167696412413465
-0.021681734598716085 -0.11468181591215251 0.016222145593048243
-0.0206541728219502 -0.1146306306840314 0.01534901590116411
-0.019712506906805483 -0.1146036730680671 0.014411890552954387
-0.01821131690522504 -0.1144170461697459 0.01390434228832671
-0.016838778955432065 -0.11426639549792435 0.01330307967271055
0.018643777090940172 -0.10729831431702354 0.018863941230003567
0.020180128332225378 -0.1070788716808503 0.01853982337416399
0.02169497133487408 -0.10686483121047993 0.018204243296008005
0.02311490580131731 -0.1066779845425111 0.017795040680149365
0.02443846472737865 -0.10651894650781701 0.01730974201017038
0.025653086856992524 -0.10639164019398689 0.016736378767171933
0.02678115262595948 -0.10628959792957116 0.016092690175777302
0.027804846529497385 -0.10621831441489873 0.015362177783631636
0.02867280204343503 -0.10619338776999224 0.014498951112606018
0.06165484716476283 -0.09652286609624687 0.04159649803319071
0.06882028813798824 -0.09458060570275177 0.046393866334557554
0.07226790572811376 -0.0937513150421379 0.04797959845186589
0.07485012937120084 -0.09317998267625065 0.04882535945759958
0.07698274758313778 -0.09274234054915895 0.04928893624070402
0.07913822898667383 -0.09229579026715758 0.049786434849917904
0.08127961515917526 -0.09185152200107122 0.050285061712759094
0.08311487651184685 -0.09149864640744536 0.050520953096750754
0.08474010899378565 -0.09120839878983686 0.05057710320387537
0.08637634972761554 -0.0909134630302948 0.050652325982736446
0.08800696582041845 -0.09061891628406311 0.05073158073195838
0.08962774729840944 -0.09032605731171157 0.05081096657807238
0.09123739542203968 -0.09003529840539204 0.05088920023568905
0.09265983956825341 -0.08980110776827055 0.050802100809996475
0.09398704501327126 -0.08959536659320924 0.050633150155932505
0.09531765517458601 -0.08938762303746148 0.050473891551559014
0.09664278096953571 -0.08918063140458553 0.05031600577451406
0.09796111659808665 -0.08897480446992957 0.05015821463582948
0.09927404351367813 -0.08876971812650135 0.050001783974610414
0.10058027368757988 -0.08856578141093388 0.04984544009529568
0.10186221509513699 -0.08836853150182879 0.049672126529192784
0.1029754079961192 -0.08822352443787672 0.04934118664813425
0.10399637569469339 -0.08810696238438029 0.04892483475852455
0.10385011739340938 -0.08835928771916408 0.04736651073932019
0.10370367011807768 -0.08861285587270655 0.04579987793851498
0.10355572651797113 -0.08886809133178239 0.04422357959700601
0.10340627258527207 -0.08912501034063242 0.04263752086526512
0.10325660986828133 -0.08938320898564689 0.04104292414888849
0.10310607747435335 -0.08964290800044483 0.039439061370160455
0.10295466780097573 -0.08990412050091011 0.037825851527316545
0.10280237315676066 -0.09016685975624927 0.03620321267169757
0.10264851873380693 -0.09043135433301136 0.03457037952321279
0.10249442838327055 -0.09069718879700568 0.03292862701566279
0.10233875772306261 -0.09096480846480767 0.03127649949140565
0.10218283973724657 -0.09123379315622698 0.02961529358915077
0.10202599691174202 -0.09150437335139412 0.027944234114025635
0.10186754215751465 -0.09177678487943326 0.026262520552515878
0.10170882238513324 -0.09205060029024296 0.02457148286624944
0.10154915270003723 -0.0923260544430252 0.022870324586549196
0.10138852454901676 -0.09260316209335209 0.02115895458549444
0.10122692927586535 -0.0928819381744791 0.019437280637823406
0.10106504917307196 -0.09316216946740608 0.01770595371771222
0.1009014957622974 -0.09344432654891059 0.015963397266602564
0.10073694864471722 -0.09372819794150644 0.014210253507699222
0.10057209732442296 -0.09401356679124338 0.01244718978062831
0.10040553797905005 -0.09430091258750227 0.010672586613467427
0.10023866105804619 -0.09458978488872774 0.00888787995432705
0.10007005232554705 -0.09488066926796135 0.007091420967286655
0.09990040337639128 -0.09517334823272298 0.0052838788848736384
0.0997297045545027 -0.0954678384417064 0.0034651508254562313
0.09955794608392499 -0.09576415676042875 0.0016351326300882985
-0.02333660825169359 -0.11218307942000637 0.02639505514458773
-0.019648844347706695 -0.11139485597006533 0.02747553364527655
-0.017692420238027973 -0.11108331611195323 0.02730806597116764
-0.016058690905749406 -0.11086012350065971 0.026911467914731757
-0.014389387023032607 -0.11062609938057463 0.026547714699724112
-0.013329150292136105 -0.1105609968254722 0.025736407917944126
-0.02300189335070446 -0.1134958091423958 0.016877297323117713
-0.022193985935606175 -0.11350712338579139 0.015835876579288977
-0.021194188112687917 -0.11346462095681893 0.014939606592188015
-0.02014037425173476 -0.11340674548451807 0.014085751450305883
-0.018469941179981852 -0.11317481013576615 0.013706142897051687
-0.016876045356221503 -0.1129635156896849 0.013274366112293767
-0.016341491938342056 -0.11305120398490251 0.012028184583522616
0.017004831396481346 -0.10631077767828329 0.019109871522747623
0.018548095087569827 -0.10609285192947224 0.018784500019076278
0.020070726684798423 -0.10587999463621127 0.018448508924262863
0.021536431522133248 -0.10568285001921425 0.01807121259139499
0.022771152636188507 -0.1055525194943484 0.01750506868817664
0.024010890364607573 -0.10542014380493542 0.016947152926454934
0.02514021953079526 -0.10531967747398345 0.016299159007365505
0.026218439525822257 -0.10523384207420172 0.015610441046837453
0.027177399418771175 -0.1051828790640554 0.014821611124606004
0.028013254430990064 -0.10516815906587622 0.01392773025869215
0.06673006508431134 -0.09390658458483354 0.04601521783841511
0.07016081321260248 -0.0930945876005989 0.04756713834256099
0.07304619485152503 -0.09244161092880844 0.04866436871554125
0.07519498203173353 -0.09200587606067197 0.04913037071971682
0.07735117082393717 -0.09156597278892964 0.049616507588954195
0.07950818670785165 -0.09112384691644405 0.0501170980362714
0.08145086572506821 -0.09074422728605341 0.050438926388455874
0.08308671896202752 -0.09045542966468557 0.05049552152139508
0.08472436208322331 -0.09016478611849423 0.05056280624660198
0.0863657068010934 -0.08987170495737658 0.05064261244177232
0.08799641568965616 -0.08958052294710704 0.05072190149686184
0.08961728903832578 -0.08929100949765309 0.05080132145485322
0.09109356837133648 -0.08904428014506584 0.05075586265885157
0.09242161014442063 -0.08884174207249643 0.05058009233583133
0.09376000144311608 -0.08863510499451507 0.05042046161781194
0.09509285888621555 -0.08842921880676825 0.050262209842246275
0.09641953861932961 -0.08822428688849034 0.05010469155362213
0.09773941520001939 -0.08802050881418219 0.04994726578345293
0.09905387228339219 -0.0878174646883419 0.049791200354621756
0.1003616198876387 -0.08761555946441839 0.04963521960354306
0.10147997013156368 -0.08747155985432815 0.049302713218237204
0.10259725728926666 -0.08732722096301918 0.04897383058229754
0.10371021511289757 -0.0871835599320747 0.04864539869711276
0.1045679535647292 -0.08711907666370108 0.04807111808277503
0.10442329081609425 -0.08736864419603235 0.046509902761815825
0.10427844686661925 -0.0876194413743468 0.04494036166755805
0.10413211674129896 -0.0878718880537494 0.043361133490447346
0.10398559541949193 -0.08812558693384262 0.04177343477639944
0.10383756890538315 -0.08838096287238628 0.0401758802155639
0.1036880230278015 -0.08863803229874563 0.0385683725701092
0.10353826588575171 -0.08889639121964432 0.03695215924256312
0.10338763317832173 -0.08915626065373397 0.035326496612642866
0.1032361172044195 -0.08941765388683152 0.03369130156839517
0.10308371017237344 -0.0896805843610205 0.03204649002031146
0.10292973371630415 -0.08994528098697376 0.030391280288258993
0.10277551847048588 -0.09021132818182771 0.028726973425198032
0.10261971300977474 -0.09047917178988588 0.027052082945056233
0.10246365719767858 -0.09074839145308622 0.025367932072677124
0.102305989929459 -0.09101943850050959 0.023673007757743614
0.1021480604222707 -0.0912918877172267 0.02196865581602364
0.10198918261325568 -0.0915659728796739 0.02025406994032236
0.1018293479354484 -0.0918417087669966 0.018529157677207087
0.10166854771838119 -0.09211911033689725 0.016793825456250022
0.10150677318651086 -0.09239819272834195 0.015047978573101861
0.10134471022895836 -0.09267874266766811 0.013292281119754779
0.1011809628353848 -0.09296123146229578 0.011525122865486959
0.10101691400316432 -0.09324521619825317 0.00974793231454274
0.1008511574163935 -0.0935311741453018 0.007959070100564458
0.10068508600449816 -0.09381865714501576 0.006159989321772308
0.10051728299530283 -0.09410814854444505 0.004349020857301322
0.10034844121868852 -0.09439943201095209 0.002526841776598787
-0.02022985826026147 -0.11025842956728192 0.027051439073461025
-0.017972194445367684 -0.10986830487284333 0.02710273878811842
-0.01628606946207023 -0.10963348101041719 0.02674368496672458
-0.014628221900647165 -0.10940545996409518 0.026370519238244572
-0.013026157676122418 -0.10919186775714473 0.02596242457633363
-0.023491826459810405 -0.11231144884757216 0.01650984937835981
-0.0227357634448489 -0.11233726845132701 0.015427343015584294
-0.021812770481879906 -0.11231688357285276 0.014470632130428485
-0.020245048252345632 -0.11211716407038681 0.014005964373693391
-0.01868289150732977 -0.111918153581156 0.013542946208373208
-0.016973451650662497 -0.11167718188298172 0.013199315088820662
-0.01579192608991742 -0.1115828938857338 0.012453903751250162
0.01533116115894334 -0.10532641982305682 0.019334672246116347
0.01690020698644662 -0.10510464094429428 0.019023465027854236
0.018492514732114218 -0.10487520458592756 0.018738353715846423
0.01990803597257229 -0.10469574008531161 0.018312715604506313
0.02121282296974375 -0.10454748874389502 0.01779967276175265
0.022370966851992857 -0.10444105448254265 0.017167493122991873
0.023535844591260624 -0.10433219868996922 0.016544307417747428
0.024619841833867118 -0.10424638925836487 0.015855536651177393
0.025503513807807465 -0.10421859738364053 0.014997744621811526
0.026394719017758084 -0.10418848187830453 0.014147305797148513
0.0646220875225495 -0.09322634651477466 0.04563390052565941
0.0680344948345955 -0.09243186794404182 0.047150914800293986
0.0712291828483001 -0.09169788641261263 0.048502210883539454
0.07339431752266146 -0.09126409788650335 0.04897066112813542
0.07555034442977943 -0.0908310617673251 0.04944467751198445
0.07772390975154692 -0.09039089386707833 0.04994791608749927
0.07977588001214742 -0.08998483241921265 0.0503563586757903
0.08142245887230287 -0.08969751021454073 0.05041340348775464
0.0830614448639786 -0.08941115594911907 0.050472694246536276
0.08471362459995901 -0.08911956619150697 0.05055305745563454
0.08635506311085983 -0.08882987213032498 0.0506328982037873
0.08798656822011908 -0.08854184423987888 0.05071286691948046
0.08951685179461166 -0.08828295228351815 0.05070869327543659
0.09085261732712857 -0.08808152200024072 0.05053248445416708
0.09219331260386454 -0.08787768158798129 0.0503673394868378
0.09353328431673547 -0.08767312661908548 0.05020807888376749
0.09486771103661062 -0.087469315717802 0.05005019708172459
0.09619527395498068 -0.08726665526541381 0.049892409642162516
0.09751736868460242 -0.08706472762883147 0.04973598855196154
0.09883269439532422 -0.08686393549478127 0.04957965391292579
0.09997617731245273 -0.08671485926670432 0.049264643250789164
0.10109865600759865 -0.08657154054181017 0.04893419949936112
0.10221808395831045 -0.08642849363564656 0.048605481084052105
0.10333381862717583 -0.08628591867816451 0.04827784719564715
0.10444523207599371 -0.08614401315679626 0.04795065819844835
0.10513985753882216 -0.08613062732158017 0.047216914333454096
0.1049974388440213 -0.08637723295492471 0.04565344600126553
0.10485355342827313 -0.08662545684400809 0.04408035219687284
0.10470883865675973 -0.08687511149606066 0.04249819107674341
0.10456394061457353 -0.08712600491544582 0.040907542052457724
0.10441754771222983 -0.08737855726897177 0.039307015194597394
0.1042709614083161 -0.08763237124254127 0.03769785189244901
0.10412286099701645 -0.08788787204165577 0.03607863766801683
0.10397323214144516 -0.08814507628309137 0.034449272821133636
0.10382338955507842 -0.08840357992149203 0.0328110302532304
0.1036726654950082 -0.08866360425021626 0.03116315045294643
0.10352105216016866 -0.08892516272741624 0.029505548130502157
0.10336787004686371 -0.08918848316316468 0.0278374319896581
0.10321445202605939 -0.08945315222437242 0.026160118568736568
0.10306012075155863 -0.08971939678505333 0.024472820579109322
0.10290418929428158 -0.08998744900232876 0.02277472502179123
0.10274800446599575 -0.09025688836788053 0.021067182250125382
0.10259019794124469 -0.0905281667591 0.019348647081331882
0.10243212598527773 -0.0908008587806352 0.01762049294963669
0.10227309885271574 -0.09107519859002923 0.015881896153003228
0.10211310785959626 -0.09135120116810126 0.014132761752223444
0.10195214421637061 -0.0916288816778192 0.012372993653741615
0.10179089502150523 -0.0919080280118044 0.010603263740863456
0.10162796181201866 -0.09218910922287228 0.008821942034813735
0.10146473002783679 -0.0924716847088437 0.007030474077577953
0.10129979085851981 -0.09275622947764088 0.005227200368256468
0.10113383348699007 -0.09304253079783034 0.00341279469198591
-0.020989129790501382 -0.10916643156058033 0.02649723042621377
-0.01818703188859727 -0.10863390729997452 0.026945068903352243
-0.016479486054238657 -0.10839615476419055 0.026600962598561817
-0.014779398053367365 -0.10815944063030516 0.026258359203606807
-0.013098367691093127 -0.1079269318737565 0.025908559678565923
-0.012058708410815133 -0.10786856449235652 0.025084643878253876
-0.022669495760011205 -0.11099752264577666 0.015477312925710418
-0.021626752421050832 -0.11094450702749097 0.014611660592117104
-0.020393632555514185 -0.11083896231639413 0.013892706954361622
-0.019003953410720753 -0.11068986739632625 0.013296897093789783
-0.01702999311053155 -0.11037893311307488 0.0131557501995474
-0.015565580798104939 -0.11020757059524894 0.012629241300928185
-0.015395822579651997 -0.11039420589523959 0.011099603544524161
0.013717693807758669 -0.10431805552064435 0.019616318798450827
0.01520702394655854 -0.1041224266734577 0.019232693208297402
0.016783081036051917 -0.10390134416521324 0.018926733845988475
0.01824940893157201 -0.103710497352529 0.01853651200582518
0.019600674821613318 -0.10355160351822316 0.018056169975798786
0.020876389595104294 -0.10341358948392387 0.017517371627987666
0.02199326922662964 -0.10332042691667957 0.016848887379394162
0.022999786532013733 -0.10325850857715899 0.016089722630996117
0.023972791110581315 -0.10320595082091877 0.01530392545005993
0.024848161270543512 -0.10318128746134476 0.014436102836384745
0.0624945176734919 -0.09254028021776209 0.04524848901598866
0.06593308441739631 -0.09175022700694442 0.04676932843355036
0.06939817343613802 -0.09094897609274782 0.04833819655648952
0.07157984581804344 -0.09051717155855571 0.048809122745491484
0.0737408999468811 -0.09008944786402212 0.04927559836916723
0.07592739416837896 -0.0896523862166524 0.04977816607047075
0.07808981043671481 -0.08922041241801423 0.050273244588779686
0.07974722117480798 -0.08893459146022478 0.05033074379622604
0.08139477525234634 -0.08865038179493821 0.05038853039501762
0.08305061180363849 -0.08836245108467154 0.05046290995095165
0.0847028863436573 -0.08807427101466317 0.050543307962810036
0.08634512831085639 -0.08778775455206762 0.05062383095272599
0.08793028435290506 -0.08751686786771767 0.05066122919145777
0.0892738443364261 -0.08731656316562425 0.050484579813099395
0.09061612685700104 -0.08711572574177842 0.05031324150871419
0.09196396680991875 -0.08691231099020315 0.05015360975962396
0.09330621152016738 -0.08670963910742407 0.049995362967100054
0.09464153104969691 -0.08650811416254521 0.04983721239861755
0.09597133309350064 -0.08630732082182155 0.04968043423236307
0.097294305865256 -0.08610765946982032 0.04952374430740908
0.09846596368801919 -0.08595278115680899 0.049228892917472344
0.09959167022263615 -0.0858110973630779 0.04889496630245643
0.10071696657500046 -0.08566888001883263 0.04856532307065753
0.10183788384944381 -0.08552733261029581 0.0482361341181653
0.10295575473006274 -0.08538605352051576 0.047908667465482
0.10406993857109759 -0.08524524040727093 0.04758228088609512
0.10517980929476611 -0.08510508831925206 0.047256333347572066
0.10571208789613334 -0.08514161387553239 0.04636222309360716
0.10557126730112287 -0.08538545756626803 0.044795859534570936
0.10542899008699774 -0.08563090179091337 0.04321984910183385
0.10528654244106028 -0.0858775602136848 0.04163540655078657
0.10514261968431726 -0.08612584584529805 0.040041149454667246
0.10499786230762953 -0.08637557130585849 0.038437647129516084
0.10485291961171805 -0.08662654468580482 0.03682549060663581
0.10470647332829475 -0.08687918643925387 0.035203260717781626
0.10455983145778924 -0.08713309926693653 0.03357222419346284
0.10441166651858413 -0.08738870869788276 0.0319309367532804
0.10426196400569326 -0.08764603153857135 0.030279296157946944
0.10411204531171692 -0.08790466372016516 0.028618601322159265
0.10396123921757394 -0.08816482679992176 0.02694807648504749
0.10380953782081592 -0.08842653441074998 0.025267634108774417
0.10365625801441042 -0.08869001467451651 0.023576465913267564
0.1035027395391685 -0.08895485417997527 0.021875915388767708
0.10334762156068639 -0.08922149701366498 0.020164446024405758
0.10319225318290803 -0.0894895249718322 0.018443424235612016
0.1030352637470543 -0.08975938765989355 0.016711285970155254
0.10287801184743267 -0.09003066199891542 0.014969421004986716
0.10271980656080015 -0.09030358102041885 0.013216995458158853
0.10256063919050074 -0.09057815972695739 0.011453912997585969
0.10240050093377906 -0.09085441330411047 0.009680076115968217
0.10224008010004049 -0.09113213082992316 0.007896164569728414
0.10207797577295019 -0.09141177906024732 0.00610052839435149
0.10191487351637946 -0.09169314883145988 0.00429383811321532
0.10175146898761112 -0.0919760255858193 0.002476790583160915
-0.018625729224851784 -0.1074580168126375 0.026623107529139656
-0.016638841591557152 -0.10714844729754326 0.026483373929404974
-0.01495415549170892 -0.10691877789247015 0.02612870383148025
-0.013287169818986644 -0.10669291604210142 0.025767723157185507
-0.011745431852179133 -0.10649989957555753 0.02531960009058598
-0.02249901735737503 -0.10963003583630897 0.015605864126480962
-0.021593727617308156 -0.10961479231374335 0.01463669814625912
-0.020299841195642432 -0.1094939883550167 0.013964198808805006
-0.018967581020959967 -0.10936223568867624 0.013324771451355744
-0.01740212151297127 -0.10916635031832189 0.012869027276487754
-0.015693691806873522 -0.108930576081189 0.012530000578117484
-0.014618362649067074 -0.10886713403648171 0.01170510152159332
0.012183682489076697 -0.1032810840073994 0.019969628404320483
0.013574877232087723 -0.10311603528237132 0.01949961611524742
0.015095333182615356 -0.10291411538898745 0.019140938959741505
0.01660984611375077 -0.10271298474165247 0.01878366376870716
0.018039005192446833 -0.10253495742561677 0.018361821601872774
0.019275330631500887 -0.10241044476162217 0.01778461441473217
0.02032758124390821 -0.10233732619081094 0.017056866721396946
0.021433393601820505 -0.10224874137839823 0.016376605909281472
0.02243571031212055 -0.10218909806895803 0.015611378049269431
0.023295023998450404 -0.10216980813442539 0.014726128505638147
0.05879913198961101 -0.0922889188481784 0.043532326208367556
0.06382013388638752 -0.09106044475956031 0.04639055169363149
0.06731900498620785 -0.09026171818591311 0.04796964622082672
0.06975295372309737 -0.08976459097265357 0.04864708470776519
0.07193048732268176 -0.08933888944477913 0.04911601582047159
0.07411700443783636 -0.08890870452257851 0.04960651031910185
0.07630277195543606 -0.08847681378911051 0.05011017584074251
0.07806089689622364 -0.08816662377428146 0.05024753706983803
0.07971929196862382 -0.08788393898770797 0.05030578105107836
0.08137655957268786 -0.08760031008584689 0.05037216402782557
0.08303977796080103 -0.08731367046969651 0.05045312494862442
0.084692863273576 -0.08702869172005215 0.05053420780286849
0.086333773438933 -0.08674598218163332 0.05061346763645763
0.08768519944068554 -0.08654682112215713 0.050436375629218544
0.08903043414926759 -0.08634857248001819 0.05026009493424188
0.09038550995962724 -0.08614652287216296 0.05009944376953185
0.09173494936527143 -0.08594521292909477 0.04994018602453143
0.09307878221580185 -0.0857446389054796 0.049782313083158336
0.094415676533803 -0.08554520067760396 0.04962453419860369
0.09574704227400493 -0.08534648720216555 0.049468127563260245
0.09694864163652472 -0.085185498377533 0.049194844837247065
0.09807556617932167 -0.08504605300136833 0.048855495718804154
0.09920611703574694 -0.0849048766681619 0.0485242836042073
0.1003335814555193 -0.08476397013222993 0.048194807877900814
0.10145730983805273 -0.08462353051308907 0.047866423923126955
0.10257666736699633 -0.08448375231604632 0.04753848831990759
0.10369298284562173 -0.08434423894537306 0.04721227198582012
0.10480561751768308 -0.08420518558958257 0.04688713127884847
0.10589917126887305 -0.08407126744860681 0.04654776928381621
0.10628464491614148 -0.08415203584252202 0.04550704394580246
0.10614542427164819 -0.08439311439202518 0.04393778210466254
0.10600475712707458 -0.08463577572372305 0.042358851957325194
0.10586392743596407 -0.08487963788904565 0.04077147244731222
0.10572163291792241 -0.08512510922356291 0.03917425655004303
0.10557916614121465 -0.0853718034961264 0.03756844376655155
0.10543521582680987 -0.0856201339270914 0.03595262263785365
0.10529108327034986 -0.08586970993120828 0.03432805360302815
0.10514544807081255 -0.08612094970256731 0.03269330027547496
0.10499895816430022 -0.08637366395535176 0.03104895287204179
0.10485227050710333 -0.08662765876862384 0.02939562422132075
0.10470405077511052 -0.08688335996971784 0.027731839588832297
0.10455428429281932 -0.0871407845571118 0.026057494116507207
0.10440429919751759 -0.08739952846813133 0.02437391325943905
0.10425342075930333 -0.08765981351262782 0.02268030463853099
0.10410164097292696 -0.0879216535007048 0.020976578394949486
0.10394827309136673 -0.08818527685496587 0.019261908875328193
0.10379466379377966 -0.08845027011573478 0.017537667072955065
0.10363944504014266 -0.08871707780630171 0.01580228386904864
0.10348397297261452 -0.08898528164579071 0.01405715368022925
0.10332686961805287 -0.0892553317190421 0.012300679195926811
0.10316950071092063 -0.08952680484034017 0.010534278704002475
0.10301117159760337 -0.08979993438912695 0.008757100296633014
0.10285187346297903 -0.09007473557214722 0.006969045027736875
0.10269159738369227 -0.09035122378285669 0.005170012736355811
0.1025310353252672 -0.09062918810537622 0.0033606968509000135
-0.019214540882309894 -0.10631897625124724 0.02619097677583687
-0.01693782830268814 -0.10593669421871474 0.026262751225926473
-0.015180747536064298 -0.10569074174118044 0.02596059152615804
-0.013506499270273531 -0.1054657948581823 0.025604114847786907
-0.011784854147706747 -0.10522727541451615 0.025290033520782795
-0.0113665775314582 -0.1053358691691459 0.024000408449972754
-0.02152402628665251 -0.10827547683264713 0.01468954178625953
-0.020397287646787443 -0.10820091973408065 0.013889920884795681
-0.019134948529511864 -0.10808960251418816 0.013196507627917686
-0.017522699738713232 -0.1078835698661628 0.012776122405170731
-0.01604492233973176 -0.10771296079396545 0.01225792113475771
-0.014451306715624446 -0.10751029583403142 0.011835207300396333
0.008346265889503046 -0.10264979812133442 0.02007649948865259
0.010454308454928063 -0.10229194212706753 0.020171335021757886
0.011971270384027954 -0.1020951790806656 0.019796976049564208
0.01343825809245247 -0.10191134561005553 0.019387977672038204
0.01492401188020065 -0.10172152980830204 0.019000198071151386
0.01634604864448097 -0.1015485358626521 0.018565800512189923
0.017594711120164808 -0.101422908493305 0.01799294074793306
0.018757893310472062 -0.10132050972271778 0.01735272416957301
0.01986435108130713 -0.10123347587258258 0.016668170444648023
0.02087382419080125 -0.10117315536460222 0.015904582744929008
0.021736285188751037 -0.10115373089533582 0.01501825569046722
0.022449808856638553 -0.10117601253954088 0.014005581996996752
0.06168833850921085 -0.0903645105270371 0.04600839674424928
0.06516980440471981 -0.08958294230059181 0.04755333795945049
0.06791273611679532 -0.08900652099790456 0.048483864750330896
0.07010693224228393 -0.08858288244383386 0.04895527480287992
0.07229333920653808 -0.08815956944646534 0.04943359582433865
0.07449597283495346 -0.08772975525814806 0.04993994204956348
0.07636337561608975 -0.08739355687021308 0.0501637778602147
0.07803271945402707 -0.08711242345830744 0.05022248402836721
0.07969135761785179 -0.08683309298395828 0.05028081370776788
0.08136562910874157 -0.08654802071269976 0.05036234325858291
0.08302966566808301 -0.08626460638500974 0.050443991642071584
0.08468212352250126 -0.08598324852063946 0.050524456952907526
0.08608658975750305 -0.08577225086576791 0.050387869084195624
0.08743970708565818 -0.08557516171685979 0.05021114825789447
0.0887964366440393 -0.08537612779242384 0.05004429089486567
0.09015383272944777 -0.08517599250103447 0.049884663028846976
0.09150557123480851 -0.08497659175888807 0.04972642616258144
0.09285030891837581 -0.08477832306225919 0.049568285213547614
0.0941894679703199 -0.08458077773778715 0.04941152260607967
0.09542214598433751 -0.08441357667153498 0.0491605909051917
0.09654958699011429 -0.08427656381626147 0.04881514439137857
0.09768677635717676 -0.08413604309949478 0.04848363619812246
0.09882017979235974 -0.08399599020442992 0.04815323166222257
0.09994915360635648 -0.08385659907446305 0.04782328495905003
0.10107504540699142 -0.08371747419056667 0.04749507156291899
0.10219720750426892 -0.0835788101809301 0.04716794542808439
0.10331500696074092 -0.08344079909335408 0.04684126172640923
0.1044265297968337 -0.08330401782578788 0.04651309855195013
0.10537457152620172 -0.08321559183089447 0.046027479948575534
0.10632381278915376 -0.08312638898765193 0.04554609140134497
0.10685881095415911 -0.08316150666561398 0.04465266122981615
0.10671991003778408 -0.0834002029444763 0.043079213289807294
0.10658085483311491 -0.08364007815053211 0.04149736033774587
0.10644164498173614 -0.08388114080071059 0.03990704075204815
0.10630098060492371 -0.08412379454982621 0.03830686290510127
0.10616015201019213 -0.08436765760698789 0.03669807054492086
0.10601785034816391 -0.08461313845728016 0.03507924754454084
0.10587537462903757 -0.08485985100459977 0.03345165864545829
0.10573140690991706 -0.0851082086522877 0.03181386272676834
0.10558725501809996 -0.08535782092672944 0.030167145913817695
0.10544159179178858 -0.08560910623967558 0.028510041584392576
0.1052950683958861 -0.08586187544119248 0.0268431517320481
0.10514834511007654 -0.08611593471854061 0.025167101457895247
0.10500008070016403 -0.08637171017108099 0.02348038490369253
0.10485026031768346 -0.08662921899159043 0.021782894509922435
0.10470021891109155 -0.08688805715428674 0.02007598281234696
0.1045492782045524 -0.08714844670978755 0.018358840434284318
0.10439675029504192 -0.08741061491324345 0.016630631555494768
0.10424398413902503 -0.08767415068020715 0.014892743442423917
0.10408960938228451 -0.08793949618355801 0.013143587839668847
0.10393498448102018 -0.08820623553057745 0.011384575722224954
0.10377872910893315 -0.08847481644589127 0.009614090272591025
0.10362221135208383 -0.08874481814484445 0.007833566628763444
0.10346404076812943 -0.08901669401002 0.006041358808928643
0.10330629233483962 -0.08928979574448309 0.004239717014764666
-0.017221865809661285 -0.10471909834475934 0.026053159560662564
-0.015393485540510288 -0.10445760642823068 0.0258027577572858
-0.01372607162293149 -0.10423731467113077 0.02544032534665852
-0.009885343829603321 -0.10344391668374706 0.026714658943031155
-0.0106119896526779 -0.10385220307334062 0.024569414121096533
-0.021274765542634966 -0.1068891439502274 0.0148785173036447
-0.020489905400621566 -0.10690593434004447 0.013819323603926403
-0.0192453903324607 -0.10680075857392106 0.013111869408491628
-0.017762866581356285 -0.10663181472699762 0.012591075150800601
-0.016110921977802506 -0.10641698494253696 0.012206794757326611
-0.014226003735502701 -0.10613899695780345 0.012010676791909203
-0.013987400646334636 -0.1063006339448691 0.01053420225417262
0.006986742222852893 -0.10154781174180358 0.02059160108711261
0.008764468386587121 -0.10128479382264594 0.02041282119237664
0.010228656655556279 -0.10110567864646358 0.019988894738239393
0.01184539924717637 -0.10088432717647808 0.01969466574023271
0.013312058404821636 -0.10070289901819028 0.019284853492672005
0.014722191483702685 -0.10053611494936662 0.01883440209868098
0.01600691681723393 -0.10040291402673027 0.018285720629402646
0.017124443806174283 -0.10031497280631749 0.017602495276820285
0.01817801850408507 -0.10024421955952971 0.016868719127582366
0.01920848218997384 -0.1001795209327393 0.01611783107411746
0.02017808207942945 -0.10013133505232388 0.015317691491554708
0.020941955327791917 -0.10013983507771008 0.014344652777078304
0.059537445048297666 -0.08966234163882744 0.0456228181889301
0.06301769277206049 -0.08889322643209344 0.04714766280213106
0.06605904666928997 -0.0882429013543387 0.04831944989431414
0.06827009107541321 -0.08782136731514222 0.04879336265580492
0.0704601117085018 -0.08740384144328874 0.04926276920546796
0.07267670359099832 -0.08697701156549943 0.04976912904909547
0.07465454544270772 -0.08661533979150295 0.05007946064638985
0.07633494725147 -0.08633578467860428 0.05013863387159301
0.07800379508533323 -0.08605823758434243 0.05019676688188707
0.0796803294838776 -0.0857772712977858 0.05027095691140798
0.08135542662766093 -0.08549544853276286 0.05035317656512067
0.0830188303121771 -0.0852156767625941 0.050434205273158284
0.08447792123560194 -0.08499280682603096 0.05033905732423838
0.08583899385429566 -0.08479689568357549 0.05016189430711304
0.08719734222558123 -0.08460087440423741 0.0499887902120385
0.08856276861458479 -0.08440193257923818 0.0498287907142968
0.08992248575638578 -0.08420372384786347 0.049670188459244424
0.09127513903183687 -0.08400664328913908 0.04951168399951367
0.09262216299487713 -0.08381028463810154 0.049354564019356006
0.09388639328498155 -0.08363697384141666 0.04912612924880094
0.0950190679814325 -0.08350100757057512 0.04877904988457482
0.09615820214918319 -0.08336253707819535 0.04844274176445895
0.09729692413230034 -0.08322354651470655 0.04811076053826219
0.0984325233823935 -0.08308482359919947 0.04778052686058604
0.09956434313750151 -0.08294656238051651 0.047451392264739045
0.1006917416081185 -0.08280895432264937 0.04712270950455816
0.10181606248141234 -0.0826716089673758 0.0467957569759036
0.10293665997581919 -0.08253471845449775 0.0464698872058697
0.10389367796560034 -0.08244550228829063 0.04598735210196647
0.10484733451069261 -0.08235686210024495 0.045504575009818526
0.10579958707760573 -0.08226822106443066 0.045023477366126
0.10674979202152052 -0.08217977063290681 0.04454341422380875
0.10743265972901772 -0.0821706117075459 0.0437971539002901
0.10729600896367913 -0.08240633896164647 0.04222145279847933
0.1071579277004912 -0.08264361558586196 0.04063602945494971
0.10701969536576511 -0.0828820684519744 0.03904211103498273
0.10688131162206921 -0.08312170609071055 0.037439635024192564
0.10674147454236299 -0.08336292984662542 0.035827192969159316
0.10660082347069344 -0.08360555776665901 0.034205364884620615
0.1064600065421617 -0.08384940348134702 0.032574752880774605
0.10631770827518039 -0.08409487559746162 0.03093391109697563
0.10617523418368924 -0.08434158818541816 0.029284130022180277
0.10603125959624643 -0.08458995480382331 0.027623938226605416
0.10588709893496018 -0.08483958512227607 0.025954648040130757
