# .PCD v0.7 - Point Cloud Data file format
VERSION 0.7
FIELDS x y z
SIZE 4 4 4
TYPE F F F
COUNT 1 1 1
WIDTH 759
HEIGHT 1
VIEWPOINT 0 0 0 1 0 0 0
POINTS 759
DATA ascii
-0.06628951257155324 -0.008261927251944275 0.03425299115655239
-0.06401662837650329 -0.008236358557548108 0.03409005414589911
-0.06181768186429626 -0.008212053668835897 0.033889400152188165
-0.05953767915532049 -0.008186153134256127 0.03375101973215838
-0.057372089928668324 -0.008162270284995027 0.033548098487228506
-0.05512932205598492 -0.008136859129559734 0.03340536713549164
-0.05301381046114956 -0.008113714632497408 0.03318861107569743
-0.05084870236221278 -0.008089552944361506 0.0330140261759288
-0.04872966041292526 -0.0080661551641273 0.03281828127615133
-0.04647920651086118 -0.0080402035238263 0.03272020415885052
-0.04430066978137065 -0.008015496567536449 0.032583905982804084
-0.04229235438881401 -0.007993889464346007 0.032341828729242905
-0.04014297973629605 -0.00796953857944546 0.032204831844313275
-0.03801814519622648 -0.007945552336468403 0.032060774671542835
-0.03599596395689908 -0.007923410030152634 0.03185546094992281
-0.033918416657002515 -0.007900128762351048 0.03169756673050228
-0.03183060455645925 -0.007876557893150275 0.03155627394330751
-0.030059631280261456 -0.00785891882723812 0.031201967136386954
-0.028333485801202152 -0.007842062305859791 0.030823168937703316
-0.026843520140739652 -0.007829648523378223 0.030283491721878997
-0.02536800681315038 -0.007817460474978962 0.029738562613509656
-0.02400978876047455 -0.007807472231072748 0.029114394131409982
-0.022998024020135677 -0.007804102020212629 0.02824417943070956
-0.022111305233820322 -0.007803126364746453 0.027284571625572296
-0.020565360672162858 -0.00778942331815908 0.02680654863513615
-0.01955263449099992 -0.0077859761669793 0.025942848798138907
-0.0186958433999721 -0.007785536816884844 0.024965509478787673
-0.01794036345370842 -0.007787063194457079 0.02391318780976126
-0.01741539538269038 -0.007793082023736008 0.022688282610871247
-0.016847977353083743 -0.0077982981408456845 0.02149271061834257
-0.016599797794651483 -0.007809774946451578 0.020054238505114952
-0.01656905963699945 -0.007825558261928309 0.01844611962179188
-0.01695455184834954 -0.00784957649965861 0.016514123870288833
-0.018610269421681647 -0.00789867674159215 0.013598600895784574
0.07119290718839838 -0.0062916384026478235 0.06658223705897542
0.07394398347393705 -0.006249640026289873 0.06748525585200038
0.07674706469814235 -0.006206405463519047 0.06844938010385748
0.07850421331163915 -0.006184223821756168 0.06856383642977293
0.08016412820275787 -0.006163924401666021 0.06860676550775613
0.08182306417153845 -0.006143556233868135 0.06865770617586342
0.08344448154256517 -0.006123865798268354 0.06868588046632673
0.08463447741196328 -0.006112927258024444 0.06835680886697215
0.08583683199708264 -0.006101686853493033 0.06804306423981732
0.08704096185167914 -0.006090360362293736 0.0677357752614095
0.08824062956443973 -0.006079075843652844 0.06742962500318195
0.08943585989251984 -0.006067833064695385 0.06712460714721086
0.09041913628909515 -0.006060930765948344 0.06664002050881179
0.09134831141094041 -0.0060551209023091595 0.0661111395153004
0.09228308690658454 -0.006049168616049437 0.06558976475229938
0.09321669449122155 -0.006043214089360724 0.06507000492260079
0.09414780059998873 -0.006037285177821985 0.06455067582943275
0.09507708150945549 -0.00603136788842303 0.06403236475029456
0.09591281323462097 -0.006027387893188949 0.06343265199688503
0.0966447920570685 -0.0060255729858375105 0.06274101730515508
0.09738158109431339 -0.006023648439188533 0.06205456640400181
0.09811789962622436 -0.006021725121533751 0.061368553862807096
0.0988537481033459 -0.006019803031696328 0.06068297926180638
0.09958847632038764 -0.006017895983284015 0.05999724211540197
0.10032338793135742 -0.006015976336744585 0.05931254075774545
0.10095040936315436 -0.006016349122090286 0.058528168902312716
0.1015154822353837 -0.006018047950611659 0.05768559522631611
0.10208151944763377 -0.006019733915509445 0.056843153078326214
0.10264722988906583 -0.0060214346563574345 0.05599962917367862
0.10321326007844911 -0.006023136358489162 0.055155628496807496
0.1037950120392645 -0.006024506719999972 0.05432588170861724
0.10440136612377005 -0.006025351394749039 0.05351915594740603
0.10487553438723912 -0.00602906523219296 0.05258429114283675
0.10530938507987941 -0.006033672309675364 0.05160853832487616
0.10574326064445527 -0.006038300342111238 0.050630669458180455
0.10617780231468876 -0.00604293547971397 0.04965129932244089
0.10661364928498102 -0.006047563787463517 0.048671053614095794
0.10704952726056294 -0.006052213163114837 0.04768867330172277
0.10743322609140626 -0.006058031445508912 0.04665209393010994
0.11474263264873152 -0.00591127605802026 0.05255297629603767
0.11611680286413995 -0.005894912701931033 0.05254454320207702
0.11752268150437706 -0.005877769749004732 0.05257594306656632
0.1189115500504665 -0.0058609227596462445 0.05259814676834057
0.12026026134775253 -0.005844888736071547 0.052587264004195555
0.12142420262756803 -0.0058328979610160646 0.05239401019715639
0.1222585451436618 -0.005828216483372216 0.05186579705780325
0.12274404915211634 -0.005831327985643054 0.05097739513353683
0.123056494720922 -0.005838341027191993 0.049906774319483926
0.12331120300034476 -0.005846687694573516 0.04877217791163069
0.12340428036780543 -0.005858722197347509 0.04746302152636889
0.12361509268164084 -0.005868151701355792 0.0462729242358183
0.12385447663017884 -0.0058769791199637786 0.04510872402455379
0.12385658876702238 -0.0058912430948420075 0.04368599544811458
0.1240331610376525 -0.005901601277431264 0.0424442387441783
0.12406143154037058 -0.005915397789113802 0.04103687943165801
0.12408339215713299 -0.005929406480843894 0.03961591396220959
0.12423629752059129 -0.0059404782127871055 0.038331316897508017
0.12427875017494266 -0.0059541462473696755 0.03691984794753811
0.1243184538831123 -0.005967945254043669 0.03549861465518789
0.12442679103855159 -0.005980225431500509 0.034146811440945446
0.12442266585549566 -0.005995173848929065 0.032663368789146496
0.12436989331170617 -0.006011327315656629 0.03111791948094833
0.12439116979021725 -0.0060258361563443885 0.02964797134650271
0.12440301460523756 -0.006040637905679425 0.028160099595193222
0.1245182224319546 -0.006053093583601394 0.026782634299575836
0.12447836814403695 -0.0060692519547763755 0.025221301296843746
0.12466320940442283 -0.0060802038334105395 0.023910577867338745
0.12472328152868373 -0.006094154806209653 0.02244993973639481
0.12469635237156962 -0.006110234341505658 0.020881052561703473
0.12482616663976526 -0.00612267867204641 0.019487309805135633
0.12494624291648321 -0.0061354178996307724 0.01807581052186008
0.12491790616426279 -0.006151759518521309 0.016482506155588772
0.1250454189653028 -0.006164460716156508 0.015065930870288735
0.12518682576694717 -0.006176894254537573 0.013659447206880504
0.1250638677837259 -0.006195741392420321 0.011929442729044781
0.1249866482041983 -0.006213584376061153 0.010244909286635406
0.1249868818353791 -0.006229649735323328 0.008645062219128141
0.12497605009361412 -0.006246066253803569 0.007023438718996022
0.12449825358365812 -0.006273900509096968 0.004821500128807388
0.12413380672540059 -0.006299121915381554 0.002744628443436259
-0.08981936668125956 -0.007105520951022037 0.03593978368589967
-0.08721274855285699 -0.007080028271025119 0.03587919206160295
-0.0847018001745411 -0.007055879943928768 0.0357719924788964
-0.08232176266835456 -0.007033616471675946 0.03559560472396184
-0.08003398051811406 -0.007012663452363208 0.03537259024743017
-0.07764625926915719 -0.006990112226015417 0.035221426103257736
-0.07535864273981008 -0.0069689947882116896 0.03501825365812039
-0.07296878376770416 -0.006946237152211987 0.0348892036132325
-0.07070233343163657 -0.006925273813048176 0.03469284441256987
-0.06849661481937719 -0.006905156824740445 0.034467740812770875
-0.06615219572352876 -0.0068828352290813905 0.034340745983478804
-0.06394219978833865 -0.0068624893884339 0.03413788805031526
-0.06170065751101267 -0.006841577764965948 0.033965034146495654
-0.059423002985013795 -0.006820026614450124 0.03382555376613838
-0.057302168611254145 -0.006800811969128696 0.033593799695194604
-0.05505317565178908 -0.006779537519935274 0.033455416679783134
-0.05291531356039275 -0.006759901510052315 0.03325371422708068
-0.05073760400130123 -0.006739567923198817 0.0330878696177937
-0.048549062082247074 -0.006718984297037811 0.03293899009674489
-0.046393598550270365 -0.00669883412949432 0.032777742406371824
-0.04419224958439666 -0.006677885732389747 0.03265718272116441
-0.04219380882656887 -0.006660031064047161 0.032408802194422937
-0.04005808991093607 -0.0066399498630370065 0.03226284512749167
-0.037931384515388855 -0.0066199292126094735 0.03212039539662487
-0.03584024395555274 -0.006600387873417721 0.03196306227878454
-0.033820432324944805 -0.006581893474909952 0.03176564763033213
-0.03176081327171132 -0.00656269400711103 0.031605033728461684
-0.029749031117113023 -0.0065441746929951845 0.031420165142591605
-0.02800273076345111 -0.006529797341826996 0.031056805434730606
-0.026362987739326937 -0.006517057443735015 0.03062479359383702
-0.024869294679362886 -0.00650659505035534 0.030094722005686525
-0.02341664840250579 -0.006496745772592151 0.029540313269511287
-0.02211275666404322 -0.006489238604048247 0.0288833490526077
-0.02088258144999322 -0.006482883643522433 0.028176571433251696
-0.019730037698916625 -0.006477751004955738 0.02741626886904386
-0.0187435917703882 -0.006475274101694469 0.02653660783107198
-0.017895697811694478 -0.0064750245965156895 0.025555938003836376
-0.01732434279595757 -0.006479249587559651 0.024370223506646527
-0.01683531248179715 -0.006484827325411176 0.023120994142174167
-0.01601466905598642 -0.006485039084006485 0.022117688631518417
-0.015222346312387114 -0.0064857129529599 0.021092921642158147
-0.014990022102896239 -0.006495528782004638 0.019643257326543317
-0.015125728401316041 -0.0065114047429093765 0.017908132655924558
-0.015601554907531956 -0.006532921726482987 0.015904360421975905
-0.019020279912180582 -0.006602861652845167 0.011622244974591522
0.07257949483718384 -0.005219718211159911 0.0677152883056516
0.0753851426358097 -0.0051837495198758556 0.06866917179346815
0.07757219335168636 -0.005158070777718511 0.06913083173417212
0.07921661195297186 -0.005141463551105613 0.06915531454202989
0.0808802462356572 -0.005124457997765792 0.06920448890385139
0.0825329117517915 -0.00510756456639127 0.06925333904647418
0.08387216444336915 -0.005095936042057792 0.06904665114499775
0.0850645583027464 -0.005086763663389157 0.06872152352175626
0.08627060085461341 -0.005077317409655038 0.06841285249891216
0.08747148676158373 -0.005067917931734718 0.06810473817117252
0.0886686161648797 -0.005058541477869959 0.067798349765401
0.08976168473704699 -0.00505091577307453 0.06740679745827455
0.09068341261693458 -0.005046213825658912 0.06687011172112767
0.09161822106042938 -0.0050412646710072395 0.06634737339292968
0.09255186730116105 -0.005036313603932565 0.06582624861944913
0.09348368145803582 -0.0050313722522830895 0.06530614644342042
0.09441433297591872 -0.005026429022185716 0.06478765428265487
0.09533588344785932 -0.005021622467474212 0.06426367840774339
0.09606060719141868 -0.005020237669254776 0.06356544145141352
0.09679676780640578 -0.005018646095183737 0.06287828005515633
0.09753246179694675 -0.005017055529951453 0.06219155422459044
0.09826834336588064 -0.005015454457742315 0.061505860215989416
0.09900375540696055 -0.005013854407094314 0.060820603713161614
0.09973869836941812 -0.005012255377030001 0.060135784297518535
0.10044270987588355 -0.0050111975870611855 0.059423160414262544
0.10100283608709548 -0.005012692420962149 0.0585770259108232
0.10156781870442388 -0.0050141075851222235 0.05773462267546581
0.10213312041931416 -0.00501552354855523 0.056891743657675575
0.10269938527756611 -0.005016928790310961 0.05604899783189288
0.10326532488095236 -0.00501834634781058 0.05520516814984089
0.10383222592741076 -0.0050197531720080285 0.054361475075059895
0.10433795203746171 -0.005022268970248702 0.05345818769342936
0.10475777887934357 -0.005026348068894278 0.05247048859159237
0.10519108362778384 -0.005030202135416756 0.051493613890683465
0.10562505337866229 -0.005034062116860299 0.05051523995850532
0.10606032838172053 -0.005037916408624496 0.04953599028795497
0.10649563222461583 -0.005041788242968329 0.04855461026739494
0.10693160567796056 -0.005045666033199099 0.04757172062936671
0.10718526171568082 -0.005052901857660116 0.04640489189454833
0.11473537296699032 -0.004926196681622177 0.05254570142665865
0.11613420730817953 -0.004912106920660293 0.05256207440178512
0.11750482146053681 -0.004898470953449627 0.05255785979956079
0.11888084134607957 -0.004884670184578414 0.052566893328891806
0.12024795769456015 -0.004870968682569506 0.05257467731682902
0.12158184829292479 -0.004857819089414567 0.052556116371454575
0.12285547440461675 -0.004845728978948682 0.05248278929373351
0.12375332908711328 -0.004840596551111478 0.05202598814297932
0.12459093644959285 -0.00483656696091397 0.051509220370197784
0.1252669267503409 -0.004835549907923934 0.05082512362011571
0.12572340783914532 -0.004838655937510297 0.04991000357257985
0.12597823130662705 -0.004845578502766074 0.04877921162726334
0.12603398948381628 -0.004856296431576101 0.047432187999973396
0.12628447376065177 -0.004863377869793735 0.04628758522571197
0.12643958477441586 -0.004872304946725414 0.045036127735554654
0.12654770081593897 -0.0048821702978978365 0.043728572057054216
0.12677389286202917 -0.004889830879587037 0.042543723815768764
0.12680262297751238 -0.004901306451667592 0.04113838807673964
0.12689887962296492 -0.00491154368371449 0.03980053370473863
0.12695111554964722 -0.004922677764405858 0.03840798608019286
0.12704348003296995 -0.004933093676991352 0.03705342153051033
0.12699196926477807 -0.004946340906494924 0.035532036262851396
0.12705059766639942 -0.0049575209864481775 0.03412637441140942
0.12716594015704896 -0.004967655728712487 0.03277801985250667
0.12708872186990322 -0.004981589269158667 0.03120527146817098
0.12704209383875226 -0.004994995801840459 0.02965903370481099
0.12712194051570042 -0.005005995631151021 0.028249621170217953
0.1271445501376392 -0.0050181734373326925 0.026767676915960992
0.12715136168576074 -0.005030723413384893 0.025260093372104275
0.12731346619186273 -0.005040276012685968 0.02392556421344405
0.12738163641176015 -0.005051733390225269 0.022475399467694723
0.12739323890438736 -0.0050643698157582205 0.020951777351328527
0.12750050968440257 -0.005075170610276747 0.01953346263885425
0.12766887862401305 -0.005084810065839909 0.018181090269931366
0.127709281561863 -0.005097053707381611 0.016670074787878908
0.1277994246411276 -0.005108364792994913 0.015211202707620108
0.12790551387741717 -0.005119414247581587 0.013764586303725623
0.12797312853820697 -0.005131294923738704 0.01226450810676688
0.12792814807300196 -0.005145508375210009 0.010619896533502482
0.12786845390445806 -0.005160093295245705 0.008948437160077427
0.1279304808358036 -0.005172286211974846 0.007417711787144843
0.12775532134289552 -0.00518936466391093 0.005585932477123801
0.1275144511081972 -0.005207871963039776 0.003661746112937958
0.1280739533030445 -0.00521012010428507 0.0027263504386949577
-0.09169633920223857 -0.005695977503483235 0.036450081439190984
-0.08926787854601881 -0.00567778686933882 0.03627271657014963
-0.08694467628561331 -0.0056607936621706845 0.03604195867469401
-0.08459456516789299 -0.00564340979482322 0.03583747694638273
-0.08225734602676765 -0.0056261142577127485 0.03563516720199228
-0.07991509413042663 -0.005608690400695722 0.03544602416445575
-0.0775136337599851 -0.005590479829644424 0.0353038145473053
-0.07520223107565316 -0.005573293426409939 0.03511597256893073
-0.072899198420451 -0.005556141711486112 0.034932924921196484
-0.07063905462295655 -0.005539446382396876 0.03473282923582832
-0.06834823427056824 -0.005522310091958009 0.03456203200411706
-0.0660319355079631 -0.00550479395637894 0.03441760045949488
-0.06383130505393259 -0.005488629408698361 0.03420915808588415
-0.061611537417516404 -0.0054721653994050075 0.034022633342347286
-0.059348426297313905 -0.0054551016477809855 0.03387402505150022
-0.057206234318754046 -0.005439464210870505 0.03365650321988162
-0.05498521015271057 -0.005422788563254461 0.03350008907491919
-0.05281820951161159 -0.00540671660645186 0.033317896749973874
-0.0506733803093079 -0.005390856035144911 0.03313055700244233
-0.04848270361508289 -0.005374360947975436 0.032983342955809014
-0.0463159224044396 -0.005358097912910639 0.032829949575827355
-0.04415307509667976 -0.005341818709707931 0.03268365914130528
-0.042094013172618405 -0.005326774395729071 0.03247662524604189
-0.03993853022217603 -0.005310458765801692 0.0323445516223671
-0.03781278440040742 -0.005294451282865928 0.032201895735047115
-0.035783302137358086 -0.0052795924724888706 0.032002408639255686
-0.03376894620418747 -0.005264864412387633 0.03180142091526761
-0.031641225685565155 -0.0052486415145800306 0.031688583773838375
-0.029641481872160924 -0.005233975665115289 0.03149571896902714
-0.02769336063256439 -0.005219905996801069 0.03127533620649664
-0.026000584159169393 -0.005209030634431913 0.030882193552608628
-0.02439482693672229 -0.005199221156840574 0.030433567065547118
-0.022897559790145128 -0.00519075869632183 0.029913057715921842
-0.021525119963937855 -0.005183860919174115 0.02930762712502838
-0.02020171214953076 -0.005177564267645537 0.02867085281126458
-0.019074263728489915 -0.005173762980611092 0.027894932417689422
-0.017984057898912387 -0.005170426133454615 0.027094032161725956
-0.017246738275105145 -0.005171634860698333 0.026034806134359323
-0.016527995863447054 -0.005173089142065933 0.024961046185534075
-0.01588562149287731 -0.005175540307592485 0.023829413992935755
-0.015161235008197105 -0.0051769354445943125 0.0227577608801951
-0.01414107886676863 -0.005174482958014928 0.021908263798929684
-0.013641926635558521 -0.0051788223751594335 0.020665307707676994
-0.01347237142389407 -0.005187492284661157 0.019168393265584227
-0.013789514170067463 -0.005202579801072759 0.017293036606640833
-0.0142994919025074 -0.0052202646155168845 0.015259586624420451
0.0712536660347492 -0.004184563236185967 0.06798276660205121
0.07401775589828502 -0.004156428475442466 0.06889056452403841
0.07663924991306187 -0.0041300940385252324 0.06969942413278657
0.0782759160470562 -0.004116949727648068 0.06971201743895822
0.07993636010977162 -0.004103426296797028 0.0697528946837998
0.08159369110065146 -0.004089886132444513 0.0697999810825703
0.08310930357520063 -0.004078213880831204 0.06973698923550675
0.08429862794844856 -0.004070937086094206 0.06940639320591874
0.08549893550047044 -0.004063478345146404 0.06908988150535683
0.08670241760897024 -0.004055943339633417 0.06878097658866483
0.08790144468693856 -0.004048436227081744 0.06847321517114391
0.0890960414260139 -0.004040956852896949 0.06816659091504479
0.09002588538544742 -0.004037092291674087 0.0676356162988499
0.09095260445140713 -0.004033253731106672 0.06710448260120494
0.09188763163294211 -0.004029283112597271 0.06658317046183593
0.09282015119445852 -0.004025329575786744 0.06606229564468308
0.09375084257143695 -0.004021383789800209 0.0655424419913836
0.0946797111347889 -0.0040174457318669764 0.06502360650192485
0.09548327837942311 -0.0040152397275947166 0.06439541799562953
0.09621154291230516 -0.0040140777045821335 0.0637010537083667
0.09694792548058834 -0.00401279657030198 0.06301480392908071
0.09768383815066778 -0.004011516253535342 0.062328992057414545
0.09841928137217432 -0.004010236753499977 0.06164361767434662
0.0991542555941688 -0.00400895806941459 0.06095868036139329
0.09988876126513574 -0.004007680200498933 0.06027417970060095
0.10049066965312098 -0.00400827766385233 0.059467622429239864
0.10105459644207554 -0.004009417934197164 0.05862526192317841
0.1016201357167596 -0.0040105404464179295 0.05778363189807845
0.10218534709452176 -0.004011672796023032 0.05694092343710966
0.10275152126577602 -0.004012796571357683 0.05609834812639941
0.10331737031138699 -0.004013930195504807 0.05525468937035344
0.10388418045061609 -0.0040150552360864985 0.05441116717859745
0.10429053275376182 -0.004018498824112817 0.053412597334877965
0.10467900626370763 -0.004022216763939629 0.052394360308612054
0.10507268134349351 -0.004025876670690235 0.05137859150263874
0.10550738505809215 -0.00402895800116682 0.05040033673931721
0.10594211545046878 -0.004032053354516064 0.04941995587400483
0.10637751434266196 -0.004035153467695706 0.04843806744352375
0.1067139832406303 -0.004039714536004929 0.04735588630074988
0.113012185911401 -0.003956929372209802 0.052213901830073406
0.11472569278015132 -0.003941099540876837 0.052536000988357145
0.11614680910938757 -0.003929499986358191 0.05257476798126154
0.11751077507544 -0.003918688893234171 0.05256388782552229
0.11889324379779992 -0.003907552664448748 0.05257951578501935
0.1202567461358055 -0.00389664461906887 0.052583667928045474
0.1215859178039096 -0.003886194779120027 0.05256030102731246
0.1228837490222866 -0.0038761618806302006 0.05251201422994839
0.12418348547429331 -0.0038660523635338385 0.05247289981230269
0.12530701050401366 -0.0038585324514429937 0.05225702983020197
0.12636282999562554 -0.0038519924042207613 0.05197550585806027
0.12725017756714213 -0.0038479553056399583 0.05152094482495867
0.12793087621080035 -0.0038470150979246862 0.050850139355139434
0.1283573602501405 -0.003849913428706271 0.04990901132684111
0.12865382689615557 -0.003854796209344223 0.048826455441154326
0.1288230469281858 -0.003861635881242077 0.04760328547396164
0.12905245908651053 -0.0038675923898882046 0.04644028129609323
0.1291768045272615 -0.0038751820627601972 0.04515857852957594
0.12919166985279174 -0.0038844844890122366 0.04375155025823302
0.12941398036752583 -0.0038906503268938872 0.0425657462778235
0.12951999092398603 -0.0038986352292303826 0.04124686686138235
0.1296224723957291 -0.003906714105292609 0.03991815831753259
0.12966749146230472 -0.00391572122111855 0.038519298676271074
0.12972807714137247 -0.003924532000737756 0.03713121017913923
0.12983395383711682 -0.003932683275357823 0.03578764267863982
0.1298118008832675 -0.003942868958916341 0.034292817057554215
0.12982675960723056 -0.003952526410906825 0.03283265457101542
0.12986819334181282 -0.0039618181080732185 0.031395565688239035
0.12988969067908734 -0.003971469445972071 0.029928523922707784
0.12982650564345666 -0.003982501537591249 0.028356187830458124
0.1298451216581175 -0.003992299635197409 0.026870661406176
0.12999941568093415 -0.004000002600748757 0.0255363471098084
0.13000693035568717 -0.004010071128096274 0.024023662206702434
0.1301128037342269 -0.004018628193601561 0.022619494004240126
0.1302657255163644 -0.004026479576500998 0.021264649027651406
0.13032474472296918 -0.004035870993552932 0.019791709484424325
0.13039105713127247 -0.0040451939604924025 0.0183203012307675
0.13049517206732264 -0.0040539581642611445 0.016887292667625564
0.13058565494406632 -0.0040629871131331275 0.015430990617096962
0.13072886042215998 -0.004071212113559176 0.014031925498883546
0.13085381076008934 -0.004079775227744243 0.012604118895973848
0.13089140382675069 -0.004089800001571887 0.011062122528926965
0.13099599212703372 -0.00409878760814937 0.009595184740328278
0.13112946050891167 -0.004107351398223688 0.008157125784944153
0.13087273583674996 -0.004122339370834468 0.0062246324885476545
0.13036889298305215 -0.004141457029436098 0.003969876721838406
0.13063848131477462 -0.004147964214064123 0.0026767492800935377
-0.09584939235287487 -0.004292802087668639 0.03725376279589637
-0.09407645170421147 -0.004285139346397638 0.0366667563930424
-0.09106745578208608 -0.004266323817871881 0.03682756065990622
-0.08911142292209295 -0.00425692949091062 0.03636716868761547
-0.08683966315552483 -0.0042446465771569 0.03610571995701667
-0.08447228667105922 -0.004231450562170319 0.035912147919048176
-0.08214203984671642 -0.004218539990132471 0.03570598427818056
-0.07976508722449871 -0.00420515475048852 0.035538680648494414
-0.0774075883229482 -0.004191894401999076 0.035369691154380045
-0.07512625646698196 -0.004179277021694683 0.03516343805718958
-0.07278037257028636 -0.004166020219376275 0.035007584627502586
-0.07052404745212965 -0.004153531562574803 0.03480550034792562
-0.06821705582409326 -0.00414052888795606 0.03464539179821641
-0.0659470847080042 -0.00412781535062203 0.03447182590503989
-0.06373870100110379 -0.004115618976095131 0.0342686730319659
-0.061505753687506215 -0.0041031476289735 0.034091002410912286
-0.05934290309829415 -0.004091275153763955 0.03387761486708546
-0.057110341819923804 -0.004078709522130581 0.03371917942784647
-0.054896886525780564 -0.004066271298758862 0.0335581424698852
-0.05272249648320271 -0.004054146945630077 0.03338115985500539
-0.05058109206412714 -0.004042281666043123 0.03319189797643962
-0.048412385916168144 -0.0040301138597930225 0.033030342097334686
-0.046234326899335376 -0.004017809706754748 0.03288479099871505
-0.044119129684912994 -0.004006045667247528 0.03270660144473203
-0.042003330490959834 -0.003994228595415799 0.03253825494588958
-0.03985372239672741 -0.003982045474609535 0.03240250886721513
-0.03773630365679237 -0.00397011681904479 0.032254452231205544
-0.035714992388164835 -0.003959048503931035 0.0320496101530231
-0.03368609281786972 -0.003947863362508834 0.03185898861998121
-0.03152544095186938 -0.0039353819688251 0.03176947695068022
-0.02953275342875933 -0.003924447464698295 0.03157210118765663
-0.02760137609702268 -0.003914052703562729 0.03134031161793943
-0.025752031975115552 -0.003904398934698649 0.03105872967264428
-0.024042422284131115 -0.00389604297906811 0.030685239760803118
-0.0224579773595191 -0.003888853103645994 0.03022871077756456
-0.020939185495269297 -0.00388226457560005 0.029730676173678583
-0.019682734445713113 -0.003878175282317493 0.02904760796005268
-0.018405197779419624 -0.003873865597335252 0.028383298067901963
-0.017368086979900055 -0.0038718630247434496 0.02754609518370227
-0.016645926998111238 -0.003872904104202334 0.02647814559820827
-0.01572303116885415 -0.003872000278118815 0.02555826252159754
-0.014892231104333908 -0.0038719888400974753 0.02457043131226433
-0.01362906773570255 -0.0038677613637153763 0.02390688043312922
-0.012848245515106327 -0.003868229359087954 0.02288313966110611
-0.012286587940324278 -0.003870845368187208 0.02169284949799616
-0.012017191672033023 -0.0038763402032918524 0.020277594573159308
-0.011970462287715755 -0.0038840477236284344 0.018687085854797558
-0.012195791363511566 -0.0038944686477634023 0.016880476521102583
-0.013152930984528188 -0.003912160170059023 0.014498191625258339
0.06864818881592483 -0.003157839428837295 0.06722129456854536
0.07264413705098588 -0.0031244252315245154 0.06911296629155839
0.0754551296237348 -0.0031028207381519767 0.07006511565536205
0.07734502206652927 -0.0030904350832468667 0.0702792177639413
0.07898998036591504 -0.0030804773427396156 0.07030174401328804
0.08065199772535103 -0.0030703030534547752 0.07034706199598206
0.08230307250858115 -0.003060195750796527 0.07039208160901267
0.0835370080308967 -0.003054298468809453 0.07009587590330163
0.0847273465384098 -0.003048820955069126 0.06976803753719418
0.08593273779180854 -0.003043165208602492 0.06945775196024234
0.08713366517919113 -0.0030375304067831645 0.06914861544853745
0.08833015345095485 -0.0030319164334812214 0.06884062163096388
0.08936899702644574 -0.003027903152851342 0.06840175128866893
0.09029028602940081 -0.0030250869069157063 0.06786460835153063
0.0912226465912771 -0.0030221434947235665 0.06733959379654741
0.09215587452362362 -0.003019177986770085 0.06681794553687365
0.09308793996094139 -0.003016211352167605 0.06629790703731059
0.09401751111301837 -0.0030132574690451192 0.06577830187516426
0.0949068845385797 -0.003010710411604552 0.06522559022587465
0.09563052235393527 -0.003009887691898847 0.0645270226601532
0.0963636360703104 -0.0030089618060797703 0.06383770589582166
0.09709957974964212 -0.0030080019739982785 0.06315177632178498
0.097835054059707 -0.0030070427540773437 0.06246628421907652
0.09857005944939534 -0.003006084145731488 0.06178122916931722
0.09930459636702155 -0.0030051261483760197 0.061096610754658276
0.09998611959633091 -0.003004726589047277 0.06036396835504987
0.10054249975124813 -0.003005656762333491 0.05951567249810891
0.10110698444771693 -0.0030065047550940378 0.05867408284970327
0.10167243328324121 -0.0030073463264101877 0.05783262290431851
0.10223755435197063 -0.0030081952729341744 0.05699008493161395
0.10280363786451685 -0.003009037791057573 0.05614768006744142
0.10336939638056553 -0.003009887692954981 0.05530419216863325
0.10385531921405966 -0.003011602776942828 0.0543835627378923
0.10424309733014286 -0.0030143870285379605 0.05336699145891166
0.1046315931178734 -0.003017176433023834 0.05234853878353107
0.10502080857141738 -0.0030199710047186037 0.051328199483984205
0.10541074569233988 -0.003022770757993479 0.05030596831312212
0.10582380156479682 -0.0030253312884114827 0.049303822366098926
0.10624331224210065 -0.0030278332096740487 0.0483056548781261
0.10646594828788769 -0.0030325056645946107 0.04710988934310412
0.11335654380694682 -0.0029639121701574645 0.05255720103380618
0.11472932293205673 -0.0029557846622493664 0.05253963873473222
0.11612040396978957 -0.0029474165836881287 0.05254817053439337
0.11750839366149873 -0.0029390430304288497 0.05256147664755784
0.11889914931783752 -0.0029305989731592914 0.05258552606179895
0.12024092651823742 -0.00292265941044199 0.0525674843947912
0.12157836003976691 -0.0029147303427523707 0.05255252941983668
0.12288547992166432 -0.002907102067179665 0.052513803305383466
0.12418520323371524 -0.002899520030124973 0.052474684481212897
0.12548441503657837 -0.0028919072525794023 0.05244229668476885
0.12680050327377196 -0.002884067790979906 0.05243493653076703
0.12796731364079766 -0.0028778747790641243 0.05227761694350824
0.12898886905508394 -0.002873294685135054 0.05197222085210734
0.12991411215395537 -0.0028697843439506256 0.05156858262101505
0.1306875594752256 -0.002867982184152618 0.05100569288525009
0.1311185162936827 -0.0028700734026534387 0.05007566874029162
0.13139130149927264 -0.0028739814001355803 0.04897236618981676
0.13142563450891326 -0.002880638714593546 0.0476057611552031
0.13173523800607917 -0.0028841693304021915 0.04653372928242833
0.13186023206409908 -0.0028898414494810155 0.04525526317408429
0.13200069105753004 -0.0028953632268552887 0.04398830461401165
0.13213446942309293 -0.00290098961201511 0.04270847689198576
0.13225041732451032 -0.00290685062901715 0.04140317583189662
0.13235068032507608 -0.0029129230979727605 0.040074460323394345
0.1325183081882571 -0.0029182411154350923 0.038815698415001765
0.13252954845015325 -0.002925412140889776 0.03737431762070825
0.1325458878041465 -0.002932559444580506 0.035931583742803586
0.13263306607300557 -0.0029389112346218695 0.03456284006626292
0.13265198611167905 -0.0029460982455220227 0.03310912364721286
0.1326473050226471 -0.0029536000037323627 0.03162085749465138
0.13274154871628263 -0.002959969836801862 0.030240100617655474
0.13273594135079736 -0.002967555932884418 0.028736143935838843
0.13284387913868279 -0.002973830977544259 0.027357942539456226
0.1328464758902148 -0.0029813934375195576 0.025848915292639107
0.13285079735445104 -0.002988974010106522 0.024334225801370957
0.1329186090885054 -0.002995832984214115 0.022887565362649076
0.1330932281085323 -0.003001444587313975 0.021562009237839352
0.13307468374792183 -0.0030094108635416957 0.019997763992436024
0.13324464372965 -0.003015142853609411 0.018653787319105775
0.1333726745036351 -0.0030214120243540867 0.017252809724208396
0.1335052733714202 -0.0030276583636527623 0.015850934573426567
0.13356971064692338 -0.0030347665011246357 0.014358679101005634
0.13374263447044588 -0.0030405885273603116 0.01299324111971667
0.1339121701514844 -0.0030464824998624905 0.011617514119714456
0.13394489384715258 -0.0030540849746420098 0.010064614728208743
0.1340330342982596 -0.0030610462134703 0.008573363226604291
0.13410468083718113 -0.0030682475325632544 0.007053960587745989
0.13365298656930533 -0.0030819549611970087 0.004862672475320906
0.13371540961156678 -0.0030893643315080847 0.0033128321843280406
0.1343755864876466 -0.0030893861763985593 0.002521714044800172
-0.09759083996095214 -0.0028667691158589877 0.037865198401307365
-0.09540439211316676 -0.0028592086149916447 0.03751780516037179
-0.0939439086044005 -0.002855965925985721 0.0367458566077834
-0.09088543739632055 -0.0028431238919580724 0.03693681486539624
-0.08905316203188218 -0.0028376027929525103 0.03640234073389781
-0.08671644673892914 -0.0028290223083428812 0.03618053380856767
-0.084405890584272 -0.002820566392518906 0.03595269356288544
-0.08201182758470682 -0.0028115727365561225 0.03578595615544922
-0.07964188697341501 -0.0028026901875462785 0.035614779158942844
-0.07730600726293102 -0.002793979717883072 0.035432794440706794
-0.07503716451205722 -0.0027856428772095607 0.03521909866820688
-0.07266595257367403 -0.002776649616326619 0.035079476083198335
-0.07038755214954623 -0.0027681877014534718 0.03489174945190293
-0.06811587239911937 -0.0027597336256151394 0.034709690695624906
-0.06585661252466035 -0.0027513223673776848 0.03452964379778367
-0.06363631999989033 -0.0027431172194414847 0.03433447144554386
-0.06138193933986641 -0.0027346698530187844 0.03417102484557494
-0.05921038768590803 -0.0027266997110684276 0.03396374355644827
-0.05698985050374089 -0.0027183952858716195 0.033797933646196876
-0.05479637682392724 -0.002710225348011421 0.03362420553389672
-0.05264703416643807 -0.0027022965653501585 0.033431037918115136
-0.050495526476863006 -0.0026943226519569605 0.03324877061989656
-0.04832617851125398 -0.0026862057198639303 0.033087961645281494
-0.04622643220601269 -0.0026784905420038185 0.03289009712696955
-0.04405256012177605 -0.002670280885954852 0.03275159306619091
-0.04191657043855912 -0.002662275504942588 0.03259721875122079
-0.03982417614497025 -0.0026545114999614694 0.03242270062827457
-0.03772483394279891 -0.0026466723968009646 0.03226233405806739
-0.03557843971844127 -0.00263850495660464 0.0321439670024633
-0.03357818175808508 -0.0026312273474690885 0.03193396675064203
-0.031470683607633276 -0.0026232414311017395 0.03180773325087877
-0.029421613131904667 -0.002615593491798149 0.03165017774414286
-0.027443259038549606 -0.0026083636907685264 0.03145200127174819
-0.025490404206999107 -0.0026012666682656113 0.031244552827860983
-0.023684587462226292 -0.0025950787453274263 0.030940790456354617
-0.022104594429864788 -0.002590309267746742 0.030482466150632603
-0.02051129417786368 -0.002585434888654017 0.030039616890488563
-0.019077164471665964 -0.0025815623020801356 0.02948722531547171
-0.017784476671909688 -0.002578583665263808 0.028836375776745082
-0.016746930935728488 -0.0025772375387240706 0.02800196358556989
-0.0159233293373251 -0.002577267944217196 0.027011351401392103
-0.014848578937957713 -0.002575672629108887 0.026207032785568574
-0.013378138739941703 -0.0025715037674997956 0.025699865095817342
-0.012452749275550234 -0.002570860692608463 0.024789114747426677
-0.011793758526628395 -0.00257195032652176 0.023678287706076107
-0.01102282032539692 -0.002572313743163339 0.022650967230601282
-0.010632970680178488 -0.0025751716525279945 0.021332708027132496
-0.010179610418923846 -0.002577625262154603 0.020059523730523166
-0.010143301093039903 -0.0025828289724186128 0.018461909182632352
-0.01060698864125581 -0.002591346290421818 0.016470396518570518
-0.012154291284758478 -0.0026070485250402975 0.013624158913168982
0.0713133952209613 -0.002087378556615204 0.06937612343994765
0.07409117510569213 -0.002073239068692371 0.07028914468077813
0.07641320844461075 -0.0020621035850189613 0.07084801055808121
0.0780482675255057 -0.0020555501218669104 0.07085693570910223
0.07970852917306714 -0.0020487979683819642 0.07089517420625407
0.08136426381575457 -0.0020420470794519337 0.07093843005612932
0.08277484129630736 -0.0020369299397936928 0.07078585362565887
0.08396349432901329 -0.0020332993002464403 0.07045374041547309
0.08516244658247679 -0.002029582581209905 0.07013506492569338
0.08636458916311257 -0.0020258277614193473 0.06982396800745244
0.08756297563483872 -0.002022082129904627 0.06951460291686062
0.08871207224726768 -0.002018658061067128 0.0691679287556829
0.08963399778739672 -0.0020167804597286403 0.06863005830218077
0.09055825618739732 -0.002014878471851551 0.06809669188816381
0.09149218984052088 -0.002012901238723437 0.06757427063460208
0.09242429232191673 -0.0020109278823733524 0.06705287369685448
0.09335456901190203 -0.0020089583914106126 0.0665324980652946
0.09428368844377372 -0.0020069881448430515 0.06601372729851834
0.09505438844814879 -0.0020061126962002277 0.06535673845209644
0.09577959340970671 -0.0020055509685737273 0.06466026034509065
0.09651556800650563 -0.0020049113506771894 0.06397421322920638
0.09725107331336885 -0.002004272140629309 0.06328860356728505
0.09798610977901612 -0.0020036333380400975 0.06260343094105253
0.09872067785159155 -0.0020029949425200886 0.06191869493276453
0.09945477797866847 -0.002002356953680313 0.06123439512520895
0.10003412504720743 -0.0020028113070505687 0.060408241349332925
0.10059495835481075 -0.002003399059545653 0.05956430523478201
0.1011593529901792 -0.002003964178071093 0.05872288563828931
0.10172471141470718 -0.002004525017165137 0.05788159570433915
0.10228974220249043 -0.002005090771178544 0.05703922815138629
0.10285509202714604 -0.0020056568446370853 0.05619638496719548
0.10342140309928827 -0.0020062186316994863 0.055353676554956766
0.1038078455350408 -0.00200807660968934 0.054338156355010325
0.10419564575836343 -0.0020099334090655854 0.05332137005760701
0.10458416381652413 -0.002011793645456793 0.05230270164526263
0.10497340170448399 -0.0020136573284148945 0.05128214588732366
0.10536336142460223 -0.0020155244675272555 0.05025969753373527
0.10575404498667496 -0.0020173950724168108 0.0492353513149556
0.10599693658649934 -0.0020203522969202206 0.04806256455037966
0.10621682663460952 -0.0020234915620779025 0.046862814613867376
0.11334800654721516 -0.00197600400247265 0.05254869002097373
0.1146972531910469 -0.0019707586498696307 0.05250750190212927
0.11610900013502928 -0.001965028344722083 0.05253668364609254
0.11749589053747844 -0.0019594542872189463 0.052548817253656954
0.11891214053243526 -0.0019536365520549832 0.05259874772474116
0.12021045373907985 -0.0019486655529154585 0.05253631061750347
0.12155684708842396 -0.001943313454548413 0.052530407769792065
0.12287509417978226 -0.0019381454205332864 0.052503068495541205
0.12417775944481174 -0.0019330689441647922 0.052466950744776364
0.12548952885074938 -0.0019278998861714752 0.052447637136067426
0.12682474337755462 -0.0019225299606338883 0.052460381646435295
0.12811283166157417 -0.0019174885651508375 0.05243115744037219
0.12941860413969475 -0.0019122893873760492 0.052427987438474155
0.13058288305807897 -0.0019081344676792824 0.05228152409366876
0.13165941056847014 -0.0019046242205945885 0.05204707576630346
0.13254942967216676 -0.001902513494942947 0.05161686390747944
0.13332343772403596 -0.001901275778959881 0.051064141557256526
0.1337739697841058 -0.0019025010684908812 0.05016122569964909
0.1340140525050867 -0.0019053426855679021 0.049026318242931244
0.13417279701918106 -0.0019088222255585388 0.047797798976555506
0.13432885687772655 -0.001912339607821264 0.04656117571099094
0.1345764614450296 -0.00191516873722748 0.04542103412165216
0.13474741628390424 -0.0019186042492838223 0.0441911142555213
0.13485839519120638 -0.0019225215017054768 0.04288877557602272
0.13497693722751025 -0.0019263995717296594 0.04158912725189662
0.1350384392698744 -0.0019307411493575098 0.040219007307146615
0.1352302709783149 -0.0019340872488586428 0.038990914794617415
0.13534863435055275 -0.0019380250620141225 0.037673634183552795
0.13543666762476236 -0.0019422206601977022 0.03631549945656548
0.13540208219161723 -0.0019474017993824468 0.03480911594418706
0.13537837925794385 -0.0019525233945648422 0.0333075489057294
0.13546769177916984 -0.0019567776890385834 0.031930357111500496
0.1354023501770377 -0.0019622792204090043 0.030364926562657046
0.13556567482120832 -0.001965992140067457 0.029061238648937393
0.13565657346011353 -0.001970300952434082 0.02766587215614824
0.1356707356093797 -0.0019752446673234054 0.02617231192861119
0.1358042986882499 -0.0019792578848314363 0.024814393813044733
0.13597204894239953 -0.0019830173956555913 0.023491514930921054
0.1358065567388688 -0.0019894781361868607 0.021758924445560934
0.13586636818125025 -0.00199415454187454 0.020290806490055657
0.13597506145277924 -0.0019984598397474996 0.01887528295694657
0.1360712069062847 -0.0020028893512088917 0.01743761086181722
0.13625564445318541 -0.0020066240533824736 0.016102255157819045
0.1363862981338149 -0.002010816826345635 0.014694171302268966
0.13659705458839783 -0.0020143768380346877 0.01337962981162022
0.13666063634677936 -0.002019161837964141 0.01187458158301774
0.13683058469441467 -0.002023098037658298 0.01049630633568266
0.13700005551834923 -0.0020270590185046226 0.00911119807481231
0.13699406259557895 -0.0020324905760488077 0.007495939637333415
0.13684335294578098 -0.002039149771231623 0.00568645379604793
0.13625140173290692 -0.0020495091666908605 0.0032975732063158514
0.13693896012369905 -0.002049268843501187 0.002549957364993527
-0.09734026602567553 -0.0014326372440502905 0.03801301977356486
-0.09496334325693728 -0.0014282863930443449 0.037779502958387334
-0.09325742431886536 -0.0014259277062199152 0.03715554262297088
-0.09125270267519509 -0.0014226636170272752 0.036716368584221115
-0.0892203173401655 -0.0014193037742624706 0.03630142922674423
-0.08700709762761122 -0.0014153863832169656 0.036004058034967035
-0.08448134214433517 -0.0014105108421051346 0.03590661807516743
-0.08207916965170242 -0.001405989941673388 0.03574459698209892
-0.07952023546023645 -0.0014009766282947005 0.03568992104270735
-0.07718828821652612 -0.0013966326088215779 0.035505922823991454
-0.07490578062207887 -0.001392421939532697 0.03530118136130983
-0.0725342235010884 -0.0013879234750788485 0.035162243038853125
-0.07026405881221992 -0.0013837168708297494 0.03496978283100077
-0.06799337294829982 -0.0013794921316843901 0.03478753525981976
-0.06572521010267973 -0.001375258479888419 0.03461361890327519
-0.06353398591177661 -0.001371244371466275 0.034400239708922975
-0.06124012454301331 -0.001366898593227583 0.0342626811481902
-0.05906967702367333 -0.0013629160615123478 0.03405519876682289
-0.056862584770149105 -0.0013588045189805006 0.03388111568527924
-0.05471220150715267 -0.0013548521390725154 0.0336795323256166
-0.052570251144990976 -0.0013509101542167903 0.03348178892277137
-0.05041133082848687 -0.0013468996870432662 0.03330473270984219
-0.04822807662357376 -0.0013427973970470074 0.033153531261099156
-0.046196171904952954 -0.0013391508596042616 0.03291043547728684
-0.0439847066335749 -0.001334928316341213 0.032797452439633556
-0.04185831864292994 -0.0013309552763917998 0.03263680779528694
-0.03976766438361462 -0.0013270783674582108 0.032461320484076295
-0.03766749475141862 -0.0013231558548258329 0.03230173674754272
-0.03551651463230243 -0.001319057316585138 0.032186756762935975
-0.03343146223371812 -0.0013151503371363646 0.03203590955141178
-0.03141469673889924 -0.001311443550787906 0.0318468485602012
-0.029409267906292336 -0.0013077576010637596 0.0316588503204463
-0.02734036453965427 -0.001303854916215678 0.031524683189002534
-0.025366400220351193 -0.001300238526948254 0.03133262762291905
-0.02348901168155465 -0.0012969154163596523 0.031080462516545948
-0.021705077380352544 -0.0012938774131589983 0.030769349272138202
-0.020056907219397624 -0.0012912618181433453 0.03036768765740372
-0.018608476753998848 -0.001289276614359231 0.02982747213051956
-0.017163314035224697 -0.0012872937125331715 0.029289775767245174
-0.015885708835674195 -0.0012858426998152558 0.028634017231491338
-0.014727907866805223 -0.0012847726413466895 0.027893454541109253
-0.013541738168018735 -0.0012836063056926904 0.027176599105288912
-0.01250980911657068 -0.0012829353967631248 0.026347593619492182
-0.011444227320550782 -0.0012821523013455045 0.025545502329160086
-0.010835055879390876 -0.0012828525241995064 0.024401208466586166
-0.010281835516789073 -0.0012837383087059666 0.023212740357505646
-0.009630872979904725 -0.0012843081181849027 0.022096550485797894
-0.008770785155960192 -0.0012841948707865204 0.021139191560601567
-0.00776843081340528 -0.0012836138482446402 0.020291733899047426
-0.007534264843423288 -0.0012855589422229269 0.018850670732515618
-0.007907649624134816 -0.001289516343791208 0.016931509985153692
-0.0113764131543726 -0.0013037226350578368 0.012578612584656257
0.06998522606207958 -0.0010458853734174043 0.0696470310984939
0.07272028113746698 -0.0010389786264584583 0.07051359571448773
0.07547902655618405 -0.0010319625924394022 0.0714172151404367
0.07711849689319322 -0.001028680078390688 0.07142433759851943
0.0787632804195127 -0.00102536543736629 0.07144432063227055
0.08042368955656481 -0.0010219836313892499 0.0714858059909797
0.08201212715557199 -0.0010188307126871412 0.07147632690629571
0.08320256624138361 -0.0010170140900366256 0.0711428634969653
0.08439084936057561 -0.001015196857385347 0.07081233388159253
0.08559558936891876 -0.0010133155977855204 0.07050044127516242
0.08679587263262367 -0.001011441297607351 0.07018970246594103
0.08799172383656245 -0.0010095739183042206 0.06988011106331438
0.0889776731913261 -0.0010084181589704005 0.06939555065374525
0.08989852069159854 -0.0010074810511961306 0.06885795362613023
0.09082775558510114 -0.0010065109018337823 0.06833009986839284
0.09176123558037924 -0.0010055217913697923 0.06780851431794116
0.09269221517337672 -0.00100453693262438 0.06728736866295043
0.09362137285411903 -0.0010035540012318976 0.06676724288169877
0.09447786731545638 -0.0010028192149773656 0.06618547236389483
0.0952017414024085 -0.0010025430848098092 0.06548775246139393
0.0959318027650925 -0.001002244115344748 0.06479630299959843
0.09666733897710167 -0.001001924645185094 0.06411057593872022
0.09740240642708053 -0.0010016053786258573 0.06342528589617569
0.09813700556300314 -0.0010012863154724696 0.06274043245432515
0.09887113683227411 -0.0010009674555306056 0.062056015196061964
0.09953013390207344 -0.0010009124211591551 0.061303530543052376
0.10008276260737003 -0.001001233540532649 0.06045309730597337
0.10064739747808182 -0.0010015135411929246 0.05961291991188389
0.10121170208030922 -0.0010017959955233332 0.05877167029904501
0.10177697012198955 -0.0010020763109034052 0.05793055030828742
0.10234191065689918 -0.0010023590828007662 0.057088353106613476
0.10290717011842737 -0.0010026420143316671 0.05624568045828171
0.10337581800990192 -0.001003272859105829 0.05531030234813916
0.10376035570702202 -0.001004209075445909 0.05429273452635519
0.10414817803017618 -0.0010051377911183472 0.053275733123034685
0.10453671835140121 -0.0010060682261760984 0.05225684888582521
0.10492597866645231 -0.001007000385398382 0.05123607658118284
0.10531596097848656 -0.0010079342735821518 0.0502134109561479
0.10566183566125714 -0.0010090329923772017 0.04914484129272456
0.10582838090564317 -0.001010790788853363 0.04789625649692025
0.10599486540710323 -0.0010125570670244273 0.04664267714502229
0.11329372132397003 -0.0009882008853221533 0.052494571691887704
0.11471782711395251 -0.0009853037705852333 0.05252811886676895
0.1161276058896617 -0.0009824456841172014 0.0525554249054766
0.11748040884759636 -0.0009797842672547913 0.052533142066387595
0.11884894397833934 -0.000977052010193921 0.052534430140647737
0.12018935305925788 -0.000974411003868668 0.05251472453603745
0.12154114621371598 -0.0009717150748114957 0.052514262646319865
0.12285893693287803 -0.0009691328975436012 0.05248636819862834
0.12416057983627893 -0.0009665986213552685 0.05244910196289948
0.1255094139754776 -0.0009638755126713185 0.05246840354185095
