# .PCD v0.7 - Point Cloud Data file format
VERSION 0.7
FIELDS x y z
SIZE 4 4 4
TYPE F F F
COUNT 1 1 1
WIDTH 760
HEIGHT 1
VIEWPOINT 0 0 0 1 0 0 0
POINTS 760
DATA ascii
-0.0325590720859475 -0.056368148000594365 0.03997040516839567
-0.03259601099236946 -0.056720045924272655 0.03879009054870125
-0.032633454051828416 -0.05706854570926023 0.03760344015616274
-0.032671151718643064 -0.05741616789271903 0.0364125907547041
-0.03271130103774 -0.057741081990804355 0.03519829993382856
-0.032754004448983874 -0.05804243463538139 0.03395947444416464
-0.03279698928855612 -0.058342894282154834 0.03271591578396854
-0.03284068293055032 -0.05863825825528046 0.03146382863156316
-0.032888078138808195 -0.058899078983583986 0.030176656514939504
-0.032936637734626475 -0.05915055112393747 0.02887663931073209
-0.03298697258623905 -0.059386758868762934 0.027558243361993695
-0.03303685852686315 -0.059629592285963706 0.0262411987780507
-0.033088105244708794 -0.05986134688129213 0.0249093255060156
-0.033141418189036057 -0.06007523887987071 0.02355617592970871
-0.033198991137592684 -0.060250077003507985 0.022161813166498456
-0.03326645657790007 -0.06033150835855883 0.020674983632936905
-0.03332832205624251 -0.06047012700451121 0.019235359754788628
-0.03341014034615378 -0.060418826731591824 0.0176110459399334
-0.033504317431819176 -0.06025209268968762 0.015869710425233274
-0.03369776830975262 -0.059135361160049915 0.013215504813677892
-0.036535413499560326 0.047778789037201286 0.05529602414088941
-0.036257128696112376 0.043665097771696526 0.056330901886206264
-0.03607398422411659 0.04068164612800984 0.05668286693147434
-0.03592873213414925 0.03815079511539338 0.05676576219628787
-0.03581345382860747 0.03597729144118045 0.056635017571747936
-0.035718716925129096 0.034048933177228013 0.05635816191815468
-0.03563413034018844 0.03224321223273802 0.05601089619228511
-0.03556348171051846 0.030603482159343165 0.055564075492107845
-0.0354974381940332 0.029020450458049685 0.055086572245530485
-0.03543605272013418 0.027494413146459562 0.05457760994987182
-0.03538572539312618 0.026099045900168483 0.05398844153633103
-0.03534309516388612 0.024794804655998537 0.05334365035864552
-0.03530688410250054 0.02356644286817705 0.05265233174325523
-0.03527766344189464 0.022420083565638016 0.05190959521186539
-0.035251639802642815 0.021311735506943763 0.051143948221270275
-0.03154431625216968 -0.02193517448991683 0.07870240747153326
-0.03144280931565971 -0.023818945142837444 0.07862313228012727
-0.031401486449186174 -0.025011892835030636 0.0780830821958744
-0.03138223422570977 -0.02595182111046046 0.07737367762200495
-0.031368715405265354 -0.02682576179619861 0.07662058817351936
-0.03135496713316291 -0.027701681977681636 0.07587003515195201
-0.03134155208472559 -0.02857320242386424 0.07511761599079733
-0.031328389192138546 -0.02944126103798772 0.07436394257419068
-0.03131211140433578 -0.030343799372430702 0.07363563610958174
-0.03129961385513194 -0.031203099068826845 0.07287820563817735
-0.0312878464444895 -0.0320536346964303 0.0721156418040107
-0.031268973041228255 -0.032983177747644365 0.07141053148827128
-0.03125619045976201 -0.033843810659420104 0.0706575934988064
-0.03124453547002044 -0.0346912856777028 0.06989627858539232
-0.031227308404638443 -0.03560021816926778 0.0691806053066581
-0.03121025957258337 -0.036506380849658404 0.06846443023846471
-0.031193547497840025 -0.03740802960034706 0.0677464497296798
-0.031176297145893043 -0.038314862619796164 0.06703377533873583
-0.031158510331913903 -0.03922682280864492 0.06632643638616553
-0.031134324284592355 -0.040208427023779414 0.06567263065341122
-0.031110808681461634 -0.041181554039595614 0.06501462329785423
-0.031087644568915013 -0.04214974731981602 0.06435499646315845
-0.031064988224617653 -0.043111321092351274 0.06369242489027294
-0.031046934187821385 -0.04402160216233025 0.06299278840459882
-0.031030396519901127 -0.0449145319296978 0.0622814776960387
-0.0310218982920779 -0.045719289082520764 0.06150372041874769
-0.031022684969767286 -0.04642291386942371 0.0606483886012007
-0.03102622551222868 -0.0470967582779081 0.05976979218941669
-0.031034726111901542 -0.047717175844927295 0.05884904141311498
-0.031047958529254793 -0.048286968873673175 0.05788766625376962
-0.031060019302279092 -0.04886997432121237 0.056935542928259475
-0.031074772977986376 -0.049424624348391455 0.05595975747461679
-0.03109088389056394 -0.049965412552780586 0.054971534380709064
-0.031108277136937396 -0.050493233076806865 0.05397140615409057
-0.03112901631719615 -0.05098616294842484 0.05294147134688071
-0.031147641792750414 -0.05150254222736672 0.05192868786660487
-0.031167242396202242 -0.05200942028389921 0.05090642252429539
-0.031189173488625387 -0.05249250072833356 0.04986279559778295
-0.0312128873902353 -0.052957735568838704 0.04880239885862453
-0.031236158835590177 -0.05342872784575836 0.04774458076103655
-0.03126170167381351 -0.05387687375807748 0.04666552827971704
-0.03128792647339419 -0.054319027911362006 0.045579066416437
-0.03131443577611112 -0.05475940374583993 0.04448865381418371
-0.031343398994642065 -0.0551753291470759 0.04337502423882639
-0.031372979024355374 -0.05558614676202117 0.04225432182444555
-0.031404065957654256 -0.05598262971409668 0.04111855204322945
-0.03143618389970647 -0.05636982679248359 0.039971851503345035
-0.03147014852596942 -0.05673935206942288 0.03880681120635471
-0.031503131960075204 -0.057120587265358014 0.03764874993362982
-0.031538867589912686 -0.05747492840530499 0.036464019890868504
-0.03157403244481986 -0.05783678878166015 0.0352825066191646
-0.03161050094380903 -0.05818686720702865 0.034087220448561106
-0.03165106583635717 -0.05849661876322865 0.03285259479016711
-0.031691899174338525 -0.05880548652141393 0.03161329494562226
-0.03173259107123692 -0.059117672810529265 0.030373057965490502
-0.031777844474979375 -0.05938527137932109 0.029088635892467685
-0.0318247172843074 -0.059638492253776654 0.02778679743305712
-0.03187056612925559 -0.059904246625198776 0.02649186906855866
-0.03191871239856256 -0.06014886650201656 0.025173110794107667
-0.03196959405667866 -0.060368089937718916 0.023826257547834906
-0.032019297250663756 -0.06060151615663811 0.02248762136964977
-0.032075797877138226 -0.060768933204520204 0.02108262428424068
-0.03214018041200029 -0.060859938801144875 0.019600525258816837
-0.03222102295017733 -0.06078928877353096 0.01795989519619645
-0.03231379190854034 -0.06060335167703973 0.016202201101865155
-0.03244000970095271 -0.060088697730665996 0.014122604206548206
-0.032890572933574225 -0.05635849335848864 0.008955033483440955
-0.035492072350414024 0.05097636189466531 0.053320943264139
-0.03512075930132354 0.045599811726924955 0.05512903637264971
-0.034915457888454134 0.042263034295550395 0.0556948876466179
-0.03476676402071512 0.0396241886388522 0.05584001165048935
-0.03463935743377534 0.03725069753437105 0.05583037374514238
-0.03454512173233315 0.03528493930231774 0.0555727189664586
-0.03445975032989742 0.033430794842680744 0.055251950165357666
-0.03438491966365243 0.03170785123098413 0.05485431771396221
-0.03432219277024571 0.030134170830407703 0.05436676398604923
-0.03426297803699415 0.028605671424762946 0.05385534534798042
-0.03421408597534037 0.027203760029253843 0.05326639055726656
-0.034173251060627845 0.02590058974304943 0.05261683962524172
-0.034138242527390124 0.02466894451297552 0.05192361530167744
-0.03411040566081292 0.023524442067302864 0.05117556449384014
-0.03408704593229964 0.02243451946517988 0.05039349893177253
-0.03406647253502906 0.021378785480196505 0.049590527833898335
-0.03056059980668258 -0.020966772071944417 0.07669546670938956
-0.03040863806223086 -0.023491019777395872 0.07704946781727934
-0.030347776004065876 -0.024933099544923176 0.0766774885816196
-0.03032671111660162 -0.025903641423920876 0.07598692014250802
-0.03031338513976763 -0.02678223338094382 0.07523470338788846
-0.030300849159374695 -0.027650925680828498 0.07447680524366418
-0.030287001566903567 -0.02853437258320185 0.07373034377946047
-0.030273011248468634 -0.029418827256155022 0.07298583923429391
-0.030262682258143655 -0.03025993687649836 0.07221198131961967
-0.030250963899831677 -0.031116717030665042 0.07145018893597946
-0.030235844340891483 -0.03201242398090676 0.07071725985398508
-0.030221126993193573 -0.03290275130986009 0.06998184269006386
-0.030205959892801667 -0.033797577681563995 0.06925101493603214
-0.03018980357422688 -0.034703095134129 0.0685293333400423
-0.03017227537095464 -0.03562363897599641 0.06782009810412387
-0.030154690427433475 -0.03654400017898812 0.06711233595511623
-0.030136356067039707 -0.03747211707421272 0.06641191241661681
-0.03011689061087802 -0.03841230346581037 0.06572213146657174
-0.030096452052292097 -0.03936267450599151 0.06504174364229659
-0.030075197754702358 -0.04032136757017224 0.06436948693410532
-0.030051982821018435 -0.041301343015132164 0.06371524761015207
-0.030028880138680405 -0.0422789393698097 0.06306135991956069
-0.030005583983275314 -0.0432576264849186 0.062410453067409166
-0.02998689684118737 -0.0441831244978762 0.06172095618733586
-0.02997059322917632 -0.04508085661622013 0.06101181178603543
-0.029963133005959146 -0.04587830700873852 0.06022651100851062
-0.029962828586189413 -0.04659505574238815 0.05937905849770775
-0.029963665756414442 -0.04729899921324299 0.05852160805720502
-0.029972192332872887 -0.04791701084577743 0.057596432553813914
-0.029982476354713388 -0.04851582111616448 0.056655255371781954
-0.02999673329321295 -0.049070890868836314 0.05567830195529577
-0.030011461898700742 -0.049621399645936703 0.054696348065174816
-0.03002635782880983 -0.050170754863892386 0.05371206673385309
-0.03004226312802798 -0.05070965419523649 0.05271791309443613
-0.030057572583830836 -0.05125588757848015 0.05172820261348504
-0.03007619458159749 -0.051766365933415714 0.05070781051291823
-0.03009645205698689 -0.05225975692006568 0.04967159601394827
-0.030116044862308042 -0.052761401399062546 0.04864025177506903
-0.030138280902982782 -0.05323505524778843 0.047583781644127465
-0.03015885343610049 -0.05372793111714702 0.04654121011761908
-0.030181616071290027 -0.05419792568088916 0.04547744960151706
-0.03020673336349211 -0.05464340647330773 0.04439080467489814
-0.030232279886907625 -0.0550854272233644 0.04329878616091831
-0.03025849055335615 -0.05552147603455715 0.04219918999782096
-0.030286768298908525 -0.05593644915431595 0.04107897498542584
-0.030315955918256244 -0.05634296405128686 0.03994870835994602
-0.030346526910298367 -0.05673599464306317 0.038803903408017926
-0.03037676850820619 -0.05713401464686779 0.03766044043087452
-0.03040832453477754 -0.05751940440168052 0.036502946747918985
-0.0304412815534108 -0.0578913332367334 0.03533049702532193
-0.0304754910043455 -0.05825148438152056 0.034144372279083735
-0.03050985633815582 -0.05861160687210609 0.03295483264022353
-0.030546434753374433 -0.05894988666993056 0.031742357803519416
-0.030585876305949816 -0.0592596007559833 0.0305005769112468
-0.030624227280188418 -0.05958271101361601 0.029266961054483343
-0.030664029525399844 -0.05989235417880534 0.028017284050674995
-0.030707452053934697 -0.06016582902896367 0.026730608923629384
-0.03075308205592269 -0.06041821469638958 0.025420224681051262
-0.030798204598660922 -0.06067808422155335 0.02411214949032292
-0.03084652450585746 -0.060906713655293654 0.022770560386994987
-0.030897909422052592 -0.061105710329975804 0.021396470303808257
-0.030965226405976633 -0.061141541247815234 0.019864323071664025
-0.03104026808714122 -0.06110046376649725 0.01825291621474867
-0.03113530224705329 -0.06085609123600677 0.016441436395475906
-0.03124564451037448 -0.060458210628762166 0.014474195591848926
-0.03145786675392845 -0.05901625253725323 0.011497056815838402
-0.034015137059785816 0.048073027890099096 0.05359264738550423
-0.03376560546727552 0.04407578325173783 0.05456236468096071
-0.033612145321782645 0.041303700495812556 0.05478475452230125
-0.03347910609429228 0.03879649820024428 0.05485360838363762
-0.033372195242720414 0.03662443159034989 0.054721513818579814
-0.033288873741231594 0.03475369796364991 0.05440652513196331
-0.03321159803332218 0.032962809531996096 0.05404777899582497
-0.03314550853597057 0.03131557604615948 0.05360321035697091
-0.033089895554246615 0.029802313802359037 0.053077585175268505
-0.03304186759399979 0.028386243419477486 0.05249350889751503
-0.03300308524535963 0.027087437497851308 0.05183674799875143
-0.03297185688660208 0.02588423135641288 0.05112035164377349
-0.03294546431352547 0.024742421629695754 0.05036601359947429
-0.032923693601062204 0.023659007205092897 0.04957507260168842
-0.032905192042231135 0.02261696977504546 0.04875832795686735
-0.032888901200913014 0.021603045154768297 0.04792429154545147
-0.032876622289296845 0.020639184787580922 0.04705773790943335
-0.029405110651305338 -0.022711244971823308 0.07515908467671514
-0.029301426182475714 -0.024706134020126447 0.07516401005235401
-0.029272431897671918 -0.025784384750392464 0.07454519781578162
-0.029255620392849666 -0.026712825600505308 0.07382500022104282
-0.029242064645728368 -0.027600863239071072 0.07307814626587511
-0.02923213174587159 -0.02844428643993585 0.07230122013488866
-0.029219048683381002 -0.029325351259089805 0.07155181526212048
-0.02920582714900135 -0.030207441964002102 0.07080436943331697
-0.029193367798449086 -0.031079690370513835 0.07005114062108853
-0.029180019577451182 -0.03196201658273928 0.069306324984447
-0.029163912993431677 -0.032876800027946074 0.06858620679781507
-0.02914580497929356 -0.033814767010274915 0.06788444609318534
-0.029129960228362325 -0.03472477753542341 0.06716399995384748
-0.029112565810207505 -0.035652495169558984 0.06645805776435465
-0.02909139210128519 -0.03662435361751254 0.0657863467720256
-0.029070249169459522 -0.03759479941825106 0.06511561214683564
-0.02905077130569579 -0.03854445578395882 0.06443139539842574
-0.029030132474821845 -0.03950688685889375 0.06375862970361429
-0.029008708065398493 -0.0404775738210989 0.06309407514071125
-0.028986427654809604 -0.04145728823908279 0.062438430279581736
-0.028963147566800664 -0.04244765609902956 0.06179305857210493
-0.028941895614679917 -0.04341307437564018 0.06113082046063478
-0.02892406217014463 -0.044337413004557236 0.06043899265509306
-0.028908236833409845 -0.04523740566477963 0.05973003926777454
-0.028901838013040613 -0.04602670261986708 0.058936416298327965
-0.028897647218267663 -0.04678999218493873 0.05812305427195846
-0.028901323289034202 -0.047461735830577834 0.057238036689482796
-0.028911179771824454 -0.04806205599898644 0.05629613193566524
-0.028920306687157792 -0.04867129813533483 0.0553603575513168
-0.02893216555795114 -0.04924947464742219 0.05439883402439277
-0.02894521417843918 -0.04981454151971482 0.05342559726565249
-0.028958126933360064 -0.050381814263979974 0.052452853412714884
-0.02897223343860087 -0.050936042449299945 0.051468226845858944
-0.02898916460122393 -0.051458661112988024 0.050456369330425466
-0.02900463434086241 -0.05199879583738809 0.049457215873070004
-0.029020861983695814 -0.052531064422480955 0.048450022692529404
-0.029039854317228664 -0.05303271928597225 0.047415789660129604
-0.029059391877256036 -0.053529131118371764 0.046375277445024954
-0.029079997905141756 -0.05401442046393573 0.04532347047499563
-0.029102049666339787 -0.05448440755659695 0.04425668163210705
-0.029124806932723464 -0.05494753788031592 0.04318185408600789
-0.029148572111245937 -0.055400464791425574 0.04209602785418082
-0.029172825610790418 -0.055849090257479084 0.04100410780914676
-0.029198995715343363 -0.05627746760610147 0.03989228099790021
-0.0292244609535204 -0.056715009162811914 0.03878572831256294
-0.02925298357948643 -0.057119748017260275 0.03764801924555278
-0.029282769637700688 -0.05751185273060999 0.03649633727664886
-0.02931359974864512 -0.057893850231370225 0.03533271157847412
-0.029343509439403427 -0.05828755811171349 0.03417627834323028
-0.029375531100107252 -0.05865942463908452 0.03299734821629563
-0.029407698855429387 -0.05903126492763683 0.03181509256603976
-0.02944016603149154 -0.059401404376433764 0.03062798415388973
-0.029478364615540438 -0.05971028839921794 0.02938218745286203
-0.02951673914900153 -0.0600191357354069 0.028132391710691818
-0.029553291457134413 -0.06034977615814152 0.026898492964484266
-0.029594713918122094 -0.06062917040277349 0.0256137662962041
-0.029636561934053014 -0.06090598748302578 0.024322333063115764
-0.029681863004235764 -0.06114742827967312 0.022993719356457554
-0.029735317691821948 -0.0613028914574259 0.021580225396736097
-0.029797560589642186 -0.06136613150453807 0.020074713354883422
-0.029876399491764044 -0.06125371035529259 0.018397222385081957
-0.02996719417889851 -0.06101671929800073 0.016593481851795877
-0.030077802698344 -0.06057180251481992 0.014582278229244627
-0.030229238325236944 -0.059695675288726435 0.012146893151878946
-0.033105665353963254 0.05332947832363938 0.050327282765210424
-0.03264108382887909 0.04636677513104226 0.05313105732392692
-0.03245998146817397 0.04314980334034635 0.053624826309833395
-0.03232204835511829 0.04050781007312837 0.05377225928276841
-0.032204356228592315 0.038137615890465104 0.053759932869248905
-0.03211667167504353 0.03616513317760656 0.05350452207219342
-0.032039422115314915 0.03433308889715081 0.05316712554162606
-0.031971431071122686 0.032625383233165495 0.052756669290707825
-0.0319197640012456 0.031132975540304697 0.052212718843854755
-0.03187040230894594 0.0296730774543863 0.05165242272840026
-0.03183315640027595 0.028372295547893778 0.0509922361378059
-0.031803774182170876 0.027174852846155284 0.05026729432284688
-0.031778698600777575 0.026034356256177726 0.049507307210119256
-0.03175754007546054 0.024945468907775714 0.04871522395167638
-0.03174120540094065 0.023919514326465108 0.047882870708678804
-0.03172755992301809 0.02292880773316558 0.047028263564741046
-0.031715583705367464 0.021960117935625467 0.046160006512241614
-0.031705733138345335 0.021019132177734656 0.045273971478602903
-0.02842986575787281 -0.021457793276027426 0.07293179640080785
-0.02827407166867276 -0.024166115272999944 0.07342698630787375
-0.028218630418372352 -0.02559532212595006 0.07304854321737114
-0.02819655842210058 -0.02659986949143267 0.07237880068628463
-0.028182590069682985 -0.027501055008236464 0.07163859601227257
-0.02817037910924475 -0.02837939805173828 0.07088361944587457
-0.028157743193218086 -0.02926245210038947 0.07013318322562828
-0.02814439340096602 -0.030153806801189342 0.06938991340028516
-0.028130331778767937 -0.031053381486446152 0.06865385720814893
-0.02811577759147091 -0.031958383428567716 0.06792310335786805
-0.02809805776623183 -0.032902082868651816 0.0672218774459295
-0.02807862782836512 -0.033866136253719925 0.06653725935596683
-0.02805915266331729 -0.03482975172758779 0.06585424389345051
-0.028045176067669104 -0.03572427409060619 0.06512217703814233
-0.028022080399602356 -0.036730769477936076 0.06447457452360178
-0.028000171132464273 -0.037721446406381975 0.06381747357683093
-0.027979944499526416 -0.03869028955087833 0.06314618503415403
-0.027959460789275314 -0.03966124966365614 0.06247851668524118
-0.027939721709599106 -0.04062203102344347 0.061805185271852414
-0.027918511852555207 -0.04159978384483454 0.061146773631839235
-0.027895339281351263 -0.042600398049801536 0.06050801771017367
-0.027874267862554484 -0.043574233180807 0.0598509668834874
-0.02785685105611872 -0.04450257348420211 0.05916080436870774
-0.0278431461966407 -0.04538500559420089 0.05843665273317605
-0.02783491556532747 -0.04620049100676332 0.05766147336461458
-0.027833496982951962 -0.04693329781316086 0.05682204636786459
-0.027836547114593768 -0.04761218693169106 0.05594009195124666
-0.02784428183913989 -0.048234907422037454 0.05501313405697178
-0.0278533703077372 -0.0488417836416315 0.05407270967403255
-0.02786537901827863 -0.04941416568639129 0.05310361198933622
-0.02787661546639883 -0.04999639102912706 0.052141237437301036
-0.027888644233481457 -0.050569749177485024 0.05117049720789185
-0.027901895000254296 -0.051129190194066865 0.05018714196721624
-0.027916442585318214 -0.05167392029360457 0.04919032985263516
-0.027930719657638495 -0.05222260231230763 0.04819527217401803
-0.02794608380646281 -0.0527591715763272 0.04718867322443099
-0.027963397639421503 -0.053273539934210246 0.046161942794417876
-0.027980589584029804 -0.05379023281369216 0.0451353547410972
-0.02799844858403381 -0.054299978036186414 0.04410110668248046
-0.028018486373142755 -0.05478511706385436 0.04304411898148408
-0.028038984717024075 -0.055265902927907784 0.0419813138000692
-0.028062252461930674 -0.05571544170049991 0.040889570075302806
-0.028087075472437446 -0.056148076967205585 0.03978080666664979
-0.028109410356199988 -0.0566108812686027 0.03869554527199737
-0.028133519789336228 -0.05705427334677371 0.03759101397953224
-0.028160792213496325 -0.05746233865234013 0.036453000924371926
-0.02818709918060909 -0.057882942973102924 0.03532311493379947
-0.028215495996060793 -0.05828084732682359 0.03417034286796822
-0.02824300069118369 -0.05869045669785683 0.03302493933856626
-0.028274071680409373 -0.059060618183419844 0.03184132810055168
-0.028305577863661783 -0.059427402210131264 0.030651342600561016
-0.02833605164989363 -0.05980758239749845 0.02947006225099208
-0.02837064346396662 -0.06014246330817513 0.02824436342564335
-0.028406501802942297 -0.06046474156861664 0.027003419079696722
-0.028442747155939255 -0.06078447915609525 0.02575625453451974
-0.02848168424403132 -0.06107565419438671 0.024478808031255572
-0.028524824587789894 -0.061321427494084646 0.023155028564302627
-0.028576616293451474 -0.061472072231910535 0.021737886676692464
-0.02864060713939585 -0.06148842658666498 0.020189276191849126
-0.028714091356667276 -0.06140173828311696 0.018536614351550074
-0.028806478606043056 -0.061107585888871385 0.01667949330024182
-0.028916293753374792 -0.06062387429205135 0.014631824505940805
-0.029066033879837194 -0.05970169800173625 0.012152653597414242
-0.0315885203582099 0.049834724585510415 0.05096444049178489
-0.0313278573680292 0.04542381577872301 0.05219603744761697
-0.031176498761479637 0.04251881075614067 0.05250154187884021
-0.031045978533144506 0.03990578697384922 0.05263631585259693
-0.03094921435294656 0.03775869683234989 0.05248612655654866
-0.030867038003506538 0.03581473321325829 0.05221489987286482
-0.03079777467253551 0.03405004321907845 0.05183589774852854
-0.03074368705760685 0.032494170806598055 0.05132800718293751
-0.030702639036951803 0.03111708308015876 0.05070860780975989
-0.030667529348701136 0.029822135580399922 0.05003928487296805
-0.030637511966878993 0.02859748468114587 0.049326982611421655
-0.03061237848798767 0.02743992687178126 0.04857307072201217
-0.03059335459059189 0.02636547126603661 0.047766119047723044
-0.030577028989106716 0.0253280699082008 0.04693616205893392
-0.030564996676135454 0.024348764094290876 0.04606857391013175
-0.030555110532815455 0.023398649519173476 0.04518235297215545
-0.030547544385424855 0.022479861191179618 0.04427571683814391
-0.030544607949802037 0.021622811068590098 0.043327416592560286
-0.030545141805502576 0.02081179858780796 0.0423476008387223
-0.027243459979802306 -0.023569039601787134 0.07164065385225749
-0.027161388989358548 -0.025379351689976737 0.0715260843418784
-0.027134469438943768 -0.026460547646371735 0.07090763513187759
-0.027117487711390567 -0.0274099794002427 0.07019884827317174
-0.027102628613532374 -0.028330722707424427 0.06947141536764767
-0.02708925534505949 -0.029231264854748584 0.06873107262642358
-0.027075895267640166 -0.030130918730118028 0.06799146014050911
-0.027060034188211103 -0.031062386573237344 0.06727618713558564
-0.02704307572804725 -0.032007248642337394 0.06657226705410985
-0.027025929541345674 -0.03295363395489015 0.06587120445210587
-0.027005466255623944 -0.03394197857829767 0.06520270452599802
-0.026987256361409393 -0.034900159451255075 0.06451406188348657
-0.026965880689367037 -0.03589811705964291 0.06385681638548912
-0.0269475163654646 -0.036856246088879274 0.06317207952733717
-0.02692675672806813 -0.037844097306173385 0.06251154428219308
-0.02690568386045204 -0.03883484347667726 0.06185535576147133
-0.026885195396537866 -0.03981700061067195 0.061194856524715846
-0.026866183564258853 -0.0407792497489009 0.060521327019389504
-0.026844380660058318 -0.04177596066687295 0.05987620175424435
-0.02682240728150903 -0.04277366620607109 0.05923413452184573
-0.026803758173468497 -0.043728114602873236 0.058560872799572894
-0.02678622974572719 -0.04466740798371438 0.05787777661903343
-0.02677268831735334 -0.04555550676222203 0.057156449076555704
-0.026765102898137785 -0.04636796487499645 0.05637701209134166
-0.026764692998145507 -0.04708995441392155 0.05552678134376837
-0.026768450887113236 -0.04775972235792131 0.054635043017462026
-0.02677555959831915 -0.048387813833826177 0.05370956551203038
-0.026785477086175083 -0.04898125791146207 0.052755464279288455
-0.026794511810381717 -0.04958621850525535 0.051809611578878145
-0.026802456449461835 -0.05020519908199078 0.05087418445441272
-0.026814930813056685 -0.05076847909751686 0.04989238667372181
-0.02685276749605265 -0.051018851578985946 0.04865218936868276
-0.026862398190468918 -0.05161922978033184 0.047696963110094526
-0.026857444399622545 -0.052399662912471334 0.046890186622427776
-0.026866803095175962 -0.05300402334514054 0.04593698500664978
-0.026881542490954757 -0.05354293539139576 0.044927847610191696
-0.026898022907112063 -0.05406134440739463 0.04389980802543331
-0.026913763655229638 -0.05458966248426117 0.04287837078777096
-0.026933188799700466 -0.055073961176181685 0.041817683363345404
-0.026954651230772463 -0.0555345482109082 0.040734543108807475
-0.026972886518431268 -0.056035406900372564 0.039683737663363916
-0.026993786863800058 -0.05650500579718443 0.038603848690535514
-0.02701680772504435 -0.056950131236249646 0.03750034305793387
-0.027040286257343147 -0.057390978321798625 0.03639054401249958
-0.027065063011240825 -0.057817484052163026 0.03526552154143159
-0.027089045408384426 -0.058254840415418396 0.03414734058405944
-0.027115804741649888 -0.058660263421432934 0.032998093991705
-0.027143038552283394 -0.05906145676970692 0.031842077617390274
-0.027171383194739468 -0.05945088053445213 0.030672437326874025
-0.02720028099071778 -0.05983525016464575 0.029495051453776844
-0.027229805993373133 -0.06021373220742671 0.028309069968493306
-0.02726130863577823 -0.06057040388353008 0.027099854487376285
-0.027296578763436982 -0.060884301403758556 0.025847836598698604
-0.02733023056967979 -0.06121914331171807 0.024611140737434367
-0.027374752482112297 -0.06142808755171453 0.0232539097544458
-0.02742637624052288 -0.06155617550623316 0.021816263371199407
-0.027488063515685425 -0.061569343212401706 0.020265076772223
-0.027562194715082037 -0.0614406258783165 0.018573233241280906
-0.027652323358030962 -0.061129657877083576 0.016700385948001828
-0.027767728168592614 -0.06052996218162138 0.01454246716774582
-0.027915723848749928 -0.0595588132074269 0.01201599092162281
-0.030251280621487082 0.048688274608906346 0.050144939424134005
-0.030049373099610904 0.04496709074408656 0.050954515059479955
-0.029907800264200764 0.04211484536786403 0.05123252884034568
-0.02979173585785262 0.03963240062147655 0.05128870244938266
-0.029703147756819186 0.03754548104792316 0.05110257993453399
-0.029628968658921208 0.03566712786832388 0.050790760283418834
-0.029572467386479697 0.03404223364575382 0.0503218405589797
-0.029531534383524186 0.03263962384358199 0.0497134616267329
-0.02949815942109229 0.0313454715818568 0.0490380261569619
-0.02946987156468489 0.03012450242683795 0.04831767533000686
-0.029447332088017555 0.02898554197502129 0.047545751276097115
-0.029428877152075893 0.027904875425259767 0.04673720805459319
-0.029414749765829265 0.026885546761616863 0.045889361472556345
-0.029405023542209252 0.025928216926417613 0.04500108720107959
-0.029398657641458183 0.02501807052419247 0.044081763526255424
-0.02939427193572782 0.024135708828124658 0.04314411914119998
-0.029391520788494527 0.023276187852668828 0.0421912395350042
-0.02939289629810869 0.022473750830248773 0.041199204883009766
-0.02939693760178666 0.0217079389558813 0.04018157752125412
-0.026243523958205145 -0.02244096057484929 0.0694731735796279
-0.026111165083902804 -0.024989283776590765 0.06987406595883394
-0.026064704752601774 -0.02635477960264887 0.06945348361393056
-0.02604383125214683 -0.02736826535266096 0.06878782274207584
-0.026027776706312487 -0.028314911526413633 0.06807665150411024
-0.02601389672677726 -0.029231086055452604 0.06734531315953235
-0.025998282618763732 -0.030170020596643587 0.06663189243406181
-0.025981343690379747 -0.031126026011179975 0.06593253808323185
-0.0259632863961368 -0.03209620073464314 0.06524534564406653
-0.025945991069957163 -0.03305508850407746 0.06455181324997844
-0.025925708515520736 -0.034053218687332465 0.06388910330485653
-0.025907661651847515 -0.03502018449426075 0.06320546418250061
-0.02588397156744526 -0.036061785862790297 0.06257945387509828
-0.02586804685583453 -0.036998189536012915 0.06187711688498687
-0.0258495481854289 -0.03796806174202316 0.06120174919972904
-0.02582596421189818 -0.03900463931494702 0.06057896991474909
-0.02580600134645335 -0.039991764501719096 0.05992107167028843
-0.025786069318826967 -0.04097736481787545 0.05926418972011843
-0.025766101991668452 -0.04196231829372288 0.058608995508271255
-0.0257457038269978 -0.04295184656019546 0.05795953977061491
-0.025725074508958896 -0.04394328148352672 0.05731381570464544
-0.02570848960859293 -0.044880367410561894 0.05662781326366828
-0.025697707742958667 -0.04574036161993028 0.05588295816009775
-0.0256918603933949 -0.04653512566567969 0.05508767309374657
-0.025692845715550323 -0.04724026610939214 0.054221726674383075
-0.025697510598603528 -0.047897475967128844 0.05331732944117684
-0.025703689247449955 -0.04853524764405681 0.052396779445595454
-0.025710199761055725 -0.04916905532931681 0.051472333754861044
-0.02572046544786802 -0.04975457002692657 0.05050790520293491
-0.025729816985021504 -0.05035247788018077 0.049552451024159894
-0.025742472135485195 -0.05090828719274415 0.04856136046632148
-0.025763063327068843 -0.05136263959962023 0.0474850522159348
-0.02578461370362997 -0.051805821725213363 0.04639714248765481
-0.025793018857451385 -0.05241869807273436 0.04544843074414684
-0.025788451598453253 -0.05319795635054436 0.044638375886932924
-0.025800700795862035 -0.05376235336345947 0.04364759505814114
-0.025812895329106123 -0.05432813111798851 0.04265658856271776
-0.025828884964297978 -0.05484637078727733 0.04162366244608451
-0.02584815188394598 -0.05532395535817808 0.040554063583546296
-0.02586358612782814 -0.05585109971714547 0.03952495090591218
-0.025883038204831437 -0.05632839396454281 0.03845088879262887
-0.025902853404073937 -0.05680220232273586 0.03737154932740694
-0.02592310020010633 -0.057271694783044724 0.03628614313022721
-0.025945254192123193 -0.05771840634094055 0.03517834898472871
-0.025966439586371844 -0.058178473479587156 0.03407979646427273
-0.02598940710173506 -0.05861747998879191 0.03296005452645984
-0.026014974262439636 -0.059025393638124535 0.03180984488858385
-0.026040524295508603 -0.05943494918592135 0.030658123382128144
-0.026066124564717866 -0.05984530999649024 0.02950413737591162
-0.026093943284125214 -0.06022965860038104 0.028323529877920417
-0.02612209305827301 -0.060611476091119 0.0271373400855896
-0.026152481436929435 -0.06096729968754139 0.025923983493104097
-0.026190378766112316 -0.06123256265059884 0.02462351671034607
-0.02623085079661576 -0.061468381599549315 0.023291265100900016
-0.026281135930920643 -0.06158644191592488 0.021844468945421525
-0.026341277442401254 -0.06158703829567064 0.02028165306379892
-0.026415436332573993 -0.061420337871522346 0.018554128838454254
-0.026506853747216105 -0.06104814625726657 0.016623229620043867
-0.026623570886651914 -0.06037446011952152 0.014394507013411495
-0.02677916065203539 -0.05923729163616681 0.011708470457563291
-0.028973163504585977 0.04839609582869514 0.048787784597388084
-0.028783073298474876 0.04472462782844755 0.04957409430873966
-0.028654878437899316 0.041982289581435406 0.04978696364405666
-0.028552395423880803 0.03962804515545515 0.04976415412040697
-0.028474747580863463 0.037646689352246854 0.04951135053062611
-0.028412210442950024 0.03589266596476931 0.04911914827014369
-0.028365089954367102 0.034369152456370455 0.04858302634460443
-0.028332231904532535 0.03305784706498527 0.047912515517209486
-0.02830478326654158 0.03182774496516694 0.047191889398048525
-0.02828404440224338 0.030697392809639623 0.046407940415409465
-0.02826724241693435 0.02962572347930642 0.04558702311472124
-0.028255276946476234 0.02862549858270258 0.04471991707112821
-0.028246807532089146 0.027676804367062602 0.04381928941988805
-0.02823850911220115 0.026731086269875137 0.04291756530694385
-0.028233449470025998 0.025832754569454386 0.04198436687314694
-0.028231459288261294 0.02497907840240654 0.04102103732049861
-0.02823303482611482 0.024176946165237967 0.040022310274042294
-0.028238343194489462 0.023428450635733344 0.03898614200437417
-0.028247886686393154 0.022740479736761576 0.037907101727528425
-0.028261756987284194 0.022113976571526972 0.03678382372178807
-0.025060484107860062 -0.02450892388559356 0.06814962095143878
-0.024992066921079543 -0.026217903381652197 0.06797076943968489
-0.024964220988588925 -0.027344846504786247 0.06738387174270116
-0.024946209415013174 -0.02833033488482911 0.06669850662994503
-0.024930616084118142 -0.029280458184995195 0.06598962192674424
-0.024913234086831125 -0.030254997503931458 0.06530020959909427
-0.024895553904348056 -0.03123273464240167 0.06461508331399612
-0.024877641244938794 -0.0322127168851305 0.06393359420133127
-0.024859625754201052 -0.03319309945855797 0.06325442032162443
-0.024840994339239118 -0.0341810786938927 0.06258291817707679
-0.024822390830543096 -0.03516757812691862 0.061912421813195395
-0.02480048729565357 -0.036199139768357036 0.06127783279963561
-0.02478488382510163 -0.03714150211844719 0.060578472575359366
-0.02476438618955634 -0.038151109271894745 0.05993187147777701
-0.02474245747762625 -0.03917940613117615 0.05930185694969453
-0.024720376836794344 -0.040208528479138306 0.05867498418872091
-0.02470093782270653 -0.04119980454679267 0.05802148294511772
-0.024682226518021357 -0.04217989559029006 0.057361550945338846
-0.024662404477200566 -0.04317419918358312 0.056714842518325925
-0.024644509699310996 -0.044140843089162884 0.056048763857302786
-0.024628281449238763 -0.045083573932083454 0.05536593002719059
-0.02461825210076589 -0.0459404789316854 0.05461705168565839
-0.02461604547956734 -0.046689914891139384 0.05378382809566473
-0.02462039605513054 -0.04734982163222923 0.05287924419609097
-0.02462531594919155 -0.048002237193393305 0.05196812840586679
-0.024630174696704487 -0.048655770343518645 0.05105734112584687
-0.02464046642503226 -0.049235990824423204 0.05008639487200911
-0.024645141582734006 -0.04989273214928691 0.04917676951854916
-0.024650640321344217 -0.0505386383499673 0.04825769307585509
-0.024659620546646534 -0.051138009895817294 0.047299536615705295
-0.02467221652555072 -0.05168934882590248 0.046300439394138526
-0.02469414773569562 -0.052116330065974104 0.045196052817699284
-0.02471421148864196 -0.05256956255327783 0.04411109099759314
-0.024718723970402583 -0.05323144849489592 0.04319975190375119
-0.024715418893096152 -0.05399766955826424 0.04237635257781569
-0.024726354447485357 -0.05457453483087843 0.041391922161009564
-0.02474213903741343 -0.05508776958312245 0.04035165074757929
-0.02475590333528834 -0.055628644811304695 0.039333298618903056
-0.024772427952402146 -0.05613390014616776 0.03828244167242667
-0.024789486091356006 -0.05663309652029486 0.037224318021283065
-0.024808168349289367 -0.05711195328691471 0.03614633211098933
-0.024827968963480718 -0.0575772423422079 0.03505414721894207
-0.024848315087599028 -0.05803655384553569 0.03395427307305482
-0.02486785817611879 -0.058507533543991186 0.032862299304224185
-0.024889558677420633 -0.058951564984849714 0.03174385785820871
-0.024912523823304025 -0.05938043533843301 0.030609143962757324
-0.024936760513774362 -0.059794166017174966 0.029457944733638497
-0.02496091476899619 -0.060210379082305254 0.02830602559518841
-0.02498732419396094 -0.060598904077615534 0.02712586591669075
-0.025015612336603814 -0.0609647852163977 0.025921676587949694
-0.025050230312276336 -0.06125101241425024 0.02464053198786509
-0.025092868025761265 -0.061436482977740126 0.02326169289028518
-0.025144527835799478 -0.061509083093591654 0.021772377474141014
-0.025203668196145744 -0.061489269678088154 0.020190065977861604
-0.02527564293120765 -0.06130955403242577 0.018449808137546486
-0.025368769008164746 -0.06086544435102226 0.016450289759096792
-0.025486146081749466 -0.06011952280399868 0.014151934252375709
-0.02564567173761375 -0.0588476803113091 0.011335825303605052
-0.02772497980158403 0.04862035920401531 0.04709847975592446
-0.027529159229993796 0.04472904433033209 0.04803160061822076
-0.0274139227625052 0.04209937580590101 0.048175875168591176
-0.02733307230196435 0.04000895056772813 0.04798459823610218
-0.027269220759623316 0.03818604504299361 0.0476285618247958
-0.027213251839069526 0.03648856435697262 0.0471977598783036
-0.027175932533444927 0.03508143564079125 0.046582450648264995
-0.027146022199501494 0.033790352316213634 0.04589467206343806
-0.027123071350014752 0.03260774616440587 0.0451381914683357
-0.027102320648922814 0.031460192423826194 0.04436089594580145
-0.027088877703492265 0.0304254446149671 0.04351014977481821
-0.02707984322142105 0.029458669589840503 0.04261500056494544
-0.027070335544725634 0.028485254406784233 0.04172539913654544
-0.027063947581258622 0.02755974983905568 0.040804147252627154
-0.02706171250638653 0.02669751189589259 0.039840154215669776
-0.027063308951159094 0.025893303477203533 0.03883632084228572
-0.0270684188399266 0.025141976489557905 0.03779556033687276
-0.027081521741461227 0.024510618530857675 0.03667039196402261
-0.027099919146522822 0.023957970050640875 0.03548841040100187
-0.02712643932566894 0.023525932604069433 0.034219094693983376
-0.024036114231839358 -0.023524971784603832 0.06605809437745924
-0.02391625813503426 -0.026049656210229366 0.0664589011446095
-0.023876674847551634 -0.027371313370418815 0.06600985764700124
-0.023856374022048217 -0.02840391892037436 0.06535675422595122
-0.02383951398980806 -0.0293842405864132 0.06466807827718629
-0.02382255406409163 -0.030365008890709755 0.063981711767577
-0.023805494721967236 -0.03134620761268747 0.06329766045664581
-0.023787164657000103 -0.032345095356180076 0.06262867710430664
-0.02376898594901348 -0.033340634257521984 0.06195937901620607
-0.023751142417170374 -0.034330139553921224 0.06128773656875497
-0.023732404826133063 -0.03533165088409579 0.06062721965437179
-0.02371406451925932 -0.036326206904596536 0.05996369000643209
-0.023693304918159075 -0.03735493583499061 0.05932825759122068
-0.023672887021515834 -0.03837741915791559 0.05869054775713273
-0.023654516585560663 -0.03936890698662515 0.058031531736302266
-0.023631426215889487 -0.0404276970462058 0.05742657844860721
-0.02361445707849932 -0.041396518893144496 0.056754711224764165
-0.023595388320496662 -0.0423946124592498 0.056107688323878135
-0.023575805111930803 -0.04339894963889218 0.05546785941706339
-0.0235610331441109 -0.044332926498779124 0.05477501480741043
-0.02354615882241562 -0.045267467252142646 0.054084409889816554
-0.023537460613652847 -0.04611269403510626 0.05332455012174481
-0.023537158708155294 -0.04683746266706601 0.05246939278339913
-0.0235423525656908 -0.047483884224547634 0.05155126502398466
-0.02355214257205593 -0.04806525761864916 0.050579909611307594
-0.023576350335262012 -0.04844262327783194 0.04944153172382432
-0.023575259916893618 -0.0491797112245827 0.04859412403317609
-0.02356817465421132 -0.05000144020448799 0.0478163835406335
-0.023568780065993274 -0.0507143007969037 0.04694960672452492
-0.023577259095284808 -0.05131642540650505 0.04599081502217073
-0.023586532442565457 -0.051907918226327565 0.045022097416462625
-0.023598908258862565 -0.052456520377248295 0.044016237369919275
-0.02362035398189344 -0.05287910950531699 0.042902537442458866
-0.023640376761518044 -0.05332285650729507 0.04180410175348098
-0.023641960556476296 -0.05402442328769452 0.04092295180282279
-0.023641351379741195 -0.05475653695121424 0.04006778210064843
-0.023650065596627922 -0.05535944119298758 0.039101370764012156
-0.023664217020841347 -0.05588771485497657 0.0380692256243087
-0.02367991316734261 -0.05639554785227674 0.03701749720168107
-0.02369569134605709 -0.05690321274119903 0.035963635509543845
-0.023713145189624866 -0.05738883298825992 0.03488837708873077
-0.023730870275296176 -0.05787180527657476 0.03380855821680895
-0.023749359544148453 -0.05834541552968703 0.032718157467301445
-0.023767939216360865 -0.05881892452157955 0.031625305644528146
-0.02378685631930119 -0.05928897857192067 0.030526972193056667
-0.023808089140642325 -0.059728745209987055 0.02939885742787718
-0.023830721534415303 -0.06015084951781163 0.02825197744296215
-0.02385432724148829 -0.060561182153682835 0.027091438040338756
-0.02388307646408137 -0.06090358764792242 0.025865530791046754
-0.023917006261033685 -0.06117803962300211 0.024573232898408792
-0.023958162284465047 -0.06135754866301202 0.02318851536575639
-0.02400781224884665 -0.061425796670319 0.02169476201141385
-0.02406751300192759 -0.061362756528428486 0.020071551765463158
-0.024142240158769528 -0.06110300495473586 0.018255309149858623
-0.02423438373496596 -0.06061612580881193 0.01621429269202873
-0.02435299692364029 -0.05978355484447201 0.01383226086366518
-0.024546893233704608 -0.05796131236917723 0.010488055495117166
-0.02632226035298078 0.045580045390622936 0.045938912567636936
-0.026201423272973586 0.04277037192477201 0.04619986487749461
-0.026127077053564547 0.04072248259982564 0.045979999021732
-0.026066441250611187 0.03890129533583919 0.04562077745394366
-0.026013131324549844 0.037202350267807716 0.045188415284974026
-0.02597694008604929 0.03578282256781129 0.04457771635770824
-0.025952020624290802 0.034546984613771425 0.043849243550368844
-0.025928610648086003 0.03333698763131143 0.04310647863812744
-0.025912310250217615 0.03224243186814707 0.04228892885079766
-0.025902708767834254 0.03125606384278212 0.04140021628211349
-0.025893651495074384 0.030278999384946104 0.04050633578891527
-0.02588874172488473 0.029368584138147136 0.03956799926332211
-0.025886440911109206 0.028499959615364556 0.038601537727263324
-0.025887361187849733 0.02768258581716182 0.03759994078853751
-0.025897335046044693 0.0270084976047974 0.0364986754274047
-0.025914846230911476 0.026452864021421052 0.03531343963389105
-0.025938616324611412 0.02599479940442523 0.034057529051937374
-0.025971381142069584 0.025676752471227804 0.032699813586244963
-0.02601282157353876 0.025492844548409666 0.03124281908131904
-0.026070329692683858 0.025558089466470146 0.02960281321270447
-0.02286207058998674 -0.02545727439513329 0.06463543489022328
-0.022792538740577264 -0.027277297151125368 0.06454332514462374
-0.02276285173859141 -0.028472234432607768 0.06400600181934263
-0.022744662207626422 -0.02948655048699511 0.0633405062293747
-0.022727092813309313 -0.030490078067670956 0.06266934442493938
-0.022709845641760935 -0.03148748849483074 0.06199584799993113
-0.02269197640109552 -0.032493399558441605 0.06133080205089653
-0.02267431176660493 -0.03349500798079441 0.06066477222519562
-0.02265720332827827 -0.034486924987582046 0.059993678657607796
-0.022638302406057277 -0.035505258421325014 0.05934464452581545
-0.022618203470945664 -0.03654072892990101 0.058710971744115326
-0.02259761423051772 -0.037582402586962826 0.058084551706989285
-0.022579279299588834 -0.038588364602012926 0.057433355157839316
-0.022559343227380495 -0.039617521097740804 0.05680234242662818
-0.022539151640290092 -0.04064927743562413 0.0561758635274357
-0.022521549907139657 -0.04164047886408745 0.055520357419970856
-0.02250212121771136 -0.042658183170582176 0.054887837406537854
-0.02248828062861161 -0.04359029336762743 0.05419040850564932
-0.022474746077215006 -0.04451690449537837 0.053490391826227224
-0.02246117007204714 -0.04544326866634579 0.0527919076784904
-0.022452282348217126 -0.04629844858808041 0.05203821914000889
-0.022453609288947626 -0.04700019303748726 0.05116227690943098
-0.022459207242645534 -0.04763824361819374 0.05023466736269727
-0.022466945091183094 -0.04824476769041469 0.04928071120937805
-0.022477752348423932 -0.04880615086881451 0.04828886895964085
-0.022493143164214732 -0.04930022424714259 0.04724033298865332
-0.022497370646143083 -0.049960554191862794 0.04632710777853616
-0.022487817641734766 -0.05082472580219044 0.045582575224764776
-0.02249088529823124 -0.05150225237624201 0.04468349973487534
-0.022497660258423223 -0.05212544891282578 0.04373843548638551
-0.022508149224757672 -0.05269457449868392 0.04274687351025658
-0.022520505127810994 -0.05323703530066726 0.041731324180244056
-0.022542117017377336 -0.05364504522098079 0.04059953181638659
-0.022560624609183278 -0.054099703424607626 0.039504871244364526
-0.022557770830312098 -0.05486630275894466 0.03867651563061231
-0.022560158637144074 -0.055556635898623474 0.037782484908212066
-0.022571697115223444 -0.056114592635604144 0.036772884640101644
-0.022586691440589206 -0.056623350813573836 0.03571869113193954
-0.02259895841084233 -0.05717239799465795 0.03469794887314659
-0.022613228207658823 -0.057693419696177306 0.03365078185876297
-0.022631032203540187 -0.05816462690853774 0.032557415281684154
-0.022648805552494114 -0.05863741747651291 0.03146307715511587
-0.022665842513978497 -0.059121873648332934 0.030376832320190728
-0.02268302288833875 -0.059605380139266084 0.029287435542894702
-0.02270252942395068 -0.060056899078696824 0.028166677849756794
-0.022727211043052385 -0.060436217650208846 0.02697738599777405
-0.02275307200020436 -0.06080042131198221 0.025770880688285758
-0.022786951684277964 -0.061052986319796054 0.02445790260481151
-0.022828265526626926 -0.061202926725689444 0.02304517022302499
-0.02287799239654965 -0.061237191259842394 0.021518998716128
-0.022937325162849072 -0.061139851411200485 0.019862740076884267
-0.023012410126517592 -0.06082577907810177 0.01799425665342891
-0.023109542344703804 -0.06020855835982192 0.01582850220191384
-0.023238727726600412 -0.05915086556781479 0.013230257251907795
-0.023506664605413438 -0.05617219681756708 0.00877684948635371
-0.025140113528760066 0.04702569627346981 0.043449607551699854
-0.024999294516219458 0.04377109054848621 0.043998550019863636
-0.024921841036455502 0.041605659203764855 0.043853181179784484
-0.024854164217953213 0.03961171626372695 0.04360478652470329
-0.024805963520481002 0.03795287630881422 0.04314338394864842
-0.024775165744161904 0.03659204909194752 0.042489956557005326
-0.02475034638937744 0.03533435933167767 0.04177147009760851
-0.024733164526566074 0.0342071875019595 0.040968390863313275
-0.02472167411677303 0.03317699611055891 0.04010193777506871
-0.02471173910673355 0.03217371533614127 0.03921865063946928
-0.02470519372575183 0.031227943191529273 0.038297322918679155
-0.02470387036252269 0.030369998674286414 0.03731647342979605
-0.024712548327888557 0.02967916663784531 0.03622031911158802
-0.024728154574617554 0.029103215863869325 0.03504323595897468
-0.024754110412981437 0.02869834782856845 0.033744629460725206
-0.02478700199044905 0.02840684701061591 0.032363055272707275
-0.02483238017717057 0.028319958267363055 0.03083272434681056
-0.024903897337782824 0.028662100453936412 0.02899183107146519
-0.025017979172260788 0.029701596898876803 0.026643693951189595
-0.02181989874521771 -0.02453379724589705 0.06256249833260558
-0.021710730707457472 -0.027061859679143485 0.0629821316216368
-0.021668171845103945 -0.028492691861716934 0.06261506760641455
-0.021645176963325043 -0.029601205028943367 0.06201699784534154
-0.021627188037171036 -0.03062659475782903 0.06136059350617379
-0.021610410326840104 -0.031631072622599454 0.06069102791390163
