# .PCD v0.7 - Point Cloud Data file format
VERSION 0.7
FIELDS x y z
SIZE 4 4 4
TYPE F F F
COUNT 1 1 1
WIDTH 764
HEIGHT 1
VIEWPOINT 0 0 0 1 0 0 0
POINTS 764
DATA ascii
-0.02559854764936166 0.02503868270112336 0.05290754097719075
-0.025560563460325047 0.026316693881600184 0.05241590933217738
-0.02552269182965404 0.02759091793779117 0.05192573453671079
-0.02548486468846299 0.028862310681727732 0.05143772587385553
-0.02544721687823744 0.030129006075307274 0.05095044565028406
-0.025409680135603577 0.03139196449716908 0.050464602988020024
-0.025372253969782183 0.032651202460031725 0.049980191534850116
-0.025334871116604273 0.03390765655796296 0.04949792162523248
-0.02529766483958724 0.03515949810706154 0.04901635389778186
-0.025260567683422365 0.03640766817857316 0.048536198541568265
-0.025223579168758014 0.03765218290075001 0.0480574493522572
-0.025186632821922527 0.03889396003612611 0.04758081764128974
-0.025149860355969465 0.04013120751397925 0.047104862515472634
-0.025113195109359877 0.041364847486741796 0.04663029515601336
-0.025133025842788596 0.04182938389529234 0.04553819058435343
-0.025264817434822603 0.040778426042356875 0.04321194249510285
-0.02539799848131674 0.03971638813461292 0.04086116920095323
-0.02553259107185765 0.038643094021032665 0.03848548079949776
-0.025668617766767307 0.03755836379676242 0.03608447907939638
-0.02580610160971057 0.036462013702579954 0.03365775729784731
-0.025945066140707948 0.03535385602113117 0.031204899950891096
-0.026085535409573174 0.03423369896976869 0.028725482536231306
-0.026227533989788308 0.03310134658990865 0.02621907130832285
-0.02637108699283449 0.03195659863275352 0.023685223025418034
-0.02651607378630039 0.030801193747099553 0.021125141357590582
-0.026662811572290415 0.029631053379765848 0.01853507347654032
-0.02681125725229694 0.02844690098332936 0.015915327523079392
-0.02696136513590511 0.027249489175356523 0.01326624726242659
-0.027113163298805133 0.026038593995841963 0.010587337219223836
-0.02726652575773208 0.024816018674213847 0.007879869398990658
-0.02742155481202812 0.023580559384499877 0.005142500580305742
-0.02757835684303578 0.022330970868873645 0.0023738260737302674
-0.026144315412702446 -0.011267745157732989 0.11222247016156131
-0.0261385351028702 -0.010450068427661607 0.11139813951844937
-0.026132757348475585 -0.00963275318645751 0.1105741733057162
-0.026126982147824333 -0.008815799194455187 0.109750571281747
-0.026121209499223644 -0.007999206212200904 0.10892733320514056
-0.026115439400982113 -0.007182974000450759 0.10810445883471012
-0.026109671851410197 -0.006367102320177731 0.10728194792947879
-0.026103906848819466 -0.005551590932560302 0.10645980024868554
-0.026098144391523092 -0.004736439598989672 0.10563801555178126
-0.026092384477835774 -0.003921648081067819 0.10481659359842882
-0.026086627106073526 -0.003107216140604885 0.10399553414850449
-0.026080872274554256 -0.002293143539627396 0.10317483696209329
-0.026075119981596978 -0.00147943004036577 0.10235450179949496
-0.0260693702255223 -0.0006660754052622009 0.1015345284212196
-0.026063623004652307 0.0001469206030317305 0.10071491658798878
-0.026057878317310445 0.0009595582216571641 0.09989566606073594
-0.026052136161822028 0.0017718376875401898 0.09907677660060182
-0.026046396536513448 0.0025837592374040597 0.09825824796894128
-0.0260406594397127 0.003395323107761583 0.09744007992731823
-0.02603492486974926 0.004206529534917125 0.09662227223750644
-0.02602919282495394 0.005017378754968771 0.09580482466149087
-0.026023463303659417 0.005827871003801166 0.0949877369614626
-0.026017736304199422 0.0066380065170971725 0.09417100889982541
-0.026012011824909306 0.007447785530329876 0.09335464023919118
-0.026006289864125887 0.008257208278765527 0.0925386307423805
-0.0260005704201873 0.009066274997465207 0.09172298017242381
-0.025994853491433535 0.009874985921277446 0.09090768829255674
-0.025989139076205654 0.010683341284850267 0.09009275486622642
-0.025983427172846314 0.011491341322623083 0.08927817965708659
-0.025977717779699604 0.012298986268829692 0.08846396242899923
-0.02597201089511097 0.013106276357499613 0.08765010294603462
-0.02596630651742768 0.01391321182245131 0.0868366009724669
-0.02596060464499807 0.014719792897303241 0.08602345627278082
-0.025954905276172054 0.015526019815467251 0.08521066861166687
-0.025949208409300994 0.016331892810149906 0.08439823775402192
-0.025943514042737568 0.017137412114354933 0.08358616346495071
-0.025937822174836294 0.017942577960876338 0.08277444550976037
-0.025932132803952748 0.018747390582309065 0.08196308365396746
-0.025926445928444047 0.019551850211042443 0.08115207766329338
-0.02592076154666879 0.020355957079261744 0.08034142730366467
-0.02591507965698688 0.02115971141895051 0.07953113234121428
-0.025909400257759996 0.021963113461883788 0.07872119254227708
-0.025903723347350936 0.022766163439638554 0.07791160767339583
-0.026127120627298883 0.020389444233939014 0.07494158454120342
-0.026578364798805758 0.0148691619798344 0.0697998520760984
-0.027045542681856067 0.009153839385501017 0.06447669979452714
-0.02755495276145209 0.002882005551514133 0.058719838933339874
-0.02814007229333069 -0.004403706288900244 0.052204804637940916
-0.02869246048669993 -0.011206989829320502 0.04596499375706997
-0.02725836756797231 0.009259009812010666 0.058823486699729255
-0.027217171582697184 0.010584531521101836 0.05831381160271526
-0.02717609993011521 0.01190605270255174 0.057805674744675906
-0.02713507877555167 0.013224590003065584 0.057299782304302604
-0.027094254325986906 0.014538159227090508 0.05679470139508902
-0.027053552532182744 0.01584778187429503 0.05629113798523422
-0.027012972842194966 0.017153475704052068 0.05578908524608206
-0.026972514707386482 0.01845525836933326 0.05528853638988229
-0.026932105401827215 0.019754121011461623 0.05479019919306338
-0.026891888959976278 0.021048128968383206 0.05429263816618529
-0.02685179244602387 0.022338278114271803 0.05379656089667434
-0.02681181532432008 0.023624585684247024 0.05330196075742877
-0.026771885738081303 0.024908022882143 0.05280954671035015
-0.026732146018230745 0.02618669377873184 0.05231788135344029
-0.026692524101755627 0.027461574217232276 0.051827673476168235
-0.026653019465611296 0.0287326810272015 0.051338916607354845
-0.026613561106635642 0.030000965879519392 0.050852320815513274
-0.026574289682223202 0.03126457080268524 0.050366446930409425
-0.02653513398654947 0.032524452015766425 0.04988200486416483
-0.02649609350880647 0.03378062595461678 0.049398988296963764
-0.026457167741188 0.03503310895850531 0.048917390946128736
-0.026418286726194305 0.03628282883675649 0.0484379241573647
-0.026379589070624317 0.03752797400180202 0.04795914674412988
-0.026341004618659958 0.03876947670025299 0.047481769915072636
-0.026302532874288936 0.040007352891918924 0.047005787533403065
-0.02626410470003382 0.041242511726602704 0.04653191188322253
-0.026323133843656654 0.041210014265546935 0.04503742820286816
-0.02646148765015588 0.04015298196318129 0.042703570543303315
-0.02660123309348173 0.0390856899240582 0.04034579380971598
-0.026742391223041433 0.038007983258653455 0.03796373585832019
-0.026885127371654213 0.0369178520026498 0.03555549774140132
-0.027029395391565677 0.03581602125226746 0.03312141395816115
-0.027175220076318 0.03470230164962457 0.030661066193025888
-0.02732262675740511 0.03357649972829124 0.02817402705412525
-0.027471641318941954 0.032438417801256836 0.025659859825791498
-0.027622290212816376 0.031287853845211266 0.023118118212914374
-0.027774370175446546 0.030127527509010266 0.020550840602606257
-0.027928522118074277 0.02894943340832179 0.017950920507232127
-0.028084316256338636 0.027759181986685477 0.015322834816079989
-0.028241858284240882 0.026555576865529618 0.012665264037628798
-0.02840109751326398 0.025339402962333335 0.009978589319979747
-0.02856198027549592 0.024111476967353773 0.007263231332261255
-0.028724696117432266 0.02286956012481345 0.004516934867540512
-0.027270524294464405 -0.01111598197943725 0.11230298076353318
-0.027264497305505276 -0.01029865344696762 0.11147894954372284
-0.027258472980014055 -0.009481686110414222 0.11065528248176004
-0.027252451316225387 -0.008665079730396097 0.10983197933630462
-0.027246432312375574 -0.007848834067745392 0.1090090398662287
-0.02724041596670253 -0.007032948883505696 0.10818646383061728
-0.02723440227744557 -0.0062174239389298225 0.1073642509887692
-0.027228391242845932 -0.005402258995486797 0.10654240110019272
-0.02722238286114606 -0.0045874538148506505 0.10572091392461141
-0.027216377130590046 -0.003773008158907576 0.10489978922196
-0.02721037404942353 -0.0029589217897539877 0.1040790267523849
-0.027204373615893576 -0.002145194469693912 0.10325862627624532
-0.02719837582824922 -0.0013318259612472017 0.10243858755410834
-0.02719238068474057 -0.0005188160271368814 0.1016189103467558
-0.027186388183619483 0.00029383556970263847 0.10079959441517888
-0.027180398323139326 0.0011061290661281697 0.09998063952057976
-0.027174411101554843 0.0019180646987896344 0.09916204542437201
-0.027168426517122774 0.0027296427041229032 0.09834381188817609
-0.027162444568100963 0.0035408633183610094 0.09752593867382561
-0.027156465252748882 0.004351726777527709 0.09670842554336317
-0.02715048856932761 0.005162233317438314 0.09589127225904046
-0.02714451451609958 0.005972383173702633 0.09507447858331972
-0.027138543091329143 0.006782176581717869 0.09425804427886889
-0.027132574293281815 0.0075916137766792735 0.09344196910856797
-0.027126608120224733 0.00840069499357371 0.09262625283550469
-0.02712064457042657 0.009209420467181262 0.09181089522297475
-0.027114683642157404 0.010017790432077345 0.0909958960344833
-0.02710872533368922 0.010825805122625654 0.09018125503373997
-0.027102769643295083 0.011633464772990099 0.08936697198466562
-0.027096816569249792 0.012440769617125924 0.08855304665138694
-0.027090866109829588 0.013247719888783704 0.08773947879823837
-0.02708491826331213 0.01405431582151001 0.08692626818976201
-0.02707897302797697 0.01486055764864136 0.0861134145907036
-0.02707303040210478 0.01566644560331454 0.08530091776601872
-0.02706709038397786 0.016471979918460278 0.08448877748086817
-0.02706115297188005 0.01727716082680436 0.08367699350061852
-0.027055218164096517 0.018081988560870788 0.08286556559084393
-0.02704928595891436 0.018886463352973892 0.08205449351732005
-0.027043356354621777 0.01969058543522978 0.08124377704603186
-0.02703742934950859 0.020494355039549328 0.08043341594316825
-0.027031504941866125 0.02129777239763997 0.07962340997512282
-0.027025583129987093 0.02210083774100796 0.07881375890849529
-0.027019663912166047 0.022903551300951563 0.07800446251008647
-0.02736768081455627 0.01899815268184718 0.07399603620790635
-0.027842195759756404 0.013432200918918447 0.06881784030880417
-0.028333532386526084 0.007668818469012129 0.06345621447532179
-0.02884252198288585 0.001698366548741892 0.057901953668802186
-0.029370051054868042 -0.004489433121498965 0.05214524050754776
-0.0299151028857663 -0.010879703463744228 0.04619365289797123
-0.028454165267628905 0.009119045422424588 0.05872516118003507
-0.028411068991902832 0.010446283846992754 0.05821615724088752
-0.02836817981134695 0.011768503530385888 0.05770797946783046
-0.028325419926470977 0.013086737190158959 0.057201333670493626
-0.028282788753483806 0.014401002823857922 0.05669621293175836
-0.028240209656329705 0.015712307551280336 0.05619332460769533
-0.02819783439783498 0.017018685696129687 0.05569123367927348
-0.028155586119781948 0.018321149187149666 0.05519064730145701
-0.028113464252265685 0.019619715593820142 0.0546915587216264
-0.02807139307960232 0.020915371768542745 0.0541946765400404
-0.028029522561055162 0.022206191399420983 0.05369856371862064
-0.027987776762660378 0.02349316605247148 0.05320392867350171
-0.027946155127988787 0.02477631288176002 0.05271076481170178
-0.027904657103916247 0.026055648939462106 0.052219065579399815
-0.027863208101938288 0.027332136324469014 0.051729541019610414
-0.027821955871860156 0.02860389681806097 0.0512407517760437
-0.027780825611624066 0.02987189711684679 0.05075340772805759
-0.02773981678108887 0.031136153872776406 0.05026750247563261
-0.02769885567550508 0.03239760983174661 0.04978374712768463
-0.027658088311883364 0.033654424387586535 0.04930070063510972
-0.02761744077560528 0.034907544793710665 0.04881907395895263
-0.02757691253913401 0.036156987313517186 0.04833886084850969
-0.027536430765824373 0.03740367572979936 0.04786077340351519
-0.027496139770160757 0.03864580630140457 0.047383369019495025
-0.027455966509229587 0.03988430723061748 0.04690735966359427
-0.027415910467732858 0.04111919440355161 0.04643273923009561
-0.027517642736492025 0.04058749321968752 0.044534117890979164
-0.027662466680888016 0.03952615389449238 0.042194073660594966
-0.02780882309375127 0.03845358390546372 0.03982926802748038
-0.02795673642840227 0.03736960404694406 0.037439305878435636
-0.028106231661206998 0.036274031280145 0.03502378364897074
-0.028257334305635626 0.03516667863012385 0.03258228909614108
-0.02840999345374464 0.034048300578219115 0.03011519024488679
-0.028564388844401996 0.032916819177536305 0.027620489506919976
-0.028720471543476112 0.03177297239427168 0.025098525457826204
-0.02887818983155964 0.030617526941396023 0.022549671744097277
-0.029037649903868045 0.029449321163321995 0.01997266940369896
-0.02919912469691663 0.02826517894240871 0.017364509758176883
-0.029362240977199566 0.027069786797488116 0.01472889801377858
-0.029527273089133853 0.025859958142222583 0.012062802923235194
-0.029694002656208425 0.02463848255041834 0.009368335744423362
-0.02986254079206121 0.023404158328491576 0.006644162803339793
-0.030033089056999054 0.022154708908532272 0.0038879800484733495
-0.028395792727886646 -0.010963311342743587 0.11238397277323972
-0.028389519473654364 -0.01014633306390128 0.11156024278098786
-0.02838324899064672 -0.009329715686397622 0.11073687667252263
-0.02837698127702807 -0.008513458971145194 0.10991387420677567
-0.028370716330963962 -0.007697562679261805 0.1090912351428947
-0.028364454150621693 -0.006882026572078204 0.10826895924023919
-0.02835819473417021 -0.006066850411135916 0.10744704625838081
-0.028351938079779888 -0.0052520339581845765 0.10662549595710472
-0.02834568418562317 -0.004437576975190316 0.10580430809640473
-0.028339433049873682 -0.0036234792243229896 0.10498348243648964
-0.0283331846707068 -0.002809740467964561 0.10416301873777847
-0.0283269390462995 -0.001996360468706271 0.10334291676090188
-0.028320696174830247 -0.001183338989346805 0.10252317626670227
-0.028314456054479496 -0.0003706757928993998 0.10170379701622984
-0.028308218683428917 0.00044162935741909326 0.10088477877074845
-0.028301984059861902 0.0012535766981818797 0.10006612129173134
-0.028295752181963455 0.002065166465753443 0.09924782434086166
-0.028289523047920026 0.002876398896292043 0.09842988768003377
-0.0282832966559201 0.0036872742257424984 0.09761231107134818
-0.028277073004153296 0.004497792689847735 0.09679509427711819
-0.02827085209081101 0.005307954524140901 0.09597823705986519
-0.02826463391408622 0.006117759963948199 0.09516173918231943
-0.028258418472173332 0.006927209244390886 0.09434560040742104
-0.02825220576326876 0.007736302600377554 0.09352982049831551
-0.02824599578557012 0.008545040266615844 0.0927143992183595
-0.028239788537276704 0.00935342247760551 0.09189933633111688
-0.028233584016589416 0.01016144946763986 0.09108463160035932
-0.028227382221710604 0.010969121470808418 0.09027028479006713
-0.028221183150844587 0.01177643872098949 0.08945629566442448
-0.028214986802196862 0.012583401451861431 0.08864266398782625
-0.02820879317397464 0.013390009896895705 0.08782938952487299
-0.028202602264386693 0.014196264289358773 0.08701647204037183
-0.028196414071643246 0.015002164862313927 0.0862039112993376
-0.028190228593956486 0.015807711848614958 0.08539170706698795
-0.028184045829539768 0.016612905480916484 0.08457985910874974
-0.028177865776608156 0.017417745991667233 0.0837683671902546
-0.028171688433378268 0.018222233613112315 0.08295723107733968
-0.02816551379806814 0.01902636857729495 0.0821464505360486
-0.028159341868897812 0.019830151116049244 0.08133602533262649
-0.02815317264408844 0.02063358146101213 0.08052595523352704
-0.028147006121862887 0.02143665984361537 0.07971624000540711
-0.02814084230044557 0.022239386495087943 0.07890687941512825
-0.028136348056661088 0.023020434072839824 0.07808345880531933
-0.028617796829272603 0.01759614424381356 0.07304320447407017
-0.029115931252428673 0.011983978520955119 0.06782813260193526
-0.029631794791739025 0.006171953377737183 0.062427590007129996
-0.030166267760191372 0.0001502633487869831 0.05683222648169295
-0.030715710684717474 -0.006033557259897071 0.051072361490651086
-0.029695840282692516 0.0076480132773208975 0.05913806748561884
-0.029650858890974845 0.008978976167755337 0.05862676199221828
-0.02960585307127576 0.01030793350066278 0.05811843035422154
-0.029561223679654695 0.011629847231443724 0.05760949784578989
-0.029516569113508116 0.012949781609530253 0.057103525802467636
-0.029472128774928247 0.014264739272579152 0.05659836560284359
-0.02942782205485677 0.0155757432601899 0.05609472426529105
-0.029383648351572908 0.01688281137684039 0.05559259494996538
-0.02933952825831939 0.018186941302233806 0.05509268616784946
-0.029295619033565586 0.019486185712893456 0.05459356080931421
-0.029251841040919536 0.020781547053934313 0.054095927193486604
-0.029208193692936358 0.022073042707456136 0.05359977864275667
-0.02916459853398343 0.02336165027412984 0.0531058248693293
-0.029121210958493248 0.024645461433890015 0.05261262682406981
-0.029077952285201533 0.025925458458534945 0.05212089404403519
-0.029034821940517836 0.02720165832024507 0.05163062000907298
-0.028991742402906702 0.02847501894885668 0.051142515553026846
-0.028948867235670268 0.029743670245732434 0.0506551398328558
-0.028906118695552062 0.031008574719849413 0.050169203523432626
-0.028863496222410114 0.03226974894548079 0.04968470025744742
-0.028820999259401417 0.033527209399286495 0.0492016237050894
-0.0287785514291815 0.03478188998218579 0.04872068599520901
-0.028736304051443052 0.03603196729972313 0.04824044423808893
-0.02869418053188308 0.037278379720104504 0.047761610423106615
-0.028652180326619456 0.03852114333650941 0.04728417836775256
-0.028610227955557194 0.039761173260287 0.046808861152776826
-0.02856847297851607 0.040996682628932746 0.0463342144052305
-0.02871643503770422 0.039963602438162826 0.04402970014341934
-0.02886784497459883 0.03889702971450604 0.04168271045822608
-0.029020860020231097 0.03781915016899895 0.03931084014930142
-0.029175505834439425 0.0367297830467711 0.036913691466157306
-0.02933180862693542 0.035628743719495815 0.03449085813477809
-0.02948979517211209 0.0345158435810794 0.03204192512807835
-0.029649412342145232 0.033391838999314805 0.029567260581665866
-0.029810848172728402 0.03225464323835109 0.027064858080807108
-0.029974051608204266 0.031104996011274977 0.024535056093052898
-0.030138885516020304 0.02994464017385101 0.021979054475496473
-0.030305794618217544 0.028768502993624767 0.01939227162371021
-0.030474562701440708 0.027579266367922683 0.016776677998885436
-0.030645220996728777 0.026376710224948252 0.01413178957759198
-0.030817714488849606 0.025161619212599518 0.011457985893922218
-0.030991984938362454 0.023934809677873925 0.008755685749941122
-0.0311682375547709 0.022694046307404903 0.0060226494144508536
-0.03134677622890861 0.021435976598684015 0.0032556104872246694
-0.02951367060962615 -0.009994130612718644 0.11164147307812369
-0.029507154351959396 -0.00917786289733713 0.11081840770409415
-0.02950064097111559 -0.008361955550279854 0.10999570569930342
-0.02949413046518984 -0.00754640833295156 0.10917336682317341
-0.029487622832279115 -0.006731221006969879 0.1083513908353374
-0.02948111807048202 -0.005916393334162218 0.10752977749564097
-0.029474616177898712 -0.005101925076564651 0.10670852656414226
-0.02946811715263148 -0.0042878159964288565 0.10588763780110805
-0.029461620992783814 -0.0034740658562101845 0.10506711096701984
-0.02945512769646102 -0.002660674418575315 0.10424694582256908
-0.029448637261770112 -0.0018476414464003166 0.10342714212865814
-0.029442149686819588 -0.001034966702768203 0.10260769964640132
-0.029435664969720072 -0.00022264995097642792 0.10178861813711995
-0.0294291831085834 0.0005893090454748284 0.10096989736234907
-0.029422704101523225 0.001400910522875054 0.10015153708383251
-0.029416227946654848 0.002212154717305903 0.09933353706352391
-0.0294097546420951 0.003023041864643028 0.0985158970635876
-0.029403284185962896 0.0038335722005486406 0.09769861684639392
-0.029396816576378364 0.004643745960483725 0.09688169617452547
-0.029390351811463437 0.005453563379699877 0.09606513481077286
-0.029383889889341708 0.006263024693241692 0.0952489325181351
-0.029377430808138257 0.007072130135949428 0.09443308905982081
-0.029370974565980257 0.007880879942450902 0.09361760419924342
-0.029364521160996086 0.008689274347173426 0.09280247770002778
-0.029358070591315916 0.009497313584336642 0.09198770932600506
-0.02935162285507156 0.010304997887954137 0.09117329884121417
-0.02934517795039632 0.011112327491835994 0.09035924600990242
-0.029338735875425577 0.011919302629581463 0.08954555059652047
-0.029332296628295926 0.012725923534590011 0.08873221236572942
-0.029325860207145713 0.013532190440054659 0.08791923108239591
-0.029319426610114947 0.014338103578963701 0.08710660651159255
-0.0293129958353451 0.015143663184102873 0.08629433841859971
-0.02930656788097972 0.015948869488048134 0.08548242656889984
-0.029300142745163547 0.016753722723177156 0.08467087072818458
-0.029293720426043102 0.017558223121661776 0.08385967066234998
-0.029287300921766502 0.018362370915470494 0.08304882613749737
-0.02928088423048338 0.019166166336370305 0.08223833691993387
-0.029274470350345385 0.019969609615919703 0.08142820277616836
-0.029268059279505376 0.02077270098547973 0.0806184234729175
-0.02926165101611796 0.02157544067620709 0.0798089987771011
-0.02925524555833938 0.022377828919055875 0.07899992845584317
-0.029373026328167063 0.021652061564850333 0.07715863251947871
-0.029877579508737154 0.01618329461552681 0.07208300486010902
-0.030399362759384332 0.010528349211340104 0.06683336305008947
-0.030934976537942315 0.004730075036601777 0.06143675165719337
-0.03148989036062443 -0.001277251631543963 0.055845824816171785
-0.03206498549785918 -0.007502932509524274 0.05005141904980637
-0.030895181166557824 0.007508148066076914 0.05904035053804846
-0.030848365673310497 0.008839818062599203 0.05852900289095192
-0.030801608326678272 0.010168469383482925 0.05801991672986834
-0.030755075773155345 0.01149209320161615 0.05751165706733452
-0.030708683603075337 0.012811723796770591 0.057004930766456186
-0.03066234841741727 0.014128374942466326 0.05650044590725678
-0.03061623536381802 0.015440068080702696 0.05599676586802027
-0.030570260800986907 0.01674782182716994 0.055494598524698624
-0.030524424105967892 0.01805165390194996 0.05499393707291872
-0.03047864288359807 0.01935255766660504 0.05449549085319849
-0.030433080314541693 0.020648594203777237 0.05399782119684271
-0.03038765376560853 0.02194076162103442 0.05350163725742607
-0.03034236262860524 0.023229077218557936 0.053006932391792216
-0.030297206298959014 0.02451355819354234 0.05251369999633093
-0.030252103610874843 0.025795172978619607 0.05202265087365976
-0.030207215335480778 0.027072031084996062 0.05153234400379947
-0.03016246007411958 0.028345105574405838 0.05104349002306624
-0.03011783723644022 0.029614413239528514 0.05055608248315996
-0.03007326662047849 0.030880903023730477 0.050070833267272796
-0.03002890710773702 0.03214272231144205 0.049586299637576214
-0.02998467826741537 0.033400824584153166 0.04910319332688062
-0.029940579522968514 0.03465522624185352 0.048621508037656136
-0.029896531619156286 0.03590685713203423 0.048141956657905216
-0.02985269158093522 0.037153901758240016 0.047663094870603384
-0.029808979928163098 0.03839729441730383 0.047185635428782124
-0.02976539609769967 0.03963705112793725 0.04670957218130073
-0.029763212516334125 0.04039806641496069 0.045852802752816224
-0.029919603533018244 0.03933743414187785 0.043523441017689735
-0.03007764674781376 0.03826559678387248 0.04116947066271076
-0.030237368481808347 0.0371823758332841 0.03879049964915249
-0.03039879561816825 0.036087588970474926 0.036386127566426396
-0.030561955617222112 0.03498104996153467 0.03395594540741431
-0.030726876532033157 0.03386256855267328 0.03149953533652655
-0.030893503007203716 0.03273290300121917 0.02901726559167228
-0.03106211638186074 0.03158899676270649 0.02650631452954455
-0.03123232279301636 0.030435443589846956 0.023970257266174466
-0.031404491610922 0.0292682008809263 0.021405424616198876
-0.03157883247585725 0.028085057883310893 0.01880963437572558
-0.031755031073027844 0.026889700736095867 0.016185715544380253
-0.03193311718736134 0.025681933921565925 0.013533216767087908
-0.03211312124385571 0.024461557720707516 0.010851676988879677
-0.03229507432486531 0.02322836809974943 0.008140625192931128
-0.032479193913280184 0.02198009204845436 0.005397773172514941
-0.0326657067294169 0.02071437560765166 0.00262071694502114
-0.030636951724605704 -0.009842045956514112 0.11172264050819661
-0.03063019007446963 -0.009026127606702128 0.11089987564977907
-0.03062343140833838 -0.00821056933164166 0.110077473887431
-0.030616675724237295 -0.0073953708930298845 0.1092554349808452
-0.030609923020193077 -0.006580532052768706 0.10843375868992927
-0.03060317329423425 -0.0057660525729714696 0.10761244477480197
-0.030596426544391077 -0.004951932215961796 0.10679149299579344
-0.03058968276869547 -0.004138170744270586 0.10597090311344604
-0.03058294196518145 -0.003324767920643845 0.10515067488851032
-0.030576204131884364 -0.0025117235080312494 0.10433080808195064
-0.030569469266841436 -0.0016990372695927514 0.103511302454941
-0.030562737368091616 -0.0008867089686973029 0.10269215776886578
-0.030556008433675386 -7.473836892007979e-05 0.10187337378532071
-0.030549282461635494 0.0007368747659495245 0.10105495026610789
-0.030542559450015886 0.001548130671920278 0.10023688697324273
-0.030535839396862385 0.0023590295847910614 0.09941918366894881
-0.030529122300222578 0.0031695717401534207 0.0986018401156589
-0.030522408158145577 0.0039797573733934555 0.09778485607601603
-0.030515696968682674 0.0047895867196846575 0.09696823131286858
-0.030508988729886416 0.005599060013999402 0.09615196558927691
-0.030502283439811227 0.006408177491101397 0.09533605866850842
-0.030495581096513222 0.007216939385548349 0.09452051031403871
-0.030488881698050096 0.008025345931693295 0.09370532028955228
-0.030482185242481676 0.008833397363678275 0.09289048835893807
-0.03047549172786905 0.00964109391544482 0.0920760142862955
-0.030468801152275172 0.010448435820727409 0.0912618978359303
-0.03046211351376469 0.01125542331305518 0.09044813877235502
-0.030455507437686595 0.012061098910655599 0.08963413852346816
-0.030448825633046274 0.012867380568092779 0.08882109156051746
-0.030442146759716144 0.013673308510015914 0.08800840128091739
-0.03043547081576761 0.014478882969137352 0.08719606745000419
-0.030428797799273793 0.015284104177965385 0.08638408983331985
-0.030422127708309307 0.016088972368806465 0.08557246819661349
-0.030415460540950918 0.01689348777375782 0.08476120230583575
-0.030408796295276656 0.01769765062471862 0.08395029192714604
-0.030402134969366355 0.018501461153383025 0.08313973682690742
-0.03039547656130153 0.01930491959124242 0.08232953677168778
-0.03038882106916525 0.020108026169587068 0.08151969152826055
-0.030382168491042676 0.02091078111949929 0.08071020086360003
-0.030375518825020237 0.02171318467186445 0.07990106454488771
-0.030368872069186148 0.022515237057364357 0.07909228233950819
-0.030617949662840743 0.020287369625087703 0.07623629377789859
-0.031140892482477533 0.014833360754351543 0.07116556400765267
-0.03168209413340338 0.009188805637932396 0.06591792589685658
-0.03224235161193839 0.0033456231310890483 0.06048537594286946
-0.032822780698210506 -0.00270793833529398 0.0548572315150036
-0.033424585461349854 -0.008984559539944759 0.04902196390053443
-0.032095416136652524 0.007368178587918939 0.05894256074431081
-0.03204685088006224 0.008699539485926167 0.05843045665362612
-0.03199817198891128 0.010029912597753043 0.05792204402007728
-0.03194981382358432 0.011354236944595086 0.0574137436812886
-0.03190160160341547 0.012674564474811023 0.05690697739501127
-0.03185353466870543 0.013990913254755266 0.05640173822704386
-0.03180561236372505 0.01530330124205942 0.05589801928491228
-0.03175774854117541 0.016612732704030575 0.05539652981351034
-0.03171011380048178 0.017917247561939242 0.05489583108279922
-0.03166262174470216 0.019217854881338536 0.05439663214291984
-0.03161527173369816 0.020514572192915526 0.05389892626525172
-0.03156797865436097 0.021808383542080256 0.05340342391183445
-0.03152091107948112 0.02309736812655344 0.052908684385867044
-0.03147398365066634 0.02438251469490199 0.05241541797149912
-0.031427195742909295 0.025663840363470913 0.05192361809911522
-0.03138046325873452 0.026942309367682105 0.05143399636759205
-0.03133395278015212 0.028216039392777503 0.050945110260266935
-0.03128757996866382 0.029485999284546704 0.05045767121443784
-0.03124134421394828 0.030752205757169526 0.04997167281482989
-0.031195162416049436 0.03201560363757561 0.04948782771945992
-0.031149199201212445 0.03327434832916337 0.049004691733948336
-0.031103371232621028 0.034529389178695635 0.048522977370526466
-0.031057677914211195 0.035780742509927965 0.04804267836375237
-0.03101211865341653 0.037028424550832384 0.047563788484947855
-0.030966611572251796 0.03827335641821333 0.047087021611569635
-0.030921318900468252 0.03951373960777693 0.046610931643114195
-0.030964173237098092 0.03977482836970553 0.0453515900358582
-0.03112717222921275 0.03870897583691846 0.04301533041241973
-0.031291896395124294 0.03763184237029893 0.04065434392501743
-0.03145837326928355 0.03654324792171759 0.03826823592319639
-0.03162663097522352 0.035443008591026504 0.035856603313208224
-0.03179669824139654 0.03433093652250513 0.03341903433101012
-0.03196860441752774 0.03320683979791983 0.030955108307878287
-0.032142379491500034 0.032070522326115014 0.028464395428391964
-0.032317965568339685 0.030922748343460427 0.02594726588802654
-0.03249539103919261 0.02976333855170915 0.023403305187546075
-0.03267504690984928 0.0285881829842492 0.020828760051383788
-0.032856700336955785 0.027399961105317172 0.018225589080470284
-0.03304038482238785 0.026198453774199937 0.015593312178658614
-0.033225947454120316 0.024985453804972302 0.012933176065171026
-0.03341360618680575 0.02375875188321741 0.010242991262380874
-0.03360330101712511 0.02251914144301187 0.00752313981827718
-0.03379545246089955 0.021262266531096474 0.004769508677797518
-0.03175944627869661 -0.009691098480125615 0.11180320102688543
-0.03175243958123831 -0.008875526857939464 0.11098073445080786
-0.031745435974740034 -0.008060315019262299 0.11015863069976528
-0.03173843545715668 -0.007245462726069685 0.10933688953372508
-0.031731438026445444 -0.006430969740553127 0.1085155107128633
-0.03172444368056483 -0.005616835825107747 0.10769449399757042
-0.031717452417475284 -0.004803060742339937 0.10687383914844722
-0.031710464235139096 -0.003989644255065927 0.10605354592630539
-0.031703479131520156 -0.003176586126308223 0.10523361409216861
-0.03169649710458462 -0.0023638861193042704 0.10441404340726762
-0.03168951815229998 -0.001551543997494298 0.103594833633047
-0.03168254227263566 -0.0007395595245286435 0.10277598453116008
-0.03167556946356288 7.206753573441027e-05 0.10195749586347005
-0.0316685997230545 0.0008833374192301346 0.10113936739205087
-0.03166163304908559 0.0016942503616812488 0.10032159887918271
-0.03165466943963258 0.0025048065986083 0.09950419008735786
-0.031647708892673806 0.0033150063653226147 0.09868714077927668
-0.03164075140618938 0.004124849896929295 0.09787045071784828
-0.03163379697816107 0.004934337428327773 0.09705411966619093
-0.03162684560657285 0.005743469194205986 0.09623814738762829
-0.03161989728940999 0.00655224542905114 0.09542253364569514
-0.03161295202465971 0.007360666367142332 0.09460727820413276
-0.03160600981031099 0.008168732242553045 0.09379238082689031
-0.031599070644354424 0.00897644328915298 0.09297784127812511
-0.03159213452478282 0.009783799740601118 0.0921636593221983
-0.031585201449590296 0.010590801830356489 0.09134983472368127
-0.03157827141677289 0.011397449791671677 0.09053636724735092
-0.03157134442432837 0.012203743857594818 0.08972325665819053
-0.031564420470256156 0.0130096842609706 0.08891050272139059
-0.031557499552557815 0.013815271234435211 0.08809810520234451
-0.03155058166923627 0.014620505010425222 0.08728606386665433
-0.031543666818296304 0.0154253858211722 0.08647437848012682
-0.03153675499774447 0.016229913898704207 0.08566304880877401
-0.03152984620558892 0.017034089474847303 0.08485207461881378
-0.031522940439839976 0.01783791278121949 0.08404145567666593
-0.03151603769850928 0.01864138404924115 0.08323119174895788
-0.03150913797961035 0.019444503510128275 0.08242128260252046
-0.031502241281158444 0.02024727139489424 0.08161172800438873
-0.031495347601170405 0.021049687934352135 0.08080252772180271
-0.0314883758882127 0.02185268299189741 0.07999430287266496
-0.031481488274663884 0.02265439526589702 0.07918581246834469
-0.03196383192512052 0.017866797767512266 0.07460032949504722
-0.03246247809872873 0.012915480055587902 0.0698621356014586
-0.03297692892952143 0.007807229666461468 0.06497376401839416
-0.03355933114703158 0.0019510005295410027 0.05952701107047714
-0.034165727820216346 -0.004150398579973402 0.053860502789257636
-0.034792660993744395 -0.010456208283688428 0.04799944180524718
-0.03329663681814187 0.00722708190599286 0.05884398342818159
-0.03324605433067507 0.008561190989019363 0.05833326630578434
-0.033195715371404325 0.009890240301601905 0.05782338334381304
-0.03314552862182522 0.01121527097371966 0.057315042112556336
-0.03309540385923684 0.012537303482916096 0.05680895141520986
-0.03304551973496376 0.013854346293624142 0.056303673027367884
-0.032995785763667296 0.01516742475907873 0.0557999155451574
-0.03294620126841753 0.016476556751611193 0.05529767211192865
-0.03289676557634748 0.01778176003628329 0.05479693591218582
-0.03284738982211996 0.019084029460776974 0.05429841733333307
-0.032798249997596195 0.020381423259615006 0.053800675578725476
-0.03274925698054498 0.02167494103529427 0.053304420850206535
-0.03270041011405645 0.022964600131602786 0.05280964649387887
-0.03265162159679226 0.024251375362237426 0.052317064071587316
-0.03260306533532889 0.02553336387804417 0.05182523089897495
-0.03255465327591 0.02681154515348444 0.051334858368912106
-0.0325063847771126 0.028085936123486255 0.05084593998433801
-0.03245817308255646 0.029357491974954186 0.05035918840251252
-0.03241019005033104 0.030624347994987144 0.049873159195913064
-0.03236234867601134 0.03188746393948971 0.049388564868879326
-0.03231464833320757 0.033146856346507436 0.0489053990765933
-0.032267003291909464 0.03440346117308268 0.04842437549527617
-0.032219583397657625 0.0356554510818064 0.047944048094115344
-0.03217230267667039 0.03690376650917543 0.04746513041195338
-0.03212516051715333 0.038148423607912096 0.04698761625178083
-0.032078072197317384 0.039390339492177184 0.046512220234810886
-0.032169511046896214 0.03914931883599193 0.04484855057082132
-0.032339165308982315 0.038078214937816934 0.04250535815221723
-0.03251061849082707 0.036995753647700746 0.04013731981987878
-0.032683899357054645 0.03590175336159507 0.037744038289065474
-0.03285903728883496 0.034796028582919636 0.03532510775956904
-0.033036062300491095 0.03367838981771515 0.03288011368633653
-0.03321500505664824 0.03254864346636871 0.03040863254262338
-0.03339589688994021 0.031406591711830634 0.027910231575430045
-0.03357867765200669 0.030253000691793985 0.025385281042595464
-0.033763377015264114 0.02908768944698764 0.022833363522634487
-0.03395049636770054 0.027905545669385856 0.0202498741837826
-0.034139606068806325 0.026711220135685665 0.017638437110159222
-0.034330737972401604 0.025504518197972337 0.014998604652098624
-0.03452382718674929 0.024286253414366965 0.012330791757042714
-0.03471919923722695 0.023053185531069664 0.009631914710734824
-0.034916894773482005 0.02180505124421389 0.006901420019751248
-0.03511695541610844 0.020541580960449668 0.0041387409704037315
-0.03287374192882682 -0.008724025369096833 0.11106207686635625
-0.032866493797666985 -0.007909162013127802 0.11024027292290034
-0.03285924886203364 -0.007094657910074353 0.10941883129216037
-0.03285200711981383 -0.006280512822407547 0.108597751734588
-0.032844768568896905 -0.005466726512813325 0.10777703401084296
-0.03283753320717357 -0.0046532987441812446 0.10695667788179905
-0.03283030103253658 -0.0038402292796109183 0.10613668310853985
-0.03282307204288055 -0.0030275178824116233 0.10531704945235906
-0.032815846236101724 -0.0022151643160982504 0.10449777667476212
-0.03280862361009878 -0.0014031683444002963 0.10367886453746075
-0.03280140416277168 -0.0005915297312488743 0.10286031280238003
-0.03279418789202243 0.00021975175921445933 0.10204212123165313
-0.03278697479575488 0.0010306763626414805 0.10122428958762283
-0.03277976487187457 0.0018412443144780188 0.10040681763284184
-0.0327725581182893 0.002651455849957518 0.09958970513006868
-0.032765354532908346 0.0034613112041118055 0.0987729518422733
-0.032758154113642864 0.004270810611764875 0.09795655753263349
-0.032750956858405914 0.005079954307533774 0.09714052196453471
-0.032743762765112205 0.005888742525831547 0.09632484490157167
-0.03273657183167878 0.006697175500859576 0.09550952610754337
-0.032729384056023984 0.007505253466619399 0.0946945653464597
-0.032722199436068196 0.008312976656905113 0.09387996238253654
-0.0327150179697336 0.009120345305305255 0.09306571698019683
-0.03270783965494402 0.009927359645205691 0.09225182890407144
-0.03270066448962565 0.010734019909781567 0.09143829791899424
-0.03269349247170595 0.011540326332009243 0.09062512379000912
-0.032686323599114386 0.01234627914465869 0.08981230628236456
-0.03267915786978226 0.013151878580295984 0.08899984516151518
-0.03267199528164249 0.013957124871284976 0.0881877401931224
-0.0326648358326303 0.014762018249780351 0.08737599114304939
-0.032657679520682256 0.015566558947739007 0.08656459777736816
-0.032650526343736865 0.01637074719691256 0.08575355986235453
-0.03264337629973447 0.017174583228849627 0.08494287716448887
-0.03263622938661703 0.01797806727489809 0.08413254945045745
-0.03262900157565193 0.018782137563563783 0.0833231895706252
-0.03262186095491196 0.019584916058904334 0.08251357307544227
-0.03261472345887019 0.020387343263076008 0.08170431086360685
-0.03260758908547577 0.021189419406616117 0.08089540270262296
-0.03260045783268016 0.021991144719854472 0.08008684836019422
-0.032865047041314745 0.019789427501591128 0.07726023000847329
-0.03337397251264544 0.014904386342947384 0.07259815827239594
-0.03389899834569354 0.00986467425885229 0.06778874958966374
-0.034440713588326906 0.004664890705215807 0.06282630572442705
-0.03500012021111365 -0.0007048397577087417 0.05770195522771965
-0.0355778994220054 -0.006250794129902759 0.052409145890439324
-0.03610734503787125 -0.011243367649854341 0.047452512522203116
-0.034498666269314957 0.0070869027807162754 0.05874604716430781
-0.03444623819839592 0.008421721789033776 0.05823528865921013
-0.03439406260017744 0.009751476614069665 0.05772536448426835
-0.034342044823669336 0.011077209172367097 0.05721698273718834
-0.0342901841538799 0.012398937686306788 0.05671013643019229
-0.03423847988012976 0.01371668026836359 0.056204818617649366
-0.034186839054257234 0.015031447823124267 0.055701739277675966
-0.034135445734763 0.016341267421898564 0.05519945805964854
-0.034084206703574225 0.017647154800664644 0.054698684744014625
-0.034033121266947096 0.018949127640306207 0.05419941255062144
-0.03398209759507535 0.02024817647933652 0.05370235269084905
-0.03393131755510168 0.02154236794104436 0.053206062819748545
-0.03388068905203384 0.02283269729939741 0.05271125396802617
-0.03383021140856133 0.02411918181647532 0.05221791951611404
-0.033779793893122724 0.025402792080355563 0.051726771827596274
-0.03372961622035615 0.02668163347034508 0.05123636671140813
-0.03367958739812868 0.027956681216397716 0.050747416366922427
-0.03362970676508048 0.02922795217410573 0.05025991433042171
-0.03357997366376373 0.03049546309935558 0.049773854176425325
-0.033530298707751593 0.0317601602119616 0.04928994959976274
-0.03348085897453635 0.03302019624459002 0.04880675430093273
-0.03343156482274065 0.03427652194513492 0.04832498183037942
-0.03338241561028595 0.035529153677802905 0.04784462591280153
-0.03333332300547535 0.03677901860917204 0.047366401222397214
-0.03328446201742004 0.03802430650851313 0.0468888599297253
-0.033235744063854156 0.039265948981915266 0.046412716579891045
-0.033379249918893024 0.03852152537295672 0.04434367435267006
-0.03355560713255112 0.03744513876671762 0.04199351398699441
-0.03373383779058189 0.03635731769533396 0.039618387845086755
-0.03391397190481991 0.03525787898321575 0.03721789598513153
-0.03409604013157737 0.034146635521241975 0.0347916298769127
-0.03428007378903813 0.03302339616059213 0.032339172170023966
-0.034466104875216556 0.03188796560313728 0.029860096454545237
-0.03465416608650402 0.030740144288245008 0.02735396701388576
-0.03484409919099344 0.029581672234238243 0.024821969744035388
-0.035036319511308256 0.02840847029640392 0.022260410356700955
-0.03523077035619829 0.027221263098212323 0.019669593116245443
-0.03542739164458303 0.026020804396173103 0.01704985739794168
-0.035626019576216375 0.02480888549893051 0.014402442679832872
-0.03582678602602504 0.023584316781519676 0.011726050085543394
-0.03603003300596569 0.0223438167336239 0.009017544939040223
-0.036235702831768635 0.02108812646898689 0.006277232308503244
-0.03644373418464318 0.01981801820930018 0.0035054550600330248
-0.03399417765532634 -0.008572640971256429 0.11114335641476697
-0.03398668537945311 -0.007758125802915405 0.11032185206109274
-0.03397919640546802 -0.00694396959527549 0.10950070974815507
-0.0339717107311886 -0.006130172111092347 0.10867992923667813
-0.03396422835443479 -0.005316733113336469 0.10785951028759347
-0.03395674927302795 -0.004503652365181354 0.10703945266204662
-0.03394927348479152 -0.0036909296300111083 0.10621975612139231
-0.03394180098755087 -0.002878564671417838 0.10540042042719544
-0.03393433177913307 -0.002066557253200041 0.10458144534123184
-0.03392686585736768 -0.0012549071393700428 0.10376283062548378
-0.033919403220085596 -0.0004436140941414535 0.10294457604214627
-0.033911943865119844 0.00036732211806195236 0.10212668135362216
-0.0339044877903053 0.001177901732610176 0.10130914632252377
-0.03389703499347863 0.0019881249846673277 0.10049197071167273
-0.03388958547247888 0.00279799210918541 0.09967515428409618
-0.03388213922514647 0.003607503340915974 0.09885869680303291
-0.033874696249323925 0.00441665891440185 0.09804259803192844
-0.03386725654285561 0.005225459063980142 0.09722685773443629
-0.03385982010358769 0.006033904023783843 0.09641147567441855
-0.03385238692936868 0.006841994027734832 0.09559645161594141
-0.03384495701804846 0.007649729309555209 0.09478178532328155
-0.03383753036747899 0.00845711010276018 0.09396747656092155
-0.03383010697551414 0.009264136640659726 0.0931535250935504
-0.03382268684000943 0.010070809156361327 0.092339930686065
-0.03381526995882283 0.010877127882762183 0.09152669310356487
-0.03380785632981364 0.011683093052560989 0.09071381211135904
-0.033800445950843215 0.012488704898250491 0.08990128747496118
-0.0337930388197748 0.013293963652119434 0.08908911896009039
-0.03378563493447334 0.014098869546255222 0.08827730633267247
-0.03377823429280612 0.014903422812536204 0.08746584935883478
-0.03377083689264183 0.015707623682643 0.086654747804913
-0.033763442731851175 0.01651147238805173 0.08584400143744628
-0.033756051808306736 0.017314969160035443 0.08503361002317819
-0.033748664119882775 0.01811811422966686 0.08422357332905786
-0.033741192806973005 0.018921845105759616 0.08341450373549467
-0.033733811620419024 0.019724285192831648 0.08260517773224432
-0.033726433662595236 0.020526374271445547 0.08179620574944355
-0.0337190589313835 0.021328112571863067 0.08098758755485666
-0.03375335746902516 0.021683410765266475 0.07988116437840115
-0.03427221476326811 0.01686322309629562 0.07529348959762455
-0.034807272880550744 0.011892529675047558 0.07056256905704217
-0.03535939802572405 0.00676315458392468 0.06568089745558736
-0.03592922302622489 0.0014694745128396858 0.06064257472353135
-0.036511814608434494 -0.003935089237076528 0.05548217350643431
-0.03711203478431303 -0.009501140202260283 0.05016318213449539
-0.037522980032568994 -0.013043617005375374 0.04620167411804732
-0.035701690060330235 0.006945594684174272 0.05864732214317858
-0.035647316423079 0.00828214865891852 0.05813723800132209
-0.03559339811887619 0.009611595672473827 0.057626556426589204
-0.03553944995139008 0.0109390448009683 0.057118850510716246
-0.03548576114399997 0.012261472270931939 0.05661196445981004
-0.035432234305719304 0.013579910224228386 0.0561066075893249
-0.03537886870470605 0.014894376687108357 0.055602772989805926
-0.03532556840742199 0.016205878186775935 0.055101171480472444
-0.03527252338870391 0.01751245031407067 0.05460036113048705
-0.03521963743672539 0.01881510440785339 0.054101052566394636
-0.0351669098370645 0.020113858065322177 0.053603239043173545
-0.035114339879571146 0.021408728778453068 0.05310691385613442
-0.03506183306852273 0.022700697789781343 0.05261278932594615
-0.03500957656120573 0.023987849798665806 0.05211942110322432
-0.03495747558967367 0.025271170740349624 0.051627521336960414
-0.03490552946055543 0.026550677693546687 0.051137083480847
-0.03485364480527927 0.027827332135204275 0.05064882096597695
-0.03480200657172556 0.029099257166343595 0.050161287674199695
-0.03475052112382504 0.030367418864059914 0.049675196881121986
-0.03469918778449289 0.03163183390593827 0.04919054219416874
-0.03464791429221328 0.032893444403846284 0.04870803807770657
-0.03459688342430594 0.03415041109298278 0.048226236785930354
-0.034546002656375675 0.035403680595046394 0.047745852643392594
-0.0344952713271486 0.036653269198201444 0.04726687940676433
-0.03444468877922949 0.03789919309507478 0.046789310869336576
-0.034412223899042756 0.038961805077517564 0.046169422743131405
-0.03459341400164038 0.03789143544871765 0.04383695130317067
-0.034776522239306 0.03680973455251829 0.041479787591273076
-0.03496157923308787 0.03571652149692073 0.039097537420781814
-0.035148616259299055 0.03461161151898873 0.036689798169775356
-0.03533766526713883 0.03349481588075354 0.034256158554223815
-0.0355287588968876 0.032365941761723305 0.03179619839377007
-0.03572193049869266 0.031224792147913183 0.029309488369893222
-0.03591711573061085 0.03007213288461069 0.02679639704315062
-0.036114346168072665 0.02890778379661907 0.024256510367768325
-0.036314157088546614 0.027726639218809912 0.021685253908000135
-0.0365160895795077 0.026533345166569522 0.019086229212710526
-0.03672017753395596 0.025327707856942494 0.016458992302821884
-0.036926351540443866 0.02411054049714839 0.013803956245601379
-0.037134853845170936 0.022879627812974868 0.011118937185627786
-0.03734614974166527 0.02163061690318363 0.008399857188078563
-0.03755975630093509 0.020368350206017072 0.005650561960764855
-0.035106011723727425 -0.007607206253305299 0.11040336818743268
-0.035098279090428085 -0.0067933976467262625 0.10958252497503435
-0.03509054986287772 -0.005979947472031177 0.1087620432926942
-0.035082824038826566 -0.005166855492468758 0.10794192290161855
-0.035075101616027345 -0.004354121471501993 0.10712216356322082
-0.03506738259223424 -0.003541745172796429 0.10630276503912789
-0.0350596669652036 -0.002729726360227336 0.1054837270911751
-0.03505195473269374 -0.0019180647978780385 0.10466504948140734
