# .PCD v0.7 - Point Cloud Data file format
VERSION 0.7
FIELDS x y z
SIZE 4 4 4
TYPE F F F
COUNT 1 1 1
WIDTH 777
HEIGHT 1
VIEWPOINT 0 0 0 1 0 0 0
POINTS 777
DATA ascii
0.025700852979748834 -0.00585602933936637 0.04755688843447503
0.02673830125522969 -0.005851355078939411 0.04687898447999933
0.0277522254585319 -0.005847048199014871 0.046185220953272266
0.028739074171238332 -0.005843169609774063 0.04547255274682521
0.02970194839264756 -0.005839670788050298 0.04474308176139741
0.0306410763898311 -0.005836550378956724 0.04399669784021626
0.03155761535989854 -0.005833791597179824 0.04323402739176069
0.03245644509019646 -0.005831315592215486 0.04245867593738434
0.03331718878251122 -0.005829463856336932 0.041654126244772605
0.034159703818240794 -0.005827908684923916 0.04083586722007754
0.03496556612518564 -0.005826960437821319 0.039988774152341255
0.03574616007582804 -0.005826432040641653 0.03912163124479706
0.036502585362824136 -0.005826307725951415 0.03823501182118233
0.03723684543862238 -0.005826556361151277 0.03733024796987683
0.03793066823920088 -0.0058274889317072335 0.03639195907469661
0.03860082123568925 -0.0058288261368110925 0.035433533186104704
0.039228158360773535 -0.005830895348795759 0.034438673388444974
0.039819285697228646 -0.005833589079469235 0.033412349503332994
0.040363355969565085 -0.00583709621205932 0.03234492112083032
0.04086600067391155 -0.005841325960722702 0.031240523940016196
0.04130628189965929 -0.005846641334202428 0.03008073865748223
0.041686102474871756 -0.005853016883531067 0.028866338203124953
0.04201278771325612 -0.0058603337480502265 0.027602794030071542
0.04223685708278563 -0.005869450398818855 0.026246504975155127
0.04236353716286895 -0.0058802885988135855 0.024800589970650766
0.04234093341926953 -0.005893757605468811 0.023218256814231064
0.042162454539241445 -0.005909989294249689 0.021491604300911682
0.041664431048813955 -0.005931846299393069 0.019473659766729268
0.0406438897881356 -0.005962901410213339 0.016979441823487706
0.036630004652797254 -0.006046345311620027 0.011793161294977816
-0.040706630736907334 -0.005153730256875182 0.05666725847219223
-0.0358809209552417 -0.005105013978331136 0.058191952478591547
-0.03226078128300264 -0.005070827172860347 0.05898341973322496
-0.029111683505308295 -0.0050422689223995135 0.059495631088827994
-0.026293790592974542 -0.005017658278426312 0.059812984052700635
-0.023689197463667377 -0.004995570407447758 0.06000776296186222
-0.021260459416265365 -0.004975559440661107 0.060101933233491
-0.018958249887101652 -0.004957029453659701 0.06012571075888856
-0.016792886546240227 -0.00494011675338228 0.06007103428796329
-0.014718441592342701 -0.004924262379624727 0.05996664961474446
-0.012722848023048572 -0.004909322967291885 0.059819587348368064
-0.01078564837568674 -0.004895049712015297 0.05964262603745191
-0.00892645363008221 -0.004881690866930643 0.059422060660800635
-0.007136069503714704 -0.00486913718979191 0.05916324917193139
-0.005402364466671916 -0.0048572418300375465 0.05887366583161613
-0.0037028427180633705 -0.004845726888364195 0.05856800530496892
-0.002049706101824089 -0.00483474786692243 0.05823758501793169
-0.0004305036097263515 -0.004824151372173044 0.057890475682143894
0.0011511144232174142 -0.004813985746135008 0.05752380774206328
0.002698899884618744 -0.004804206219208929 0.05713979618858084
0.004169734419021409 -0.004795360922049313 0.05670796444821541
0.005629994715519615 -0.004786613685449786 0.05627408929991612
0.007066436466359183 -0.004778133436062269 0.05582872558732488
0.008479397758065443 -0.004769917507438777 0.05537186862724286
0.009850904771103897 -0.00476219689723329 0.05489043940406785
0.011197747984946715 -0.004754759948269123 0.054396038692963666
0.012515229755803048 -0.004747668608370326 0.05388501305246868
0.013810760363126728 -0.004740829865848446 0.05336242250278156
0.015078643651202317 -0.004734318579835743 0.05282387528544119
0.016322216605505036 -0.004728093759916251 0.052271516433359255
0.017536848959932905 -0.004722217015319421 0.05170166277640187
0.01872192099460873 -0.0047166985423371 0.05111353005708391
0.01989150069269824 -0.004711358059986253 0.050517277577079966
0.021036015601677005 -0.004706321139002759 0.04990555941693031
0.022146050041406462 -0.004701712359205096 0.049270990816127014
0.02323747377036489 -0.0046973272207984085 0.04862520087109801
0.02430663508021569 -0.004693214911088261 0.047965195419857
0.025359531328735085 -0.0046892985234612 0.04729531305249074
0.026385812347608117 -0.004685715285965669 0.04660739368156325
0.027387659288375943 -0.004682438595258234 0.04590281110741795
0.028364366893742277 -0.004679479706655571 0.04518072484728802
0.029316178825482375 -0.004676837424162119 0.04444102313770554
0.03024427176693084 -0.004674498178556514 0.04368433021824997
0.03114980070718304 -0.004672448572871657 0.042911270456602424
0.03201982924142904 -0.004670862612688682 0.04211127321658442
0.03287991240623239 -0.004669402483787672 0.04130433556973201
0.03370866855986526 -0.004668354749002382 0.04047314115413064
0.03451192286334154 -0.004667644053894959 0.03962200195935406
0.03527871648912828 -0.004667419668908752 0.03874168474438022
0.03601485512084607 -0.004667606655150788 0.03783646264962515
0.03672977970166941 -0.004668080420479963 0.03691369216866286
0.03741161264745346 -0.004669003292049026 0.03596328497920742
0.038055921703421924 -0.004670438208668404 0.034981123358213684
0.03866380479019321 -0.004672373622748022 0.033967623481434506
0.039225295797628124 -0.004674948334383281 0.03291393277436877
0.039739629029561074 -0.00467817697837863 0.03181877805776279
0.040207840081387725 -0.00468204971655026 0.030682394484746134
0.04061623320793567 -0.004686758262663175 0.029492471657735664
0.040968518399872755 -0.004692257250873471 0.02825136354725677
0.04122607937924244 -0.004699082824578648 0.026925018503695775
0.04138963868365886 -0.004707233840108928 0.025512746246794782
0.0414394826846608 -0.004716991351168007 0.023996065339651707
0.04131300995248777 -0.004729232476038159 0.022318584101811312
0.04095757723766663 -0.004744704025612691 0.02043150449651049
0.04018051678656426 -0.004766106072481777 0.018161184574270517
0.038266836101141344 -0.004803440366335852 0.01486596309879512
-0.03973296780538893 -0.0038564158402985185 0.05727555889324598
-0.03547017739965602 -0.0038250063015883326 0.05845002757912443
-0.03198382702772079 -0.003800584060142849 0.059158422505545094
-0.02894646755027841 -0.003780185685829397 0.05960062065352645
-0.026211544069093706 -0.0037624875358229387 0.0598655451882954
-0.023645024672021564 -0.003746270880155664 0.060036152014314836
-0.02126045941623894 -0.0037316695804955865 0.0601019332335081
-0.018994738959558832 -0.003718109564489669 0.06010199460444121
-0.016847142019033035 -0.0037055903506364035 0.060035572418291716
-0.014794663582005985 -0.003693904539381523 0.059916550389601364
-0.01282070101988625 -0.003682902644836507 0.059754909795902145
-0.010911434291184241 -0.0036724599275018586 0.05955902025909254
-0.009079789707964914 -0.003662700492077196 0.05931957346146638
-0.007297015676336338 -0.003653359336685639 0.059055075111318356
-0.005571928058371034 -0.003644521664580268 0.0587590647951749
-0.003888436191377742 -0.0036360393032061444 0.058441872400153416
-0.0022458169444492526 -0.003627907593789297 0.05810356384637999
-0.0006348977625493801 -0.003620042114340188 0.057750018882171905
0.0009343029319668905 -0.0036125392043487095 0.05737399266134574
0.002457237299034909 -0.0036054441576584273 0.056971885605977934
0.003930490770238548 -0.003598791878260884 0.056540816516259806
0.0053734783528942565 -0.0035924003873590866 0.056093885405892496
0.006806203058931759 -0.00358608061465877 0.055644903680531765
0.008197042631370166 -0.003580135039822756 0.05517132370453898
0.00956800246730033 -0.0035743553498461915 0.05468840238563216
0.010908201943540474 -0.003568846920550387 0.05418812298003073
0.012218067275583111 -0.0035636073315110746 0.0536704595293806
0.013516067005398702 -0.0035584603890514424 0.0531484879945725
0.014777379077570152 -0.0035536462063258264 0.052603975782870016
0.01601143434794955 -0.0035490756532681306 0.052043432343362894
0.01720472771331094 -0.0035448811158973388 0.051456590053820916
0.018378458510323215 -0.0035408590858786075 0.05085870968071454
0.019540701614303546 -0.003536932067963033 0.0502555997959247
0.020688649766636424 -0.0035331280313543943 0.049645036378596186
0.021788415685903118 -0.0035297788764482537 0.0490013125159679
0.02286381201544868 -0.003526654294045484 0.048341911483751165
0.023927652892363593 -0.0035236299613713184 0.04767631871045008
0.024962741913061692 -0.0035208756079945385 0.04699122937463496
0.02598854749601337 -0.0035182011026462204 0.0463013032602696
0.026967911918042042 -0.003515973878158876 0.045577655347345425
0.027930806548591147 -0.0035139001900834567 0.044843061256408245
0.028880231016953417 -0.0035119512704308454 0.0440996748141107
0.029794550282369436 -0.0035103429231911412 0.04333030603966853
0.030691055518705324 -0.003508905123852545 0.04254820554447697
0.031563314415259724 -0.0035077031636113914 0.041748037449618025
0.03240027025390718 -0.003506849145721715 0.04092065522169336
0.03321342662180066 -0.0035062300082926573 0.04007486373224328
0.03400482629377971 -0.003505826748514554 0.039212012576687105
0.03476344554224231 -0.0035057517337574577 0.038322863310936206
0.03548485149743713 -0.0035060518125644446 0.03740336974938735
0.03617761771950467 -0.0035066427427662555 0.036460089686541575
0.03683078522261274 -0.00350763745587448 0.035483595183089967
0.037440845167942216 -0.003509074216521694 0.03447044817301337
0.038023684996672025 -0.0035107942415099516 0.03343333365864898
0.03856832749854894 -0.0035129113387945615 0.032362670891161016
0.039050901491729795 -0.0035156721003434745 0.031237803927687158
0.03948351520856447 -0.0035189567364088776 0.030068156787595113
0.03984869615520409 -0.003522948072885199 0.02883814577519983
0.040134435924894796 -0.0035277743309338498 0.027536548934047944
0.04032767496215711 -0.0035335757033838704 0.02615101306818496
0.04042626345225736 -0.0035403808836373097 0.024678386434194344
0.04034995996540086 -0.00354902760804356 0.023047476393491917
0.04008339206514305 -0.00355968772869001 0.021242381742689442
0.039443665115983684 -0.0035742773778008577 0.019099503352511094
0.03804866807731111 -0.0035968069052383237 0.016275631873450713
-0.046548762113669095 -0.002607297445902169 0.05453953783310511
-0.039298077660003705 -0.0025682991520869806 0.05754725852356607
-0.03520777276677939 -0.002548405288098794 0.05861489955602833
-0.031868337970490324 -0.0025330176152348516 0.05923139811361944
-0.028923894364571545 -0.0025199857042755183 0.05961496520602921
-0.026197447983625555 -0.0025082386244518187 0.05987455354785498
-0.02368105964939815 -0.002497735225997038 0.060012992987575564
-0.02132722824216371 -0.0024881905866375007 0.06005877988244723
-0.019087131537370905 -0.0024793093800356152 0.06004194384135997
-0.016977189009347526 -0.002471196997610143 0.059950572524560874
-0.014940463432857487 -0.0024635055700369447 0.059820718995197975
-0.01298092852803312 -0.002456262262349573 0.05964900478124174
-0.011110207316454013 -0.002449541997209465 0.05942690233930159
-0.009292468122385378 -0.0024431247747787035 0.059177422864204465
-0.007523434872756141 -0.0024369857358106694 0.05890289576167301
-0.0058054550930894955 -0.002431141235224495 0.058601233506349215
-0.004135454979627584 -0.0024255737946040426 0.05827399366632968
-0.002498710774185786 -0.002420192659315727 0.05793073746469818
-0.0009031644092972191 -0.002415048917349094 0.057565669798692765
0.0006518687336890538 -0.002410139696177141 0.05717883279242758
0.0021534162338685547 -0.00240554835712952 0.05676078643257526
0.0036211070265551037 -0.002401152612410844 0.056324665102416904
0.0050741137417852356 -0.0023968320709960994 0.055883580425334534
0.006493034621596894 -0.0023927104850038254 0.05542368988685559
0.00787837104974981 -0.0023887858832974777 0.05494498473753673
0.009238767443807083 -0.002385004320223102 0.05445327647249232
0.010573549502709056 -0.002381370988947908 0.05394781749879435
0.011886092808875981 -0.002377865177853494 0.053430771492874174
0.013180708004426223 -0.002374460001095546 0.052905032005270136
0.014426613338056782 -0.002371354116833515 0.05234794431289641
0.015638397045103447 -0.002368455337792645 0.051769659077078034
0.016828386303851306 -0.0023656853179564196 0.051178887212541435
0.0180007893792275 -0.002363017618213914 0.05057851083940845
0.019156791123861816 -0.0023604451922522277 0.0499692226316496
0.02028287237301496 -0.0023580565211495843 0.049340704896309706
0.02138132888551536 -0.0023558378037992164 0.04869434403081985
0.022451498104794132 -0.00235379443506355 0.048029318199565296
0.023504331108069487 -0.002351855882340589 0.04735364443185086
0.024527473029597402 -0.0023501038001668153 0.046657656558143856
0.02552603356273503 -0.002348505802453277 0.04594493877415157
0.026510789306767146 -0.002346991922551875 0.0452235469940348
0.027463736245187775 -0.0023456814711698202 0.0444792995849263
0.028391833717603898 -0.002344529735505957 0.043717258396090974
0.029299099647534743 -0.0023435111096028137 0.04294028352563173
0.030189498040408047 -0.0023426001269285252 0.0421512576824446
0.031041474597057805 -0.0023419408918406593 0.04133282445820491
0.03187227293723871 -0.0023414200447226395 0.0404982941067647
0.032679238301501656 -0.002341056216776466 0.03964526532657825
0.03344100489028651 -0.002340993499304787 0.03875616096374418
0.03419058210554049 -0.0023410123142829573 0.03785722967260069
0.03490006768567039 -0.002341300847504361 0.03692551317282067
0.03554547974317468 -0.002342022491719101 0.03594078672044054
0.036172691495907405 -0.0023428702071013356 0.03494009322004821
0.03676506639681998 -0.002343957436156854 0.03390937417784273
0.037331087491516146 -0.0023452281951430775 0.03285524217946528
0.03784210730639059 -0.002346878461264571 0.03175329976729724
0.03828435661225288 -0.002349004549776082 0.030591187203285075
0.03866625659046463 -0.002351552086699285 0.029375109965108115
0.03896741907975909 -0.0023546633868072133 0.028086856442525954
0.0391886656579985 -0.0023583365432582565 0.02672601708882033
0.03932420219160654 -0.0023626151094327343 0.025286487734134278
0.039287983844054075 -0.0023680958974015846 0.02369254547666233
0.0390666052616479 -0.0023748794694553664 0.021930128343320754
0.03858390547134155 -0.0023835015492766846 0.01992998134063806
0.037407938797256235 -0.0023969701430429846 0.017308388963123478
-0.04502887922547161 -0.0012990362293851514 0.05548370601820618
-0.03911693069403438 -0.001283598762356764 0.05766043092861994
-0.03523704812921746 -0.0012742918359891515 0.05859650549481521
-0.03194051109743529 -0.0012667291257216246 0.059185793119070684
-0.029017767538462025 -0.0012602799759248 0.059555311744220185
-0.02631964632860173 -0.0012544938086559263 0.05979646047502124
-0.023847368221092458 -0.0012493782983061764 0.05990610948329067
-0.021511532494895957 -0.0012446623574138278 0.05993966222521713
-0.01931544334709373 -0.001240358547825072 0.059893552068784994
-0.01720582427668127 -0.0012363047533331414 0.05980113443776236
-0.015184075261590546 -0.0012325067993062297 0.059660597698061535
-0.013244918912857506 -0.0012289498489349974 0.05947451598154446
-0.011377762957086479 -0.0012256024308019513 0.059249066867809785
-0.009552599895865876 -0.0012223723677462584 0.05900355525724582
-0.0078013747814931755 -0.0012193600336084828 0.05871608865688294
-0.00610534297768367 -0.0012165081406473417 0.05839855165674768
-0.004440905012885632 -0.001213743731747179 0.058066403931179955
-0.002815027946402371 -0.0012110892050625482 0.057714567887152624
-0.0012281309138640895 -0.0012085465453078625 0.057342357366809926
0.0003204253679113811 -0.0012061144175909636 0.05694980796394228
0.001807098190606815 -0.001203867842306825 0.05652015975770347
0.0032809322168329547 -0.0012016527548601396 0.05608700146437379
0.004728582082319577 -0.0011995116639078173 0.055640842886462205
0.006133898536027582 -0.0011974963342330019 0.05517000577803882
0.0075077858858000335 -0.0011955728205314327 0.05468177374530375
0.008854777387346024 -0.0011937272249718464 0.05417904680001073
0.010191514158066406 -0.0011919068277221744 0.0536734875488451
0.011509000827121918 -0.0011901406010672003 0.05315850827460472
0.012768206575492436 -0.001188554173354813 0.05260557398214116
0.01401603987419453 -0.0011869977674254764 0.052048257896456174
0.015213705568544955 -0.0011855966224737758 0.0514579766479652
0.016404572416257535 -0.0011842116201704312 0.050866154364653304
0.017576830528114706 -0.001182881087764371 0.05026396890557705
0.01871098949617278 -0.0011816685844343257 0.049636677913166005
0.019834975566972224 -0.001180484080014121 0.04900478401693836
0.02093618647809148 -0.0011793687978327225 0.048358679277376804
0.021991505562340474 -0.0011783986260267328 0.047680577650602685
0.023027627154937003 -0.001177487166780823 0.04699027994202443
0.024048613419949294 -0.001176621476487539 0.04629067753721594
0.02504112569266298 -0.0011758456580071189 0.04557131988075308
0.026008325287190437 -0.0011751498759856622 0.04483431508517355
0.026951409335195464 -0.001174530690681514 0.04408029135904251
0.02786773547303506 -0.0011739973249392662 0.04330688804055177
0.028767054848368945 -0.0011735180249788386 0.04252145380666272
0.02964002322770798 -0.0011731241569931789 0.04171638658276039
0.030480232562101583 -0.0011728375873662738 0.040886260251885964
0.03129171301808065 -0.0011726455696216037 0.04003388656718537
0.032082209310607956 -0.0011725228371368575 0.03916512996442695
0.03282555454325459 -0.0011725574514344563 0.0382585671660583
0.033537991187144844 -0.0011726959289609235 0.03732679211242623
0.03422344320134796 -0.0011729257479061684 0.03637260891453975
0.03484559116158159 -0.0011733698998568868 0.035365826458645
0.03545607135770673 -0.001173855386466949 0.03434825586305462
0.03602415408722742 -0.0011744864885386774 0.03329422222667405
0.036549981801023035 -0.0011752636753623277 0.032203275430156386
0.037022488502803264 -0.0011762255234280502 0.031065557899369434
0.03741755028883531 -0.0011774554346943333 0.029859995226734715
0.03773798768146841 -0.001178945543704824 0.028587924851919466
0.03798838941978028 -0.0011806818650853693 0.027252232962116096
0.03813965983826617 -0.0011827658099367367 0.025827011640581377
0.03812684884134804 -0.0011854229190460658 0.02425492779998578
0.037966665582897074 -0.0011885994423169433 0.022548178442063915
0.037520059028662844 -0.0011927788842446413 0.020583633556749248
0.036555834125011566 -0.001198767867404975 0.018154946031009422
0.033515505774389553 -0.0012119828438584472 0.013883668885160239
-0.0447338178513369 0.0 0.05566700143147357
-0.039161582632907255 0.0 0.05763253442322985
-0.03533832369443002 0.0 0.058532872842961436
-0.032101788444079626 0.0 0.05908388465499431
-0.02921278015522638 0.0 0.05943138733424963
-0.02657720663965113 0.0 0.05963186187809438
-0.024106988161153697 0.0 0.05973925645404937
-0.02179176615647266 0.0 0.05975854444443257
-0.019594335093936044 0.0 0.059712285752685446
-0.01749935812306247 0.0 0.05960927805040206
-0.015484228409281542 0.0 0.05946331289626089
-0.013563958615531169 0.0 0.059263641427108216
-0.011704407206630352 0.0 0.059031957133212465
-0.00988897691621654 0.0 0.05877872663757461
-0.008135425314801437 0.0 0.05849156885595025
-0.006450189460125988 0.0 0.058165484145585644
-0.004786730362048186 0.0 0.057831374352446674
-0.003185435704155859 0.0 0.05746143307328183
-0.0016047595618662314 0.0 0.057083543433311734
-7.827766452594975e-05 0.0 0.05667430722068173
0.001420157583118864 0.0 0.0562513079506311
0.0028961975062231637 0.0 0.05581820598513276
0.004331427527667242 0.0 0.05536184003243333
0.0057306034611580015 0.0 0.054885128942294914
0.00709116001982385 0.0 0.05438586198670897
0.00844541028394874 0.0 0.05388669389971951
0.009761805944056179 0.0 0.053364924913227085
0.011064201952523778 0.0 0.05283736017562529
0.012312381206688594 0.0 0.05227466467065861
0.013543250730080059 0.0 0.0517031589146596
0.014758016862470691 0.0 0.05112354525325141
0.01594192482352036 0.0 0.050524766072573724
0.017101302055636924 0.0 0.04991116663494999
0.01823742338104889 0.0 0.04928342233791472
0.019353505691954043 0.0 0.04864368346514847
0.020436049768903897 0.0 0.04798154543800892
0.021483472750186472 0.0 0.04729541566328749
0.022509769234489052 0.0 0.04659554610810157
0.0235180611076094 0.0 0.04588408327825011
0.024495962283399342 0.0 0.04515127442003458
0.025456288209764533 0.0 0.04440668158896888
0.026391519082434645 0.0 0.04364424005647266
0.02728752042071758 0.0 0.04285257807142645
0.028171361699667608 0.0 0.04205251962207229
0.029027908129191926 0.0 0.04123194005332459
0.029857376532762214 0.0 0.040390671555621316
0.03064481191952051 0.0 0.03951641070014794
0.031411305557102864 0.0 0.038625583943092845
0.03212869031166038 0.0 0.03769514995272383
0.03281703259955432 0.0 0.03674078408901005
0.033487772383910874 0.0 0.03577145489620526
0.03409405080553407 0.0 0.03474843413188439
0.034663329355329175 0.0 0.03369355149953651
0.035201355969199266 0.0 0.03261108353243203
0.03568293176121534 0.0 0.031479573371879566
0.03610441454072805 0.0 0.030295202340407168
0.03643213331710177 0.0 0.029028749579555646
0.036701627854968555 0.0 0.027709077117797187
0.036860240246824716 0.0 0.026290484990993235
0.03689155800055016 0.0 0.02475737948892187
0.03673633027033696 0.0 0.02305694957139126
0.0363283844751609 0.0 0.02112929629367294
0.03545723365870307 0.0 0.018787642239440183
0.03299376584961872 0.0 0.015037305729265649
-0.04474271461349316 0.001298167785874274 0.05566147466369192
-0.039398644072073885 0.0012844553683922432 0.05748442919236135
-0.035615556923097924 0.0012754450218331107 0.05835868388153631
-0.0324018086039905 0.0012681372979377653 0.05889430692244457
-0.02956045505274779 0.0012619398590183795 0.05921045082638793
-0.0269187674234741 0.0012563299113561828 0.05941358125266161
-0.024446273407829067 0.0012512173621405315 0.05952120397637256
-0.022133645693092896 0.0012465764644001903 0.059537584326294246
-0.019962973099433567 0.001242354804051036 0.05947268865457345
-0.01787739204697364 0.001238379226725659 0.059362191645084994
-0.015868228684499497 0.0012346243543468625 0.0592109170151231
-0.013965159413795836 0.0012311835427497688 0.05899846114119234
-0.012104868106917188 0.0012278619183272517 0.05876578388846909
-0.010300888036951894 0.0012247023356985636 0.05850341232328049
-0.008557624705692823 0.0012217195148368331 0.05820780303687462
-0.006863072587592944 0.0012188769891409185 0.057886433472840004
-0.005207723532554109 0.0012161458214276979 0.05754525927223875
-0.0036091704046958273 0.001213581907273845 0.05717185489273208
-0.002021612383093674 0.0012110422080672102 0.056797088011176444
-0.0005011530647261453 0.0012087036858134353 0.05638210355634149
0.0009944585540760387 0.00120643413800851 0.05595552624405309
0.002457193351733944 0.0012042593928822155 0.0555114950780049
0.003881283417026371 0.0012021983192802628 0.05504561177791156
0.005273528754885848 0.0012002300078525253 0.054562263615800355
0.006634383388321841 0.0011983535825886161 0.05406143283491821
0.007981746124776312 0.0011965125052251177 0.05355556430828384
0.00929125186478924 0.001194784886745553 0.05302703189148472
0.010559349741620927 0.0011931828032247312 0.052472853120737906
0.0118038029580253 0.0011916500100130325 0.05190545907215982
0.013030953267847034 0.0011901665371339054 0.051329221960323024
0.014236991932073284 0.0011887449682744264 0.050741163395130406
0.015418175383054344 0.0011873977811200974 0.050138290643402084
0.016571815160188963 0.0011861341420080968 0.04951833173695119
0.01769922457137596 0.0011849503137081707 0.0488819541499706
0.01878885899085353 0.0011838843204864157 0.04822020061416843
0.019863753668373618 0.0011828618731798835 0.0475499989794439
0.02090642817155325 0.0011819403017320057 0.04685793282485923
0.02192893379111749 0.0011810808244791244 0.04615280806666733
0.02292952641504048 0.001180289550640558 0.04543305362172967
0.02389969426134736 0.001179594870515077 0.04469185313133728
0.024838760090634016 0.0011789996264298754 0.04392831569764172
0.025762425029876468 0.001178452659345206 0.043154291750167495
0.026643919331771626 0.001178042766973461 0.04234863666266736
0.027505635726849553 0.0011776966460017408 0.04152845506483399
0.02834104026294043 0.001177436395453321 0.040688331907089925
0.029144611548576838 0.001177280934790564 0.03982354488008727
0.02991181937244103 0.0011772460411270675 0.03893006766459561
0.030658094736611463 0.0011772809348597737 0.03801984593775487
0.031366510990206764 0.0011774427417984516 0.03707892525659884
0.0320363355580478 0.0011777347413109197 0.03610621958273369
0.032661148494690095 0.0011781793663667322 0.03509597849986329
0.033243028934591856 0.0011787706020573222 0.034049317485922104
0.033780243319513126 0.0011795152580715196 0.03296423442124791
0.034279511388180195 0.0011803915914337393 0.031845710241495684
0.034694762832995996 0.0011815567379203937 0.03065477681522849
0.035044896309640305 0.0011829483448868223 0.029406160941939208
0.03531951103549463 0.001184603335012551 0.02809020025975517
0.035509033307122184 0.0011865561311248131 0.02669774013878562
0.03553659773902046 0.001189071726388081 0.025162078813078304
0.03541164378414885 0.0011921214703857535 0.02348908248003534
0.03502806841193418 0.0011960735849017418 0.021585224879777154
0.034189704439408664 0.0012016097934476285 0.01927702874964793
0.03197883399825335 0.0012119088839261652 0.015759186375325862
-0.04531670137032634 0.002599819406251039 0.055304907694828986
-0.0398324970559053 0.0025715491708343495 0.05721337753352029
-0.036018014704878476 0.002553342343978626 0.05810581483202637
-0.03279888645928658 0.0025386988621918525 0.058643400051802574
-0.029945724425707976 0.0025262365149108946 0.05896562420688006
-0.027317581986387618 0.0025151042851161575 0.05915871155933772
-0.024889009162926135 0.002505153750041422 0.05923666573222247
-0.02257570952007465 0.0024958731972727303 0.059251874112690395
-0.020402326204985555 0.0024874185535032236 0.0591871301186469
-0.018325598133833776 0.002479527471390195 0.05906924007688252
-0.016335430102972837 0.0024721408223207313 0.05890383464749338
-0.0144277132054344 0.0024652361369956314 0.05869272858221247
-0.012551768022427467 0.0024585013297980696 0.05846874415125203
-0.010763387648066225 0.0024522848701138576 0.058194285531394
-0.009027927314921025 0.0024463736949016796 0.057891706405756194
-0.007336791046546276 0.0024407158983208482 0.05756626670924769
-0.005691372055103283 0.002435321739534636 0.05721656240607503
-0.004084427878998653 0.0024301473481561963 0.05684706630561398
-0.002518535831795843 0.0024252102694612204 0.05645560917495851
-0.0009994122825743856 0.0024205479768523177 0.05603781025108506
0.0004990755058130736 0.0024159970906361843 0.05561132709529176
0.0019635461090590778 0.0024116429789444982 0.055166607695838366
0.003385096437491464 0.0024075433056542205 0.05469703820170424
0.004774772117863646 0.0024036294386463827 0.05420995529017275
0.0061288856022131966 0.002399925999718374 0.053702399104492704
0.007463384639691706 0.0023963325254737246 0.05318537216947722
0.008763148759758754 0.0023929463714405202 0.0526478143651416
0.010020484124569795 0.0023898181126758883 0.05208378813338216
0.011258289824736145 0.002386802328654919 0.051509440360399505
0.012469725395018227 0.002383943725090767 0.050919569645162976
0.013673230409324 0.0023811244024894078 0.05032741701558269
0.014849842566124372 0.0023784671057804985 0.04971891707969972
0.015986908292958513 0.002376054760974363 0.04908437986486025
0.017097813935433692 0.0023738020611213492 0.0484333332428214
0.01819176285858526 0.0023716501786162202 0.047772380814797843
0.019240326411628428 0.0023697849394928978 0.04707989648429839
0.020276429092497883 0.0023679932178297313 0.04638030285393879
0.02127864082220926 0.002366415666340759 0.0456571264778482
0.022270731325648163 0.002364897816857181 0.04492817918248643
0.023228464030449092 0.0023635992652615003 0.04417467386582746
0.024146337951408803 0.0023625576177049327 0.043391933428488516
0.025050826710217744 0.002361599857210983 0.04260008782776731
0.025919852605851113 0.0023608724784393797 0.04178169044060065
0.02677102347341831 0.0023602602964011505 0.040950162702727944
0.02758432020703805 0.002359896963535737 0.040089440610787785
0.028375341016183886 0.002359680291954058 0.03921145835886053
0.02912703799824501 0.0023597248976401845 0.03830229717085126
0.02984061251445086 0.0023600244362444738 0.03736242037086279
0.030530564897793044 0.002360483451363606 0.03640305986341014
0.03115518779858084 0.0023613828733174726 0.03539000693785971
0.0317536976305654 0.0023624618073857734 0.034354454273973656
0.03230152805677139 0.0023638869993379704 0.03327587210414412
0.0327940867688003 0.0023656917240138142 0.03214979416839481
0.03322200444029566 0.002367941883434548 0.030967701529879987
0.0335805966223755 0.0023706721713741504 0.02972481390320636
0.03385655950796801 0.0023739761878401834 0.02840902792335498
0.03406778732881033 0.002377735772869181 0.02703431233363013
0.03407902280686664 0.0023828775764695633 0.02548507108718301
0.033991105914721265 0.0023887205847177525 0.023844545935300554
0.03359058881428917 0.0023967334625419256 0.021928425419177333
0.0327487695995467 0.0024078153015662557 0.019621532764744043
0.03050558557413302 0.002428600668788065 0.016086287877519256
-0.04658209013461839 0.003911249597393809 0.054518834095141466
-0.04049680881222095 0.0038633836757043377 0.0567983456903674
-0.03660903293862461 0.0038354154025689647 0.05773447098982454
-0.03338199622246074 0.003813388354457373 0.058274942722925105
-0.03051719751559895 0.003794598555365077 0.05860247095734267
-0.02787935954399895 0.003777821399994365 0.058799697403037365
-0.025403039163699792 0.003762465935450814 0.05890630796875579
-0.02309305858990557 0.0037485851075653425 0.058917506303728606
-0.020925519797471093 0.0037359666587222988 0.05884707927027827
-0.01885129598801938 0.0037241628503918356 0.05872563918591017
-0.01687055464873094 0.003713180100001205 0.058552107734880066
-0.014952046414198283 0.0037027325753314494 0.0583461618983559
-0.013091169709137318 0.003692780585331612 0.0581102215162862
-0.011302315524405637 0.0036834615344129556 0.05783407540047186
-0.009548877780279075 0.003674436600403884 0.05754156867773147
-0.00785429314496705 0.0036659273627071597 0.05721650838999265
-0.006212069736153181 0.003657875928232987 0.05686268621706542
-0.004623459853635492 0.003650296860383123 0.056478694543106556
-0.0030510761809479092 0.0036428402516599854 0.056089654903445585
-0.0015448343429526612 0.0036359787851973193 0.05566092778268167
-6.01661091744754e-05 0.003629293849165508 0.05522275811113786
0.001399012828648405 0.0036228236931994786 0.05477219567771047
0.0028162830631857094 0.003616725820921915 0.05429744425777977
0.004197484056501777 0.003610946851737305 0.053802174470417574
0.005553513561208645 0.003605384653912221 0.053293736641587375
0.00686921416077424 0.0036001856337095706 0.05276104041116697
0.0081657036881978 0.003595149494509105 0.052218804120730766
0.009427872581869945 0.0035904224527068787 0.051655918187570704
0.010658204318492792 0.0035859825050307994 0.051073804489094876
0.011875355417753808 0.003581651392693551 0.050485726193980174
0.013064327163228917 0.0035775748331176123 0.049880540981301236
0.014223447723298144 0.0035737706124118005 0.04925669946759731
0.015344054476784552 0.0035703245484979148 0.048607436213419786
0.016455519446977374 0.0035669530710207118 0.04795421511811987
0.01753010809986627 0.0035639270879431746 0.04727614229424909
0.018571191404159304 0.0035612158300448267 0.04657532753387633
0.019606745358283717 0.0035585473385824264 0.04587258620302215
0.020586669802754032 0.0035564134931425424 0.04512967606589585
0.021557578352063123 0.003554359311379832 0.04438164701576136
0.022501962121762642 0.0035525578300060175 0.043614908071275604
0.02340642130837428 0.003551142973726184 0.0428187597162511
0.024289758440668663 0.0035499311364594107 0.04200735593317717
0.025142455914191064 0.0035490179964003327 0.04117298670984504
0.025974418012026268 0.0035483070337935605 0.04032306881505687
0.026774227866918465 0.0035479132447438135 0.03944830886343359
0.027550770081624598 0.00354774999205112 0.03855537089211569
0.028257146577219783 0.003548287822851164 0.037606444561657404
0.028954150839907822 0.003548921904230966 0.036649520991382356
0.02960163571161495 0.003550056129762872 0.035652017307725825
0.03018931061383817 0.0035517973259448984 0.03460492470201948
0.030746045324720417 0.0035538581825481407 0.03353105035691595
0.031241393392217542 0.0035565485944153976 0.03240496876281096
0.03167261487770939 0.003559900422959321 0.031223600604211255
0.03204263042875477 0.003563888328606565 0.029988511125072226
0.03232087703271713 0.003568827489162608 0.02867336171702156
0.03250050156403039 0.003574794032114813 0.027271160149579976
0.032562965471211014 0.0035819841865522505 0.025764924191563898
0.03242599206553287 0.0035912487906565897 0.02408327772901886
0.03200192700571464 0.0036035013744016783 0.022148769502716326
0.031124526586134016 0.003620472083561789 0.01981499255054614
0.028477556463697706 0.0036557640823466834 0.015941739878041705
-0.04139249733093697 0.005162072316710154 0.056238760144455446
-0.037385276351394714 0.005123346988027867 0.05724674794690787
-0.03409677559004343 0.005093245643677358 0.05782328556821953
-0.031203134552842737 0.005067856864951837 0.058166579454383804
-0.028524635255922526 0.0050450054037039765 0.058387322233971584
-0.026064161305351885 0.0050247417033782 0.05848141675274554
-0.023753838459714183 0.0050062457804497355 0.05849043775338564
-0.021548216555580813 0.004988967674680796 0.05844235611633897
-0.019469980303936818 0.004973194932623658 0.05832126149920813
-0.01747982598665221 0.004958449936084988 0.058151645583910616
-0.015551047839115817 0.004944407539336123 0.057950242025288035
-0.013703675671420723 0.004931320924093672 0.05770310886361801
-0.01191607219185098 0.004918926338434593 0.05742385099152769
-0.010166133523595855 0.004906952091701093 0.05712670289308025
-0.008455396073545118 0.004895419930659217 0.05681024771850879
-0.006804972277134391 0.004884597067997829 0.05645973821231637
-0.005220297302968635 0.004874556037940991 0.0560708188075541
-0.0036614980115513562 0.0048647999454138275 0.055670181568345634
-0.002146376841996034 0.004855554945168067 0.05524526652077422
-0.0006614749878376958 0.004846654139313102 0.05480496019717168
0.0007756678051552557 0.004838321639140641 0.0543366947475844
0.0021794587660544096 0.004830378187041389 0.05385007233585859
0.0035681771753676705 0.00482259384993383 0.05335764895007161
0.004909716481220516 0.004815378491484732 0.05283647476306452
0.006230661186494901 0.0048083963560639565 0.05230501252697478
0.007521989787392158 0.004801764245248927 0.05175656939646778
0.008770740280557632 0.00479565041614948 0.051181463773685154
0.010002002818748246 0.004789735908980572 0.05059743085713991
0.011198680417614626 0.004784241946513105 0.0499918065334673
0.012371332242386845 0.004779034996852038 0.04937194979872972
0.013529322704559643 0.0047739958558058624 0.048744503665961614
0.014642653910231507 0.004769513961975956 0.04808705578023642
0.01573286656150591 0.004765313325811605 0.04741515382844674
0.01679422216854587 0.00476147031849462 0.04672423068016496
0.01783696676383062 0.004757853694790397 0.046021676996975125
0.018833545715198574 0.004754824631151549 0.045286389595249166
0.019821943814897325 0.004751889863794222 0.044546768652167446
0.020774670200012058 0.004749410420132973 0.04378165724563371
0.021694997008452954 0.00474734619277121 0.042993145812393
0.02258712140718183 0.004745644555541608 0.042184092054396216
0.023453229382129404 0.004744278972171392 0.041355853993618685
0.024290605860627756 0.0047432874845345805 0.040505985793567456
0.025104323053776634 0.004742605272806218 0.03963812343562367
0.025871291052455392 0.004742540923465097 0.03873369717173225
0.026599550131754635 0.00474299140664153 0.037798512432678455
0.027298982540710448 0.00474382824522648 0.03683998000214389
0.027962031701856294 0.004745154917325315 0.03585165105723975
0.028572505460664643 0.004747191449294999 0.0348199618342771
0.029114257725317283 0.004750159147516939 0.033731102503194665
0.029602860156948907 0.004753854595357756 0.03259689564937923
0.030048983462652445 0.004758138679288409 0.03142540095258928
0.030423847764610434 0.004763404032789583 0.030192277329410877
0.03069571467534138 0.0047700867610132695 0.02887021703946352
0.030850910691603173 0.004778381662056203 0.02744642253494417
0.030901523438127187 0.004788134937020271 0.025929458131188965
0.030747312812204164 0.004800722216460734 0.024233335622581342
0.03027945757470435 0.004817648406009061 0.02226298623831996
0.029255346992131948 0.004842262925436065 0.019807308090597053
-0.04281129345824114 0.006474161067011322 0.05535236069995503
-0.038397086596895946 0.0064195969205505885 0.05661101543868713
-0.03495800081125666 0.006379702079348817 0.05727909172237683
-0.03199622757510906 0.006346949992069829 0.057662593679171925
-0.029324544051119228 0.006318513998711256 0.057876125983188975
-0.026820668645427648 0.006292542200525925 0.05799522319879463
-0.024492773808009183 0.006269174942215192 0.05801285654606936
-0.022286399796658696 0.006247588243409771 0.057962572263888734
-0.020203195083694947 0.006227818171055836 0.05784202566137264
-0.018176458630082215 0.006208843320385096 0.05769376255305064
-0.016242358791540346 0.0061912292948001916 0.057493308647254715
-0.01438434152399326 0.0061747270395207665 0.05725069256421028
-0.012587503457776428 0.006159111204646179 0.0569750778721132
-0.010826313509366137 0.006143988841501652 0.05668298715487441
-0.009125460264374052 0.006129748837849914 0.05635737897480225
-0.0074860403647097895 0.00611641370010998 0.05599687120126834
-0.005876554363249853 0.006103494543494347 0.05562233600629424
-0.004326770478771558 0.00609146202688636 0.05521301564376008
-0.0028088549375380745 0.006079882937243391 0.05478749922816062
-0.0013458139894756416 0.006069123301626496 0.054329471779362704
8.975616243672713e-05 0.0060587545377632675 0.05385748155564418
0.001496133703006608 0.006048806333729151 0.05337003341754215
0.002872679539063727 0.006039291419338976 0.05286636805366651
0.004218762179696578 0.006030222507593701 0.05234571910152275
0.005522310273120612 0.006021794901903524 0.05179913786770124
0.006816006413354558 0.00601349013896599 0.05124962053327847
0.008052539182081986 0.006006066787015963 0.050662917233591565
0.009269601992247911 0.005998925303180418 0.050065739841647694
0.010456183341718217 0.005992244541721159 0.04944984192182489
0.01162486056627604 0.005985824657066136 0.04882411185491342
0.012765700275604308 0.005979827703380902 0.04818102563017973
0.013869934142732188 0.0059743982279988435 0.047513762477499555
0.014948027600336922 0.005969370053609338 0.04682970497589356
0.016003264881849222 0.00596469232103575 0.046131015761666505
0.017022899312046924 0.005960574820606883 0.04540782006954752
0.018016246120911794 0.005956869054677859 0.04466675887763327
0.018982565231054904 0.005953589723613294 0.043906957782370915
0.019912215446473036 0.005950897529345641 0.04312070611367036
0.020824259714257665 0.005948483114446718 0.042322247432769466
0.02169524135313894 0.005946734293124824 0.04149320044348487
0.022553939397656098 0.00594518064833101 0.04065547286145221
0.02337109100504553 0.005944307079911341 0.039786003152680605
0.024146018151147253 0.005944129162400435 0.03888373851599991
0.024869250539871712 0.00594480854195378 0.0379406517953772
0.02556248952341228 0.0059459897378026415 0.03697335302083016
0.026230749752487237 0.005947592383618179 0.03598546809991654
0.026826618298292193 0.005950411249505149 0.03493854275927316
0.027385254588847274 0.005953865569704461 0.03386006527566349
0.027874808302273624 0.005958493825511734 0.03272365586336823
0.02831671215523257 0.0059639432642911595 0.031545918743569434
0.028699396388521703 0.005970414175513953 0.03031671171566558
0.028956009895135082 0.0059790421124770576 0.028980029390989037
0.02912024445704492 0.005989270970051169 0.027562162676962654
0.02912759160965922 0.006002205311479796 0.02600801701114397
0.028906806416571174 0.006019073857701177 0.024255691735898866
0.02838983667438122 0.006041061705659958 0.022244693419224026
0.027118342329118306 0.006076027390364748 0.019582315973181108
-0.04480317360475006 0.007805333547261932 0.054107924363120896
-0.03972510254492084 0.007727792346061709 0.055776607096462094
-0.03609998389515262 0.007676558830041895 0.056557491668168924
-0.033000658961024 0.007634773125194866 0.057024308993182726
-0.030222177076137002 0.007598722440820438 0.0573024772875837
-0.02770680449681162 0.007567377035186002 0.057425719750454574
-0.02531187993318773 0.007538131198890323 0.05748346017453887
-0.023105243160541467 0.007512252264816688 0.0574303631837918
-0.020994472790115293 0.007488047350166633 0.05732483936744387
-0.018961355696709592 0.007465188212695378 0.057177865040681786
-0.017023523696899967 0.0074440109918460775 0.05697698481677699
-0.015151901159697667 0.007423983649227316 0.05674052081305264
-0.013327264219155921 0.007404753941492019 0.05648063449219831
-0.011566528556060551 0.007386643326623207 0.05618547878904323
-0.00987512597543444 0.007369760438034918 0.05585071084745791
-0.00823862776010914 0.007353841500819548 0.055485398288918186
-0.006616818817239523 0.0073381349722980846 0.055116442971244684
-0.005073470926861445 0.007323845593100662 0.054699893550844036
-0.00357277294967695 0.007310304806273196 0.05425963772972203
-0.0020915493641624483 0.007297078044221645 0.05381132429315294
-0.0006444592402076732 0.007284445545991127 0.05334452086980662
0.000768999574541851 0.007272401391741859 0.05285921843449087
0.002120825182716335 0.007261483012893287 0.05233527828014073
0.0034476007926158014 0.007250998473687027 0.051797995734235436
0.0047559236688543005 0.007240824157451362 0.0512518165401149
0.006027304949404788 0.007231316620202303 0.05068327389503069
0.007257049842262886 0.0072225702194130504 0.0500885680078384
0.008459085864132243 0.00721432141397881 0.04947734052854219
0.00964093090410506 0.00720642819183765 0.04885477160426421
0.010803838846698777 0.0071988685125767785 0.04822156139643485
0.01192460706479731 0.00719209413458957 0.047560381798406326
0.013028055820592077 0.00718562792715565 0.046889159323675544
0.01409820169335202 0.007179782877774561 0.04619577925771412
0.015127343294093543 0.007174713072826719 0.045474077944630154
0.016141988203248636 0.007169905346482622 0.04474355891354753
0.017124271483605347 0.007165711213564405 0.043990513730232106
0.01806053987744194 0.0071624024905264936 0.04320414994949873
0.01897606019162562 0.007159487865892577 0.04240327383928644
0.019871007716370848 0.007156966381276261 0.04158777191986962
0.020724785351193153 0.007155247317615089 0.04074144026288251
0.02154362849580005 0.007154212370941239 0.039868626899082826
0.022314990345394414 0.007154114750107006 0.03895907345452304
0.02305882548520516 0.007154563829179999 0.038027892167241895
0.023755686189141645 0.007155950472031681 0.037059343057327
0.024412673779671934 0.007158138945211384 0.03605847757844377
0.02502703857284666 0.0071611894072656735 0.035022582911232336
0.02557159172075585 0.007165652454492286 0.03392924061564884
0.02608070128693163 0.007170846763569439 0.032805329284507634
0.026526141490742672 0.00717734533664038 0.031627435378480784
0.02686698109902974 0.00718598248225953 0.03036126980917675
0.027108030588707033 0.0071966748292325005 0.029009400636534677
0.02724513479686319 0.007209519963459105 0.027567063522000612
0.027192541876180587 0.007226273404892482 0.025961662876191838
0.026888785032211704 0.0072482117224168495 0.024139348706207653
0.026222987624772653 0.00727763045506578 0.02200370027233961
0.024446290279639515 0.007329886675421266 0.01891812622065936
-0.04147577344664233 0.009053093573220459 0.05467663957946084
-0.03741241946099744 0.008984029995023533 0.05572818553499315
-0.0341756116137758 0.008932391572912143 0.05627766338300921
-0.03134039523652776 0.008889164893438493 0.056587859652946715
-0.028739725407926464 0.008850809141285136 0.056761880205057846
-0.026312379226484217 0.008816034629556128 0.05683682760849079
-0.024038443740604265 0.008784432923787172 0.05682382737466457
-0.021893162128359733 0.008755487606574776 0.05673744785562862
-0.019856236356290413 0.008728774755043866 0.05658967746071231
-0.0179001484538866 0.008703710326805014 0.05639756522263817
-0.016016409316274738 0.008680119539955762 0.05616591055527609
-0.01419007461077354 0.00865768551441355 0.05590394685407385
-0.01239101926948788 0.008635757283454523 0.05563132762809064
-0.010703075764604164 0.008616172462277187 0.05529113374125627
-0.009069059832118032 0.00859769128269756 0.054921020632614226
-0.007460659980683515 0.008579698364197754 0.05453976612964612
-0.005906884752332642 0.008562835333033345 0.05412718323911875
-0.004403591317835631 0.008547017660829014 0.05368554859740976
-0.0029262968110360665 0.00853171049956562 0.053231329960177654
-0.001477839536826231 0.008516979835130339 0.05276227848293036
-7.058536864346099e-05 0.008503103664684389 0.05226940625028109
0.0012716911813163145 0.00849061599905113 0.05173547277168106
0.002593157503660515 0.008478541013882054 0.051191120749020935
0.0038982761627354146 0.008466781587882017 0.05063932048520342
0.005159039203612159 0.008455966439115972 0.050059794151792014
0.00638746512687316 0.008445831892441602 0.04946072136928459
0.007592239540066881 0.008436186988981912 0.048848047953163276
0.008762299000383944 0.008427283883723958 0.04821343924897925
0.009905242687388238 0.00841895572085764 0.04756207880922836
0.011021377238180197 0.008411199148307524 0.04689388727275701
0.012110997512155552 0.008404011052957234 0.04620877892115621
0.013163216096659769 0.008397642189019193 0.045498328861110604
0.014189553844385527 0.008391835564034783 0.04477073946942556
0.01520136194262367 0.008386335901710555 0.0440342688603218
0.016128396866476435 0.008382750050513787 0.043235497444918114
0.017048623320155054 0.008379305007342094 0.04243282313089508
0.01794609767263372 0.008376367475528348 0.04161395139655655
0.018816019986433508 0.008374051032746039 0.040774909575215124
0.019636720997316393 0.008372858908406847 0.03989857520404688
0.020401602888196146 0.008372950598492817 0.03897919945985118
0.02113975154814446 0.008373661263097725 0.038038858269548115
0.021854290938884746 0.008374922416394615 0.03707967339635099
0.022510791537759922 0.008377537653066907 0.03607409551999757
0.0231312156528789 0.008381004210100079 0.035038858063724254
0.02368220972564339 0.008386105950120046 0.03394681340755956
0.02418267886075115 0.008392411262494829 0.03281226608140275
0.024599253159337142 0.00840071004133272 0.031607573196726635
0.024914251667692566 0.00841143048526714 0.030317262526074584
0.025140371278429163 0.008424289421860045 0.028950369162925982
0.025228009002490004 0.008440470897592539 0.027464958089790936
0.02511211476960179 0.008461534433132929 0.02580545947537355
0.024682565480429686 0.008490121033731268 0.023877722769861998
0.023752745825629196 0.008530711015494153 0.021521785792371795
-0.0441514032503848 0.010411606430075186 0.05299550929464086
-0.03920215867354704 0.010311170194286253 0.05459727919232843
-0.03562084523118497 0.010243811050358258 0.05535926268525643
-0.03260034524312372 0.010189936143731575 0.05578266570657053
-0.0298868684484207 0.010143390791255171 0.05602463216765996
-0.02741860653558842 0.010102697114458022 0.05612186198251651
-0.02512869444802973 0.010066240805707352 0.056115216483171804
-0.02292747394483008 0.010031831470757464 0.05606141226055672
-0.020857929023791022 0.010000545661252259 0.05593128443404172
-0.01888034903688962 0.009971416814989935 0.05574968547768261
-0.01696659379894616 0.00994375828981273 0.05553435404956897
-0.015119903009781777 0.0099176596145502 0.055282465531532266
