# .PCD v0.7 - Point Cloud Data file format
VERSION 0.7
FIELDS x y z
SIZE 4 4 4
TYPE F F F
COUNT 1 1 1
WIDTH 787
HEIGHT 1
VIEWPOINT 0 0 0 1 0 0 0
POINTS 787
DATA ascii
0.06712630190940412 0.09014117236055647 0.03391018766629289
0.06714447761822874 0.09074694273658845 0.03301590680625438
0.0672616276361494 0.09092326567355491 0.031694897291769664
0.06737951703816004 0.09109877576906222 0.030367845269978044
0.06750162755209582 0.09125844651182957 0.029019643144972407
0.06915393361475522 0.08482222623536473 0.021022033919577687
0.06955322225539408 0.0838100965047624 0.01844198677275255
0.06955216769970254 0.0845242721057814 0.017600864614537637
0.06934627617377853 0.08611543740943134 0.017656954022748583
0.06915810340358765 0.08762671908577124 0.017640226879165
0.06893795587596689 0.08927040864067531 0.017768902909597317
0.06876212293692324 0.09072122901515073 0.01770721826018168
0.06865441584471697 0.09187956030893807 0.017348104973720968
0.06881059811058216 0.09191931149657728 0.015819731894052502
0.06899619011240635 0.0918381320979258 0.014156600359539806
0.0691325695938157 0.09196792890510214 0.012708695048511687
0.07383316232175477 0.030421937448275704 0.0301906897357897
0.07346831138739914 0.03292601740231621 0.030721944297724568
0.07321592451849511 0.034887776898325173 0.030815869766770254
0.07294797447202135 0.036918143120249325 0.03097799108917526
0.07267710346021652 0.03895678170993766 0.031158398597129322
0.07243418149544886 0.04085777817017522 0.031233540072179655
0.07218114357547388 0.04280141846230856 0.03135533235475896
0.07192566563885866 0.044751287545369445 0.03149321210745504
0.0716828005239314 0.04663667117015036 0.03158641247587568
0.07141162444494906 0.048649580137598014 0.03180042283711659
0.07116398563017133 0.050546901129781 0.0319253935431813
0.07091768705853561 0.05243283965077866 0.032051015514098447
0.07066331647423416 0.05435121589088093 0.03221575716614955
0.0704206484967044 0.0562100076291876 0.032338749027769675
0.07021220211857315 0.05790530491260415 0.03232684561360122
0.07015056257998765 0.05891801470234426 0.03171386887612204
0.07016273637241242 0.05958918514338318 0.03079669849463107
0.07248709620494771 0.049625972324272516 0.020274148000374415
0.07242275491862539 0.05067274837753882 0.019646605196318334
0.07465358474581814 0.041209403362444164 0.00942953873597735
0.07141143552818553 0.05679443309033366 0.0220955778271274
0.07149662912749616 0.05714648861768751 0.02085513534238803
0.07159299905567296 0.057449485747603224 0.01956546945955956
0.07158978247725378 0.058206323083578204 0.018694498327239573
0.07189836512823503 0.057551636892434144 0.016501390657989334
0.06748672886441381 0.07822196092015188 0.0343755419740579
0.06727621281838238 0.0798702338985281 0.03443962217074764
0.06706733813936643 0.08150676270305934 0.034501883228855224
0.06686124168739073 0.08312649917741194 0.03455738715287049
0.06665936052173868 0.08472309892668484 0.034599848190320304
0.06645804261605925 0.0863129979228866 0.03464486761686697
0.06626101644150068 0.0878796061782034 0.03467629112581161
0.06611433447612682 0.0892184058209674 0.03449411743650044
0.06607949814936477 0.09005829577434649 0.03382883849589474
0.06610320211979615 0.09063853159668739 0.032908941396295244
0.06622149207906634 0.0908018726887243 0.03157450185044425
0.06633711939293538 0.09097938856948362 0.030248825224366893
0.0664528251568995 0.09115895743599378 0.028919946041227718
0.06775139415881096 0.08615801191998357 0.022367547961787304
0.06810022284024905 0.08533559226699045 0.019986548764469536
0.06828872454264284 0.08521958074364461 0.01830850717642507
0.06824915233643553 0.08609972818601208 0.017640883523954654
0.06806531506010145 0.08760519399223848 0.017618092845295974
0.06784081403305736 0.08928291504736541 0.017781829757427148
0.06767674690646285 0.09069493909798915 0.017679904411652236
0.06758860158642517 0.09177640693855466 0.017240380104749153
0.06774681875194186 0.09179700192574775 0.015691342250152174
0.06793132207963079 0.09170815303609609 0.01401945561269935
0.06808704220774911 0.09174626414236109 0.012473602924601535
0.07328549723263067 0.02652768525236643 0.028532636083636043
0.07257742011756707 0.03073688269891761 0.030450794619642285
0.07226961809520614 0.032992470878755065 0.030777118226731515
0.07202217458864313 0.034949868608283974 0.0308676960329492
0.0717652098563212 0.036947965777660796 0.03100301535367489
0.07150796169947328 0.038942011195174986 0.031145939060301386
0.07125655177739451 0.04090260437333976 0.031271553404854324
0.07100349838769332 0.04286577244969092 0.03141019425314617
0.07075881052437898 0.04478361887250598 0.03152092036747528
0.07051095274354578 0.046711427815226636 0.031650817901769324
0.07025167517980953 0.048688360883598236 0.03183401013938003
0.07001562752597518 0.05054952134034285 0.03192767490688503
0.06976453849148924 0.05247697331741019 0.03208964284466409
0.06952703149901125 0.05433492486111674 0.03220142374878199
0.0694120468520101 0.055609940945599234 0.031808009208538546
0.06923749315132122 0.057162889408988726 0.031666751592373976
0.07171866760054316 0.04624123012511411 0.020383532787203007
0.07157728984985558 0.047659365830043265 0.020078033245297444
0.07152811196169821 0.04864350741658874 0.01938679721324127
0.07372990170591208 0.03912754115630768 0.009164466012871797
0.07345617510264847 0.04117831418333201 0.009401164496369963
0.07038191086866762 0.056226699365736654 0.021574709742911757
0.07038172494323355 0.05696920990419091 0.020691640287282265
0.0704505621246808 0.057392684954777784 0.019512811315954892
0.0724320479104424 0.048997315798519125 0.010112530169738732
0.07226217059534276 0.050542177772880115 0.009935111907608318
0.0663954210907691 0.0782348694381153 0.034387697498977576
0.06618963301753411 0.07987700975209394 0.03444603607048169
0.06598511665388451 0.08150900212343937 0.034504014126730875
0.06578299681547145 0.08312575886217172 0.03455667916578853
0.06558356387352622 0.08472603502255849 0.03460267113319371
0.0653879032093758 0.08630499030266153 0.03463712889764853
0.06518941997266942 0.08789260056008069 0.03468891466064955
0.06505448398628776 0.08918900244957811 0.03446540511358348
0.0650160786645487 0.09004757546807096 0.0338183158445407
0.06507672252136636 0.09046004883659814 0.03273283875543187
0.06518304226921963 0.09066893884762128 0.03144266038079463
0.06529418871565379 0.0908584721309671 0.030128280641601224
0.06540587536367318 0.0910479363461838 0.028808692799689672
0.06639145082427328 0.0873478920930103 0.023566093890823092
0.06657969740795709 0.08721111971014611 0.021885517243404318
0.06678340316423145 0.08700979302700712 0.020130475478582655
0.06700924418844845 0.08671487981557957 0.018270186154512535
0.06695251463735108 0.08767124341198251 0.017686011190610584
0.06674409990377381 0.08929394921644163 0.01779323488550144
0.06658601812397016 0.090691287263856 0.017676110432414738
0.06652917222949817 0.0916419073139646 0.017099919764072213
0.06667830803806474 0.0916913544387426 0.015580442984756415
0.06686701279974391 0.09157147695605916 0.01387524463905121
0.06702087088318599 0.0916070940778505 0.012326002660018875
0.07171513500007047 0.028352392610013266 0.03003163770594175
0.07133886460647265 0.030977512859241885 0.030649524672316353
0.07107928069519723 0.033019994153949295 0.030799969861586896
0.07083057278904582 0.035003475431238384 0.03091244020582906
0.07058264905366927 0.03697778329605772 0.031028035306014945
0.07033173717426876 0.038961396998720366 0.031162291982980095
0.07007698254791253 0.040958392037911795 0.03131886220980035
0.06982536868094139 0.04293463144294418 0.031468896671620894
0.06959070049846591 0.044823126569458305 0.031554778826516916
0.06933944229150125 0.04678704060634725 0.031715960925947306
0.06910328703086085 0.04867249697826731 0.03182027082095196
0.06887343928587572 0.05052244270065248 0.03190409907981495
0.06861277525740007 0.052515904991564555 0.03212371721953755
0.06842062197132308 0.054174501506455974 0.03206027689889812
0.06832664013428628 0.05535819470211284 0.031585347746594494
0.0707959491315329 0.04427494290693634 0.020207861716234343
0.07067608294462764 0.04560564470466222 0.019815455348284883
0.07292043833550835 0.0356720174103739 0.009307679437793759
0.07274923817157508 0.037266885753512224 0.009111564922634041
0.07253225081690004 0.03907520811796866 0.009116951829858833
0.07230498517546734 0.04092751063625305 0.009172262310834123
0.07206071259220426 0.04285522598594388 0.00930703107365205
0.07182831760013914 0.04472176586823928 0.009396445169576773
0.07160523945636899 0.04653954529277332 0.009451205329959633
0.07130063868346408 0.04873475731215754 0.009867849322735212
0.0711435152774963 0.050233587003337576 0.009646032204495614
0.0653029043228612 0.07825385061160273 0.03440557140082329
0.06510180836593808 0.07988980784486188 0.034458150432488455
0.06490258986967325 0.08151273448012736 0.034507565553103525
0.06470426749854408 0.08312723920495207 0.03455809513529634
0.06450683599086336 0.08473337515099011 0.03460972824786135
0.0643145501213194 0.08631154185292111 0.034643460607320875
0.0641038067316678 0.0879705432981665 0.034764632535001005
0.0640083280563852 0.08909573352459788 0.0343743280302965
0.06396475299955211 0.08998109254090852 0.03375305821614566
0.06404147841466562 0.09031567550440456 0.032590390701055016
0.06413956676960413 0.09055449033762208 0.031329152353718914
0.06424897682775897 0.09074390271701016 0.030014063569285543
0.06435876078974735 0.09093396240460289 0.02869448052936635
0.06490323200158804 0.08915823082452545 0.025389617053202584
0.06509776601253955 0.08897483506257375 0.023671276167347266
0.06531510637946447 0.08869283522176585 0.02184337263999686
0.06546402291595955 0.08872309723180943 0.020324600553080052
0.06557865838908478 0.08891029610003293 0.018960122195110007
0.06564270102162235 0.08932631151669329 0.01782668498651463
0.06547972047019517 0.09075700449723129 0.017744387546694496
0.06548724490808902 0.09142499251149383 0.0168733917322495
0.06561460520160409 0.09156082869427129 0.015443428730338105
0.06579807083417467 0.09145077385522038 0.013747887239987155
0.06599718350173406 0.091275480838026 0.011974301870907034
0.07043009622699493 0.028803960804211493 0.03040260216241769
0.07014721096694618 0.030990924685051935 0.030660601223776007
0.06989329939157166 0.03302663697612174 0.030805485235065377
0.06964347713909148 0.03503638368008538 0.030939907869021066
0.0694001051684851 0.037008527234106414 0.03105383261664557
0.06915174930403468 0.039000162155714224 0.03119499230091438
0.06890571720222803 0.04097485042341448 0.03133281923704595
0.06865576058379957 0.04296361630458928 0.03149360636972559
0.06842195524631021 0.04486711292823775 0.031592475529993225
0.06817999770123881 0.0468057161000609 0.03173205057262829
0.06795550646915854 0.04865310573848486 0.03180347654993482
0.06773551435797252 0.05047351534672734 0.03186150075299454
0.06755162046887975 0.052112299954578445 0.03177046884530044
0.06757393252242729 0.052739199423699534 0.030797440326617687
0.06985750008858482 0.04233882276100126 0.020070127212121813
0.06974579473889488 0.04364345048058027 0.019646391272392094
0.07195509147055386 0.03367708117817669 0.00915386898188214
0.07172664576948876 0.03556763500892923 0.009213894372037679
0.07158184422946397 0.03704893777292029 0.008914716936957612
0.07130049561318286 0.039185564301088216 0.00921714665238127
0.0711257975869091 0.04080291500430089 0.009058547011981555
0.07089243952413576 0.04269806068148835 0.009162839620388163
0.07066796874390376 0.04454555444384145 0.009233934424612067
0.07043278890961832 0.046439333332205956 0.009358302054683243
0.07012621826998429 0.04866837092017673 0.00980598326065485
0.06442798161443847 0.07653882948440954 0.03428809871095295
0.06421468243441025 0.07825309131073227 0.03440485648714753
0.06401169115022572 0.07991389552517464 0.03448095116308558
0.063816455984905 0.08153363440678901 0.034527451917714336
0.06362444955051921 0.08313390089797451 0.034564466826433105
0.06343016109732408 0.08474071491819757 0.03461678501523263
0.06322743896107262 0.08638286316358929 0.03471238779991587
0.0630280118190252 0.08800517124982199 0.03479827208738823
0.0629413687750553 0.08909645110941783 0.034375028843475985
0.06293552928324368 0.08980938435782926 0.033584514517769115
0.06297750505088223 0.09029994298765043 0.032574868065932516
0.06309033239617594 0.09046286697358769 0.0312382819250569
0.06319845125132777 0.09065003206942301 0.029920481624201967
0.06331300538100552 0.0908098519091245 0.02857011050051278
0.063439058391166 0.09091922163144628 0.027163432898761886
0.06362617638934265 0.0907508317070409 0.025469469877664075
0.06380745127703293 0.09061329604648027 0.023797899912326836
0.0640108955347553 0.09037835677183809 0.022017937657496822
0.06422460080435329 0.09010105112575068 0.02018456898443649
0.06435640220675193 0.09020106382418619 0.018730837952239565
0.0643805118977238 0.09079277141509456 0.017781547737106274
0.06439884733402064 0.09141115133050715 0.016858937231156723
0.06454817080783909 0.09143821763510912 0.015314722610964615
0.0647271053924592 0.09133509774567516 0.013625833971885937
0.06493679316282298 0.09109762525677312 0.011785672693780835
0.06963151014581109 0.026010680154747 0.02966153369573815
0.06920082040959866 0.02898581310912285 0.030551994359211965
0.06895564812137003 0.031004335488991286 0.030671676931293634
0.06870438262138565 0.033048461853166566 0.03082360570245063
0.06845549640081734 0.03507492544623836 0.030972077668470988
0.0682157513763193 0.03704951068903384 0.0310882219011816
0.06797184498003248 0.03903984124634696 0.031228463564798914
0.06773384036803326 0.040994964099903886 0.03134987600206557
0.06749048578938635 0.042971767333609745 0.03150055521341849
0.06725619139810184 0.04489762732067515 0.03161862666423654
0.06702759553516281 0.046789708473252256 0.03171825955619534
0.066780303921685 0.04877029959587642 0.03190497585244212
0.06670471590542736 0.049887893825754204 0.03135163169559729
0.06904884125779738 0.038946187545107036 0.020247052404183896
0.06886420186589458 0.040629450662300615 0.020142795055877183
0.06876516033959504 0.04188397751344003 0.019667831140934622
0.07080904091865813 0.03252920401658316 0.009764527937087875
0.0707447949043853 0.033631243027202606 0.009112899566600496
0.07051447157792325 0.035550231753618156 0.009198258047193153
0.07031411663030716 0.037316773275766435 0.00915662294402031
0.07012770328706659 0.03901048334748469 0.009058187025586417
0.0699195038474399 0.040806691854082366 0.009061994146864094
0.06964184230225139 0.04293749248477563 0.009382506791798195
0.06947630136608082 0.04451585857952817 0.009206547534707676
0.06925755760745653 0.046349183522242765 0.00927472708434074
0.06901066825110053 0.04831416866391164 0.009475898645752212
0.06331493494076729 0.07664067534862817 0.0343835053548221
0.06312629787049066 0.07825309121523433 0.03440485648681951
0.06292159093294337 0.07993873193933976 0.03450446062159085
0.0627340444816632 0.08153736615367357 0.03453100276384957
0.06254514268532858 0.08313834183068564 0.03456871446314147
0.06235369261626131 0.0847473203904211 0.034623135808910965
0.06215517751030798 0.086385773418935 0.03471520045047943
0.06197549979432182 0.08793013344848105 0.034725376406948116
0.06190494753639497 0.08895212715188078 0.03423409648319781
0.061895270451172976 0.08968405353703629 0.0334614934979226
0.06193233166038203 0.09019477828564754 0.032471105803629996
0.062040136637438265 0.0903726191374351 0.031148775722019573
0.062145726570529476 0.09056327352899474 0.02983398991986813
0.06224877107779227 0.09076821893647335 0.02852839052966827
0.06235215787104343 0.09097384511730355 0.027218454291194738
0.062465279860441036 0.09113627255281376 0.025859728180807173
0.06258793209901128 0.09125678031349471 0.024452798806941678
0.06271370531172928 0.09136549225656898 0.023027781229880973
0.06287147849556277 0.09132852742434028 0.02144677605117251
0.0630244041581372 0.09131749610269368 0.01988479378924468
0.06317823308487912 0.09130568369803727 0.01831443879774286
0.06332284445707748 0.0913397395031178 0.01678436064160499
0.06348338328581075 0.0913038109227981 0.015173634460756813
0.06365544973922296 0.09121859681420325 0.013502910409250501
0.06386190938004073 0.0909799156275557 0.011660832842311064
0.06830446581389817 0.026670648855761703 0.030200827669173924
0.06800547425761626 0.028997414266075383 0.030561524823567054
0.06776288536791784 0.031024449831092815 0.030688288910372896
0.06751341773644065 0.03308166845452215 0.03085117599100934
0.06726705200968061 0.03511721756839209 0.03100737778312579
0.06702843065086075 0.03710724366912005 0.03113666570457818
0.06679597488057229 0.03906013858714141 0.031245585411940557
0.06656210134798556 0.04101507541099908 0.031366930761187684
0.06632720995917425 0.042969955903196466 0.03149901105466385
0.06609853155106393 0.044887755485627456 0.03161016651956111
0.06587125033641883 0.046793265731793265 0.03172132433990715
0.06577868989881235 0.048007509397159864 0.031244338869487742
0.06581258682950732 0.04857703702558369 0.030210339307542577
0.06789256784125929 0.03877265504957461 0.020095171122513578
0.06780384193891298 0.03998716186532886 0.01957768355963435
0.06920953791456472 0.03365590302587462 0.012390360906553433
0.06945389700344536 0.03320562048895387 0.010365941291936132
0.06951651786580144 0.03367415549125219 0.009151254233630668
0.0693189582122692 0.035448678522779276 0.009107014925548662
0.06906252000983504 0.03751330580109696 0.00933412893091018
0.06889591621423022 0.03912373523809798 0.009161010922505819
0.06871589108321043 0.04079724920344291 0.009053376166076765
0.06840202037160531 0.04313178287798225 0.00956075890719349
0.06823596668976706 0.04472640021571028 0.009400719482284547
0.06807034516519198 0.046315134745048 0.00924316162553035
0.06782378434247274 0.04829958376442828 0.00946230692542882
0.06222298708338525 0.07664220625447932 0.03438493955697186
0.06203744968379216 0.07825536872449829 0.034407001215839506
0.061839499665222314 0.07992518516179603 0.03449163775769304
0.061653338680651704 0.08153288783747475 0.034526741737158584
0.06146541267424161 0.08314500303047262 0.034575085682514106
0.061276819488164824 0.08475612726310516 0.034631603096414665
0.06108248764018706 0.08639086629896431 0.034720122456474545
0.06092111093770271 0.08786155592742956 0.03465875659158579
0.06084193100200851 0.08893129251164117 0.034213751532706504
0.06084222822935207 0.08961597188375331 0.03339466660635032
0.06089385083912822 0.09005372476386048 0.032331933290953796
0.06099706056084059 0.09024503127193145 0.031022236301934902
0.06109507466166114 0.09046354520326089 0.029734568306432285
0.06119475755943954 0.0906762973934152 0.0284362767895725
0.06129672754033561 0.09088039753244931 0.027124326241022068
0.061407818950927506 0.09104342740341609 0.025765722718651296
0.06152584913328723 0.09117604896562498 0.024370635491343162
0.06164036689654407 0.09132795402022154 0.022989379563475854
0.061774153394383156 0.09139147581651663 0.0215115056259626
0.061929613128745904 0.09135594189588403 0.01992453184961046
0.062099790711354116 0.0912547644187135 0.018261536237468012
0.062261253921159776 0.09119827012698112 0.016636621661101025
0.06242074262546768 0.09115464987645594 0.01501705851884283
0.06258859990952197 0.09107559122001696 0.01335202097374344
0.06282401312695637 0.0906859634473472 0.01134907445237543
0.06758513039254462 0.023351326863003008 0.029046880697503052
0.06706071141252527 0.02691189622541562 0.030397963212313805
0.06680163316425755 0.02905444263895074 0.03060837385633236
0.06656500669066419 0.031072332014424553 0.030727833601414123
0.06632267883566295 0.03311486875496428 0.03087874104813826
0.06607871802789077 0.03516043889282572 0.031043453476409077
0.06584469554374257 0.03714820374385586 0.03117103537076099
0.06562200351758443 0.039071208807776814 0.03125492374964439
0.06539172347887334 0.041028786280095764 0.031378557856142075
0.06516253333700588 0.042975389729424995 0.031503643481396115
0.06494011464372838 0.044881473071760936 0.03160478253390098
0.064776266617373 0.04647814757560631 0.031449839643697686
0.06484459349282919 0.046867465133721586 0.030256969817802237
0.06698470196077486 0.036542008503805956 0.019732087698128342
0.06685474916519135 0.03798157449046907 0.01940279137506795
0.0679164405055694 0.03328170391761104 0.013677951314326808
0.06803106827110043 0.033472304424131905 0.012227973873571996
0.06813450766260487 0.033722894857098396 0.010825858725519055
0.0682424492935389 0.033952830360161335 0.009400330104005872
0.06815310689611905 0.03519211352041901 0.008876497330789657
0.06787404853394868 0.03739541293989013 0.009227649565486773
0.06767860325462605 0.039167493234181006 0.00920073983403763
0.06750699624738951 0.040814245303563534 0.009068888188379254
0.06725999284042476 0.04283839337990053 0.009291588358752545
0.06706879832979684 0.04457524467835672 0.009261316508704098
0.06684415489380019 0.04647611494356585 0.009392401425531494
0.0666244581086858 0.04834697959758871 0.009506475684877447
0.06113120287588098 0.07664297165379147 0.03438565665252241
0.060946795910479926 0.07826675614218864 0.03441772438141566
0.06075836780345977 0.07990636822093666 0.034473826322919954
0.060571251175564535 0.08153512686981645 0.0345288722658047
0.060384985464845053 0.08315536436121362 0.034584995905834914
0.06019971371280751 0.08476640130635077 0.034641480966628224
0.06000821561028032 0.08640396162105612 0.03473277826790072
0.059858030055469046 0.08783339376573551 0.034631398438158434
0.05978402223198641 0.08888458357058615 0.034168140308348305
0.059795272419940274 0.08951558344873439 0.03329612831161849
0.05985202638918866 0.08992400752242818 0.03220394589196729
0.05994837392663541 0.09014029745634289 0.03091836314670543
0.06004488479996978 0.09035800309757469 0.029629350787819586
0.06014126342498727 0.09057856738136039 0.02833834242978045
0.06024507148820246 0.09076530301567026 0.027008393608736025
0.06035325787820515 0.09093323215531163 0.025654150310825297
0.06047588139743065 0.09103393990819625 0.02422600570960315
0.06057439953687204 0.09125357099698267 0.022913285535515526
0.06072519143657491 0.0912242768986738 0.02133957601737646
0.06086795206460367 0.0912369443123271 0.019801534837294188
0.06102112397479114 0.09120309956060874 0.018207859057070508
0.061179045861974354 0.09115011001716217 0.016586327269409507
0.061348553153626875 0.09104560736269984 0.014902595455759171
0.06152008514236155 0.09093538312325905 0.01320408326265976
0.06620816848405196 0.024272930309296503 0.029795976416754744
0.06584551226086473 0.02700752325621736 0.030476104993214348
0.06559764264044342 0.0291143509702107 0.030657588781889955
0.06536532015742871 0.031131687858061197 0.030776854079360372
0.06512863530762443 0.03316702798869181 0.030922047000425668
0.0648908545017393 0.035202710230856915 0.031078736243107308
0.06466767913225455 0.03715471913859497 0.031176502521748306
0.06444292269118371 0.03910994922515615 0.03128760319848484
0.06422143944623693 0.04104249604990745 0.03139018401888044
0.06399738261551423 0.042983540194047765 0.0315105918439304
0.06387490134136918 0.044380830967442775 0.031175728842508077
0.06376540675041702 0.04570656001300305 0.030785091356231864
0.06644432628731864 0.03231175990519897 0.017650569788827064
0.06661101141637583 0.03221043842298815 0.015960822814149345
0.06673402676193398 0.03234249270606637 0.014467280803791838
0.06680396828054525 0.03275569889700697 0.013215150976585321
0.06685191730411497 0.03328559386727192 0.012062834415314083
0.06688448004333458 0.03389692328477739 0.010980590421443615
0.06692918915609258 0.034445753862215656 0.009840898463498227
0.06692005611338246 0.0352754174890747 0.008951344105639303
0.06669957331653453 0.03720066580300185 0.009051756312206116
0.0665099791499021 0.03896097133985499 0.009013234308416107
0.06630864925203016 0.04077741795143336 0.009035276858354258
0.06610562476930755 0.04259788527004099 0.009070933921138224
0.06587944821001401 0.044532562770176254 0.009221953250536208
0.06565104727657421 0.04647335647334572 0.009389844230875244
0.06024171570382245 0.07490740518338629 0.03425840849776074
0.060037924070532454 0.07665139175135371 0.034393544470126214
0.05985532908108444 0.07828269713558894 0.034432735467181175
0.05967295227157488 0.07990862627057987 0.03447596381149415
0.05948549816834481 0.0815560236923174 0.03454875567677579
0.0593036084142653 0.08317090506219321 0.03459985995699155
0.05912195483277631 0.08478034355239039 0.034654885559352644
0.05893244857159494 0.086425057265621 0.03475316583631444
0.05878065198910435 0.0878759957415095 0.03467278438804727
0.05873194922716646 0.088806942115355 0.0340923234610615
0.058742860752000275 0.08943881165269196 0.03322077142717905
0.05880625668706851 0.08980924464793666 0.03209071344687214
0.05889908110569057 0.09003477055582176 0.03081370342316031
0.05899393694236117 0.0902523848147343 0.02952405732633001
0.05908677412407656 0.09048221064582251 0.028241784219330213
0.05918675475602344 0.09067892257349969 0.026921384169950824
0.05930185158610818 0.09080348416661754 0.02552278078614867
0.05941372423575547 0.09094658598528904 0.024137102343670724
0.05952690451818306 0.09108588973665421 0.02274174704496207
0.059663617264228426 0.09111270437082108 0.021224846712574963
0.05980453130952103 0.09112220842288116 0.019682942755356703
0.059941327554600306 0.09115505665365214 0.01815794490811168
0.060105198884825295 0.09105958447042667 0.016491789870194784
0.06027495747780525 0.09093941390824051 0.014791123082610824
0.060450087361036464 0.0907972456699917 0.0130583303503774
0.06495838710026142 0.024526777569357228 0.030002308059315308
0.06463928797304871 0.027057267978343902 0.030516754013335035
0.06439405959426871 0.02917423902613936 0.030706787051184625
0.06417249578053431 0.031155615940401893 0.030796615723708565
0.06393633379319642 0.03321158808925678 0.030959043675857667
0.06370895625197487 0.035213980777024645 0.031088143532731705
0.06349070706467244 0.03716123428786755 0.031181969466761605
0.06325817060129188 0.03918095074786049 0.031347496405549125
0.06304771092965837 0.04107539515610609 0.03141808300671939
0.06283781019151181 0.042961804380208024 0.03149206213676642
0.0627764484406535 0.044041134111824476 0.030884606352991173
0.06285756493411737 0.044351343456101144 0.02961752725925737
0.0654830373093463 0.03098501727879216 0.016501505088679147
0.0656063126844681 0.031103231071400672 0.014996837047633604
0.06569143695945202 0.03142857186867154 0.01366738718895949
0.06570771967750938 0.03212357332150606 0.012658981495088872
0.06568156132387043 0.03304510499347435 0.011850129745400895
0.06560977884963162 0.03420857393367571 0.011257684348252417
0.06559190328043958 0.0350843803069496 0.010411694114114245
0.06557859411804445 0.035935592591999244 0.009544496183806372
0.06545923638673888 0.03734650676705409 0.009183478270413326
0.0652875155389807 0.039030473989969616 0.009076337339066598
0.0650866937608204 0.04086333576063789 0.00911369204377338
0.06489584913656743 0.04263908575693315 0.00910873346736324
0.06468625082740137 0.04450843340541677 0.009199700060304905
0.06447377324322771 0.04638782460392815 0.009310550408757778
0.05912743844767345 0.0750062433055344 0.03435051684559687
0.058938815296820136 0.07669042468718429 0.034430109597693104
0.05876017119871094 0.07831836867294956 0.034466326017360216
0.05857882499152215 0.07995603944618479 0.03452084372244907
0.058400184778304866 0.08157542528418338 0.034567216376187204
0.058222487123219466 0.0831857042277862 0.034614014763872936
0.058046581623527174 0.08478254476105207 0.03465700195912874
0.05785796960754365 0.08644033152298847 0.0347679274375966
0.05771741890351159 0.08784783633539772 0.0346454289115542
0.057684397511820314 0.08870335642337723 0.03399117204747054
0.05769060371090528 0.08935840936125339 0.03314185095343969
0.05776433444255902 0.08967069230719149 0.03195400876280302
0.057852720015892416 0.08991048160074006 0.03069043580752784
0.05795318941580153 0.09009129605121541 0.029363463930598632
0.05803144697271234 0.09038651018143179 0.028145883652944903
0.05813024695780015 0.09058024246962548 0.026821985493565015
0.05823700175336312 0.0907364024862472 0.025454860793191703
0.058338378719728815 0.09092203077908378 0.024112111657815682
0.05846212039597513 0.09099835874368373 0.022652202592507997
0.05859570040406856 0.09102860634729804 0.02113836928597085
0.05873749535717439 0.09102119524080393 0.01957853460314385
0.0588757171927573 0.09103488029431606 0.0180330876041378
0.05903363965485014 0.09095438754937285 0.01638193088411044
0.05920533447637356 0.09080967993330885 0.014654939958187563
0.05938505541561314 0.09062954187261035 0.012881381092428645
0.06421157676336027 0.021183248706665214 0.028845713302519338
0.06369127249142942 0.024887668250714756 0.03029564649384414
0.06342992557223137 0.027126497332593202 0.030573324914240474
0.06319502267082225 0.029210934551286927 0.030736932599997435
0.06298069008049074 0.031174756042634033 0.030812423104271125
0.06274637617536039 0.03324476374335511 0.030986588269990234
0.06252173226869377 0.03525530013957229 0.031122631712603266
0.0623067372781346 0.0372068340775229 0.031220232315557428
0.06208306087045686 0.039201231439625506 0.03136460420839626
0.061874042892735695 0.041109201533733264 0.031446751373376824
0.0617093191299437 0.042767871255532164 0.031326734122463284
0.06168745501900726 0.04363657535932608 0.030537896765268913
0.06436363945429095 0.029693634235287536 0.016989422843822044
0.06450384464317363 0.029706275256659698 0.01539401273583646
0.0646721045493893 0.029568989395314382 0.013661055475538086
0.06546579753394165 0.02602518472252552 0.008938164355763889
0.06531585645260271 0.027634995419499098 0.008709749727544736
0.06467156250197599 0.031924974014511776 0.010859409597052616
0.06438976920606032 0.034235731935645164 0.011281831078893467
0.06431715836399042 0.03540909264988801 0.010701917646602666
0.06429715655083186 0.03629699574772566 0.009869208612818259
0.0642793082919239 0.03717282666918226 0.009026612521856547
0.06410669357893164 0.03887905512664236 0.008938861027711409
0.0638901972695352 0.04081613334970574 0.009070611650601246
0.06368864340538195 0.042668107353802776 0.009135359472257576
0.06346417095410585 0.04463739208461054 0.009318632192678922
0.06332827092318521 0.046130046820587245 0.009071572791499616
0.058025214843080056 0.0750448346677316 0.03438648062058203
0.05784721112037656 0.07669118984559697 0.03443082646756057
0.05767029617927514 0.07832747489017239 0.034474901067630404
0.057492747083047135 0.07996281146459977 0.034527253991908424
0.05731770659362082 0.08158064829367079 0.034572186158269735
0.057142600606698186 0.08319458298811883 0.03462250697721664
0.05696884156725491 0.08479721918974081 0.034671110494663815
0.05678875381097206 0.08642869397054537 0.03475668064054105
0.05666091422852745 0.08778355512017638 0.034582982759716
0.05663763168605197 0.08859177640159183 0.03388221416498238
0.056646776038467885 0.08923125524882314 0.033017040243558005
0.0567218438728616 0.08952985223084631 0.0318150468496638
0.05686266244026624 0.08949085766763576 0.03027425989662036
0.05694656536358178 0.08974839325601819 0.029021615498379283
0.05700390123298626 0.09014446159903428 0.027903328822561857
0.05706796209968641 0.09050745020832907 0.026748663195743705
0.057168275421383516 0.09068661227738489 0.025404448386052436
0.057279424910739805 0.09081292719708611 0.02400107282369829
0.0573966975765926 0.09091077524637153 0.022562604427964372
0.057526167655107464 0.09094953902814368 0.021057064904401068
0.05766742275283682 0.09093175114250779 0.019486084373439128
0.05780980622444168 0.09091168793474086 0.017905096822420474
0.0579745132556078 0.09078254918125234 0.016202477005213933
0.05814454114235069 0.09063064859724718 0.014467008834737116
0.05832144422943896 0.09044838229589058 0.012690234234007391
0.06283659686139996 0.022121965213014128 0.02960466890809149
0.062461546873446704 0.025048158979540658 0.030426096291157334
0.062242511725726236 0.027072871124774467 0.030529504306408495
0.062001986873969295 0.029214796702198453 0.030740105451997957
0.06178632542476135 0.031209203062832203 0.030840872055970137
0.061559312901123826 0.03326277070176148 0.031001538861848088
0.06133479033525465 0.03529660968584436 0.03115711169908897
0.061119133282773776 0.03727474621218796 0.03127721744277001
0.06090629364119687 0.039231648043063116 0.03139026212899543
0.06071001464037926 0.04109001479052016 0.03143048083387534
0.06063580519076579 0.042257515614310626 0.030891655729848977
0.06323341993903445 0.028440939466005843 0.017515130826137926
0.06336233357651168 0.028501297236085354 0.015962184913473787
0.06354824837168145 0.028246617561594523 0.01412983300077586
0.06438495071851323 0.024371379590779507 0.009135776414156749
0.06428802695922807 0.02570596802000813 0.008658775447284273
0.06408095125345832 0.027649028697562028 0.008722096866330353
0.06390359220767788 0.0294225379103199 0.008646084509313201
0.0636172902053731 0.03179313277113471 0.00911007518562651
0.0632744525764061 0.034468081961418096 0.009860855297507465
0.06314221036602466 0.035977071524246784 0.009581764230907619
0.06309171064325585 0.037034525508298166 0.008901700617770292
0.06291333121991186 0.038790427528946236 0.008858394242319156
0.06268939185218637 0.0407906385836061 0.009047343295508159
0.06251465304663616 0.04251732771795058 0.008997026560798427
0.06229678326227405 0.04447408947091103 0.009168026588133038
0.06222035036398623 0.04565858334284523 0.008634493855920133
0.05693739038506285 0.07500701503744639 0.03435123620888336
0.056761000631007426 0.07666287280009593 0.03440429988589411
0.056583304612371356 0.07832140398009191 0.03446918442390201
0.05640755798962871 0.07996506867337844 0.03452939068452793
0.056235544309988394 0.08158437887681441 0.03457573589708507
0.05606250136209368 0.08320494089303404 0.0346324139238664
0.055892445057394324 0.08480528946755322 0.0346788695972694
0.05572478406013365 0.08638868314681597 0.03471801304398303
0.05559864242709072 0.08774742975259464 0.03454788871826614
0.055581096095130005 0.08852766958881697 0.03381961390620891
0.05558843964348779 0.08917590518782176 0.03296271031522496
0.055663482623682495 0.08946729308430784 0.031753322007694484
0.055854107872312354 0.08915241405960495 0.029938597275617485
0.055916105078224226 0.08951741872321062 0.02879135120045928
0.05596789761883708 0.0899373944502066 0.02769582860365538
0.056006805018546164 0.09042596640919753 0.02666658606142469
0.05610832882416505 0.0905891476637325 0.02530576572442028
0.05622079269749677 0.09069795516836238 0.023884061444714333
0.056335943324384616 0.09079560631148442 0.02244478625262253
0.05646222893503614 0.09083848240008391 0.020942866096655466
0.05659711736222457 0.09084006864836491 0.019391320515124988
0.05677589333887553 0.09061896319405993 0.017600970127484128
0.05698594570241669 0.09024158676729627 0.015637540074172507
0.05708818453749207 0.09042199141188262 0.014247979121385812
0.05725781294222387 0.09026035782734165 0.012491844020288578
0.061564348351917215 0.022495890174578426 0.02990698860929697
0.06125531102505303 0.025077681393002205 0.030450092717972277
0.061020798540990996 0.027217137237757316 0.030647391547282243
0.06080847928312763 0.029221555341530925 0.030745657776278634
0.060580992522030176 0.031308678995086936 0.030923026634080752
0.06037057258686013 0.033291199026681484 0.031025141925606015
0.06014910453203889 0.03533227820112761 0.031186883277832977
0.059938121724051004 0.03730729731197435 0.03130453114184806
0.059724931691701136 0.03928970125552683 0.03143923282787542
0.05955301725512753 0.04102969979517085 0.0313793329625211
0.05954808352111733 0.041808557046981554 0.03050891837849168
0.062183367856839186 0.02749198463760255 0.016701870005828845
0.062366987166347705 0.027228204124416455 0.014865372904224738
0.06324320243994894 0.023026630359679667 0.00960890840029216
0.06318563528490269 0.02415068738586368 0.00894363168189849
0.06307938513466088 0.025549181378400287 0.00852155069392474
0.06287735564973435 0.02748657444890884 0.008579163161510694
0.06268578499736532 0.02935986800034107 0.00859065506124379
0.06247767984242697 0.03132140893356433 0.008690657685170522
0.06227147393030984 0.03326703677339227 0.008787377680627095
0.062106586472377795 0.03497591754290502 0.008682250749142972
0.06193000237394579 0.03674604265113035 0.008641146352569351
0.06168398680477593 0.03889906125843412 0.008957025212379788
0.06146245784072993 0.040909581070993906 0.009155899299244263
0.061293727295328254 0.04262129549955673 0.009092412057660648
0.06117190021190357 0.044068864830849874 0.008794308594033962
0.05584621928849458 0.07498617163678373 0.03433181211949432
0.05567222457623509 0.07664756406518297 0.03438995915095572
0.055496269729619324 0.0783153328280955 0.03446346755237467
0.05532252241547957 0.07996657342883756 0.03453081512849454
0.0551531357824037 0.08158960157604667 0.03458070538395408
0.05497854257669179 0.08323675017986176 0.03466283812414084
0.05481152226013211 0.0848382999841259 0.03471060700926171
0.054659588620948184 0.08635375577517829 0.034684258251446276
0.05454518856161698 0.08766213895158903 0.03446503272070256
0.054522899587604264 0.0884700216489166 0.03376332074160332
0.054533974979266306 0.08909751687574574 0.03288576670557286
0.054638411677983785 0.08922327377289219 0.03151255673173814
0.05477999026342616 0.0891524139652713 0.02993859727518966
0.05485780699819528 0.0894263725828951 0.028700585079207364
0.05493029262821484 0.08973075731611857 0.027488759299170717
0.054945192061477 0.09034371550133657 0.02658373623173177
0.05504957918153901 0.09048150014254702 0.02519677288613459
0.055160917441954366 0.09058506445871412 0.023769168304632382
0.05527654623367246 0.09066874303252564 0.022315004717498976
0.055396379022627056 0.09073315467452303 0.02083455828716463
0.05552627822536033 0.09074760025547013 0.019295744343944987
0.05580509817108249 0.0899833209330761 0.016940568777649045
0.055942540972283496 0.08996667509504847 0.015350444842230193
0.056039055782281424 0.09016737955484255 0.013980710268127083
0.05619125491747863 0.09008021781732317 0.012301772937847288
0.06032403695206723 0.02269400512004771 0.030067165308476473
0.06003475198768529 0.02519375596398621 0.030544440274030638
0.059814811634540804 0.02727364200496718 0.0306935645428823
0.059608510584674534 0.029266928685741433 0.03078293217451622
0.05938069877257113 0.03138229318232155 0.030983822693716245
0.05918282716307295 0.03331488575028302 0.03104480821463379
0.05896652678759038 0.03535104811606421 0.031202550076691038
0.05876128373686822 0.037316596427071025 0.0313123341112585
0.05854773430686731 0.0393256290952691 0.031469539735219376
0.058490830383442854 0.04041161898235718 0.030855191893066958
0.05862330649595702 0.04038928556910337 0.029298988710275697
0.061107503478649426 0.026655603664799077 0.01598508576596569
0.06130539908212265 0.026289643613570834 0.01405677186881249
0.061973061538551845 0.023201266040172752 0.009760156903316664
0.06195372842671943 0.024109977056639476 0.008908187483337937
0.06181838417451339 0.025688778576416105 0.008643730867621602
0.06163003177456608 0.0275698255683407 0.008652410948643552
0.061432456551205696 0.029499103964438667 0.008713804940162773
0.06124249590421582 0.03137958099808519 0.008742379541047784
0.061059337808245864 0.033216202394385275 0.008741942705486061
0.060878798853657025 0.03503314326994339 0.008733666830125442
0.06069628870004968 0.036856684441016196 0.008741076826075334
0.060477510333411054 0.03888191300022492 0.008941456039952611
0.06026977985578512 0.04083879176457739 0.009091291721818995
0.06007965983164414 0.04269057205387683 0.009155970034878502
0.0600449812364086 0.04365893788914982 0.008416253906352256
0.05474447218855873 0.07502399619341449 0.03436706130048961
0.05457502166222066 0.07667894503338374 0.03441935611440966
0.05440160384357795 0.0783517554435475 0.034497765362711985
0.05423722829950828 0.07996958299008072 0.03453366397429675
0.054070630929981496 0.08159557016712493 0.03458638458671004
0.05389986684677568 0.08324044841251466 0.0346663754025881
0.05373480368920072 0.08484930180282485 0.034721184585041975
0.053584282844271816 0.08637340328676796 0.034703246299726154
0.053490733002591224 0.08757896913534352 0.03438423716228445
0.053463765326989134 0.08841523519254918 0.03370982181781412
0.0534807805044125 0.08900901011181778 0.03279889111610035
0.053553544392241303 0.08929745810520301 0.03158575192490082
0.05369900784209758 0.08918997698909303 0.02997585174753109
0.05377951554330056 0.08944082801294723 0.028714996159148687
0.053843538321297284 0.08978352793161565 0.027541640399977474
0.0538847099005671 0.09025203064455939 0.026491383747642816
0.05398457956252995 0.09040342417095032 0.025117721192034814
0.05409365910455286 0.09050758255434405 0.02369031207361827
0.054210174675855254 0.0905744303872778 0.022218522608419777
0.05432867946735288 0.09063356833577346 0.020732154313470974
0.05446956080734389 0.0905756137837555 0.019117977479409298
0.05472280376373337 0.08991945774640064 0.016874218126630702
0.05485540640891458 0.0899144275854879 0.015295881904088926
0.05496803713563033 0.0900192655789932 0.013825233448735097
0.0551161516032052 0.08993831235263827 0.01215204428306016
0.05955566802326974 0.01924240723684134 0.028839253601850023
0.05908508794581233 0.02289190245038003 0.030227166064976496
0.05882128659048364 0.025271424808544163 0.03060757097420269
0.058616428900826266 0.02728630432350021 0.030703911650803217
0.058410602597378 0.029301674842042436 0.030811476312023633
0.05819609033367463 0.031364131377117244 0.030968823433876524
0.05799414288822276 0.033345200103957084 0.031069977177691444
0.05778407671899849 0.03536981600452316 0.031218215184096676
0.05758234068441862 0.0373389124061852 0.031331059525267047
0.057392930388852056 0.03922888280313491 0.03138792977831273
0.057311499807138566 0.04046848390154817 0.030903414224934145
0.05987429951156721 0.025935945456689258 0.016977508001423947
0.06000065739755181 0.025969450986823517 0.015397048223679877
0.0601958516064571 0.025597542693305553 0.013460503976467642
0.060530629807810155 0.02440377969022184 0.01080162959865183
0.06072188649533262 0.024067221274604478 0.008870962419111394
0.060561622591061626 0.025809068339737562 0.008749012536616918
0.06039623837353676 0.027576844865610073 0.008658586904269017
0.06020702425607139 0.02948021396299011 0.00869709742940944
0.060017814187186165 0.03137859508213492 0.008741503041806264
0.05982711449560471 0.03328072018544259 0.008799607917400698
0.05964576436850313 0.03512330839666011 0.00881467819588544
0.05944289013003093 0.03708640104511013 0.00894855428658553
0.05926878046159014 0.03887714921532337 0.008937130994306097
0.0590694361642027 0.040809523565108474 0.009064579446131149
0.0589666114523613 0.0421787580224226 0.008686405564656663
0.058919873227664725 0.04322183511654437 0.008013136331240345
0.0539611422898816 0.0725274882261237 0.03354381478796453
0.05364514630321803 0.07504946460891282 0.03439079566697395
0.053479379389082454 0.07670266781605972 0.034441579089016794
0.053308261519964664 0.07838210095633091 0.034526340608415584
0.053147337462056805 0.07999892391233454 0.034561437258430194
0.05298830009674411 0.08160079247857338 0.034591353704596484
0.05282147838233107 0.08324266727048135 0.034668497727639636
0.052660755131555916 0.08484563449439997 0.0347176588127347
0.05250525608489857 0.08641487292629385 0.034743323921642644
0.05241681107864887 0.0876021166237489 0.03440672397293931
0.05240718750239551 0.08834383808004842 0.03364010257609745
0.052434142210204725 0.08888011235817111 0.03267236889866815
0.052502938089237554 0.08918292457704519 0.031472745768270693
0.052596325543972734 0.08935023456324132 0.030134792624148032
0.05268589641989429 0.08954125450232026 0.028815113976559448
0.05274937561189569 0.08987962293384993 0.02763793651784191
0.05282564858509351 0.09014872617363634 0.02638732702618235
0.052922412548031296 0.09030649420351045 0.025019579858979513
0.053030563617378776 0.09040396787852412 0.023584859511635692
0.053144302169857605 0.09047352107349049 0.022115292081615223
0.05326011960894631 0.09053464176198511 0.02063042877243798
0.053379770142290575 0.09057780122562276 0.01912023853996475
0.053620019846266624 0.08996497212761428 0.01692150545838461
0.05376504848113515 0.08987762235532709 0.015257445623290622
0.05386989616915306 0.09001263001314974 0.013818268120903698
0.05406689207167849 0.08965038421033839 0.011848242675863208
0.058197291727257065 0.020133797316375157 0.029556116415054234
0.05784749908964641 0.023089582523930507 0.030386991168528665
0.05762021886733785 0.025275356411922523 0.03061076673648333
0.057417974270164096 0.0272999396665361 0.030715053866372022
0.0572137103302553 0.029331589659853885 0.030836051493198624
0.05700376628346089 0.03139280678660977 0.030992505767719558
0.056806280158277385 0.03337172083957407 0.03109199644116256
0.05660068496604557 0.03539514947610234 0.031239360396511373
0.05639081010361704 0.03743929902848231 0.031415293979988546
0.056250146692739394 0.03905460223617274 0.031240916017532983
0.05624396149219085 0.03984560995414532 0.03037520851090636
0.058747999150986274 0.02535376840826281 0.016481201822504343
0.05887053004444819 0.02539613739271246 0.01490571456412082
0.05903292935159172 0.025200129885619482 0.013118119704344344
0.059207925829415274 0.024932284149911832 0.011259356649664987
0.059371017956315615 0.024740963453550202 0.009457553571382615
0.05932147578695147 0.025834328919503213 0.008771121525023795
0.059173845146375685 0.02751566633538527 0.008604759660955086
0.05900402946521343 0.029326036649063247 0.008560732591687992
0.0587985652817421 0.03134507419015836 0.008711699148363394
0.058613359982026075 0.03323771079118831 0.008761166806298404
0.05841353138676161 0.03521245804321976 0.00889477717628373
0.05821958580219225 0.03714690311279201 0.009003199146101093
0.058038646754272186 0.03899905777824203 0.009047814467915472
0.057859467405252885 0.04083595937595841 0.00908870686215707
0.05779106697292569 0.0420143890656931 0.008535605110270517
0.052725668616323135 0.07331591882644439 0.03427474420633886
0.05255337606178341 0.07503171417701199 0.034374253946861166
0.05238443018428553 0.07672332658878378 0.034460931778855564
0.052222678330565174 0.07836844608532828 0.034513482451897004
0.052058820667643654 0.08002148996478048 0.03458279766382638
0.05190446517425233 0.08161496657440687 0.03460484044289952
0.05174399955079565 0.0832397085652245 0.03466566795318493
0.05158122428753154 0.0848735029653433 0.034744452504535395
0.051423126292257294 0.08647596499486049 0.034802365260706514
0.05136896434499734 0.08747620777268711 0.034284409409019334
0.051352109241256876 0.0882608585963156 0.03355907314038059
0.05139615686579445 0.08869629179919769 0.03249193604315659
0.05146085484269021 0.0890149247368292 0.031306986261058434
0.05152153863665561 0.08935817061891377 0.030142663564586447
0.051598483601662866 0.08961057367228209 0.028884220115340642
0.05167196636884282 0.08988467873137895 0.027643002985909382
0.05176583962330833 0.09004534877473841 0.0262831968456943
0.051861465286485955 0.09019863844852799 0.024910376184523297
0.05196929026260997 0.09028577209446004 0.023464567192594432
0.05207950440967618 0.09036236769912798 0.022001581840735418
0.05218979738622189 0.09044147322268326 0.020534624185904626
0.05230721130180155 0.09048370745106615 0.019022982357983442
0.052457544693715066 0.09034541855307965 0.017316770922938263
0.0526334350612416 0.0900689080850347 0.015457208940404477
0.05279296056572919 0.08988797471939108 0.013687416146289266
0.05302548832163683 0.08930694487013674 0.011485869521659253
0.056938867941325265 0.02042660598367707 0.029791595472644983
0.05662906554284367 0.023173952546415022 0.030455204706606787
0.056420572678221544 0.025270441658279907 0.030606772022828188
0.056218226296109966 0.027322338385310452 0.030733357080554302
0.05601839580983391 0.029352816430857687 0.030853489422785485
0.05579541048629619 0.03152369877322958 0.03110060601853204
