# .PCD v0.7 - Point Cloud Data file format
VERSION 0.7
FIELDS x y z
SIZE 4 4 4
TYPE F F F
COUNT 1 1 1
WIDTH 777
HEIGHT 1
VIEWPOINT 0 0 0 1 0 0 0
POINTS 777
DATA ascii
-0.003316819058050566 -0.07343063125036242 0.029863740724136667
-0.003310544419336296 -0.07472563105367025 0.02956990525917802
-0.003305335049332192 -0.07591896641803275 0.02918509898318722
-0.0033015219259429035 -0.0769806413830057 0.02867916118520042
-0.0032993445728873817 -0.07788940159810853 0.028029724822678126
-0.0032974604083560394 -0.07877017666682601 0.02735525645383796
-0.0032971783839998068 -0.07950266036343662 0.026538476455352566
-0.0032979084286706923 -0.08014207470510432 0.025631076216090787
-0.003298655399731201 -0.08078025099488606 0.024721780832853202
-0.003298937676884819 -0.0814612257730894 0.023854015922497473
-0.0033013389844475335 -0.08194907167803955 0.022794444917166257
-0.0033045017384569888 -0.08236866789842412 0.021664581875761035
-0.0033086975575311204 -0.08269584939533253 0.0204391374371079
-0.0033139845701001926 -0.08292601641886382 0.01911201810161728
-0.0033212650301546014 -0.08297836053029128 0.017599859395377226
-0.003329617574564963 -0.08293720184773673 0.01598564598865182
-0.003341484183950448 -0.08258366682211088 0.014043943166945905
-0.0033572579416398175 -0.08188475567633119 0.011735802810725393
-0.0026939322532336103 0.047835279746886394 0.030195011375609704
-0.002677956983343732 0.04441957569787852 0.030896130042093628
-0.002663444026774441 0.04124707736263761 0.03145029853042336
-0.002653544184317871 0.03881726425026083 0.03151163242868493
-0.0026494971700563156 0.03732237000726696 0.030938925570916043
-0.002641775462255926 0.03524826540306303 0.03077356981362739
-0.002630696610492679 0.03264866885852791 0.03098473255149553
-0.0026201973239797275 0.03014758329663486 0.031140180572538367
-0.00261070937991222 0.02781239658989787 0.031191252217674825
-0.002601289901135211 0.025494060660835427 0.031241955328258242
-0.002592953392803926 0.02335150513035522 0.031178663218447533
-0.0025847924753177607 0.021241770779772684 0.031102037066588428
-0.0025768651318271918 0.01917373829254576 0.03100534095242985
-0.0025697946547025745 0.01724426534032064 0.03081782857251364
-0.002562755355667517 0.015324183424281101 0.030632195131979123
-0.0025559414064286923 0.013443581501750068 0.030426300367317582
-0.002549810740877487 0.011673127708541009 0.030147578906910666
-0.002543716819705282 0.00991229063021648 0.029869342694269385
-0.0025376814359726295 0.008164394265008035 0.029589043551731975
-0.0025323789682656127 0.006533121700621924 0.029228809990261784
-0.002527098613293062 0.004908651987091783 0.028870078700834856
-0.002521847511040575 0.003292057556853023 0.028511995052390715
-0.0025170821367649456 0.001753089581189582 0.02810133656999908
-0.0024013637710419635 -0.01670805424575811 0.04066515724490538
-0.0023951896141717944 -0.01841968526260923 0.0404695288676013
-0.0023890471246849503 -0.020122537287193265 0.04027490387243049
-0.0023829295612585208 -0.02181766270268326 0.04008204170409374
-0.002376849713103448 -0.023503151063437144 0.03988939901904631
-0.0023716952391379578 -0.02504505792518802 0.039591461794936056
-0.0023703056259008503 -0.02601660377986509 0.03884869436947497
-0.0023687506773367147 -0.02701210539494575 0.03812676307084317
-0.002367197767564492 -0.028006301744590567 0.03740577834221065
-0.002365646892577024 -0.02899919539424256 0.0366857383231351
-0.0023640980483776467 -0.029990788902625964 0.03596664115804632
-0.002362276595017473 -0.031022008024910508 0.03528174809821316
-0.002360324051287166 -0.03207154784014976 0.03461417784421972
-0.0024304853164295237 -0.02242058698987781 0.025158648000063122
-0.002544101929071158 -0.006381390157553457 0.01033625422509804
-0.002549766100099294 -0.006362318452546367 0.008667100798258165
-0.0022521840148173778 -0.06552272962215877 0.02704992384006305
-0.0022320945823401123 -0.06907219970182105 0.028820522563588802
-0.002220546041428507 -0.07141020238365853 0.029483736469995858
-0.0022132625526709976 -0.07314363238276927 0.029593485393835828
-0.002207531417367596 -0.07465553474775061 0.029503554307248436
-0.002203362228422532 -0.07594606929360104 0.029210887359224336
-0.0022001888719628735 -0.07709545771671478 0.028788977680826056
-0.0021977429865830075 -0.07814188842862585 0.02827247336853972
-0.0021957935008205423 -0.07911804380558024 0.02769144588892758
-0.002194740121165522 -0.0799692103895685 0.02699170828816655
-0.002194492089818511 -0.08070875499466706 0.026184439877874333
-0.002194635390010277 -0.08139435606006318 0.025324568550200988
-0.00219513157363693 -0.08203166280174595 0.024416846240350454
-0.0021965386464113984 -0.08254468254797254 0.023385161760141604
-0.0021984341447242144 -0.0829919490898931 0.02228594669544226
-0.0022006820280357133 -0.0833924557064411 0.021137200905841258
-0.002203862366623733 -0.08366775019532108 0.01985915369473823
-0.0022089656051328455 -0.08368451609839872 0.018314840641536045
-0.0022143225693824916 -0.0836702613779674 0.016731708911404686
-0.0022207379143590997 -0.08351670880391826 0.014998448672061848
-0.002230095088914164 -0.08297146799429189 0.012853262848309066
-0.002245649449279208 -0.08160042590374073 0.009841135689015845
-0.0013450669165328427 0.04722777451962562 0.030605598980753546
-0.001337224495432998 0.04385964784461516 0.03127666770577536
-0.0013305823709098572 0.04088400208039861 0.031698422297388396
-0.0013242667513410215 0.038020705627448526 0.032059016207720004
-0.001322475001265778 0.03660095863110119 0.03143741516985721
-0.0013203129371074935 0.0350662519095577 0.030900035328064568
-0.0013147783211205695 0.03246854483842371 0.031110576431674752
-0.0013099572550927035 0.030102987369897194 0.031171509402169895
-0.0013052143052412995 0.027768213269484365 0.031222462122793504
-0.0013007843540198342 0.025537845541404147 0.031210856785221286
-0.0012966767778197033 0.02341421959104195 0.03113387518038535
-0.0012925988856468812 0.02130515945871697 0.031056519266800586
-0.0012889342997261409 0.019330359082259718 0.030892259607322614
-0.0012853925294279785 0.01739852887934873 0.030705840010739227
-0.0012818701701458927 0.015477286259458545 0.030520442104840728
-0.0012787187571182226 0.013675650837395747 0.03025598398832746
-0.0012756498390460076 0.011903606239744291 0.02997750852961717
-0.0012725956164781366 0.010140047071947322 0.029700366549727297
-0.0012698068868573031 0.008462266450117606 0.029366846527655144
-0.0012671516180849714 0.0068291314628659006 0.02900680386898874
-0.0012645110906495838 0.005203935861374631 0.028647416558692462
-0.00126198724600474 0.0036178834340808708 0.02826497221166535
-0.0012025854752729353 -0.01535428403645056 0.04114131739479393
-0.0011997718828128104 -0.0169856855759678 0.04087792283259534
-0.001196833712439113 -0.01865139723867021 0.04064806164490142
-0.0011937663651269076 -0.020352575990245092 0.04045310246167877
-0.0011907114550916795 -0.022046040950518098 0.04025990621456521
-0.0011876753689970517 -0.023729884026732095 0.04006693150040008
-0.0011852010370918976 -0.02524024470547853 0.03974511427419103
-0.0011844234995580698 -0.026236296122636782 0.039022565533295084
-0.0011836469815445607 -0.027231041500407338 0.03830096421046475
-0.0011828714810474656 -0.028224483405858702 0.03758030844351512
-0.001182096996068128 -0.029216624399335922 0.03686059637513839
-0.0011811830021732181 -0.030249435549396464 0.03617575783766647
-0.0011802066564357597 -0.03129965365086662 0.03550742336461776
-0.0011792351062065536 -0.032347190522289404 0.034839419430771235
-0.001178265154228738 -0.03339300414029611 0.034172514398630616
-0.0012163388071030985 -0.022877171690007636 0.023959674282368004
-0.0011239830297859665 -0.06683983414941991 0.026740158459604424
-0.0011158990674216777 -0.06983118182320497 0.028004551273938527
-0.0011108234688644132 -0.0719697356674282 0.02848807390840319
-0.0011070630965899946 -0.0737343205213905 0.028631561981146525
-0.0011042259925800844 -0.07523672471413567 0.028535946255314915
-0.0011019423000298485 -0.07658158263463355 0.02829748000901844
-0.0011002190964221317 -0.07776799782309324 0.027913003527604285
-0.0010989157152865093 -0.0788359884024118 0.027418858926575362
-0.0010979574487373662 -0.07980699549840187 0.026834124002848347
-0.0010973480113108459 -0.080680661187218 0.026157006257101212
-0.0010970091151253354 -0.081479177711344 0.025407827022499163
-0.0010968438758655933 -0.08222963581011894 0.024612179301900294
-0.0010969127195205614 -0.08291583829728749 0.023753267789691057
-0.0010973838418806572 -0.08349232768163417 0.022784786797927503
-0.0010983714799088528 -0.08392877225735135 0.021674639321051237
-0.0010995794725138816 -0.08430662421697166 0.0205026804374131
-0.001100992622229648 -0.08463042731232634 0.019272574049065683
-0.001103369892825751 -0.08469537010017081 0.017775001547114644
-0.001106362260252312 -0.0845974558104094 0.01610405698063455
-0.0011104253980535825 -0.08421525230107607 0.014132239110226541
-0.0011156796547237594 -0.08351851690325368 0.01182369380378262
-0.00112669312160156 -0.08128618064858129 0.00790466609479451
0.0 0.046621980034013355 0.031015030366518648
0.0 0.04349282869815568 0.03152596500394317
0.0 0.04052154768182509 0.03194612175567291
0.0 0.037791120118170596 0.032216784110898955
0.0 0.03591240060195433 0.0319132033638575
0.0 0.034500999373421604 0.03129278067563562
0.0 0.03240978814577067 0.031151626871175675
0.0 0.030057162698166162 0.031203701430424502
0.0 0.027739990012015436 0.031242398270178995
0.0 0.02560232369874549 0.031165060685632184
0.0 0.023478160021213557 0.031088211606324745
0.0 0.021429602583718954 0.03096715982055326
0.0 0.019485913995508475 0.030779947832746957
0.0 0.017554090321334037 0.030592909228356946
0.0 0.015690189453936854 0.030365039519102854
0.0 0.013907992013465431 0.03008546810483781
0.0 0.01213435409961977 0.029807239414382014
0.0 0.010403612308330923 0.029504823288070414
0.0 0.008761732135702083 0.029143460835817148
0.0 0.007126723812841851 0.02878361081333458
0.0 0.005499669604362989 0.028424415187969176
0.0 0.003975584671169485 0.027993783267225514
0.0 -0.01566975580751151 0.04138178363685674
0.0 -0.01729902336844258 0.04111805243004035
0.0 -0.01892069148767178 0.04085555135260882
0.0 -0.020583312899145778 0.04063184191338032
0.0 -0.02227413058813016 0.04043754595093274
0.0 -0.02395633118915308 0.04024424019894973
0.0 -0.02546042375346097 0.0399184408516986
0.0 -0.02645571824534937 0.03919622283678864
0.0 -0.027449708492416625 0.038474951224280185
0.0 -0.028442397056629598 0.03775462415512726
0.0 -0.029476804589788963 0.03706983525406776
0.0 -0.030526748862121644 0.03639996657918948
0.0 -0.03157591303074708 0.03573197186573901
0.0 -0.03262240055528609 0.03506430747781053
0.0 -0.03366810930477415 0.03439851393584892
0.0 -0.034771167154737104 0.03378260362078572
0.0 -0.023366650168759218 0.022785161650730523
0.0 -0.06820455889628713 0.026480773424983117
0.0 -0.07072633794872396 0.027317216113799836
0.0 -0.072645092359447 0.02760053296377918
0.0 -0.07431607961468784 0.027659952785119568
0.0 -0.0757461462894079 0.027498423909705638
0.0 -0.07701977610748484 0.027193640331219515
0.0 -0.0781904177867162 0.026794959752372116
0.0 -0.0792428446601694 0.026286077482487957
0.0 -0.08021293068129959 0.025700267121736897
0.0 -0.08116995467219634 0.025104302657551314
0.0 -0.08197872512793508 0.024364614484204572
0.0 -0.08266548429558496 0.023504970901609357
0.0 -0.08329659525105998 0.022589656176156547
0.0 -0.08388741174644315 0.021633192292431547
0.0 -0.08439380539787572 0.020590496531773583
0.0 -0.08480026710997612 0.019444536539564017
0.0 -0.08504378279007335 0.01812959456314306
0.0 -0.08510742404815153 0.01662575643237435
0.0 -0.08499542174079255 0.014934482866019505
0.0 -0.0844889545910914 0.012826747941144578
0.0 -0.0832911804797617 0.00998776335403051
0.0013433134637346016 0.04666689305122901 0.030984675519595717
0.0013349323961686552 0.043127941474835174 0.03177394933024602
0.0013286037933612628 0.04025365298745337 0.03212919960197391
0.001322959537609188 0.03760508458199824 0.03234462509071956
0.0013181420234363872 0.035226098575131815 0.032387432677957906
0.001316577033086862 0.033883245618642366 0.03172200460232971
0.0013144460584484257 0.03236354456643148 0.031183935007836505
0.0013096706070175937 0.030012586287532672 0.031235016549909178
0.0013053273905631756 0.027803804644352004 0.03119732133612857
0.0013011911181591397 0.025665605069410014 0.031120114612844363
0.0012970848274061033 0.023542120572720093 0.031042533662450467
0.0012934981853034992 0.021586462114472293 0.030854522976963006
0.0012899351321457384 0.019642778058237553 0.030666690842759914
0.0012864105923561214 0.017715672117717296 0.030475607932795468
0.0012833084567144821 0.01592441151608326 0.030194075836835865
0.0012802174952234247 0.014140605507879878 0.029914752366101083
0.0012771413876616223 0.012365371760534483 0.029636771212644963
0.0012744219316490248 0.010704278361269859 0.029281754337597665
0.0012717473472663794 0.00906051505812655 0.02892058444947959
0.0012690876517704658 0.007424770843068529 0.02856007674933625
0.0012666299747732177 0.005854468944891333 0.028156874735973225
0.0012033373338538515 -0.014350927152633808 0.04188791300860556
0.0012005202262885646 -0.01598569519708143 0.04162260631799242
0.0011977162780580951 -0.017612826877100585 0.041358538933809086
0.0011949286652298858 -0.01923138062865276 0.04109493559229832
0.001192150745376038 -0.02084340594111378 0.04083332197972184
0.0011892076582308909 -0.02250193216226337 0.040614961339009104
0.0011861792263291367 -0.024182493090743384 0.040421325537550346
0.001183739981636347 -0.025681300131976004 0.04009231637296684
0.0011829675622705765 -0.026674870646251403 0.039369666674284653
0.001182192951508961 -0.027668106866857112 0.038648724506849585
0.0011812756154591212 -0.028703157170167193 0.03796321404653874
0.0011802991166738022 -0.029754735775748664 0.03729334961797248
0.0011793274142740911 -0.030803626527511063 0.03662382309838336
0.0011783541324579482 -0.031851738777142424 0.03595616790190803
0.0011773856285919454 -0.03289717895697114 0.03528884281705913
0.001176212857270447 -0.03400198678962296 0.034672795071961415
0.0011750297793252423 -0.03510833861919066 0.03406106441893214
0.0011738522327439792 -0.03621153529032367 0.03344978951236893
0.001218407919486886 -0.023830884165215116 0.02158700018820392
0.0011205842343296809 -0.0692365285353933 0.02591432230288837
0.0011148626025153786 -0.07155531822580324 0.026568987146823597
0.0011110409756702275 -0.07333715600650187 0.026728507335504637
0.0011080654317596357 -0.074878792419659 0.026668840179184305
0.0011059085917033205 -0.07618945530748833 0.026395344569080936
0.0011042483191609658 -0.0773598926401119 0.025992314866555732
0.0011028379398674638 -0.07845918429161786 0.02552478757733667
0.0011015700089108936 -0.07951741539471996 0.025021096003741694
0.0011004130688524647 -0.08054350758209655 0.024489400366570324
0.0011000501191368308 -0.08135037276049006 0.023744641121806187
0.001100063967794386 -0.08205368236540966 0.02289819603740978
0.0011002357200137758 -0.08271391014030122 0.022008762618428213
0.0011008012189354579 -0.0832671390069275 0.021011622069477487
0.0011017033380744624 -0.08372964743339095 0.01992150171116369
0.0011030244827971787 -0.08407975098316545 0.01871501525347502
0.001104574948271094 -0.08436954969131188 0.017443401565801597
0.001106886402269609 -0.08445607628346813 0.015959425185487708
0.0011095455734756456 -0.08445200637747924 0.014375691967751958
0.0011135640495774277 -0.08408645021076461 0.012410715372487113
0.0011203112652280727 -0.08299528511755566 0.009680342471272085
0.002688387507631819 0.04694847370963867 0.030794366822644192
0.0026675745095151747 0.042762378221178454 0.03202239309967747
0.0026560283852296676 0.04006581385222446 0.032257567893885786
0.0026447418646545324 0.03741794093695194 0.03247322754722942
0.0026345513111649755 0.034951198817274154 0.03257738625308981
0.002629509164981545 0.03330615088918737 0.032122978071021324
0.002626395241337402 0.03196901843567257 0.031459571200600056
0.0026193961767624744 0.03002125316944798 0.03122892802822519
0.0026110682287551873 0.02786886688807183 0.031151363123067655
0.002602793067657746 0.0257301235617603 0.031074289865009708
0.0025951789401112728 0.02370029813844532 0.03092956987775536
0.0025880077457862863 0.02174464216147054 0.030740937904208565
0.0025808684514996454 0.019798574682779124 0.030554204550879316
0.0025743371246237283 0.017951792144981993 0.030304195151615143
0.0025681180011484783 0.016157735752873603 0.03002376749645891
0.002561936365018862 0.01437349179968106 0.0297438364205469
0.002556173188517702 0.012657996360265433 0.02942084317881999
0.002550793244395192 0.011005404318978063 0.02905834417642561
0.0025454358989051434 0.009359754044969026 0.028697367863010803
0.0025402413095882937 0.0077425841566398645 0.028321718052987666
0.0024093621862245696 -0.013164880229419917 0.042498629901544294
0.0024042577145250332 -0.014721173009308086 0.04216861257753063
0.002398983812203059 -0.01630008481678813 0.04186224769744196
0.002393385507451381 -0.01792509234549522 0.04159784674481187
0.0023878132704442975 -0.019542533247695504 0.04133467693923365
0.002382273414231815 -0.021151473695999123 0.04107196547138281
0.0023767527393856683 -0.022753945681380394 0.04081123336419057
0.002370865135300107 -0.024408370270188273 0.04059818793799397
0.0023660248110317964 -0.025900936830155152 0.040265216008691984
0.002364481870142867 -0.026893753822365585 0.0395428974391418
0.002362640661038116 -0.02793040709682887 0.03885742922865759
0.0023606938932401035 -0.028981707827716363 0.038186035131491214
0.0023587439639231066 -0.030032230327220133 0.037516512837116156
0.0023568036097908456 -0.031080069571334246 0.03684732822458625
0.002354860099268607 -0.03212713191023636 0.03618001230234824
0.0023525143797225954 -0.033232748442214466 0.03556305362747414
0.0023501480455531266 -0.034339915686524725 0.03495040445256831
0.002347792775123244 -0.03544392395253593 0.03433821527427211
0.0023454359253467405 -0.036546651586451206 0.0337280240434486
0.0023429330254276853 -0.037669392340049734 0.03313760713142361
0.002438951500845519 -0.024299947267674593 0.02039007237457552
0.0022448936853120363 -0.07015795105132344 0.02370349500141483
0.0022232692183417127 -0.07388623491158375 0.025719504978149843
0.002217379296806981 -0.07541785501210868 0.0256535044924876
0.0022136438174338432 -0.0766475080852339 0.025303844659428087
0.00221067007628633 -0.0777695780715234 0.024854866939576503
0.002208507801918231 -0.07877794881317146 0.024299006418363744
0.0022064834630951243 -0.07976597198623192 0.023726193981270904
0.002205369709704977 -0.08062783689395203 0.023031740186217398
0.0022055255675095826 -0.08131530823962674 0.02216588899847638
0.0022060823823558434 -0.08194815933892075 0.02124536623308393
0.00220715225534771 -0.0825115138685436 0.02025441631817887
0.0022088818464643385 -0.08298594542682891 0.019172383553929584
0.0022113526016968076 -0.08336105332576377 0.017987335164401097
0.0022150635007262484 -0.08357009563277612 0.016629766373949917
0.0022201736777964307 -0.08359280602154306 0.015076296415853785
0.0022273324656391365 -0.08334316840953987 0.013235480251321818
0.0022384184970073847 -0.0825709989445822 0.010844329728601387
0.004035213172336941 0.04722909908408296 0.030604703762533214
0.003999310659005562 0.04254412025238874 0.032170725383987187
0.003982275344808196 0.03987814135955431 0.03238582230313636
0.003965960459013691 0.03729581453957359 0.0325571510740138
0.003951398085639669 0.03490583728785307 0.0326087307139003
0.0039387996746803825 0.03272940226724025 0.032523711059388116
0.0039344133225700665 0.03142341291011114 0.031840759208419
0.0039297068152953675 0.030085647109288682 0.031183691009552206
0.003917211004165537 0.02793272157355714 0.031106257896553913
0.0039051201542390506 0.025827548554892776 0.031005093025770925
0.0038942835165888937 0.023858598832917577 0.030816518159672124
0.003883518361736946 0.021901746199967265 0.030628125485820168
0.0038731673245693526 0.019992596910287264 0.030414119096659642
0.0038637822780175435 0.01818819058631338 0.03013258025403648
0.0038544426032164274 0.016392507615312135 0.029852402503224074
0.0038453171804440295 0.014622982785562566 0.02956073424038258
0.003837200701690753 0.012961487407489813 0.029196896780701365
0.003829118414379949 0.011306991237477804 0.0288345920210743
0.0038210812421902588 0.009660594896487462 0.028472956369525626
0.003617853880014663 -0.01199973694654033 0.0431283788192362
0.00361018103482519 -0.013560138249658626 0.042796678678163225
0.003602550567909883 -0.015112923679001411 0.042465615885269814
0.003594942428562969 -0.016660163850597043 0.04213671552641585
0.003587012931696734 -0.018236824568383214 0.04183674589770847
0.003578668826795259 -0.01985216250661781 0.041573244545744514
0.00357036345189259 -0.02146000269200221 0.041310966261687065
0.003562106218469873 -0.02305941895783048 0.04104914067494808
0.003553877454288751 -0.024652425979759862 0.04078928417331479
0.003546857169730498 -0.026120303698375924 0.04043790323227514
0.003544104729807887 -0.02715663629310988 0.03975095057635886
0.0035411747742003364 -0.0282095758164701 0.039079555720794024
0.0035382592103824556 -0.02925982085985951 0.03840850614666236
0.0035353389079501073 -0.03030928927233606 0.037739325738330776
0.003532423422086008 -0.03135702675580593 0.037071249035224296
0.003528904577382462 -0.0324634521059568 0.036453379294913324
0.0035253548086794616 -0.033571434884747786 0.03583981146144788
0.003521821637103579 -0.03467625486469367 0.0352267078755113
0.003518286096596354 -0.035779794597434356 0.034615601760711434
0.003514522041038014 -0.03690432393165338 0.034024986018731385
0.0035103053198717892 -0.03807172279760129 0.03347342085626681
0.0035060987050184764 -0.039236323731761835 0.03292317764274133
0.0036617284281207393 -0.024760825795639985 0.019183446474909716
0.003367764473993397 -0.07084014729092575 0.022806063509822783
0.0033535557979579643 -0.07287579205000677 0.023209487565844455
0.003347303937834865 -0.07417118373117432 0.02291064911738444
0.0033422595495419673 -0.07535274330844333 0.022507023433144868
0.0033202638577102196 -0.07808895031287943 0.023626198946307242
0.0033171967967700815 -0.07908138033305057 0.023054218673890015
0.003315325735504792 -0.07996316785081031 0.02237593442672886
0.003315032262826146 -0.08070028176420985 0.02155591608454116
0.00331587928263774 -0.08133350445475779 0.02063260119782917
0.003318162519585077 -0.0818367264551969 0.019578217387869468
0.003321500687818474 -0.08224539809935627 0.018426443050332586
0.0033263221681293876 -0.08252149745931786 0.01713728635543932
0.003332512770717901 -0.08267626945719198 0.01572008504318606
0.0033418846027197966 -0.08254766448284612 0.01400711263659965
0.0033556850358893143 -0.08202584131907104 0.011880880367161395
0.003383779183774027 -0.08023088476108298 0.008425564213745629
0.005383814613347581 0.047511417307864456 0.030413896575715138
0.005336207881667639 0.04284688334585607 0.031964961802901426
0.005307346238516867 0.03969063528778893 0.03251396298120268
0.005287355343286145 0.037248763930463724 0.03258948358474545
0.005267943184216396 0.03485922597478219 0.032640938765403915
0.005249555935524804 0.03255706364779981 0.03264345433635729
0.005239781890205371 0.030941288071986428 0.03217759635165668
0.0052343832530497 0.029673625285444538 0.031473138106360155
0.005223775419892587 0.027997824659893256 0.031060270833371095
0.0052088598568739925 0.02598718230952174 0.030891711942529543
0.005194415176141805 0.024018232617689816 0.030702514404396253
0.005180035033182479 0.022058972240845243 0.03051522546062163
0.0051672769212976494 0.02023091650389225 0.030242050623122463
0.00515474874007897 0.018424867934427547 0.029960762882369207
0.005142281161652152 0.016627555795530213 0.029680835819744344
0.005131048521475091 0.01493002961833706 0.029335391652172804
0.005120209848370163 0.013266605408958132 0.028971749851146422
0.005109416869319146 0.011610193921021528 0.028609641103810812
0.005099279249109399 0.010007763405668946 0.028213986873716734
0.004818644654624834 -0.012396657749072115 0.043426067811500046
0.004808449278523758 -0.013953536916699982 0.043093325388492865
0.0047982969544574094 -0.015503841847618605 0.04276198803755121
0.004788174291689105 -0.01704861678848857 0.04243281117351255
0.004778107312727727 -0.018585891246915287 0.042104256689609265
0.0047674972554762425 -0.020161264700747583 0.0418114060517904
0.004756442242788862 -0.02176702283533344 0.0415487982251202
0.004745451266354912 -0.023364374648536912 0.04128664488192574
0.004734498141599695 -0.02495533133344957 0.04102645982821035
0.004725651861368691 -0.026383767078178633 0.04064530355641244
0.004721744958230207 -0.027437385393635272 0.039973143904692254
0.004717857245839612 -0.028488305923102142 0.03930133322121948
0.0047139632150614025 -0.02953845076010575 0.03863139062024179
0.004710088301259767 -0.030585913636003215 0.037961789145854186
0.0047053707914668595 -0.031695043692915426 0.03734453686024075
0.004700650078701544 -0.032802896207323684 0.03672928545313808
0.004695926210648043 -0.033909466090080886 0.036116033867942154
0.004691224420146027 -0.03501287997086738 0.03550324618898015
0.004686192736633457 -0.036139202184775454 0.03491242677166856
0.004680570050002368 -0.03730755972034827 0.03435977761758391
0.004674960839862715 -0.038473116929088 0.033808453056525856
0.004669365057821705 -0.039635883866704025 0.033258448332003476
0.00466378265571789 -0.04079587054082345 0.032709758710276815
0.00488686440029291 -0.02521153131711229 0.017965308194112184
0.004514677617888621 -0.07132548881840217 0.018594731435515488
0.0044573803671558365 -0.07599762149276335 0.021584015028483172
0.004452088896285452 -0.07707753511621435 0.02108730233877293
0.004451760013992218 -0.07781551963986638 0.020256924852528002
0.004453370867085937 -0.07842072450118276 0.01929508953188208
0.004455800694197516 -0.07897056252739493 0.018276924490896018
0.0044582218013526935 -0.07952177510964692 0.017258423638582654
0.004452315740190926 -0.08063931277437797 0.016808661104885936
0.004452066213413701 -0.08137169275192696 0.015973111151478425
0.0044578578991310465 -0.08169563988582962 0.014722060552708027
0.00447502577528457 -0.0812543088159724 0.012684004857770104
0.004515400823802508 -0.07925727717062442 0.009033981748047815
0.006677150937085138 0.04328685127116083 0.03166595119749105
0.006632933915146542 0.03961105970921075 0.032568344519360526
0.006608454425494577 0.037201723853915125 0.03262180885765048
0.006584214492949309 0.03481388440521621 0.03267226943411117
0.006562989753020937 0.03262323476636164 0.032597477720071044
0.006542097323287421 0.030459045384646277 0.03251451583040155
0.006535364732325114 0.029193354114150638 0.03181053066220729
0.0065293874928550166 0.027976940290954988 0.031075022987960776
0.006513637458491021 0.026148160779770113 0.030777375764835024
0.006495548097715381 0.024176780944019094 0.03058928583802456
0.006478653916982812 0.022284823075906124 0.030353047714320125
0.006462917946265783 0.020469518121027874 0.03006977852655246
0.0064472392046947685 0.018661824683204264 0.02978874267807824
0.00643237492548722 0.01690880144696444 0.02947554861601065
0.006418748124687127 0.01523638081483969 0.029110559593501895
0.006405178937803067 0.013571031152857627 0.028747113739259866
0.006391797910024572 0.011920796502617959 0.02837920008390321
0.006027477211848692 -0.011365106457759011 0.04415702659690568
0.006016023897551425 -0.012844728336125488 0.043762118934727146
0.006004168434169535 -0.014346098702812449 0.043389341039301144
0.00599148855006579 -0.015894937073547943 0.04305849442472076
0.0059788784725080864 -0.017436246847229886 0.042728279586494944
0.005966321363452918 -0.01897108236489664 0.04239945181232235
0.00595380066328947 -0.02050047235543312 0.04207276364625728
0.005940508427949287 -0.02207352200948054 0.04178622662179521
0.0059267769036658756 -0.023669789006632247 0.041524506306157616
0.005913124719524388 -0.025257725069467496 0.04126323488518013
0.0059024204030905724 -0.026664173716119677 0.04086604173886027
0.005897544447475403 -0.02771673266728919 0.04019422778484666
0.00589269243631135 -0.028766598449597114 0.03952276255176035
0.005887832533269897 -0.029815690134693984 0.03885316277034484
0.0058819352012296905 -0.030925633466591385 0.03823499440555739
0.00587603386561815 -0.032034299647716036 0.037618826435207586
0.00587012858604601 -0.03314168358098857 0.03700465781149259
0.00586423516389925 -0.03424684395785088 0.03639172239924654
0.0058579451207560725 -0.03537402709383913 0.035799929396706176
0.00585091627273757 -0.03654334342979998 0.035246196101275995
0.00584390427209302 -0.03770985704340368 0.034693790043504036
0.005836909058322982 -0.03887357799931318 0.03414270645723877
0.00582993057121734 -0.04003451631405902 0.033592940599121934
0.0058218359221595345 -0.041259183144689404 0.03310058461953119
0.005813639945330057 -0.0424877040039916 0.032615742187965646
0.006114154041901103 -0.02567108094048648 0.01675171365827499
0.005632971718725297 -0.0726227046526825 0.018288406595934448
0.005628936698777532 -0.07356869263494087 0.01764312434748766
0.005631737375844644 -0.07413872613673483 0.01662916095907785
0.005639588295212511 -0.07443313867999807 0.015340268983277117
0.005602403889057835 -0.07862850215165673 0.01478320637308661
0.0056200308129558665 -0.07839328086153319 0.012957474454489304
0.008020867530302752 0.04372772920354312 0.031366322133889735
0.007964236128908089 0.03986143886729365 0.032397236699819754
0.007929281788980376 0.03715596523683107 0.03265325352980086
0.007902200612605721 0.03487434201818007 0.03263049369805404
0.00787684190330241 0.03268942696063365 0.03255148646008743
0.007851645429086465 0.030518490133625953 0.03247298467945586
0.007834562492850134 0.02877941719136634 0.032101323124227144
0.007827661294653183 0.02757808802358047 0.0313567614653914
0.007819419212515928 0.026308045045023376 0.030663816754525453
0.00779801977445385 0.024352417447555563 0.030463853612037683
0.007778998677475731 0.022525366555351145 0.03018031955339312
0.0077600931194840616 0.020708402262603454 0.029897302445289597
0.007741256372115791 0.01889906132768976 0.029616519281781772
0.007724809239622775 0.01721756774612293 0.02925017350411757
0.007708431846368597 0.015543204044625614 0.02888538110819372
0.007692123749728416 0.013875924970886633 0.02852213223492661
0.007237605580910877 -0.01035167563141165 0.04490350315971542
0.007223824101708855 -0.011835193245629039 0.044507686680471836
0.0072101148374768545 -0.013312055067254747 0.044112612087921554
0.007196457509151044 -0.014783321974706276 0.043719034188142436
0.007182163049458873 -0.016284196047322008 0.04335360866886123
0.007167062994294234 -0.017823056638777035 0.043023122756308985
0.007152006787296904 -0.019356452259558343 0.04269478394235893
0.007137033137106698 -0.020882432889175184 0.04236706209412883
0.007122102704804921 -0.022403016940407416 0.04204146859228397
0.007106117189284374 -0.02397371181607727 0.04176120608923911
0.0070897622359799555 -0.025559608482926044 0.04149961035830063
0.007077320825400369 -0.02694510108580933 0.041087189845197825
0.00707149797204151 -0.027995641375349545 0.040414964570927636
0.007065665648077155 -0.029045408505637027 0.039744603665621936
0.007058588315809658 -0.030156165232057053 0.039125519085211335
0.007051487211570015 -0.031266591390126164 0.03850919534898162
0.007044419310476532 -0.03237384330259907 0.037893348616654
0.0070373466720398065 -0.03347981613097728 0.03727949791760271
0.007029779201949086 -0.03460879865326727 0.03668749390031634
0.007021343996589882 -0.03577907392040125 0.036132676313793244
0.007012929010191347 -0.03694654406917208 0.03557918861010129
0.007004534170143966 -0.03811121917320048 0.035027026013427276
0.006996178075559024 -0.039272191859080596 0.03447541804421944
0.00698642653230065 -0.04049978859490094 0.03398335031383232
0.006976609298530356 -0.04172850950175505 0.03349648341163558
0.006966801101139461 -0.042954685854474206 0.033011749272452484
0.0069570204431094965 -0.04417741936120467 0.032528376165043726
0.007375670010644545 -0.024577067465613278 0.014203768888501611
0.006762827014543459 -0.07247296160298916 0.018142182413037833
0.00675564662295747 -0.0735264263588764 0.017601636997009007
0.006755072154052068 -0.0742764237937687 0.016765022434021892
0.00676486889012397 -0.0745533852344723 0.015459527493528413
0.009303847941261356 0.04041847113991248 0.03201656373042633
0.009250465009270747 0.03713944374074668 0.03266460686739964
0.00922070718750869 0.03494111762648694 0.03258435227680162
0.009191112586261577 0.03275564024068889 0.03250548054940744
0.009163244522366762 0.030653542748587004 0.0323786299949157
0.009137564730241065 0.028655152180012855 0.03218861982719179
0.009123444947835794 0.027181232808640432 0.03163708927887887
0.00911545041226509 0.0259847442159431 0.030893443616959115
0.009103105499450322 0.02459492346172748 0.030290665985545973
0.009080887823551207 0.02276619572201899 0.030007386247729972
0.009058778335628565 0.020946372890014775 0.029725485927872997
0.00903845875632892 0.01921026565669892 0.029390598591492234
0.0090192407404828 0.017526811178975032 0.029024450122157763
0.009000104275821156 0.01585050039951169 0.02865985539496052
0.008447954869936124 -0.009395781471870202 0.045694351592276694
0.008433186197622605 -0.010823345790046957 0.04525344278950616
0.008417171605433805 -0.012303072087607891 0.044856699752229334
0.00840121772127427 -0.013777189046757066 0.044461460686288035
0.0083853012101507 -0.01524673685359812 0.04406847741420861
0.008369467797759555 -0.016709724494182954 0.043676220386037856
0.008352713034303448 -0.01821004510280355 0.043318102118022284
0.008335207344401343 -0.019740017067396476 0.04298873272578779
0.008317774878196417 -0.0212635893868367 0.04266074103671219
0.008300392650013304 -0.022781779820618686 0.04233487578862899
0.00828310535335894 -0.024292666595733425 0.04200961300313699
0.008264393389631534 -0.025861947991119905 0.041736342954747596
0.008250392547460754 -0.027224626067763935 0.04130723398152247
0.008243609875670172 -0.02827411254980544 0.04063535507968252
0.008235330145238723 -0.029386638982753455 0.04001611090679613
0.00822704489930148 -0.030497881149998074 0.03939886796993869
0.008218776307537803 -0.031606889609279154 0.038782865753147544
0.008210546361827761 -0.032712730647366906 0.0381673401691755
0.00820171698342029 -0.0338425804573006 0.037574359166373306
0.008191875171982266 -0.035013819047220285 0.03701845656332459
0.00818205695198542 -0.036182250104570046 0.036463886493771025
0.008172262238706039 -0.03734788371201392 0.03591064417219825
0.00816249094782566 -0.038510729903992125 0.035358724835978184
0.00815111335844327 -0.03973943056456114 0.03486540882700323
0.008139637462847371 -0.04097017281325632 0.03437804945249595
0.008128193835488087 -0.04219745442730399 0.03389206044836768
0.008116803882053394 -0.04342038869573622 0.033406671739385274
0.008104114176728823 -0.04469549259053274 0.032970033845082125
0.008090779109727348 -0.0459951489705529 0.03255921225661307
0.008585141355269662 -0.026190487555346975 0.013971348779606652
0.007892876608743726 -0.07235835469079543 0.01803026869067037
0.007880856590118609 -0.07355513678516201 0.01762981831858762
0.007878339268524206 -0.07437743008333342 0.016864681816574134
0.0078867094845382 -0.07477372651550063 0.01567805827004165
0.010646993544356097 0.04097697281991386 0.03163488657564001
0.010582170296858137 0.037545231423704695 0.03238575533152743
0.010539635197529018 0.03500791457832447 0.03253819610733705
0.010505928312755161 0.03282687429385739 0.03245598613552686
0.010476422742362783 0.030817210844455267 0.03226428306753926
0.010447051213528343 0.028817572985279427 0.03207451851550153
0.010417999171613023 0.02683522406501515 0.031881500517276395
0.010409249941549906 0.025654651121979233 0.031127894736968864
0.01040159867282108 0.024518502923540186 0.030345242329431976
0.010384324108183825 0.023007311085166904 0.029834247431646144
0.010359763002039673 0.02121457515950903 0.029531841945802495
0.010337671523208289 0.019521952285001587 0.029164327773074206
0.010315674060997928 0.017836532852336773 0.02879837766224269
0.009657019586447248 -0.008534175737919258 0.046555842087980415
0.00964074492772648 -0.009939907030484196 0.04609586247732689
0.009624498529275374 -0.011341931676878914 0.045638189947939334
0.009607488074967733 -0.012770790609863636 0.04520559323388362
0.00958930099940731 -0.01424216587127275 0.044810191419051904
0.009571182650396269 -0.0157079810004917 0.044416283775281895
0.009553132639106532 -0.01716826745458727 0.04402386184913276
0.009535124567807644 -0.01862405053244992 0.04363367498061427
0.0095158887387015 -0.020123761612692026 0.043282819252841276
0.009496007944021096 -0.021644926177949164 0.04295455889438776
0.009476210046897608 -0.02315974789686248 0.0426276672931627
0.009456468945465106 -0.024669235882046225 0.04230289098562262
0.009436835401643523 -0.02617148427886562 0.04197871064771086
0.009421623962451778 -0.027503712532796376 0.041526932914077774
0.009412135354423293 -0.02861800905671319 0.04090752517507745
0.009402691133456494 -0.029729113008378827 0.040288607603624405
0.00939324060285434 -0.030838935872073647 0.039671687944121015
0.009383834243206273 -0.03194558750052007 0.03905524916149078
0.009373717628236213 -0.033077243215579755 0.03846204980062151
0.009362469059916185 -0.03424944100352195 0.03790506260116311
0.009351247456059832 -0.03541882886191172 0.037349410581482834
0.00934005271982662 -0.03658541688237027 0.03679508894639505
0.00932888475483914 -0.037749215108254075 0.03624209292364988
0.009315856064580685 -0.03897993680873274 0.035748289785902776
0.009302764676355426 -0.04021087528971734 0.035258910254103326
0.009289685340688693 -0.041439266851266476 0.0347716660015423
0.009276642731489704 -0.0426642091181359 0.034285789919400844
0.009262139288059136 -0.04394053579846918 0.03384776369498205
0.009246898243038641 -0.04524147573515652 0.033435484741488
0.009231731657258014 -0.046537252537921514 0.03302379874762024
0.009216614741897508 -0.04782878568434307 0.032613461021339274
0.009809690089106428 -0.02704778192838614 0.013091549269879876
0.009023970265060566 -0.07223644197601936 0.017911220847452558
0.009006878917954196 -0.07354875715077913 0.01762355625454476
0.00900488334399976 -0.0743408527626036 0.016828592250121788
0.009010895950924958 -0.07485875603658843 0.015762389118910036
0.011993650357360355 0.04153565477599286 0.031253086221116166
0.011923351858296558 0.03819561367296298 0.03193882188153302
0.011858984844754497 0.03507473288393209 0.03249202518258498
0.011823860559329408 0.03299193111455384 0.032341302353908585
0.011790640474221466 0.030981008499988028 0.032149845623135276
0.011757571378986975 0.028980122002247144 0.03196032713454183
0.01172727484661716 0.027080915758538993 0.03170795053570957
0.01170110208265489 0.025329950908040022 0.0313585155230971
0.011692508072752017 0.02419494321402882 0.03057631510636899
0.011683961394620699 0.02306280815484174 0.02979439639596687
0.01166382546378592 0.02152992824798583 0.02930415473075393
0.01163893379989135 0.019835314750910604 0.028936840370073158
0.010866638950780484 -0.007672174749897065 0.04741772778487946
0.010848321566747803 -0.009079680967073567 0.04695619000594731
0.010830036004216871 -0.010483476081359244 0.046496962714666745
0.010811841708794194 -0.011881526307102486 0.04603852382889512
0.010793678814964437 -0.013275901941896429 0.045582379790049865
0.010774395820991446 -0.014705973111919068 0.045158044968656774
0.010754063868729328 -0.016169072960993514 0.04476397537848681
0.010733808507242648 -0.0176266612905559 0.044371390254474175
0.010713629304566964 -0.01907876918502993 0.043980281224380746
0.01069352583198022 -0.02052542749552161 0.04359063997880436
0.010671788591657136 -0.02202448013983027 0.04324700309214502
0.010649533827875172 -0.02353789725851857 0.04292059922973812
0.010627400412511158 -0.025044047914134393 0.04259480039134833
0.010605358808120467 -0.026543950950256412 0.04227035298957704
0.010589051473361843 -0.027848368866735418 0.04179824893313305
0.010578425924039918 -0.02896028695872227 0.041178414257607154
0.010567793276647973 -0.03007092434631997 0.04056057701899052
0.010557181982087532 -0.031179331315475456 0.03994398054137788
0.010545799996197962 -0.03231185260718911 0.03934980233318669
0.010533144474948785 -0.03348500972400453 0.038791730387502554
0.010520519291890476 -0.034655354513801306 0.03823499626842003
0.010507924338062273 -0.035822897077161686 0.037679595171080715
0.010495359505024409 -0.03698764746636213 0.03712552231361188
0.010480701212018469 -0.03821947545059956 0.036630468228417534
0.010465944524101023 -0.0394524396694757 0.03614059124486435
0.010451229332198716 -0.04068193677554571 0.03565209180229845
0.010436583161539503 -0.04190707600976856 0.03516420440890072
0.010420238049125544 -0.043185530991582344 0.03472554936799743
0.010403090783870224 -0.044487754645451405 0.03431181286508522
0.010386027292364477 -0.04578480879638053 0.03389867644050637
0.010369019685394776 -0.04707761497325064 0.03348689307647745
0.010350214798033523 -0.04842609326520092 0.03312806133319418
0.010330528008367076 -0.04980033211097351 0.032797067869563934
0.011046131840142056 -0.027506710807526036 0.011865544110164994
0.010152281076336672 -0.07222681321272745 0.017901818353997623
0.010133130458007088 -0.07353679462732637 0.01761181418854546
0.010128928057480427 -0.07438856059087617 0.016875663900105642
0.010134697462263005 -0.07493659239460682 0.01583958590963097
0.010169715394810491 -0.0745984084166022 0.013918213225650955
0.013268687957308898 0.03884801059165521 0.031490503979300366
0.013195632640288581 0.03567706024570777 0.032075821702957696
0.013142839435900892 0.033157119014389946 0.03222652749667554
0.013105898952747915 0.03114493586908479 0.0320353175541816
0.01307029934923507 0.029179789432421332 0.031820059909248244
0.013038121170575843 0.027326902191673996 0.031534192358035784
0.013006101043733023 0.02548311590709046 0.031249728922497666
0.01298140787977413 0.023873105821046126 0.030806157877061868
0.012973698444817522 0.0227975245239897 0.029984889831028372
0.012966036640107903 0.02172442115428408 0.029163729443037023
0.012072808839238211 -0.006934525124169033 0.04837056972330145
0.012054954423282138 -0.008265596779913897 0.047850879190260764
0.012036157929581159 -0.009623599266565253 0.04735537327149214
0.012015899650274869 -0.011024440447971517 0.04689614095244771
0.011995742385729143 -0.01241955647311549 0.04643769700884687
0.011975619812577354 -0.01381101158663911 0.045981543513822554
0.011955564636646595 -0.015197806252080615 0.04552691782924445
0.011933979053555225 -0.01662900874944301 0.04511079515709082
0.011911529440863988 -0.0180839078821326 0.0447180488836913
0.011889196484512662 -0.0195323543997582 0.044326023512745116
0.011866882652362885 -0.02097734639093851 0.04393697261100027
0.011844684532139209 -0.02241594697198035 0.0435486260895952
0.011820426281486808 -0.023914281176086793 0.043212163571897055
0.01179585316810961 -0.02541904218166957 0.0428868517248579
0.011771413726205339 -0.026916600335624208 0.04256213839694739
0.011754217658602463 -0.028192357595871353 0.04206903940874218
0.01174243433889479 -0.029302855025496455 0.04144953298530685
0.011730643124778147 -0.03041207491817005 0.04083202068185071
0.011717964095853545 -0.03154640862654995 0.04023761677054599
0.01170390142559753 -0.0327205252031027 0.03967845992879082
0.011689872467964229 -0.03389182705469357 0.039120643561007196
0.01167587710186927 -0.035060324290868194 0.0385641628526609
0.011661946334568362 -0.036225101310977725 0.03800825660710805
0.011645596044351154 -0.0374598824690307 0.03751346447479914
0.011629198676283512 -0.03869395560003236 0.03702232855778975
0.01161287828568745 -0.039923646452696804 0.03653181661911825
0.01159657285897531 -0.04115079805560773 0.03604343690167411
0.011578379783539117 -0.042431380751943915 0.035604148229417154
0.011559356739213916 -0.043733985696876254 0.035188196632701174
0.011540396101312345 -0.04503231735544966 0.0347736095941954
0.011521497563244417 -0.04632639672144784 0.03436038041010209
0.011500571650347721 -0.04767716274661615 0.03400070964767454
0.011478666016876365 -0.04905374327863549 0.03366880265809957
0.011456873716601645 -0.05042421756507093 0.03333740230773152
0.01143513407620602 -0.051790364933486155 0.033008012687927746
0.011289289600422206 -0.07197947060992999 0.017660288145659786
0.011259062856411808 -0.0735359970928906 0.01761103135187908
0.0112543645083112 -0.07438856059088678 0.016875663900116078
0.01125894680077357 -0.07498660929332662 0.015889191828526494
0.011275654411001763 -0.07525428763878578 0.014572075848497401
0.014540579124871477 0.036409254077330255 0.03156988151192186
0.014471706844704736 0.033576935403382746 0.031934833213022984
0.01442219941470375 0.03130899310588997 0.03192069875298503
0.014385979520908383 0.029427794131243634 0.03164583554559902
0.014350540971486414 0.02757318389510721 0.03136022560939211
0.014315233952749789 0.025726471027823272 0.031076884104901614
0.01428315588136994 0.02397589327591626 0.030732751386905843
0.014262005432154737 0.02253980824396018 0.030169949343733404
0.013277888340339024 -0.006220971109549944 0.04934050516046229
0.013258291563988703 -0.007551841741264109 0.04881871450555858
0.013238752547980737 -0.008878789710312474 0.048298461797809944
0.013219234676969447 -0.010202857797569631 0.04778049283856162
0.013198324299718955 -0.01156383602155242 0.04729416157601907
0.013176179385960688 -0.012957043541739321 0.046836467256164915
0.013154144662736381 -0.014344574611495353 0.046379553540293716
0.01313214763161693 -0.015728476260471136 0.04592491818350852
0.013110259809934428 -0.017106759003172378 0.045471048134544445
0.013086306519292086 -0.018540011530832623 0.0450638409979508
0.01306180157781395 -0.0199857970720409 0.044671657149086164
0.013037352872247892 -0.021427158988781836 0.04428169106067309
0.013012995520460674 -0.022863135186551586 0.043893182099519645
0.012988693908208868 -0.02429472529019705 0.043506873129562196
0.012961895456133993 -0.025792288182279743 0.04317754148105546
0.012935068101454235 -0.027287513994134094 0.042852564725816056
0.012917129082152213 -0.028535680658065388 0.04233930586640383
0.012904192488423998 -0.029644760838432038 0.04172012758529137
0.012890209935752378 -0.030780911268075584 0.04112549311917185
0.012874739920380868 -0.03195598743525735 0.04056525123148286
0.012859306992768934 -0.033128246479049606 0.040006352465675576
0.012843945344663344 -0.034296766562303294 0.039448038508267
0.012828586111528763 -0.03546342589504298 0.03889181095299388
0.012810599544942286 -0.036699317762313055 0.03839576287079138
0.012792561190886374 -0.03793450453233138 0.03790336761188884
0.012774573564307867 -0.039166217708890116 0.037412357067408586
0.012756670311588517 -0.040393562483815426 0.03692197033016115
0.012736622794669254 -0.04167628193149786 0.03648204326218085
0.01271569611606222 -0.04298016888487566 0.0360646360496385
0.012694838091059915 -0.04427977821059115 0.035648598213959715
0.012674048382370622 -0.04557513092441928 0.03523392302745931
0.012650995121046999 -0.04692818885667216 0.0348734084981453
0.012626897530100835 -0.048306235816403253 0.03453982960126223
0.012602924615521283 -0.04967816882216347 0.03420676599512629
0.012579009632774913 -0.05104577120575582 0.033875717209970124
0.012551775070118112 -0.052497992699243656 0.03362410603716903
0.012524070695815147 -0.05395937531218731 0.03338709202277401
0.012418956611720513 -0.07196098442272197 0.01764223637213902
0.012387586781158713 -0.07347058527751049 0.017546825011439282
0.012379035669214505 -0.07440763959334468 0.01689448848631625
0.012380056076917988 -0.07510563180667862 0.016007236355380372
0.012394199648992524 -0.07547811093248302 0.014795210963806815
0.015890237757775094 0.03714401321989941 0.03106216871115569
0.015814793815313907 0.034302011320882675 0.031431040350490214
