# .PCD v0.7 - Point Cloud Data file format
VERSION 0.7
FIELDS x y z
SIZE 4 4 4
TYPE F F F
COUNT 1 1 1
WIDTH 771
HEIGHT 1
VIEWPOINT 0 0 0 1 0 0 0
POINTS 771
DATA ascii
-0.04701075901783541 0.05775101136272579 0.04535954300063655
-0.04668823549011042 0.057931937573377085 0.04362459904555427
-0.04636368476517416 0.058114000982047935 0.04187875023135079
-0.04603796931595622 0.05829705982264099 0.04012262930618504
-0.045709310086084864 0.05848142906353872 0.038354667026555544
-0.045378565437337925 0.05866696816996276 0.036575486616818864
-0.045047500813253094 0.05885337741829699 0.03478649497123959
-0.04470984355883245 0.05904175724450438 0.03298227738903631
-0.044366416928976415 0.05923197669064934 0.031163386753197297
-0.044028002563119895 0.05942215804033141 0.029338968984083003
-0.04368650019893189 0.059613724076079164 0.027502011572481444
-0.03541809364959286 0.06120181101699737 0.01875356513454074
-0.036731608072390065 0.06110614431759115 0.01830878921984702
-0.038040077920363125 0.061010943283138566 0.017864570542678537
-0.039279635844859995 0.060927531365686016 0.01736438389823075
-0.040369848533921615 0.06087027627957958 0.01673578709930612
-0.04145894633963565 0.060812962730179755 0.01610920378708186
-0.04254506680272735 0.06075592266671273 0.015482965205517674
-0.0436291517022358 0.060698989505455464 0.014857900295268789
-0.04471120675525858 0.060642162946162065 0.014234005759949542
-0.045788486868142075 0.060585936884491834 0.013608767736758343
-0.04686194482753475 0.06053014384690958 0.012983012470971833
-0.04792888032554049 0.06047527412077217 0.01235421499271977
-0.04808021459699191 0.0605857721572283 0.010879522736116032
-0.04809251532331821 0.060721981634240606 0.009269348498993024
-0.04688106699576333 0.06108118601757417 0.006505489573281509
-0.0003412078719972067 0.05684759844111014 0.09824254171265023
-0.0016327725295904871 0.056764139747252355 0.09770047596128309
-0.0029215366381379337 0.056680778682610435 0.09716058130430721
-0.004205539622475496 0.0565978087331142 0.09662168770651594
-0.005486765721022024 0.05651493512745194 0.0960849523600378
-0.006763273255769309 0.05643244964163246 0.09554920313897866
-0.00803606000803081 0.056350204585695673 0.09501501552738434
-0.009306104813222693 0.05626805397876468 0.0944829671680868
-0.00939913443325524 0.05636314409412668 0.09323596609512644
-0.008610955280447863 0.056591797365864616 0.09144334169802634
-0.007816355129153019 0.05682231338963457 0.08963611346551756
-0.007015255194273207 0.05705471502124342 0.08781410220979788
-0.006207575396502185 0.05728902549195205 0.0859771257995342
-0.00539223993343535 0.05752541989625681 0.08412437430434352
-0.004571148572336592 0.05776362053675156 0.08225690158684448
-0.0037432290045677497 0.058003802056946656 0.08037389894130745
-0.0029083956993073423 0.05824598926954604 0.07847517183824654
-0.0020665616912515228 0.058490207403400246 0.07656052248562334
-0.0012176385504172327 0.058736482112266945 0.07462974976016346
-0.00036050313219226915 0.05898499874827758 0.0726819775939335
0.0005028763069265807 0.05923546666865535 0.07071833289801244
0.0013736193479154113 0.05948807078312303 0.06873794064337113
0.002251820598395571 0.05974283853752108 0.06674058565722757
0.003138636901889147 0.059999962642486256 0.06472534411333097
0.004032051985905338 0.0602591433399932 0.06269339460813661
0.004934293880970497 0.06052074057344921 0.06064309181616068
0.0058433215567382235 0.06078444987296786 0.05857564112571473
0.005329874450958227 0.06082642320324128 0.05746224315163356
0.0040004740375384484 0.06074050773502998 0.0569044399420644
0.0026748238022561432 0.0606548346304535 0.05634821026994202
0.0013518421758725863 0.0605692349299773 0.05579428389273927
3.3649995852369496e-05 0.060484043958202456 0.055241181881725
-0.001280839302720993 0.06039909229301674 0.05468963356761408
-0.0025916413003908567 0.06031437892749437 0.05413963241294595
-0.0038987714904129556 0.0602299028603507 0.053591171916885616
-0.005202245279364914 0.06014566309590287 0.05304424561496712
-0.006371598118035782 0.060082472503748555 0.05240566380147188
-0.006057460812622095 0.060256151553480776 0.05070492806018345
-0.005752982043821686 0.060428998817925066 0.049002619859606356
-0.0054467514299303965 0.060602840574165324 0.04729051728043604
-0.011667332091133409 0.059727647749431984 0.05033388548634066
-0.012949176417314912 0.059644806105991745 0.0497960314816252
-0.01422847537936972 0.059562031548630184 0.04926040938189574
-0.015503227807725728 0.05947964836740739 0.04872552948402192
-0.01677445876095479 0.05939749276788743 0.04819212717988097
-0.018043173810694257 0.059315402753747 0.04766093960119888
-0.019307400656018936 0.05923369994099922 0.0471304745899343
-0.020568149524114843 0.05915222189845617 0.04660146892529088
-0.05541056827450552 0.05357837633531745 0.0716739663299191
-0.05513031291565995 0.05373719023659417 0.07011045982809372
-0.054848391184289635 0.05389694843070562 0.0685376568605211
-0.05456478817393373 0.0540576593647818 0.06695547426607423
-0.05427948879980188 0.054219331587006016 0.06536382788877088
-0.05399329687550447 0.05438183837084044 0.06376327390426062
-0.053704561978065335 0.05454545840987166 0.06215244939067299
-0.05341408438913964 0.05471006599581085 0.060531902566881846
-0.053121848283660345 0.05487567009639404 0.0589015451463335
-0.052827837644367936 0.05504227978826692 0.05726128777027245
-0.05253287149915431 0.05520976472791648 0.05561171169814261
-0.05223526626285413 0.055378412422517155 0.05395138822485185
-0.05193583728320994 0.05554809360067199 0.05228089018607751
-0.05163456774467673 0.055718817791456016 0.05060012376881684
-0.051331440624350244 0.05589059464145309 0.04890899400319776
-0.05102729070544948 0.056063290038294314 0.04720810840232914
-0.05072039994030314 0.05623720073160836 0.045495968903477346
-0.05041159927439692 0.05641219373892608 0.043773174093388656
-0.050100870822991195 0.0565882791952777 0.04203962419334972
-0.049788196477351665 0.05676546736263077 0.0402952181749518
-0.04947442734445834 0.056943620199646564 0.03854059104057034
-0.049157809537924424 0.057123044155800475 0.036774171545026324
-0.04883919015922422 0.05730360238171811 0.03499658522273108
-0.048523831446741994 0.05748439806616357 0.03321227584552933
-0.048198521897335755 0.05766770824401642 0.03140978235173714
-0.047869355843990435 0.057852497680150106 0.02959421074435936
-0.04754074734596897 0.05803801261578577 0.027769306430948215
-0.047212709666670294 0.058224255602649086 0.025935023116890332
-0.03933038319210985 0.05972405541432986 0.017409268320493443
-0.04042038740080628 0.059667939541832894 0.016780722062498254
-0.04150834522735597 0.059611929021701204 0.016153355841981354
-0.04259055004771156 0.059556673018523125 0.015523830849976439
-0.04366982616640358 0.05950168142409872 0.014894637003795286
-0.04474711102666168 0.05944679128886161 0.014266604016741069
-0.04582149337890079 0.05939216380311236 0.013638891978776713
-0.046894815978676285 0.05933747544846924 0.013013170163512555
-0.04793524637794311 0.059288358059500466 0.012360086080200061
-0.04819310378131203 0.059377796341839185 0.010984178781100695
-0.04810164224971403 0.059529732297614435 0.009277853976487616
-0.04691792045895121 0.05987695026238282 0.006540012943420326
-0.00012598722848755628 0.05574197826257082 0.09811704094354831
-0.0014185933435323927 0.05566009678711512 0.0975748551337984
-0.0027074075137709652 0.05557845551634217 0.09703425986161895
-0.003993428946911903 0.05549690953165066 0.09649583113542057
-0.005274704360869964 0.05541574593059718 0.09595839655177454
-0.006552237546204764 0.055334819384554326 0.09542253165641648
-0.007827013225147117 0.055253986250012356 0.09488881417522241
-0.009097106287674683 0.055173531123913856 0.09435606861757925
-0.008697975053180151 0.055339539572325236 0.09280779389593058
-0.00790546093892186 0.05556446331995737 0.09101005142241378
-0.007106478295751284 0.05579122290337448 0.0891976357095993
-0.006300947604598872 0.056019840890915676 0.08737036637608073
-0.005487796081214247 0.056250488018240716 0.08552744034229634
-0.0046689192160010995 0.056482893236267984 0.08366990322541637
-0.0038432477143032218 0.05671722683821692 0.08179695318128416
-0.003010696655992906 0.05695351292524582 0.07990839757740781
-0.0021711796999027144 0.057191776001818136 0.07800404055781107
-0.0013246090539681954 0.057432040984175245 0.07608368297531809
-0.00047089544463480015 0.05767433320902056 0.07414712232213713
0.0003910891962218832 0.05791883513533794 0.07219347847510757
0.001259369409034039 0.05816526091807304 0.07022388213731601
0.002135069690867464 0.0584137925835609 0.06823745420454508
0.0030193434045415746 0.05866461799617597 0.06623327879726831
0.0039101790499760924 0.05891744461378044 0.06421252531662569
0.004809798339558247 0.05917262342533337 0.062173562311138963
0.005716165123085926 0.0594298572984823 0.06011758576802989
0.006631532978758958 0.05968950383889219 0.05804292154249979
0.0055397642230873845 0.05964211165634078 0.05731959801343478
0.004209349710988908 0.05955782352641786 0.05676169534880404
0.002882690260406051 0.05947377329762703 0.0562053673503673
0.0015597699958923017 0.059389959964182705 0.05565060736083588
0.00024057313136466307 0.05930638252596086 0.055097408760395705
-0.0010759726140308623 0.05922287615934783 0.05454650315008641
-0.002387764576056106 0.05913976799313167 0.053996408100664695
-0.0036958799908670126 0.05905689275340935 0.053447854797506744
-0.005000334293172037 0.05897424946231973 0.052900836768125736
-0.006301142831404483 0.05889183714746759 0.05235534757621446
-0.007598320868323516 0.058809654841885606 0.05181138082139247
-0.008891883581611637 0.05872770158399644 0.05126893013895578
-0.009939630284414358 0.05868407578115883 0.050552151121073474
-0.009640930899635969 0.0588524969007119 0.048854771601002156
-0.00934463286294518 0.05902123666039833 0.0471506454711193
-0.00904973276555826 0.059190455859384795 0.04543900811708196
-0.015307996082567943 0.05832101997155024 0.048580683907109956
-0.016581168076897912 0.05824026354372923 0.048047942430156365
-0.01784982700962251 0.058159888451516484 0.04751593024510742
-0.01911498911576265 0.0580797348985658 0.046985384454412304
-0.05704748053252878 0.05213484701343454 0.0742580519077112
-0.05817913466765828 0.05206308653566156 0.07378428806815529
-0.059137780170898546 0.05201881044763315 0.07318162386051025
-0.05887108215725234 0.05217156431384392 0.07163711851615281
-0.05860281320669236 0.05232521794938266 0.07008351553926645
-0.058333755318832226 0.052479650682358166 0.06852135418588196
-0.05806230559191422 0.052635127107795616 0.06694931883180827
-0.05778924268973035 0.05279152750074857 0.06536794116359756
-0.05751455218921997 0.05294886012221519 0.06377713765359694
-0.05723821949487479 0.05310713333196709 0.06217682377544298
-0.05696022983614951 0.05326635559003066 0.060566913989087534
-0.05668056826482509 0.05342653545819534 0.05894732172555178
-0.05640003721590403 0.0535875474672815 0.05731862037447094
-0.05611698943466337 0.05374966784293352 0.05567940537134508
-0.05583222382677694 0.053912772132702215 0.05403024191613143
-0.05554572470631991 0.05407686932096399 0.052371039166921596
-0.05525747619581223 0.054241968501813384 0.05070170517243244
-0.05496746222328164 0.0544080788807438 0.04902214685501621
-0.05467650354277165 0.054575070652824145 0.04733296863311437
-0.05438291296713388 0.05474323063990654 0.04563268434505546
-0.053943170469660184 0.05493652578049438 0.04380013451424797
-0.052908639737209995 0.05523018138783558 0.04145285153416517
-0.05186213076530216 0.05552713727664303 0.039079607311894915
-0.05080430743869607 0.05582730371056633 0.03668070470752516
-0.04973585910641931 0.05613058587166202 0.03425647818774763
-0.05083276241169865 0.056069724853450895 0.033691244808178866
-0.05200869294988408 0.05599522524197691 0.0331981093631481
-0.05197174851787395 0.05612602407453413 0.03164746562459292
-0.051661216386969244 0.05630389322841432 0.02984899933496843
-0.05134608457672307 0.05648334040149274 0.028036775844673678
-0.05102805890421974 0.056664085047821194 0.026212182598562173
-0.05071240323860904 0.05684523545947884 0.024379817881196475
-0.04262488648726043 0.05835965272386583 0.015554681347364374
-0.043703098022645825 0.05830593062136366 0.014924687761928568
-0.044780246667579626 0.05825214883160573 0.014296688574633065
-0.045855410005186836 0.05819846616779792 0.013669846861168122
-0.046928593519133144 0.05814488235614219 0.01304415942444509
-0.04794070280175966 0.05810164477868559 0.012365118263338137
-0.04804013884416497 0.05821682432322486 0.010842369754491488
-0.048083387899085506 0.05834231734006642 0.009260842557559101
-0.04695568687310786 0.05867281773554678 0.006575391542389397
9.04737095487329e-05 0.05463525611241035 0.09799081692636724
-0.001203180221505451 0.05455495503855401 0.09744851057558937
-0.002494025431641511 0.05447474816566408 0.09690837912242431
-0.0037800969566626486 0.05439491787250286 0.09636924989321582
-0.005063383524477605 0.05431518053984541 0.09583228267967012
-0.006341939123013007 0.05423581689941603 0.0952963027205593
-0.007616763802215043 0.0541566848479347 0.09476188679036016
-0.008784617747514767 0.05409270812479056 0.09416633358144672
-0.007994179065038798 0.05431208593432362 0.09237801161733444
-0.007197302885414647 0.05453325040240561 0.09057512518683591
-0.006393910244618051 0.054756223444657845 0.08875749563839469
-0.005582931359346177 0.0549811714792751 0.08692432668419547
-0.00476625746121101 0.05520783005465538 0.08507665575129827
-0.003942822252245237 0.05543636515515895 0.08321368779763991
-0.003112541417244208 0.05566680018151447 0.08133523206561843
-0.0022753292332435837 0.05589915892515839 0.07944109461266752
-0.0014310985400148857 0.05613346557642349 0.07753107824450572
-0.0005797607098189106 0.05636974473293378 0.07560498244670175
0.00027980901303154004 0.05660817420803693 0.07366193462329815
0.0011456397653050732 0.05684847514035533 0.0717030566411268
0.002018852734538945 0.05709082491838775 0.06972747693945508
0.0028995427379586713 0.05733524985751745 0.06773498100132364
0.0037888682851399125 0.05758193482760844 0.06572464863317318
0.004684810423770669 0.05783059222366229 0.06369765321276927
0.00558960032142497 0.058081567357186115 0.06165235606756975
0.006502277724229344 0.0583347303662291 0.05958922904615466
0.007577903065651481 0.05861336277278352 0.0574033090423865
0.007851565150150841 0.058772532529486 0.055748453505611195
0.008130015114417688 0.058933065941826915 0.05408233217032826
0.008409990381434418 0.0590944787296091 0.052407084098318346
0.0017668548699538156 0.05820924687978647 0.05550751329813669
0.00044665708097851864 0.05812728697136788 0.05495421871729844
-0.0008698281998101298 0.05804555754116923 0.05440248004771153
-0.0021826166102572597 0.05796405761836901 0.05385229073555936
-0.003492771216428936 0.057882626479307316 0.05330438420096534
-0.0047982073848547024 0.05780158312763328 0.052757274560917666
-0.006099993096915335 0.057720766401535645 0.052211694830835875
-0.0073981436431628245 0.05764017535175493 0.05166763860243451
-0.008692674228870267 0.05755980903432608 0.051125099503166516
-0.009983599974633106 0.05747966651054041 0.05058407119597974
-0.011270935916946556 0.05739974684691083 0.05004454737906211
-0.01255570956988572 0.057319892448091 0.049507264907414916
-0.013483897065603323 0.057294993278540055 0.04871098402478469
-0.013200386221428273 0.05745824889452305 0.04701701403739289
-0.012911187391902779 0.05762307083212468 0.045310328617352735
-0.012627469138028646 0.05778772642798623 0.04359918195632745
-0.055740311821857624 0.05116831268761802 0.07460313039566963
-0.05687592481880682 0.05109774839231165 0.07412798798653991
-0.05800840996688705 0.051027378454110546 0.07365415427465749
-0.0591369931932772 0.050957325887465786 0.0731810207520602
-0.06026326510111818 0.05088734192237934 0.07270978795090155
-0.061385668272576466 0.050817673061944096 0.07223924400374573
-0.06228846378930458 0.05078247972716674 0.0716013431146589
-0.062031903111773035 0.05093109028189072 0.07005752452120562
-0.061774618880228005 0.051080448765448094 0.06850525966096704
-0.061515035815342345 0.0512308109798788 0.06694324222026776
-0.061253920002886264 0.05138206103082654 0.06537200161046475
-0.060991257827154366 0.051534206805123474 0.06379145590027019
-0.060727035510687866 0.05168725628329393 0.062201522185092784
-0.06046123911187645 0.051841217540948135 0.06060211657255066
-0.0601242045235999 0.05200731687295827 0.05893654140396948
-0.05915572760634458 0.05227605686608844 0.05674604578476561
-0.05817718978315234 0.052547588632315914 0.05453279446522552
-0.05718925414328763 0.05282182285830362 0.052297108781383383
-0.056190125256831314 0.05309906887897879 0.050037278525757956
-0.055181287222053454 0.05337910475393054 0.04775429724266245
-0.05416091039046911 0.05366224732653373 0.04544640205615241
-0.05312965091897992 0.05394840970375798 0.04311389244130259
-0.0520881896442979 0.05423750018491198 0.04075709829607277
-0.051034643371149824 0.05452984741160717 0.03837417372072294
-0.04996967804322472 0.05482536329742367 0.03596542137956371
-0.04948313012895422 0.05502675854345475 0.034038743725907206
-0.050663023419368125 0.05495351003300206 0.033544237298316015
-0.051840646332803164 0.05488031265679616 0.033051800194385805
-0.05301427382239304 0.05480745325040164 0.032559918349715944
-0.054184789214914875 0.05473478704461784 0.032069340823517145
-0.055353058934264565 0.05466217079636252 0.03158081782531913
-0.055393359213932125 0.05477781992646046 0.030093445096733562
-0.05509821624418709 0.05495019828706181 0.028299797976646945
-0.05479517070531875 0.05512467923185194 0.02648940045083148
-0.0544884619233178 0.05530056339314273 0.02466590447068806
-0.054185009006746054 0.05547669298874063 0.022835473677770723
-0.0458884034177815 0.057005163589953105 0.013699959148809782
-0.04696145163783477 0.056952683593099594 0.013074305160351962
-0.047806969239387764 0.05693861249013814 0.012241782576780769
-0.04788247524662104 0.05705556716638636 0.01069620474624583
-0.04794367625339291 0.05717549723654076 0.009130643823984153
-0.0469952864340773 0.05746864082010011 0.00661248738583059
0.00030618032113427507 0.05352714241129158 0.09786503277660863
-0.000988518130385363 0.053448425775594124 0.09732260651361024
-0.002279414224861942 0.0533699403201839 0.09678177328429927
-0.0035675094439658883 0.05329154672663763 0.09624311038922989
-0.004850846136858211 0.05321352099166813 0.09570544278362753
-0.0061314056205376 0.0531355859090727 0.09516993268137208
-0.007407249129966542 0.053058015867193435 0.09463540297381545
-0.008082512032125733 0.053065145594235995 0.09374003297787889
-0.0072877315689438005 0.053280761428160225 0.09194661016052583
-0.006486466005456992 0.053498136603665196 0.0901385537085074
-0.005678635642654528 0.053717292742279904 0.08831568378093296
-0.004863166170109456 0.053938393499792646 0.0864772005288201
-0.004041955570610878 0.05416117903234296 0.08462414479421068
-0.003213933027770066 0.054385812571278995 0.08275571795897604
-0.0023790134309683575 0.05461231720618911 0.0808717279716227
-0.0015371102457909513 0.054840716412922014 0.07897197956787205
-0.0006881354841293819 0.05507103406169783 0.07705627420319588
0.00016903231696246968 0.05530344336574427 0.07512374674206465
0.0010324268706631279 0.05553767239284083 0.07317551027518049
0.0019031660747936274 0.05577389393926106 0.0712107007179984
0.002781344047931067 0.056012133538294546 0.06922910569339769
0.003668115810606276 0.05625257125783221 0.06722981293138003
0.0045614671938830065 0.056494926654603594 0.06521398663946582
0.005463623032231968 0.056739536163942145 0.06318000197917134
0.006372544469171348 0.05698611494327239 0.06112904965432553
0.007290488255835448 0.05723500576798527 0.05905946227734665
0.007298633194362247 0.05735121694298245 0.05759205602737222
0.005962394810879013 0.05726996339127825 0.05703237011285145
0.004629937358810454 0.05718893974923355 0.056474267848383
0.003990074562821577 0.05720997108440162 0.05544438836291471
0.004253153096742679 0.0573648350463233 0.053789500256549494
0.004520916439220313 0.05752102306910709 0.05212336568779563
0.004789052566585239 0.05767790191913989 0.05044889456237783
-0.0019783011312936027 0.05678692219212911 0.05370875819618548
-0.003288396179289055 0.05670725861677483 0.053160019150377325
-0.0045948206409316406 0.056627818240522085 0.05261281754568142
-0.005898628440378029 0.05654844440406065 0.052067888597100265
-0.00719775283383689 0.05646944805586977 0.05152374301407192
-0.008493252621176839 0.056390672110477415 0.05098111561772156
-0.009785142950448689 0.05631211564677027 0.05044000006320343
-0.011073438885411013 0.05623377774876064 0.04990039004097774
-0.012358155406115956 0.056155657505550766 0.049362279276565724
-0.013639307409489487 0.0560777540112976 0.04882566153030654
-0.01491791355926464 0.05599991364901415 0.048291275369202136
-0.016191976030697552 0.05592244137744336 0.04775762550127777
-0.017005631754682393 0.05591497999347216 0.046882787055482655
-0.05556773935390169 0.050128724616959976 0.07447300014085362
-0.05670418843549763 0.05005955757686076 0.07399778709181967
-0.05783671407807539 0.049990702844413204 0.07352328019938839
-0.0589669163292193 0.04992191590037211 0.073050680585972
-0.06009322856007848 0.04985343902862995 0.07257877571492541
-0.06121723533684437 0.04978502905610068 0.07210876804818311
-0.062338161567715655 0.049716806573600524 0.07164004852327088
-0.06345524725545748 0.049648890851731936 0.07117200686941294
-0.06457005401358307 0.04958104071646425 0.07070584749329811
-0.0640783808751692 0.04976355376080216 0.06897195156102759
-0.0631520464093675 0.05001481091081229 0.06688228640634503
-0.06221709563445116 0.05026849508492026 0.0647720408514938
-0.06127182037953732 0.050524890156378496 0.06263964241759273
-0.060316852913574304 0.05078391412893383 0.06048537981694868
-0.05935284798210849 0.05104548075415441 0.05830956902301876
-0.05837805009031821 0.05130988397543896 0.05611056595785563
-0.05739391906147223 0.051576911002574936 0.05388933556185427
-0.056398666545820764 0.05184686279900535 0.0516441836831138
-0.05539294097910091 0.05211965530060013 0.0493754060510565
-0.05437741472398705 0.052395199895433606 0.047083327685274734
-0.05335024805489896 0.052673808569534616 0.04476617555758561
-0.05231209918093466 0.052955396056756115 0.042424249028323535
-0.051263651167537616 0.053239872353509826 0.040057878050875906
-0.05020301024396495 0.053527561098811134 0.037665205889196585
-0.04913084441497939 0.05381837586491412 0.035246534994213596
-0.0493132630379024 0.0539078083063243 0.03389239754896495
-0.05049398266469829 0.05383601278191573 0.03339783451797568
-0.051671561461276994 0.053764408240658604 0.03290458707321153
-0.05284601194336802 0.05369299392151415 0.03241264997226251
-0.054018205675563924 0.05362162904742543 0.031922773884915545
-0.055186432626041504 0.05355059327625641 0.031433442130161304
-0.05635156843164191 0.05347974546673524 0.03094540515405758
-0.057513625344974506 0.05340908487382383 0.030458657824391167
-0.0586734580406697 0.05333847221125024 0.029973951990858116
-0.05879151156935297 0.05343924577691467 0.028552369451991744
-0.058509806409097254 0.05360651119360221 0.02676204984222047
-0.05821952770772698 0.05377595357397032 0.024954277279688464
-0.057923991903114314 0.053947037407494174 0.02313190604453408
-0.057632572567783535 0.05411821489967906 0.021303438535495045
-0.047578577450055615 0.05591756847658791 0.010414470568967105
-0.047530251726605466 0.056053415296131205 0.008745369213913612
-0.04658502502659417 0.0563400802202299 0.006228165121407003
0.001822704103200401 0.05249527353021335 0.09828267158572723
0.0005231303038966684 0.05241791690151492 0.09773852358469595
-0.0007736145335703326 0.05234065161137113 0.09719656080320208
-0.002065551471638505 0.052263749677110914 0.09665560898224862
-0.0033536976013128217 0.05218707338892915 0.09611624442501379
-0.0046390506689402145 0.05211048664109069 0.09557904565682593
-0.0059196603138736426 0.05203425907082132 0.09504283527223664
-0.007196528862453977 0.05195825418721664 0.09450819134050942
-0.00737776692935177 0.05203372020441308 0.09331212980590775
-0.006578617552527255 0.05224554413766574 0.0915135803580048
-0.005772935070012586 0.052459099747360655 0.08970032763427971
-0.004959648179636789 0.05267454640972203 0.08787157855804997
-0.0041406505955144945 0.0528916308301368 0.08602836580341464
-0.003314874505247367 0.05311051196901902 0.08416989753483203
-0.0024822354047721595 0.053331212225110884 0.08229598356984938
-0.0016426473795406182 0.05355375437101932 0.08040643055161689
-0.0007960230749679553 0.05377816156104897 0.07850104188237897
5.8755698689405556e-05 0.05400460245329973 0.07657895982099097
0.0009197272111878818 0.05423281199065333 0.07464128874169715
0.0017880060902843997 0.05446295842224068 0.07268717196958657
0.0026636857627183597 0.05469506651180003 0.07071639924184453
0.0035479177812165474 0.05492931157314423 0.06872806614062849
0.004438692739179295 0.055165420268174496 0.06672332776607315
0.005338229174142561 0.05540372024009868 0.06470057299496462
0.006244493099264448 0.05564393387063166 0.06266098322024594
0.007159734791565897 0.05588639496098367 0.06060290517091815
0.008081895174638143 0.05613082151654795 0.05852754717424341
0.007511322030384016 0.05616156448664122 0.05744830841738513
0.006172969032337938 0.056081796611722835 0.05688925980968418
0.0048394932099187216 0.05600241105775303 0.05633105842510433
0.00350978720551659 0.05592324993162211 0.055774435110056586
0.0021838350554358454 0.05584431228296647 0.05521938318203762
0.0008616208859866248 0.055765597166780805 0.05466589599622157
0.0004260289696366715 0.055815620633339176 0.0534971275040399
0.0006775875455773961 0.05596607510641163 0.051842984501411726
0.0009337222137587031 0.056117812966724995 0.05017762783717633
0.0011923252752022995 0.05627053340852258 0.048502452191203804
-0.005696008887117909 0.05537502172090867 0.05192318616849839
-0.006997148098333517 0.055297470956096606 0.05137969381071433
-0.00829361841911641 0.05522028882259411 0.05083697823756095
-0.009586474655080612 0.05514332184463914 0.050295775556774225
-0.010875731897311447 0.05506656912382145 0.04975607945107402
-0.0121614051529913 0.054990029766725755 0.04921788363830287
-0.013443509345981708 0.054913702884897046 0.04868118187118209
-0.014722059317401226 0.05483758759480623 0.04814596793707021
-0.015997069826197696 0.054761683017816046 0.047612235657723156
-0.017269550755063534 0.05468583948112372 0.04708072528923374
-0.05539418458495954 0.049088159534320545 0.07434212917067806
-0.056531474762183564 0.049020392405179025 0.0738668452706249
-0.05766562916733081 0.048952812125690255 0.07339287183817972
-0.05879587211531023 0.04888553683152873 0.07291959908130743
-0.05992379758272831 0.04881832761370685 0.07244823006249959
-0.06104862590053517 0.048751302944431966 0.07197815536709615
-0.06216959258581101 0.04868457999642588 0.0715087643586155
-0.06328826852227215 0.04861792182844129 0.0710412620657147
-0.06425680454059646 0.0485738582890232 0.07045925512185891
-0.06333387061194184 0.048818446202004526 0.06838272346646784
-0.06240237773230506 0.04906538998326727 0.06628579651976574
-0.061460624167551936 0.04931496575818684 0.06416691631376459
-0.06050924098267402 0.049567093495747644 0.06202637013020518
-0.05954888159733235 0.04982168903286329 0.059864472272407376
-0.058577797297958034 0.050079038257306904 0.05767959397690098
-0.05759662882153449 0.05033905991209929 0.05547202692027653
-0.056606040109248246 0.05060166843901833 0.053242090985292145
-0.05560423311905177 0.05086716002684897 0.05098808241754388
-0.0545926939576577 0.051135322111572186 0.048710990694091516
-0.05356959031298186 0.05140645806794987 0.04640905957832625
-0.05253557918295931 0.05168048465178048 0.044082587175671706
-0.05149134228205343 0.05195731401610394 0.041731901911156444
-0.05043499367137172 0.0522372608269677 0.03935516481919038
-0.04936720015016227 0.052520240695462725 0.03695267719066214
-0.04828777470712231 0.052806303182138886 0.03452401825850848
-0.04914234589171412 0.05278785640381285 0.033745146714423246
-0.05032389719432229 0.05271751649441674 0.033250526930481916
-0.05150317227773116 0.05264722587992635 0.032757979650217206
-0.05267844259287058 0.05257726000377578 0.032265987718746225
-0.05385059328743996 0.05250747984403976 0.031775301723531824
-0.05501963676599031 0.052437884662253846 0.031285916471778474
-0.05618643699287251 0.052368337269372525 0.030798583992833306
-0.0573492988389428 0.052299110204234986 0.030311785025213478
-0.05850909030925033 0.05223006592358388 0.029826271382867198
-0.05966582354811628 0.05216120370444788 0.0293420379819212
-0.060820345763013595 0.052092387807450624 0.028859837995066306
-0.06197099463987532 0.05202388791249871 0.028378150182039652
-0.062165578808609734 0.05211035164483366 0.02702335703843911
-0.061892091481807465 0.052273401165309916 0.025231776944697082
-0.06161772591595133 0.05243733741436411 0.02342972763050133
-0.06133574038774564 0.05260326890012923 0.02161084747202696
-0.061053655336927526 0.052769976746980606 0.01978200338781444
0.0020409575235544875 0.05138319587536859 0.09815614069540096
0.0007393245313917496 0.05130730122606647 0.09761245509338595
-0.0005574724160286593 0.051231763940970086 0.09706978867300775
-0.0018514483305030471 0.051156315643850224 0.09652930286787825
-0.0031406316417371127 0.051081221956980144 0.09598982103298934
-0.0044260356491993 0.051006348410920783 0.09545192071536465
-0.00570865437586926 0.050931562101158324 0.09491618165967222
-0.006986544728232957 0.05085712632790068 0.09438142411020006
-0.006670367528007981 0.05099841013215129 0.09288261501184389
-0.005866821889877083 0.05120641198091076 0.09107891297293413
-0.005055706301805629 0.05141625194902298 0.08925983047879377
-0.004238910227252979 0.051627683241002906 0.08742639209034689
-0.003415368840617772 0.05184086058698465 0.08557781269598419
-0.0025849982386696446 0.052055805705692244 0.08371390396056297
-0.0017477131208499808 0.05227254067755437 0.0818344744123981
-0.0009034267600609991 0.05249108795226569 0.07993932937769385
-5.2050972719652755e-05 0.052711470356538566 0.0780282709133239
0.0008075373047530254 0.052933853616961936 0.07610043732946042
0.001673369192569163 0.05315797751788728 0.07415693670183765
0.0025465641846715292 0.05338400738657157 0.07219690838783632
0.0034272166067869647 0.05361196763959069 0.07022014065800436
0.004316483134499449 0.05384203055942502 0.06822572484694456
0.005212346933387291 0.05407392778807314 0.0662148199741654
0.006117035955282846 0.05430798122683145 0.06418580780558986
0.007029590730102564 0.054544069626204825 0.06213915453811775
0.007949024909335467 0.05478206699984173 0.06007535722036772
0.008877614711941706 0.05502230441161201 0.05799273350295725
0.007723150290793679 0.05497046112876579 0.05730514243495205
0.00638485856472043 0.05489249597971007 0.056745255595839095
0.005049275745731996 0.054814598852124266 0.0561876940866291
0.0037185548669734225 0.05473707488654973 0.055630972896187625
0.0023915927337539444 0.05465976989466807 0.055075824216747504
0.001068373443139925 0.054582682950020105 0.054522241395148885
-0.0002511188182160451 0.05450581313136573 0.05397021781571043
-0.0015668997747040336 0.054429159522647395 0.053419746899965315
-0.0028789850623890945 0.0543527212129526 0.052870822106405035
-0.003116591783560274 0.05442991293980883 0.051562894013532534
-0.002876403626643209 0.05457601636636359 0.049909541767824306
-0.002629628772540471 0.05472366782807983 0.04824348828719738
-0.008092740590452674 0.054048805758322084 0.05069194294973395
-0.009387594750980055 0.0539732831182996 0.050151397431646316
-0.010677814617666481 0.05389811899445449 0.04961161536484093
-0.011964445916988031 0.053823163929184105 0.04907333462683894
-0.013247503599804311 0.053748417051498805 0.04853654896273135
-0.014527002534043598 0.05367387749523978 0.04800125215231138
-0.015802957505265836 0.05359954439904728 0.04746743800982517
-0.05408077045381543 0.048112803416469375 0.07468899827780726
-0.05522124680869811 0.048046373429865855 0.07421172345093163
-0.05635937534269558 0.04798000954284584 0.07373636914223322
-0.05749357082826562 0.04791394549896566 0.07326172148756063
-0.058625436713003354 0.04784794668777447 0.07278898414571913
-0.059754188721528934 0.04778212944591439 0.0723175473515292
-0.060879057856876584 0.047716608831535196 0.07184680010434383
-0.062001624332433 0.04765115217020734 0.07137794805075032
-0.06312034093545571 0.047585990020320476 0.07090977430703421
-0.06351471521614349 0.047628527043198414 0.069875076752485
-0.06258587639709262 0.04786891599227153 0.06779073806649932
-0.061648400436349116 0.04811162608295374 0.06568587838858492
-0.06070057668758633 0.04835692888096478 0.0635589312144037
-0.05974303822503507 0.048604745908532414 0.06141018390787517
-0.05877644063313053 0.04885499462060022 0.059239951001570534
-0.05779902586973945 0.0491079562120296 0.05704659464351547
-0.05681225572774051 0.04936342707032121 0.05483107579644314
-0.05581433926046703 0.04962169510281362 0.052591706710922614
-0.054805925732386795 0.04988267985092396 0.050328781752370655
-0.05378768837051523 0.05014629650609316 0.048042624476900886
-0.05275778477526283 0.05041284351509582 0.04573146853790827
-0.05171687399881625 0.05068223926766008 0.04339561192551844
-0.05066563998658946 0.05095439762218602 0.04103538311895144
-0.049602186213388744 0.051229628167361374 0.0386489323614152
-0.048527181541623665 0.05150784817968698 0.03623656073032655
-0.0442583553427337 0.05228018559327954 0.03107077720523277
-0.04400449644243293 0.05243495154586525 0.029318717675392292
-0.050154511210705854 0.051597740006043065 0.033103825154330024
-0.05133374254748818 0.05152904251031692 0.03261046627907016
-0.05250983799009151 0.051460527699762754 0.03211841937809573
-0.05368367089396714 0.05139206051210861 0.03162843664736231
-0.054853527763017385 0.051323909248567855 0.03113899831673933
-0.05602028603524545 0.05125593849710229 0.030650856360111556
-0.05718395800523757 0.05118814754147757 0.030164005633737945
-0.05834540009442074 0.051120402751147105 0.029679199507874177
-0.059502931964991845 0.05105296960404765 0.02919491617630937
-0.06065741404781455 0.05098571412530734 0.028711908802132147
-0.06180885838009781 0.050918635613686786 0.028230172349266114
-0.06295810475822794 0.05085160184768023 0.027750461295183604
-0.06410350540356224 0.05078487552623811 0.027271251923637108
-0.06524590405040875 0.05071832408885852 0.026793298519413422
-0.0655149786775584 0.0507911728862746 0.025505523037145317
-0.06525211231454903 0.05094964408296349 0.023715009181908886
-0.06499090741511543 0.05110857582144888 0.021916401344953707
-0.0647214277453732 0.05126957173670139 0.020100251997721585
-0.06445024494765278 0.051431585156004246 0.01827262447526229
-0.0641806896560273 0.051594084180708905 0.01643661070791841
0.00225845115003398 0.05026972468847089 0.09803005029024678
0.0009567652180840214 0.05019556386005515 0.09748565975921664
-0.00034208346072550633 0.05012149084380027 0.09694345828911646
-0.0016361115022870965 0.05004776641625549 0.09640226896305762
-0.0029263383258431586 0.04997425855482674 0.09586266938503282
-0.004213763948907934 0.04990083677645504 0.09532523937849813
-0.005496433647686483 0.049827759573399535 0.09478879888485742
-0.006761718551106299 0.04975669898494383 0.09424569675212552
-0.0059602988043824245 0.049959193389582914 0.09245147947367424
-0.005152329340459838 0.05016334270863588 0.0906425986984816
-0.004336737340588648 0.050369299285843896 0.08881826455682088
-0.003515418998381592 0.050576820971464445 0.08697950497481466
-0.002687304989300643 0.05078605971145775 0.08512553131925851
-0.0018523106209646922 0.05099703690496288 0.08325615398167063
-0.0010103497878001244 0.051209774308189605 0.0813711801897175
-0.00016133494143244498 0.05142429404189846 0.07947041394094084
0.0006958537006591103 0.051640757318827474 0.07755300091848741
0.0015592518257286914 0.05185891074701799 0.07562004050536109
0.00242997564980435 0.052078915147908876 0.07367067944708508
0.003308118804961846 0.052300794179367706 0.07170470812182553
0.004194834490723165 0.052524715413614566 0.06972122569343964
0.005088110645884214 0.05275041754408508 0.06772138209892009
0.005990168910521343 0.05297821375743666 0.06570357277993966
0.00689897260605099 0.053207838656312345 0.06366897387725345
0.007816775162397593 0.053439611311546203 0.06161593882740696
0.008741514773528358 0.053673262143124886 0.059545670614296387
0.0146683314859537 0.05459452988977376 0.054100715835800006
0.007935208470329025 0.05377806494323647 0.057161821059666995
0.006595890554508155 0.0537017496462237 0.05660183418448461
0.005260368446767416 0.05362565063708615 0.05604343438777676
0.003928626033190719 0.05354976699764126 0.055486614932098444
0.0025995746377620588 0.05347394907070584 0.05493211031322215
0.0012753488263242962 0.053398493856301 0.05437843197139808
-4.5145113766409395e-05 0.0533232512862618 0.053826313979971674
-0.0013619229357916263 0.053248220462956346 0.053275749752264345
-0.0026750003044920256 0.05317340049379786 0.052726732738617665
-0.003984392796688163 0.05309879049120937 0.052179256426133414
-0.005290115901897874 0.053024389572588385 0.05163331433841689
-0.0065921850229452295 0.05295019686027233 0.05108890003532046
-0.006636921866852774 0.0530529243146211 0.04964083099275074
-0.006406911014297356 0.053194882339104466 0.047987551207727075
-0.006171483622998131 0.053338194050512246 0.04632234728993423
-0.011767277364963469 0.052655058019264664 0.04892863199767933
-0.01305128984035292 0.05258189454558249 0.04839176256100103
-0.014331739031742508 0.05250893410905494 0.04785638299942241
-0.01560863975137139 0.05243617586567545 0.04732248711967213
-0.05390600156292524 0.04706862461667336 0.07455792228279562
-0.0550481263663235 0.04700348693531758 0.07408117998970107
-0.05618629637424355 0.04693864389909538 0.07360515037475085
-0.05732212456633995 0.04687386523083277 0.07313103768876286
-0.05845482203159108 0.046809265114502896 0.07265823181773176
-0.059583615230389464 0.046744956476849425 0.07218612139840294
-0.06071009376574599 0.046680710944591884 0.07171591269120098
-0.061832701267143686 0.04661675480740038 0.07124638812040635
-0.06295301193968028 0.04655286094778779 0.07077875524677224
-0.0627691626453023 0.04667878404408256 0.06928817208917154
-0.06183437371842898 0.046914932014964085 0.0671959759614264
-0.06089086863941662 0.04715336582083569 0.06508313204282185
-0.05993692777753329 0.04739435241520073 0.06294806522156265
-0.05897398922119773 0.0476376968346934 0.0607917087121953
-0.05800030172417536 0.047883672304465504 0.058612439929229265
-0.057016506840026016 0.04813220112869077 0.05641054919266586
-0.056023269361048844 0.048383201501337764 0.05418635493283708
-0.05501878863824167 0.04863695648774017 0.05193815983781164
-0.05400371598021553 0.04889338724115996 0.04966625822816212
-0.05297872682795879 0.04915241063472405 0.04737097377697169
-0.05194196860840239 0.049414320127187286 0.045050529939181794
-0.05089496071672317 0.04967890737029042 0.042705944761432746
-0.049835814476048956 0.0499464730794222 0.04033538620054905
-0.048765197540476535 0.050216936560842904 0.03793915417447097
-0.04768292255171874 0.050490345145743847 0.035516829341864786
-0.04761448600475632 0.05061197410866911 0.033947005052023915
-0.048158149436516196 0.05064157247516704 0.03289722857038169
-0.04791190455928579 0.05079102443692465 0.031161548869425626
-0.04766775654351113 0.05094082117983121 0.029418689055267733
-0.04742483988131707 0.05109109676858081 0.027667860373451758
-0.053515717385429484 0.05027564083421759 0.03148066435443542
-0.05468639289483057 0.0502089361051569 0.030991172816391688
-0.05585396606196541 0.0501424081466027 0.03050297845270794
-0.05701929839453951 0.05007592581602822 0.0300168351101337
-0.05818069961562561 0.050009749641493996 0.029531219934056274
-0.05933903526557066 0.049943748141972555 0.02904688656121096
-0.06049431746594813 0.04987792062678145 0.028563829923220596
-0.06164739100112687 0.04981213733873918 0.028082804987785592
-0.06279659834370405 0.049746656073803235 0.027602286965310308
-0.06394278823865557 0.0496813467415396 0.027123030628071976
-0.06508679312683763 0.04961608060956283 0.026645791740308733
-0.06622697965707058 0.049551113452503945 0.026169044144330245
-0.06736418417782003 0.04948631620859103 0.025693543419621767
-0.06849922695475452 0.049421561158121345 0.025220046090823234
-0.06883998070092529 0.049481603347508944 0.023998745308695835
-0.06858841098953117 0.049635424578709675 0.022210088943632855
-0.06833690237805529 0.04978994723541062 0.02041183635075572
-0.06808136819605975 0.0499458242894522 0.01859999228836612
-0.06782094302392855 0.05010320274005 0.016773592281916938
-0.06756299533076149 0.050260919080828005 0.014939652120246949
0.0024771992327888293 0.04915512356621595 0.09790323262286166
0.0011734487167809893 0.049082437720279974 0.09735930596111106
-0.00012545291172399997 0.049010094370837205 0.09681639968307315
-0.001421525250204947 0.04893783648724482 0.09627567784648616
-0.002712792302390743 0.048865918457529425 0.09573596114551891
-0.004000269685171087 0.048794211496130106 0.09519782842966984
-0.005284953682154481 0.04872258831792809 0.09466186074333899
-0.0060533684921249 0.048717408234157704 0.09381806646758215
-0.005247545621161198 0.04891604782258796 0.09201871400040967
-0.004434134785036459 0.04911644231039533 0.09020402374536154
-0.0036150279168969957 0.049318355999101456 0.08837501553737853
-0.0027891586862309747 0.04952193664192689 0.08653090744789119
-0.0019564430031031588 0.049727204967435636 0.08467151170996753
-0.0011167953775667039 0.049934182049301334 0.08279663743054475
-0.00027012889039784715 0.050142889313520476 0.08090609052509387
0.0005846729792817751 0.05035348350310652 0.07899902398462877
0.0014456504660020353 0.050565717996521306 0.07707652855846983
0.002313916527404092 0.050779749153595614 0.07513775831467759
0.0031895641086594484 0.05099559988569684 0.07318250571394738
0.004073742954349924 0.05121343310174324 0.07120987767900133
0.004964445755496372 0.0514329944908774 0.06922101512653106
0.005863887876396245 0.05165458860760442 0.06721432705679342
0.00677003749757682 0.051877957166901995 0.06519098038898413
0.007685141597121303 0.05210341043014704 0.06314934251377663
0.008607143338047074 0.05233068604903332 0.06109060698676072
0.009538322128348875 0.052560100156638215 0.05901309827168688
0.01042021197383819 0.052783821882898055 0.05695593339151789
0.010638751678649694 0.05291926956102259 0.05533460773732257
0.01085730352622405 0.053055264338255574 0.05370569572044126
0.005470606630079422 0.05243526190595828 0.05589975866207386
0.00413784649566834 0.05236102262204532 0.05534284155970792
0.0028088549424472586 0.05228699326095845 0.05478749922476839
0.0014836160086313943 0.05221317293357179 0.0542337249873453
0.0001610503838606614 0.05213941605460442 0.053682255188098826
-0.001156725687868454 0.05206601155441059 0.05313159776624582
-0.00247079651272325 0.05199281344876702 0.05258248865117171
-0.003781177696064786 0.051919820868403285 0.052034921321884475
-0.005087884755743899 0.051847032948923545 0.051488889293960005
-0.006390933122713605 0.05177444883077245 0.05094438611928637
-0.0076903381416358885 0.05170206765920139 0.050401405385809284
-0.008986115071485279 0.051629888584234784 0.049859940717281226
-0.010279302009793156 0.051557769269923004 0.04932073242701934
-0.01013517100451139 0.05168457272344463 0.047730823934474365
-0.0099162437251894 0.051822291508699686 0.04607840774051147
-0.009689951344811043 0.05196160846497792 0.04441256558259099
-0.015414116238218756 0.051271575464202204 0.047177382743864626
-0.05373185353092158 0.04602322292400814 0.07442731192955748
-0.05487402021180349 0.04595961073836845 0.07394989324088719
-0.056013832766217186 0.04589606203457528 0.07347439813903336
-0.057149702628109034 0.04583280063915062 0.07299961018704304
-0.058283236655944926 0.045769601893040676 0.07252673558816577
-0.05941364893326112 0.045706577196158005 0.0720551632849809
-0.06054016886326602 0.045643836722883635 0.07158428098907221
-0.06166438000685165 0.04558115767002486 0.07111529688522478
-0.06278473191509021 0.04551876081089952 0.07064699152835341
-0.06202012252750688 0.04572459833571576 0.06869852200232796
-0.06108012535558166 0.04595635044420285 0.06659904083827739
-0.06012975714645896 0.04619057732575909 0.06447753743549817
-0.059169651778931076 0.046427204018499535 0.06233429781025762
-0.05820046567551229 0.04666615167779506 0.060169635055128456
-0.05722043825172002 0.04690768877163014 0.05798191753403198
-0.05623103326733625 0.04715162085421408 0.055772102236487875
-0.05523045718390851 0.04739822279924214 0.053538507805051316
-0.05421936009391265 0.04764741775117526 0.05128142724176332
-0.05319841608789461 0.04789912470193083 0.0490011826400617
-0.05216578009765305 0.04815362858276806 0.04669601432378251
-0.05112211201774258 0.048410851436865625 0.044366218913391486
-0.0500680966727437 0.04867071098177902 0.04201212341468008
-0.04900183478868392 0.04893350278098653 0.039631885038255876
-0.047923996084917875 0.04919914781290965 0.03722580348848875
-0.04683439099127984 0.04946769279917077 0.03479345558398855
-0.04744220465543025 0.04948710785025681 0.03379935871035378
-0.04863030165138921 0.04942084676616183 0.03330400348572082
-0.04981434592910827 0.049354892543762005 0.03280921488062177
-0.0509952341038406 0.04928911412418036 0.03231574514829466
-0.05152330580302561 0.049320168681029855 0.03125497368655439
-0.05128693496659198 0.04946534839684493 0.029519691396297565
-0.051052674985512525 0.04961086131257005 0.027777264348969377
-0.05082055198822916 0.04975670575280017 0.026027684682266794
-0.05685362223009416 0.04896270702369642 0.029868756004597263
-0.0580158319551064 0.048897969146522564 0.029383090151322955
-0.059175814192175324 0.04883327530245744 0.028899467163773562
-0.060331893428161254 0.0487688790138248 0.028416361661479372
-0.061484927643384424 0.04870465233989667 0.02793452862063106
-0.06263492885253596 0.048640594611426946 0.02745396302049735
-0.0637827344427217 0.04857657956157083 0.02697542112408885
-0.06492670139493356 0.04851285805962609 0.026497375684362112
-0.0660676710263563 0.048449303515113125 0.02602058277689212
-0.06720646847736367 0.04838579065628817 0.02554579943486246
-0.06834147471725455 0.04832256838956979 0.025071497093310968
-0.06947351876397473 0.048259511123326174 0.02459843260850736
-0.07060341367789469 0.04819649456917728 0.02412736374817437
-0.07172956409315723 0.0481337656935898 0.023656760696390555
-0.07214085049111918 0.04818153841569527 0.022502903486607218
-0.07190042044273465 0.04833077297349487 0.02071612496086145
-0.0716584963802192 0.048480934863577275 0.01891824352810506
-0.07141748417230814 0.04863165509622576 0.017111518350489408
-0.07116768081335206 0.048784455462257265 0.015286370818304584
-0.07092118064814601 0.04893745419504672 0.013454530789100472
0.004002853044310473 0.04811029084440129 0.0983231025741505
0.0026951860790927484 0.04803913030466016 0.09777685627697211
0.001391381774121181 0.04796817996292858 0.09723222351277847
9.042304819506519e-05 0.04789731386876858 0.09668978366020842
-0.0012057022530480577 0.04782678150656136 0.09614835713545838
-0.002499006194564779 0.047756332281651444 0.09560911045114762
-0.003787520144450829 0.047686214216244645 0.09507086192306921
-0.005072255929491731 0.047616301750175484 0.09453419164068794
-0.005342346315263646 0.04767419695375277 0.09338882302791188
-0.00453110538513013 0.04786907598166815 0.0915837098431353
-0.003714198508656008 0.04806542887326046 0.08976438518742666
-0.0028905623322593166 0.04826339922890149 0.08793007377900738
-0.002060113362774285 0.04846300711712676 0.08608058967112969
-0.0012227667200538361 0.048664272939848534 0.08421574382811459
-0.00037843610804938477 0.048867217439307255 0.08233534406094312
0.00047296621483711165 0.0490718617051976 0.08043919496122898
