# .PCD v0.7 - Point Cloud Data file format
VERSION 0.7
FIELDS x y z
SIZE 4 4 4
TYPE F F F
COUNT 1 1 1
WIDTH 769
HEIGHT 1
VIEWPOINT 0 0 0 1 0 0 0
POINTS 769
DATA ascii
0.037755143179166346 0.015245986175631887 0.007864313320293415
0.03771331986602773 0.016461444933981217 0.0072486224672212995
0.03766834124602436 0.017705712354253278 0.006661431196136547
0.03758441616114733 0.01932492960663118 0.006402942696721814
0.03747941802061597 0.021144018762644046 0.006325889109281335
0.03737862874878105 0.022918060462558287 0.006218708755117375
0.037275623710417795 0.024709082209981914 0.006135415482803608
0.03718151529808026 0.026410361529708104 0.005981912365610964
0.03707676033459983 0.028209492080682075 0.0059238021048493295
0.03697697471615445 0.02995668510169569 0.0058286327935637705
0.0368613385590384 0.03185060729154576 0.005874234173089465
0.036772196143703126 0.03348774075600558 0.005698288013450792
0.03667640123996965 0.035184146235525626 0.0055841768713496
0.03656702061433688 0.037005002122989905 0.005592287358112125
0.0364757412501924 0.03865027470097954 0.005449194993178086
0.03639289734625969 0.040212176331361205 0.005237482854390685
0.032117164729662084 0.08117639579102398 0.041561947903567986
0.03197620930997903 0.08318626171516702 0.041973561887844846
0.0319744931641143 0.08388744688394162 0.0411720947316086
0.03256327357204683 0.07907687334034558 0.03518058168228544
0.03269200510176748 0.07857576206982864 0.03321431872354946
0.03282693717162246 0.07802255722945406 0.0311866655617416
0.032996512178984604 0.07715400474875905 0.028844975673046613
0.033215673666533344 0.07583412938057066 0.026053723573536136
0.033504177467469344 0.07388383431703044 0.02263294571772928
0.03399778766155919 0.07005781055315358 0.017363239797438867
0.0358631896087076 -0.009372255048429479 0.050252236364757674
0.03583387724005245 -0.008257275895007132 0.04952728656598382
0.03583641094589173 -0.007490625622116054 0.0485614327438913
0.03586836714527739 -0.007043830365494663 0.04737066661032524
0.035928680912311 -0.006903376289796315 0.0459608203759268
0.03599983231766746 -0.0068776265400709025 0.04446441906993215
0.036061102553061115 -0.006741922730486349 0.04304053081085524
0.03610549455686301 -0.006421449768245546 0.04174413327507209
0.036164854211952584 -0.006260122156410586 0.040329065527993146
0.036230002730739286 -0.006158346704205453 0.03886571921199178
0.03629060435863604 -0.006004941596979896 0.03743450860148734
0.036334313183776494 -0.005668137527124639 0.03613272181070043
0.03638669397667765 -0.005421972884499859 0.034760313133321674
0.036425293382366344 -0.005026669325516819 0.03349406293405921
0.03646271554261074 -0.004617139225773004 0.032235109349530444
0.03650263323431484 -0.004232425143496643 0.030954322618772512
0.03653684276105456 -0.0037855104337709555 0.02971699574274017
0.036567000221068256 -0.00329427069698518 0.028510316559924143
0.036591183178006845 -0.0027387081928482715 0.02735005470616203
0.036622383097895714 -0.0022558940804344174 0.026131942207892778
0.036631488638106016 -0.0015397474919071619 0.02509089710660678
0.036649713377531215 -0.0009187295413673469 0.023975367224019162
0.03667177685098856 -0.0003370329898563784 0.022827621185458224
0.036679951274778314 0.0003905269514005161 0.02179215509072835
0.03668908546793416 0.0011084585912717881 0.020748392396081894
0.036696523622696514 0.0018444123991739891 0.019718089954516127
0.036696310991578766 0.002659997307578821 0.018750492358945103
0.03670481534501362 0.0033854133582487123 0.01771078473029042
0.03669567318160298 0.004293332517917969 0.016817095016570083
0.036686535571145464 0.0052007995185630596 0.01592385037533217
0.03667708399956334 0.006111087862108733 0.015033710960125124
0.03665989256558253 0.007100324100200894 0.014208925575314169
0.03665257514177605 0.00798776602677842 0.013302050209939686
0.03663201728305457 0.009010068032601348 0.01250720662607896
0.03660926102041097 0.01005385562252481 0.011732044444465795
0.036588857366451503 0.011072718652871794 0.010938122671309891
0.03656615467833729 0.012113997388106867 0.010164846799509297
0.03654748567945084 0.013113443491208687 0.00935833148434756
0.03651567637975414 0.014244767813714365 0.008665338843045656
0.03648182144431903 0.015395295862089153 0.007991600007293986
0.03642591985421564 0.0167659981723004 0.0075096268106322195
0.03632972718281332 0.018538448708989685 0.00737886138001248
0.03623000049567682 0.020342012232048068 0.007283817350798416
0.03612113756286555 0.022232410615463605 0.0072734934136649
0.03602183432571331 0.02402270968304837 0.0071855343322864695
0.03592103873132302 0.025823446617570467 0.007115878319009394
0.03582819987448761 0.027540769914958407 0.006981722735697804
0.03573190929150603 0.029288148576370687 0.006882853821340684
0.03563823981436841 0.031005368708778624 0.0067659319047355115
0.03553917784048415 0.032771581303685904 0.006701708002893103
0.03543006112264729 0.03463227243355482 0.0067320158013948195
0.035341612507495325 0.036285351651096365 0.006583984784997887
0.0352422298508104 0.03804154146608951 0.006538311628947191
0.03514954661801773 0.03972789457765552 0.006437859089975018
0.03506375270749699 0.041343005999253724 0.006280389675342446
0.030906414767122133 0.08253924968147769 0.04282540716298244
0.030879900619457563 0.08348148455057641 0.04224868315734581
0.030904454667222494 0.0839283055450179 0.04121037014864837
0.03150640060868233 0.07880100846598914 0.034920810850528616
0.03162656713501949 0.07834170434740673 0.032992767135103185
0.03176476598642032 0.07771440926715167 0.03089346295177081
0.03193529787338378 0.0767831877731967 0.02849030649863865
0.03216080715997126 0.07533354704297235 0.02557244847917478
0.03245149220072632 0.07327179931296746 0.022041456418846028
0.03296482434221991 0.06910270172268679 0.016435395622389104
0.034669018090922585 -0.010649646840830973 0.050868020093938704
0.034555323885882866 -0.008565357994859135 0.05080979603019925
0.034553176606603966 -0.00774779856838359 0.04988127863274355
0.03457006864063209 -0.007145220537508046 0.04880275055525457
0.03460909085662384 -0.006791126084338295 0.047548192545531165
0.03467393094926097 -0.006725442103728718 0.04608650837270756
0.03474108616631725 -0.006682750771078438 0.044602831152518285
0.03480246149370505 -0.0065722734756513135 0.04316168728531261
0.03484270506143709 -0.006222905082879149 0.041886703262253466
0.034926064451015995 -0.006352366961812794 0.04026246418175816
0.03499560230481176 -0.006324229035900464 0.03874529598309895
0.035037297502657036 -0.0059837720849806875 0.03744996076159979
0.035086034117091026 -0.005719417261298321 0.036095087536984705
0.03512643225107946 -0.005360628678545587 0.034805579180192725
0.035161364323575264 -0.004939674147905693 0.033558606135042746
0.03519768239354171 -0.004532376692793716 0.03229833784116837
0.035239454761623226 -0.00418334266531839 0.0309911343647164
0.03526891712881931 -0.0036974130965604646 0.02978342662531902
0.03529863250276998 -0.0032128991892100833 0.028572007947016642
0.035319116356146554 -0.0026262223208848856 0.02743579640072713
0.03533472446935251 -0.001985478874616864 0.02633917775141753
0.035346669380419 -0.0013041886280599768 0.025272393993152897
0.03537569758453348 -0.0008077052574412269 0.024061371849457502
0.03538848916073597 -0.00013409292671429096 0.022985674146722146
0.03540508083354427 0.0004990497862577548 0.02187712883906945
0.035417586053631434 0.0011770112372431196 0.020802357639379265
0.03542302136324071 0.001931606824137344 0.019787098353906907
0.03542179049679731 0.002758015428548033 0.018828482644542288
0.03541912399301582 0.0035997465763779046 0.017882236451694677
0.03541717562947771 0.004433678814078523 0.016929962670943488
0.035408257158155196 0.005341867830433722 0.01603790467867361
0.03540016265993873 0.006240877430087666 0.015139206312916265
0.03538572476490046 0.007206885598228796 0.014296002467852953
0.03537631061786367 0.008118991360571925 0.013409852230833852
0.03535739522101041 0.009131136927718497 0.012607194255184306
0.03534483020641956 0.010075406980719848 0.011749937824836576
0.035325846441667384 0.011086681225910111 0.010949776924889021
0.035307494460341135 0.01209044651273744 0.010145085363450435
0.03528682037712785 0.013117711299689305 0.009361931674249035
0.03524625565537887 0.014352079558726694 0.008756340793352635
0.035167629409219574 0.01598182864452108 0.008491619633800296
0.03507466488974157 0.017757285316308047 0.008359166900239356
0.03497249005908029 0.019624177651413555 0.008314253099172053
0.03486484658293038 0.02154307773588421 0.008324035830335308
0.03477525314723296 0.023270307055081985 0.008177134078865
0.03466950632288669 0.02516015956755463 0.008181068133340519
0.034570065758654296 0.026980207886004137 0.00813364362236163
0.03448557552525531 0.02864205832959954 0.007955777417080478
0.03438679914769067 0.03044650852049502 0.007912771212889858
0.034294835000175425 0.03217673266017457 0.007812881023264884
0.03419905870062776 0.033941646226819056 0.007752984223211745
0.03410581250691408 0.035676394907185494 0.007675055164310718
0.0340163835934801 0.037368073464436435 0.007567011042472815
0.03392657563235464 0.039059488997669756 0.007467367606351194
0.033845010562410065 0.040663400356158064 0.007296140390101846
0.029856115426640857 0.08169838463663531 0.043498104233224644
0.029783065693965324 0.08311936116231339 0.043363210440533484
0.029781398036386596 0.08381983590142678 0.042563996331731135
0.03033435995840935 0.07896081971407748 0.03655695886213839
0.030442985547588383 0.07857086451336781 0.03470409358266613
0.03056055846790323 0.07809662253709765 0.03276078049192671
0.030707921449625267 0.0773312251336089 0.030528863445802967
0.03088031310812648 0.07632401318839505 0.02805112736265858
0.03110684684142869 0.07478822956280717 0.02504816364925644
0.03140784907837267 0.07252665771549821 0.02132132882739124
0.033297973671293606 -0.009085065909781809 0.05194317809103788
0.03326445313896697 -0.007898413967862838 0.05127064924207275
0.033253200838896727 -0.006974521791080268 0.05041856225724517
0.033291019701213516 -0.006625507924588825 0.04916584856006828
0.03335502862167739 -0.006580605584540766 0.04769608419033072
0.03342013625912053 -0.006545462908855992 0.04621364090860042
0.03348939611739912 -0.006555522402425185 0.044693196151523784
0.03353957471581403 -0.006340768851519074 0.04332701827537205
0.03360712879333126 -0.006324925268117454 0.04181344522974889
0.033671014692164984 -0.006263455758225955 0.0403266588005024
0.033727524245249135 -0.006113838845487829 0.03889803012681525
0.033773197373753734 -0.005836762617488722 0.03755726620067934
0.033817637070058505 -0.00554333955886227 0.03622431158290851
0.033856362773447994 -0.005182282714467912 0.03493718096996817
0.03389605381369201 -0.004830427761794376 0.03363965786495238
0.033929396002786105 -0.004404188000297016 0.03239395997304911
0.03396290163171908 -0.003978223049597496 0.031144973343144977
0.033998629067711714 -0.0035759268930569688 0.029875034762390673
0.03402049405097312 -0.0030146299374659846 0.028722324633014773
0.03404435206780747 -0.00247485975631051 0.027551171596549906
0.034056637715518555 -0.0018031909081000497 0.026478876083596115
0.03407572264851043 -0.0012076041602190335 0.02534681187632143
0.03410320709797843 -0.0007056196201472575 0.02414045218618538
0.0341160285834646 -3.768861824199332e-05 0.02306075540645769
0.03412856350000619 0.0006340636807410927 0.02198284515589699
0.034135871529119614 0.0013648521724380913 0.020950227517125164
0.03413843991352165 0.0021488675184342387 0.01995904514266833
0.03414367673484525 0.002903297682599948 0.018944079640362543
0.03414239199721812 0.0037304258846120875 0.017986770876789238
0.03414081093024626 0.004560777818175765 0.017032176751598238
0.03413419202136201 0.005446780523389372 0.016122727040072393
0.03412155413650646 0.006398903642993836 0.015267652911466922
0.03411208184523109 0.0073155595655734484 0.014384805566111603
0.034096996286862864 0.008293454686254087 0.013553174366906007
0.034082810293618156 0.009260766660379727 0.012714252049258024
0.03407454055216823 0.010162664853995806 0.011822384873488578
0.0340587998224417 0.011145742409010229 0.010999073702096351
0.0340453333654425 0.012103292645130548 0.010155864639656509
0.033990007001608744 0.013515262289800711 0.00969728470498199
0.03391729778147617 0.015113153480606267 0.00940174219055595
0.03381841075025493 0.016990916239019327 0.0093518674790537
0.033714412747237354 0.018919167147188165 0.009354907825644299
0.033612297403419 0.020822179141567476 0.009346371354851835
0.03352232130265082 0.022589807868260314 0.009230587585591588
0.0334245842062025 0.024436413973141446 0.00919240070677746
0.033330899500783884 0.026234988077799393 0.0091217936388297
0.03324007990693552 0.027998500442159457 0.009029578568594432
0.03315581005035684 0.02968788946803036 0.008880781900414358
0.03305500771236635 0.03154905543348496 0.00889306429975234
0.032969552989576406 0.03324259649811867 0.008765535587795137
0.032877848418556954 0.034998225598269206 0.00870229631379077
0.03278811064865225 0.03672871583518472 0.00862549927521633
0.03271554726018955 0.03827395414664991 0.008389479475535255
0.03261343247900642 0.040126438817951526 0.008441146776713926
0.028832960666334586 0.08056049207455185 0.04389978810644379
0.028692909771024865 0.08271273381094396 0.04443358700317873
0.02869346804387266 0.08338999416747028 0.0436141059124977
0.02873281514981806 0.08366315166748456 0.04241798077680853
0.029285555367562093 0.07860151313821734 0.03622036990699379
0.029385351564726176 0.078263716788665 0.03441486494198154
0.029509728557226216 0.07767632762158161 0.03236294263429129
0.029652743274276416 0.07690245437657567 0.030120888280435076
0.029833850158474944 0.07574305380928043 0.027495466710535266
0.030056034506966634 0.07417016998082371 0.024453942335628864
0.030360735334092313 0.0717619015158728 0.020582245083485662
0.03197986267100926 -0.008047434869404568 0.05265622356371885
0.03197275181547001 -0.007170030336964006 0.05177395674229879
0.03198841767506575 -0.0065703787717542594 0.05069936656963253
0.03202999762419446 -0.0062849239154527115 0.04940379812014495
0.03210177586480491 -0.006363709951260177 0.04784845439411173
0.03216540407583006 -0.006340290814563332 0.04635856903054353
0.032232028448267155 -0.006349920025136291 0.04483922688955394
0.03229369562050683 -0.006296493197465447 0.04335863817179625
0.03235062344593875 -0.00618299895242258 0.04191535899985038
0.032410618700591726 -0.006103517786520296 0.040442135265846835
0.03246192904076945 -0.005917012844636083 0.03904091726285863
0.03249052566733428 -0.00545639065447151 0.03783490792370331
0.032549362577780454 -0.005355179739306604 0.03636240273154495
0.032588207081861054 -0.005013005701679396 0.03506209076922845
0.03262255320115262 -0.004615458957766938 0.033799146754652065
0.03266946297859281 -0.004365190956784726 0.03242304980673211
0.032697861864577724 -0.0038935632003201937 0.031208467975818388
0.0327224450669915 -0.0033754744158530636 0.03002618831656434
0.0327471596637732 -0.0028577184083460883 0.028841286218258877
0.03277966612903663 -0.002430364042120159 0.027585088243831823
0.03278789741677918 -0.0017165535885069194 0.02654527156410491
0.032809204521767305 -0.0011554465888037324 0.025386999081544626
0.0328237091562751 -0.0005138011307077028 0.024289043735920446
0.03284059998793659 0.00010073847519093126 0.023168564664155067
0.03285047680789075 0.0007977231667138929 0.02211099104524117
0.03285836351974938 0.0015183024646461818 0.021071024823124895
0.032862260728073446 0.0022854934109211023 0.02006717510419337
0.032865207994816945 0.0030638594294903343 0.019071834088766948
0.03286340143188287 0.00389721315962277 0.01812018915806629
0.03285579724992714 0.004797217765141415 0.017222323655157856
0.03284534726953951 0.00572953588271552 0.016351335806989553
0.03283822607143333 0.006623182097928171 0.01544995050734227
0.032835093683927924 0.007470854232312307 0.014511704801232539
0.03282171679979702 0.008435289532864265 0.013669692128180089
0.03281792387421051 0.009289920878212399 0.012738329823242023
0.03280920356048943 0.01020035617858972 0.011853678665818046
0.03278590906135832 0.011275611141914998 0.011107471521692891
0.032739419224918964 0.012612143477878424 0.010582841228670148
0.032651338228368645 0.014415906107599907 0.010457020171719567
0.032550200145708516 0.0163623942101907 0.010461115850846525
0.03245719669293436 0.018212450666937607 0.010393226370777775
0.032364723189803525 0.02005196518443253 0.010325723736495485
0.03227653471542766 0.021838956744326954 0.01022235919857395
0.03216540151752283 0.02387777806197261 0.01034607244680985
0.032091797328608465 0.025493000529845156 0.010112313849887422
0.031996974511724376 0.027340451929615872 0.010089332206485002
0.031922074907743986 0.0289622390242249 0.009877514728127812
0.03182682415056591 0.030805541801501857 0.00986930994651275
0.031742159683768915 0.03252724184417022 0.0097627863732625
0.031657150443770335 0.03424855408418381 0.009664646766074925
0.031569787517111855 0.035991535897036964 0.009594762613314767
0.03148212018278331 0.03773353671474006 0.009533041894627392
0.03139641349698671 0.039449747364765975 0.009457007239559667
0.03133293601601984 0.04091901477954929 0.00916451161883769
0.027632427147378038 0.08200548156288934 0.045225496000619814
0.027609928081482004 0.08293316592078648 0.04463688041911584
0.027635317619762456 0.08334042672846631 0.04356815357786259
0.02813970926094016 0.07856641565248679 0.037668280397686826
0.028228796468494154 0.07830043201767489 0.03593832504238381
0.028331939592149517 0.07788747137983021 0.034060569775415495
0.028460061494216534 0.07721120726807562 0.03192267442716196
0.028607995154384735 0.0763288855203555 0.029575137764082937
0.028787062254531214 0.0751208809460413 0.02690038726963162
0.029014555062981135 0.07340497529519874 0.02371826082852596
0.0293443371195994 0.07061130917458863 0.0194702774631631
0.0307204633063024 -0.0084633419462124 0.05385453475338203
0.03068835535158537 -0.00726513249873284 0.053193810779722406
0.0306843896166261 -0.006425756383554804 0.0522882443315526
0.030710184727642864 -0.005963544924922348 0.05112100331133684
0.03077455927322737 -0.005987674964450074 0.049611471582340916
0.030843384245516484 -0.006064636399741752 0.04805855494359934
0.030910330768205135 -0.006114410480631327 0.04651812489555168
0.030969927120111786 -0.006068398211051318 0.045039179988139944
0.031034426396714148 -0.006080793082501257 0.04351268224279692
0.031081672792521244 -0.005874002088574137 0.04213724189818929
0.03114193232825737 -0.005827268177870604 0.040641589584604676
0.031190397502191353 -0.005630470252367681 0.03924893471509827
0.031229189087441718 -0.00531088972368321 0.03794111224936242
0.03127613522618551 -0.005090506037145837 0.03655664765304428
0.031318462688499006 -0.00481051283689693 0.03521151058692834
0.03134920379581339 -0.004385161246490243 0.033970008406740526
0.03138144780319588 -0.003976762743153783 0.03271279698947899
0.031413848553547105 -0.003568635093112227 0.03145216284611335
0.031448760860799015 -0.0031896848740658457 0.03016628511737074
0.03147386235514803 -0.0026887083574455017 0.028969420222615727
0.03149700567287115 -0.0021624940404924575 0.027789270461293814
0.031515908565749186 -0.001583341492411794 0.02664736010090696
0.03153028264790656 -0.0009480658861261149 0.025546784850571047
0.03154139058112946 -0.0002723605435622223 0.024476074855050933
0.031558431912572286 0.0003319652993461486 0.02334864779426038
0.0315726622938507 0.0009711818670445349 0.022246809744816465
0.031582886875486035 0.0016595001078058558 0.021182176751984305
0.03158571801409753 0.0024374296206663426 0.020187422114965214
0.03158717941222938 0.0032319738587870406 0.019205597989091827
0.03157822998034555 0.004151500655278473 0.018323601515899512
0.031575491324314836 0.0049962110829955275 0.01738235569293084
0.03156344711264728 0.0059519486734940785 0.016531157400206886
0.03156508888590987 0.00674392041005184 0.015548088838624408
0.031556243132140165 0.007660725580364791 0.014666858395439186
0.031559890167761916 0.00842879551122322 0.013664357364310376
0.031552049866507496 0.00933310400590609 0.012773993695803731
0.03153219316152354 0.010379017430672266 0.012002014529973959
0.031460082019175016 0.012040101511747614 0.011745569922251897
0.03140111347137466 0.013542836007336356 0.011363784988357661
0.031299076548083817 0.015548191868683614 0.011412156499990112
0.03119885904343094 0.017526986196032157 0.01144870619487598
0.03110308920572171 0.019448636956264864 0.011447075982105426
0.031021819921264928 0.021196234526479063 0.011306370634970198
0.030929934686133594 0.023063200086148705 0.011277085681770105
0.030842684882416097 0.02487161326456755 0.011206812978955982
0.030755059946607117 0.02667988625788742 0.01114567146812323
0.030678095435221205 0.02836041094323638 0.010982034115225192
0.03059534356224317 0.030103735268368126 0.010881849245826858
0.03050886078213651 0.03188574444464887 0.010824714931710278
0.03043583566644522 0.033508763932923236 0.01063547425367567
0.030347299692860173 0.03530575001262842 0.010609554070924121
0.030277226962342422 0.03688710817097057 0.010399413569917249
0.030193532283895794 0.0386202413323955 0.010333903280495937
0.030110216036287652 0.04034476384393415 0.01026961183054953
0.02656169406915368 0.08141257674748248 0.04612199789617849
0.02652441220057223 0.08251789613069721 0.045695611611973164
0.026542652954191972 0.08299369150973929 0.04469270017886806
0.027003497630344674 0.07847877638953632 0.039061069852356134
0.027086331356931555 0.07824101460424904 0.03736503591809037
0.02717663765200646 0.07792362165737632 0.03558533899819116
0.027282531894444916 0.07743627537899384 0.03363569663373639
0.027410699427476117 0.07670546897620584 0.03144395855738835
0.027556613043929236 0.07578339592787942 0.02905610465973396
0.027742860087411128 0.07442017149303909 0.026230191217739673
0.027963964059957245 0.07267968457085561 0.02302094421209183
0.02842815801325482 0.06825902139858242 0.017196954532283537
0.029420648664242374 -0.007520907875872285 0.05449858945666847
0.029403653761523072 -0.006507798317564817 0.053714240208187825
0.02940942643606401 -0.005796606436955232 0.05272298212694537
0.029449899113732032 -0.005542940451494005 0.05141324527253649
0.029506084163988876 -0.0054939962285801 0.049956380982758675
0.02958316795632497 -0.005716662944243445 0.04830300788867081
0.029651177984309066 -0.005816209581994025 0.04672876606095
0.029711248950858787 -0.00580821501847123 0.045223977167491325
0.029761508400390966 -0.005668862535398944 0.04380686587460314
0.029826353867804214 -0.005716923249337091 0.04225003631144281
0.02987725921076996 -0.005580196646401081 0.04081997711789809
0.029914421568742383 -0.005262361628412815 0.03951616553406634
0.029969653536612833 -0.005176592538590874 0.038039138721003674
0.030000349856061276 -0.004770710578784809 0.036791346600233144
0.03003704484756934 -0.00444056412578292 0.0354844962818488
0.03007417473172604 -0.0041140503262514505 0.03417115003393578
0.030118142579908073 -0.0038733875706206677 0.03278990953504973
0.030145936969132772 -0.0034230398844994903 0.03156135875575028
0.0301799486955143 -0.0030507377457673623 0.030271059863257954
0.030196200694046705 -0.0024499006938408785 0.029150470853653077
0.030219435809494363 -0.0019371495341254374 0.027961037901721053
0.030245585386110146 -0.001460202414034717 0.026741729077499332
0.0302552721598713 -0.000773020265626756 0.02568165661759647
0.030269770304233275 -0.00014622367889832733 0.02457378638350094
0.030279385141939168 0.0005430337643941852 0.023513031280916197
0.030288131199196315 0.0012437571030545769 0.022460236949279677
0.03029837051402208 0.001926166602993551 0.02139209870049158
0.030304762628515156 0.0026574119780665706 0.02036152291016491
0.030299245858444325 0.003538152881874035 0.019449215912544893
0.03029907068910148 0.004351840329284984 0.018483859377159018
0.030295218921702973 0.005211369104589247 0.017555387509047282
0.030290143109859575 0.006085923787766234 0.016639476828660016
0.0302889181164849 0.006912389454418633 0.015685023555567057
0.03028498146114682 0.007772388657880824 0.014758104046963205
0.03028253247711124 0.00861378368268717 0.013816325686518582
0.03026679883378494 0.009618940985234525 0.013010058845119521
0.030219173442428006 0.011015851329837456 0.01253075405045817
0.030130430185274535 0.012915281108715426 0.012476057463454149
0.030037043209001073 0.014866873975433625 0.012474784721556442
0.029954070344648167 0.016686100819327143 0.012372036252268348
0.02985463000086785 0.018701838014133276 0.012444997019204429
0.029780270484680273 0.02040685571371592 0.012263958113054807
0.029689290373886387 0.022309823336654433 0.012260724103113407
0.029607556215283375 0.024095830884396707 0.012166731579991541
0.029525023788883643 0.025887116151737055 0.012086319451121041
0.029435511600388597 0.027758220805103873 0.012084519414928163
0.029359358645618342 0.02946365298058412 0.011947628076330818
0.029284825451545614 0.031145543504696283 0.011798474234025969
0.02920416135209549 0.032896944252803595 0.011719089102885438
0.029128309136720803 0.03458646401167481 0.011593675600899078
0.029046572599541836 0.03634215188519663 0.011535875933480266
0.02897281652706726 0.03799842596256603 0.011397906856336681
0.0289084371025858 0.039539338374536936 0.011164021126642887
0.02552063693493649 0.08047581066648923 0.04670544276478905
0.025456450107330525 0.08191853760226925 0.04658377611022663
0.025453175043535545 0.08263898279947324 0.045806702845829994
0.025877423630115984 0.07832532907461998 0.040387306887934404
0.02595640501198887 0.07809053931265958 0.03870114750168424
0.0260350942662681 0.0778634042727876 0.03701313707322884
0.026127471006328767 0.07748041925020549 0.03517015861362566
0.026232706561255315 0.07695235250991495 0.03318000590920295
0.026361571610129694 0.07615485905159763 0.030922768611701956
0.026523471504517268 0.07498060454221406 0.028292248970965328
0.02669606910562891 0.07369106658159696 0.025532836225170996
0.0269286867239231 0.07171692173031374 0.022095314632441077
0.028173524545890345 -0.00801374328190424 0.05563823064842094
0.028128966750292243 -0.006609174334450685 0.05512166357495757
0.0281207802615374 -0.005709879927126682 0.05426255853186607
0.028141176383236273 -0.005205360132813364 0.05313152879988087
0.028172102562967736 -0.004844675510734142 0.051898409620059816
0.028252178426581037 -0.005157569243571081 0.050191426231817715
0.028317620900965956 -0.005265336258702291 0.04862006692820775
0.02838697532897862 -0.0054229762143450655 0.047006535604627475
0.02844909744905997 -0.005477975523891565 0.04545853237101716
0.02850752877749794 -0.005479204388986747 0.04394231186151343
0.028558001237721956 -0.00536892612597667 0.04249992430792532
0.02859554579777598 -0.005080367724505985 0.04118085733750243
0.02864673899794973 -0.004974570318911464 0.03972508950007947
0.028694592103151572 -0.004820766019172085 0.03829886419863798
0.028736112117757083 -0.004578864508092695 0.036932143099598025
0.028771243343218608 -0.004248647041613873 0.03562611221767742
0.028802827640470027 -0.0038688222317713183 0.034353088776905016
0.0288389498918425 -0.003548060747379289 0.03303258638568768
0.02887408427230771 -0.0032120659818444253 0.03171958842575168
0.028890935972733355 -0.0026300602799111394 0.030588276575439166
0.028918788529795535 -0.0021936506072656736 0.029344745349272394
0.028936775663137917 -0.0016245465305228524 0.028199317553229353
0.028955953247978523 -0.001070228051034905 0.02704059000343767
0.028973903117487775 -0.0004985866828950969 0.025893106259511356
0.028990118847922974 9.696389295021923e-05 0.0247621707975047
0.028998819260430426 0.0007924791828141098 0.02370730333515525
0.029006603853883598 0.0015005264679480157 0.022661288115471245
0.029012382203557417 0.002235340749693282 0.021635482990396193
0.029012717186048205 0.003041769883712797 0.02066571549817814
0.02901414117187967 0.003833985485077074 0.01968460148736989
0.029016151771187174 0.004618630585264516 0.01869727307141883
0.029009618049316156 0.005514576817444439 0.017799229560495733
0.029006017352833344 0.006372071852109085 0.01687082860886202
0.029009199187991 0.00714148246650298 0.015871234508600673
0.02901405705560413 0.007889400949481873 0.014853720812437354
0.02899848384136234 0.008901180239793305 0.014052422745808424
0.028957120441494677 0.010244097456328372 0.013526358818125583
0.028873585186803594 0.012126420901956037 0.013452818626719931
0.028782284294822668 0.014103611595837173 0.013467923121061709
0.028693770985450857 0.016040047022126136 0.013459193768995181
0.0286148420691395 0.0178492223803271 0.013353184025317377
0.02852954081006202 0.01973512957308471 0.01332124276834351
0.028438548202951348 0.02168858177990357 0.01335663040897428
0.02837038336347757 0.023347541946664552 0.013150056280133049
0.028281913824596692 0.025259543708416987 0.01316930900606883
0.02821164534230852 0.026936868349320686 0.012995488553309897
0.028141173509320015 0.028612826368012212 0.012828578575915905
0.02805365561245447 0.03049904657616548 0.01285383883984581
0.02798895823626084 0.0320942496877305 0.012633184281149346
0.027911218048096185 0.03384900378677613 0.01256115558152432
0.02783545050648197 0.03557478971978573 0.012472412692538792
0.027760246580928818 0.037289321267252595 0.012382443020310274
0.02769361176419148 0.0388931671627018 0.012201811111415384
0.024463171177241796 0.07971921577347324 0.04745401881032835
0.024377654896802246 0.08146076410015096 0.047599703017396855
0.024376472144280147 0.08215665089900309 0.0468010963919579
0.02476723080784921 0.07802591121684083 0.04157443338009248
0.024835358315925038 0.07788103569205967 0.03997755777212059
0.02490805920054531 0.07768390492683358 0.0383241695821363
0.02498559699539785 0.07743167917173155 0.03661080812089451
0.025078631045605964 0.07699469111207374 0.03471514123198072
0.025190281216791253 0.07633625637014535 0.032599852901418924
0.02532569562600111 0.07539540254777416 0.03020389106332544
0.025470512038715018 0.0743481760429634 0.02769049352172448
0.025655450215241647 0.07282393507576179 0.024703465187100315
0.0259220241671295 0.07032526127253841 0.020757329751908582
0.02687534992422368 -0.006951017157661998 0.05636047976986375
0.02684375151866454 -0.005708201395927426 0.05573738395185135
0.026841652534675686 -0.004893557462320286 0.05482352387525147
0.02686926445524053 -0.004507549826180013 0.05361371036970164
0.02692066248580118 -0.0044622953865462445 0.052164092766997794
0.027007118398960646 -0.0049176207846271525 0.05035906662635825
0.02706857085943511 -0.005009466603234647 0.048799816552022424
0.02711805694754292 -0.004926531671563261 0.04735721074440796
0.02718424368725457 -0.005079134967470367 0.045741812003224525
0.027241254913296882 -0.005097142791718412 0.044215164339319823
0.027281382673781343 -0.004871765809819739 0.04285692261423102
0.027327143809794268 -0.004723976106819072 0.0414381747731416
0.027378126588202142 -0.004647449837247797 0.03996256472254034
0.02742507384091907 -0.004510919988862827 0.038525027532281264
0.027465039066550356 -0.0042731905487015664 0.03715647823518453
0.02750000595426092 -0.00396278830704605 0.03583704781406949
0.02753174950580036 -0.003605077634089293 0.034548765210870636
0.027561274410655846 -0.003214420508815763 0.03328146460854159
0.027593793353308044 -0.002863908241505786 0.03198070542811904
0.027619165403930893 -0.002411758751817039 0.030752889409130735
0.027638622422908838 -0.0018757534640843065 0.029585757178002603
0.027665112104706027 -0.0014363431140916316 0.02834277444381217
0.027678256410132572 -0.0008103159555942763 0.027239776380291347
0.027688461795470163 -0.00014285068603359097 0.026167198961511817
0.027700750142189208 0.0004964468994103077 0.02507162887597414
0.02771360872098957 0.0011286047686932532 0.023969083250721557
0.027731518816200743 0.0016920517941261815 0.022811253029741796
0.027730638689816775 0.002514376412677266 0.021855142040143216
0.02773319894312986 0.0032895427741413963 0.020861810563607308
0.02772631907998022 0.00419384016734492 0.019970927587518672
0.027728878535700496 0.00496904081162669 0.0189775769124228
0.0277311184385069 0.005748738437937828 0.01798754421602794
0.027736399735086306 0.006487278623511061 0.016963973767604557
0.027737600257048668 0.007281406607832108 0.015984967421921237
0.027724159504012625 0.008273511296539193 0.015167596939265948
0.027691412385861203 0.00952523120191745 0.014565082215072023
0.027617180359987996 0.011333366081809182 0.014425956511528726
0.02753095949911453 0.013298165794847272 0.014425674789054654
0.02744966444521967 0.015191920588943975 0.014376303689699499
0.027370484684804994 0.017052641436673233 0.014308861360642855
0.027277509614802308 0.019092788628941204 0.014402190671114812
0.02720601622105721 0.02084152785744381 0.014259484039961634
0.02712295192864639 0.022739788960112473 0.014252785222348463
0.027048154629754025 0.024523624872190397 0.014157967639734814
0.026982097773128485 0.026187498926873165 0.013968773406999035
0.02691131371240507 0.027909891413967713 0.013838204114871577
0.026827715120688427 0.0297968691161814 0.013859460962834469
0.026762803808614486 0.03143346317274548 0.013671671198432156
0.02668960647206241 0.033174877210018716 0.013583964041298191
0.026621821320430176 0.0348412292554911 0.013438747551738406
0.026550198770355495 0.03655369659118446 0.013342775337628121
0.02648903060252612 0.038125859139848894 0.013130129182093664
0.023428585425309137 0.07865839604810948 0.04792994457002375
0.023309953054873496 0.08088062336953417 0.04850298871641878
0.023310518296124544 0.08155437399512089 0.04768469351582694
0.023337741544574412 0.08188417709591295 0.0465524162835787
0.023724366933729264 0.07758854031123547 0.04117316686296946
0.023789778545335035 0.07744149533935646 0.039572192134393724
0.023861651605530377 0.07721546401798052 0.03788989277053051
0.02393837115014233 0.07693166259640222 0.036144837644938976
0.02404171522834985 0.0763126851783496 0.03407625592309854
0.024146865340124054 0.07567675920917794 0.031978830887910425
0.02428001752486343 0.07469138110676216 0.02953748660223615
0.024441341261419496 0.07335685807749898 0.0267472548456667
0.024612131335726276 0.07191210274939036 0.023831339884682112
0.025021402062587392 0.0674697799509903 0.01801198267404397
0.025579790019878906 -0.005826826503684213 0.05712450136370839
0.025568099603415613 -0.004866504669355509 0.05631259526796628
0.025580717017757312 -0.004274923429835764 0.055248640519375614
0.025599702252433323 -0.00377878481268068 0.05411728140100014
0.025672693092350842 -0.004095832454849735 0.05241871642523677
0.025745812371750536 -0.004410344564072299 0.0507134759275808
0.025816879238354355 -0.004689557863215177 0.04902455391174376
0.025855583357397943 -0.004479395710704326 0.047673055628839
0.025925866391156613 -0.004739175070084922 0.04598327119690515
0.025972983403540883 -0.00464887771837863 0.04453529656842381
0.026001763258160972 -0.004282558328961017 0.043280017657439884
0.026058626648887726 -0.004331930452815103 0.04172123468387856
0.02610778787978119 -0.004263566981046518 0.040241246942856856
0.02614833856229241 -0.004064727862161721 0.03885071280188662
0.02618042167441166 -0.0037383159689867163 0.03754902440815594
0.026218501041289886 -0.003498338394425149 0.036179766062664154
0.02625646592577338 -0.003254345458455099 0.03480897912580472
0.026285576578299902 -0.0028780389958401598 0.03353238767837058
0.026310375195535012 -0.002436777233417564 0.03230105206692607
0.026340437365286892 -0.0020709495936804267 0.03100988051491027
0.026356099854536415 -0.0014932014934033733 0.029875786662631743
0.026375116587301736 -0.0009633276970389959 0.028703327393963918
0.026393401520644563 -0.00042165815125261297 0.02753762834772361
0.026411787853808828 0.00011966072737368272 0.02636946263767448
0.02642144710022753 0.0007883580709849847 0.02529775684111696
0.02642928615434575 0.001483923353329475 0.024245810971826542
0.026438501096375647 0.002160148082432478 0.023177773725684803
0.02644071053846241 0.0029376407071107224 0.022188338948193276
0.02644520682175387 0.0036824653424170073 0.021172781484988967
0.026449704634527442 0.004427543341610329 0.0201568785638358
0.02645542442095685 0.005155443079526589 0.019126685820094358
0.026459238963474668 0.005910847507548944 0.018117913658747375
0.02646038349245514 0.006704458161980786 0.01713956425800206
0.02645931512895505 0.007529542719967197 0.01618665694421323
0.026424490178523382 0.008832578675111058 0.015624439325608974
0.026353903430554316 0.010638800078271782 0.015479881837541176
0.02628053081632677 0.012479979589831325 0.015372913797459697
0.02619566851257513 0.014478314354042454 0.015405508201434825
0.026118859963510852 0.016358393332321808 0.015349925310853607
0.02603895291016747 0.018277173042700545 0.015336365350080206
0.025963720524781173 0.020125722991683692 0.01527351942501981
0.02588804505040129 0.021975846902080876 0.015221402505229631
0.025821599494259963 0.02369289620060916 0.015065309780605163
0.025748266348721623 0.02550151353290747 0.014996025131970847
0.02567348061467506 0.02732576662666797 0.014949429010460535
0.025606272353401117 0.029040690533313818 0.014817566305049601
0.02553841982429993 0.030760386745734114 0.014698343997417596
0.025471915912187688 0.03245736846421182 0.014567827017707646
0.025412723836815046 0.034049871562988276 0.014353819447137373
0.02534484162405829 0.03575781953606272 0.014249442602567775
0.02527620692750063 0.037471899091524374 0.014159164705688565
0.025214454787766027 0.03908789653308392 0.013989985092216828
0.02224965406945271 0.08020984263279274 0.049323883328776796
0.02223719729001697 0.08106003239118831 0.04866502894008695
0.02224976186476444 0.08157045726657236 0.047699295944092945
0.022622367554323747 0.07721464761722346 0.04229065072988403
0.022679180473926676 0.07714084050603426 0.04076242408143127
0.022742140477962497 0.07698779192686878 0.03915376462681258
0.02281599925204461 0.076692269813876 0.03740485589354703
0.022894280419103692 0.07634202911384136 0.03559535225617794
0.022992789694586988 0.07572623464186318 0.03352688442230223
0.023108144121552526 0.07489185309573415 0.031239716279292562
0.02323442472320064 0.07391917529712749 0.02880654096287466
0.02338692496011922 0.07260621384526444 0.026033017160298044
0.023586647572878348 0.07067724905398631 0.02265025960167477
0.024371693095802702 -0.006769544332596578 0.057949641920530814
0.024306678938700536 -0.004948533074092487 0.05772140648918145
0.02429478484529653 -0.003977867717405603 0.05691988529399067
0.024309315989957243 -0.0034280538733917343 0.05583059739216556
0.024357290652987584 -0.003407889036980971 0.054373567571527226
0.02442359999772378 -0.0036749318106711337 0.0527111641693459
0.02448155743684343 -0.003805745767378077 0.0511358797796988
0.024549649526397824 -0.00409264386086533 0.04944388867537591
0.02461049459484323 -0.004261122399518091 0.04782723809713346
0.02466774176022149 -0.004369187161395449 0.046246058015112834
0.024702748777136112 -0.004125019805512886 0.044909414039141005
0.024748855337697988 -0.004052199926060485 0.043445432268477746
0.02478824121227484 -0.003871520350868074 0.04205365422634999
0.024837561961766983 -0.0038430526806746412 0.04054652198719211
0.0248765935066629 -0.003651482881737167 0.03915234924356886
0.024913971953470414 -0.00343176212738161 0.03777400529169472
0.024943912946870636 -0.003094511586869353 0.03647775044647966
0.02497828067660262 -0.002823717327334996 0.03512846913305667
0.02500501305890024 -0.0024330143192192732 0.033864352857098934
0.025039549479032693 -0.0021606421849660884 0.03250815233664839
0.0250609496109801 -0.0016843972957302222 0.03130136475552181
0.025082890343787325 -0.00121505812386824 0.03008665941441696
0.025102778040699186 -0.0007129248095353313 0.028894195418854463
0.02511417719815338 -8.002554146385732e-05 0.027799442076225422
0.02512760974607787 0.000522653648233784 0.02667996653780841
0.025141924712999766 0.0011127922138738922 0.025549078602271957
0.025152201030116766 0.0017650687208858318 0.024464771438681143
0.02515748716207972 0.0024934865475923496 0.02343877869587968
0.02516110906100257 0.003247363607953302 0.022432155221025152
0.025162195785773635 0.004039657177693168 0.021455474020727006
0.025162485544321777 0.004843998551010864 0.020488240073869235
0.02516784848900794 0.0055722745205715185 0.01946012200207209
0.02517778327893155 0.006232476873367365 0.018376570544072934
0.02518104819623018 0.006992919095642425 0.017372786000626084
0.02516016683523812 0.008113371743277975 0.016661203618110354
0.025101911804976867 0.009788181199112123 0.01640531068081802
0.02502714146568806 0.01170427700223764 0.016355173803983936
0.024947970820901805 0.013680710790438977 0.016364565426664868
0.02487064436549414 0.015624812663100951 0.0163574030659262
0.02479872124877277 0.01748429795422124 0.01628968587747931
0.024729172306425077 0.019304240694995867 0.01619817742768992
0.024660429941133606 0.02110787569196987 0.0161020114604023
0.024580032082212006 0.023077772232846294 0.01615585064867653
0.024516447917374038 0.024796825667844302 0.01600641037269218
0.024447376668893937 0.02659179081728341 0.015930400457730143
0.02438590514005012 0.028271760479276875 0.01576443429411678
0.024320002959543223 0.03001209063094762 0.015658876246864184
0.024252503818096738 0.03177131356747759 0.015578503663472687
0.024187252776042032 0.03349371065408985 0.015474868020663779
0.024128613103885622 0.03511658560729408 0.015292357567255388
0.024077021974590836 0.03663428643076144 0.015024649793961287
0.0240150863011807 0.038297161833291515 0.01489291977199525
0.021187885709519353 0.0795611834493351 0.050164453437873624
0.02117463915145974 0.08043144457170198 0.04952298760035967
0.021179976774671278 0.08103587940664903 0.048643214329213535
0.02152388378799795 0.07682418785594336 0.04339005710122107
0.02157719196042162 0.07675930562155786 0.041875071284948884
0.021633067538799653 0.07666149121924887 0.040322644435080934
0.021698281338725443 0.07643532377124451 0.038644251417315534
0.021770721660848057 0.07611147309369898 0.03686641752782277
0.02185238749950493 0.07566251960083098 0.03496211047511022
0.02195544579009856 0.07491861286574886 0.03277032546434938
0.022063992474810133 0.07410448773689149 0.030498285898088895
0.022191130531445735 0.07303764011779446 0.027972107581456962
0.022359377939569585 0.07140603642203003 0.024891048769550728
0.022633312362233374 0.06831571685986837 0.02039156350949861
0.02307497749218437 -0.0054541802332822575 0.058838642165967014
0.023037579718796587 -0.004045193287148474 0.05833533359896009
0.02302812139616869 -0.0031072173918529344 0.05751488335109145
0.023039114089011388 -0.0025121063179683323 0.056460023689994476
0.02310201227537137 -0.002783075804537183 0.0548053087299884
0.02317353222079137 -0.0031934816194372773 0.053045682587660126
0.023236452017267584 -0.0034560072530087638 0.05138022514638502
0.023287883643653137 -0.0035235885698557956 0.04984365257265022
0.02334446601885197 -0.0036730106807387752 0.04824266446230663
0.0234065366702344 -0.003909330453244431 0.046572674835226424
0.02343978055586417 -0.00366589338203821 0.04523730298949785
0.0234837435950874 -0.003596678908487194 0.04377253044878965
0.023525004809157448 -0.0034801004423357096 0.04233626234394472
0.02356647817380626 -0.0033642084997130284 0.040894141970065745
0.023606956716799177 -0.003229233380649288 0.03946055827757344
0.02364137869917072 -0.002992628428039046 0.03809628693886141
0.023671985387488662 -0.00269152771467851 0.03677511282707341
0.023705175783518564 -0.0024303678293233766 0.0354203015235558
0.023734658560643027 -0.0021068008454984133 0.034107691101969206
0.023757413706300363 -0.0016723012400255421 0.03287440618419046
0.023782733295857963 -0.0012777002047240082 0.03160803940634638
0.023801963153688654 -0.0007831895248221477 0.030414077994311617
0.023817328429894598 -0.0002251923647477727 0.029265966325477788
0.02383052422791762 0.00036868032518155847 0.02814331248995544
0.023850379660757683 0.0008567356526958392 0.026937374958037885
0.02385545146789934 0.0015825187400059226 0.025912950555822933
0.023858330991027188 0.0023436245828902247 0.02491535982008647
0.023868758115946725 0.0029847527920725536 0.023823441527288713
0.023875485676879766 0.003685365603489865 0.02277695375734895
0.02388187349946992 0.004391819924285056 0.021734186383033816
0.02388957091359243 0.005077988134906952 0.0206744189378264
0.023891495990729022 0.005855802848291125 0.019686924986309973
0.02389507201642791 0.006607740779280058 0.018678360736730792
0.02389452170930301 0.007424782319803647 0.01772194898645929
0.02384763831502314 0.008968526910966057 0.017356288993788382
0.02377619299492049 0.010893525233794776 0.017308543414850053
0.02370294084152253 0.012841907605546654 0.017289740192412417
0.02362112864714993 0.014918730155314919 0.017387012345227604
0.02356246299630674 0.01663009299084639 0.017192049908380802
0.023484738243476553 0.01863320689306175 0.01724864749078442
0.02342641673073161 0.02033065812710788 0.017059443905335814
0.02335076770768805 0.02229184397773487 0.017100744422884284
0.023291148256908402 0.0240008237937826 0.016938611339554044
0.023223773271555483 0.025825054809402226 0.01688297639341968
0.023164864365809352 0.02751479975109239 0.016721425640376042
0.023096867363498093 0.029339724719937565 0.016684521126361873
0.023037257060948516 0.031031907214122578 0.016542118720658305
0.022980752527303843 0.0326727079255128 0.016363299308141288
0.022920916541298752 0.03436036181705826 0.016233389832258915
0.02286687010568722 0.03595609526648674 0.01603099210775999
0.022808878263072763 0.03760792042937133 0.015885798198503887
0.02012805188651141 0.07888685471600548 0.05098189793094865
0.020111374601382067 0.07981923424810744 0.05039509578215179
0.02011585809705166 0.08043217772186745 0.049523646401892996
0.02043178585294366 0.07637111067467323 0.04443004959537061
0.02047992426146486 0.07634147904107996 0.042951795588995756
0.020531234800035485 0.07626771022700163 0.04142640424755295
0.020589541841759255 0.07609311618816417 0.03980118798437832
0.020652341930249948 0.07585564138809492 0.03810963990945149
0.02072540468210528 0.07547012445135404 0.03627184337136691
0.020810300700144814 0.07491435336422636 0.034264886791043725
0.020909737743955947 0.0741495309217628 0.03204986961793249
0.021019705575538415 0.07323623526346612 0.02968068735623397
0.021150918290547712 0.07201799478914173 0.02700694347736915
0.02133327989790465 0.07005826789417258 0.023608647484689604
0.021792176026803466 -0.004239928349275335 0.05965930484798165
0.021766903565535706 -0.0030135157055762862 0.05903648153403368
0.021766783007643915 -0.0022340778574500564 0.05811158252047666
0.021796886953864947 -0.0019885203425173414 0.05681982465083879
0.021845081259391257 -0.0020597065473032528 0.05530515133492292
0.021915635949305803 -0.002520817224399008 0.05351305931591005
0.02196846821270959 -0.002665746672982139 0.0519323418571801
0.022031426467353996 -0.0029843172425016995 0.050222493105441635
0.022094125888873165 -0.003293865595286438 0.04851048242182143
0.022134732680468422 -0.0032134354742023308 0.04706693964201758
0.02218537299572004 -0.0033048246273390536 0.045495163257211535
0.022220475846451516 -0.003122589173078394 0.044112962354776075
0.022256634728197534 -0.0029561604913360684 0.04271455090213333
0.02230340645249645 -0.002970819801187241 0.04117972501509681
0.022336346246864064 -0.0027432511648595725 0.039815287184887305
0.02236976525244857 -0.0025215891558131864 0.03844198418352235
0.022402263331629407 -0.0022817010408171523 0.03707752451935514
0.02242928933232237 -0.0019455713469554992 0.035779979900139425
0.022448239936240583 -0.0014691969668695348 0.03458331027711681
0.022481544980670322 -0.0012368177225858812 0.033201017171245184
0.02250200038402907 -0.0007828903609347626 0.03198115648061922
0.022522235043109674 -0.00032374482244934555 0.03076240322552276
0.022538500651690597 0.0002042603895001105 0.029593313924108744
0.022552202614072696 0.0007768794006973168 0.028456140109871908
