# .PCD v0.7 - Point Cloud Data file format
VERSION 0.7
FIELDS x y z
SIZE 4 4 4
TYPE F F F
COUNT 1 1 1
WIDTH 768
HEIGHT 1
VIEWPOINT 0 0 0 1 0 0 0
POINTS 768
DATA ascii
-0.04702679199581855 0.017634172969290134 0.019509691714720223
-0.04703027842954943 0.017673739007925997 0.01792975886303133
-0.04703196429062162 0.01771357874935724 0.01634107121852324
-0.04698176958056216 0.017756340274432264 0.014697847933330788
-0.047039007817598344 0.01779360626247489 0.013145459207068222
-0.047023352718479405 0.017834910980704884 0.011519092775584105
-0.04702412178095966 0.017875530246136754 0.00990045199582934
-0.04705704037302161 0.01791462083851599 0.008304378639044485
-0.04707445756332079 0.017954718957435077 0.006686652849880681
-0.047088263280254894 0.017995194625654878 0.005058194569584451
-0.04715574153621788 0.01803297481874603 0.0034731232638907095
0.06708476611142561 0.019049271252571526 0.04495364212987335
0.06428635692015633 0.018967694667508875 0.04509960531733859
0.06151181333783806 0.018886813790168194 0.04524432369022313
0.058760831361992616 0.01880661975855601 0.045387813105096375
0.05821073428375867 0.01881998635924689 0.0441618630437825
0.05821958766130109 0.01885729320799883 0.04258048316270546
0.05822711318275159 0.018894689891236043 0.04099368745215071
0.0582360343695521 0.01893229379321706 0.039399712741993054
0.058243622627728586 0.018969988838904328 0.03780026029101702
0.05825261242618107 0.0190078933561913 0.03619353970966105
0.058260264185684085 0.019045890349269408 0.03458127845547326
0.05826932341097402 0.01908409910111985 0.032961658536074356
0.05827703944879031 0.019122401684193123 0.03133643397006891
0.058284786521687615 0.01916085832623236 0.029704672497221973
0.05829395003490645 0.019199530222697624 0.028065413890585478
0.05830176256394204 0.01923829802784819 0.026420452697607122
0.05831099758810204 0.019277283463337874 0.024767900203423232
0.05831887638219185 0.01931636622349374 0.02310957844937911
0.05832818377917953 0.01935566902663141 0.021443569722542133
0.05833752912867912 0.019395132093839137 0.01977076755301299
0.05834551030623564 0.019434694657548802 0.018092093983860802
0.05835352411063166 0.019474418952116452 0.016406558035411856
0.05836297889520997 0.019514368228064172 0.014713139137075448
0.05837247255005079 0.019554481742569543 0.013012758293313054
0.05837917729463121 0.019594634969401312 0.01130735918022907
0.058388743513911656 0.019635079495336633 0.009592940134551031
0.05839834930535692 0.019675691326552724 0.007871429118945894
0.00447886090074695 0.017307727831935234 0.04465671881467004
0.00272586940570263 0.017264835866143656 0.044397840056495774
0.0006294003099073242 0.017206362655821286 0.0443944922834929
-0.0012816827582465828 0.017155979656448748 0.04426685931677099
-0.0032506401720747147 0.017102781969083835 0.04419036073007221
-0.00538847530381753 0.01704174277088901 0.044247208821120654
-0.007373446942223416 0.01698736280614599 0.04420207451308367
-0.00942542788575601 0.016929719997591644 0.04421631134674581
-0.011550626819102572 0.016868512000708494 0.04429542152738292
-0.013695018876175025 0.016806174862291603 0.04439984014806414
-0.01579145139809679 0.01674576365891828 0.044479232602884555
-0.017909717698528338 0.01668410125266122 0.04458599500197574
-0.02004992488886126 0.01662117484687965 0.044720545743980156
-0.022133015975184633 0.01656060424598523 0.0448226395974774
-0.02423291940537381 0.016499004755762253 0.044948601304026725
-0.026339305189991835 0.016436845877320756 0.04509070745227406
-0.028379560311976526 0.016377477337840445 0.04519255771949621
-0.030474730045172094 0.016315315148799088 0.045348171903917434
-0.032565230044632854 0.016253104801008587 0.04551140625529232
-0.0346287818486582 0.016191881396637922 0.045664642075839146
-0.03659005261322229 0.016135159912198587 0.045747669005941516
-0.038896751371396254 0.01606207245040918 0.046117388086187205
-0.040688670572067875 0.016012750023140572 0.04608651310936651
-0.042633964600650165 0.015956025696920794 0.046188701633050555
-0.04444319231926791 0.015905448671714846 0.046190734466935834
-0.04577680170433435 0.015877044446675075 0.04581344539290544
-0.04696285465504674 0.015855478961536894 0.04532018944394983
-0.04805030723179454 0.015838481965311336 0.04474949757500113
-0.048185335693688436 0.015866542470945048 0.043391199287083126
-0.0480753972605355 0.015906358625675264 0.04182321258210503
-0.04800071510430509 0.015944670838192624 0.040277384222052404
-0.04793442821119892 0.015982750423095392 0.03873147729538551
-0.04786957960759958 0.016020928405169985 0.03717965754905034
-0.047810581045618084 0.016058994079770312 0.03562565829857328
-0.047759242149581826 0.016096859819339573 0.034071062097672467
-0.04770942956616364 0.016134819427792407 0.03251064140309973
-0.04765672132973531 0.016173086779080022 0.030940539833022696
-0.047625985408433935 0.01621046199653706 0.029382321170227488
-0.04759243408100844 0.016248139839138583 0.02781454437580677
-0.0475596196006281 0.01628594987668057 0.026240248514242226
-0.047532919343706126 0.016323631352469652 0.02466415189974741
-0.047515967015097915 0.016361006204874972 0.023089522169209398
-0.04750883122326671 0.016398069016502023 0.02151650872539973
-0.04748904126395509 0.016435918397744827 0.019925011999135267
-0.04748452240734796 0.01647318867938963 0.018340026802725895
-0.047483605815760555 0.016510450111160375 0.01675112622977576
-0.047492669992237446 0.016547388062836073 0.015164134350610647
-0.047506323275395446 0.016584266837300965 0.01357419855468256
-0.04751639081668785 0.01662149102570447 0.011973796824911176
-0.047534726906651725 0.016658474371231927 0.010373818096626908
-0.047562301121177486 0.016695166969046053 0.008775236377559392
-0.047599172375329624 0.01673156388269127 0.007178192100342873
-0.047593906647157624 0.016770234595933162 0.005534338784351112
-0.04768076968039947 0.01680446654415456 0.003970098471021644
0.0665303536686998 0.01766682134473456 0.0452941431175809
0.06373774793611736 0.01759125775215002 0.045438470913283235
0.0609689292337135 0.017516337799818992 0.04558156934466917
0.05822359492842388 0.01744205329895877 0.045723454052457535
0.05793396121125721 0.01746473960117415 0.04433576288357127
0.057940902134888506 0.01749928427112701 0.042756579896363056
0.057949231871992524 0.01753401999672625 0.041170272321627455
0.05795623070892614 0.01756883955208471 0.03957852635565268
0.05796462416867709 0.017603852234356038 0.03797956754313103
0.05797168162364186 0.017638949969278683 0.03637510805952898
0.057980139560428134 0.017674242933844553 0.03476334608366166
0.05798725634954388 0.017709622195336172 0.033146020128669185
0.05799577952978596 0.01774519882127691 0.031521300621650206
0.05800295638079511 0.017780863010252536 0.02989095277798126
0.05801154558320276 0.017816726731185423 0.028253118880476158
0.05801878323570481 0.017852679303560062 0.026609591217523654
0.05802743925151488 0.017888833608743642 0.024958483528206066
0.058034738457209634 0.0179250780765487 0.02330161555102883
0.05804346209044203 0.017961526512014526 0.02163707207487764
0.05805222127279486 0.01799812347629045 0.019965745518466915
0.058059615681096355 0.018034812614253527 0.01828855676727037
0.05806704029791798 0.018071651639225313 0.01660451615690456
0.058075901630493254 0.018108699206267866 0.014912604481096992
0.05808339013071129 0.018145841011040068 0.013214726156631995
0.05809090941257061 0.018183135488171173 0.011509868658913458
0.05809987475835032 0.01822064203162584 0.009796989284063251
0.05810887716636759 0.018258303625180196 0.008077028954932564
0.05811649585468959 0.018296062296331444 0.0063509584997586965
0.0027095382078951014 0.016030954582119027 0.044409567077934975
0.0006326379602821786 0.015977471585176928 0.04439215467581803
-0.0013469835232399752 0.015927827448262596 0.04431426482041806
-0.0032771848708251783 0.015880044648675394 0.04420973627755448
-0.005398996173253734 0.015824034560504886 0.044254930120754044
-0.007453759735153387 0.015770607310095927 0.04426133743294086
-0.009543269771579488 0.015715495654220122 0.04430374014922506
-0.011690920408549854 0.015657702611311896 0.044400073213940516
-0.013850210401649243 0.015599176261383964 0.04451623319441983
-0.015982371080654145 0.015541553578808688 0.044623197785945645
-0.01808689890165599 0.01548486161767377 0.04472032385373276
-0.02025102097287912 0.015425397263765146 0.04487382992695177
-0.022367362293121196 0.015367718306478543 0.04500223332512049
-0.024483399157716357 0.015309808790089346 0.045141594599588275
-0.02661226084825674 0.015251105437273203 0.0453021515512772
-0.02880444814557892 0.015189437642416957 0.04552346702247978
-0.03083921073148943 0.01513427275749544 0.04563356127581708
-0.03279601929520426 0.01508222997691439 0.045693085311472315
-0.034948507103447546 0.01502152032958974 0.045917682378931124
-0.03692966802823866 0.014967960655224285 0.04601789126089484
-0.03910897672700847 0.01490558347749112 0.04628715360389496
-0.040990416378177075 0.014855876078100686 0.04632917943563153
-0.042865556382881365 0.014806228923700943 0.04637594441386789
-0.044671944232219596 0.014759366679955295 0.046376668109545605
-0.045925549990849635 0.014736467185661455 0.045934995178542715
-0.047112619250130494 0.01471638348108822 0.045443221442273085
-0.04834928037347708 0.014694035212752515 0.04499641147617861
-0.04869353314698616 0.014710856721058527 0.04381313674301085
-0.04860500657357586 0.014746835907040868 0.042265262443511975
-0.04851082209063867 0.014783222375957958 0.04070541482614376
-0.048434504732914996 0.014818976873679904 0.03915331540438588
-0.04834118632687312 0.014855642949022087 0.037579586691450784
-0.0482781243296187 0.014891124364551023 0.036024239280219195
-0.04821652013098687 0.014926697218937201 0.03446295257998433
-0.04816344210094686 0.014962046291716937 0.03290178837770208
-0.04810480600391359 0.014997800796848197 0.03132861691097777
-0.04808135059800628 0.015032135079299281 0.029778783196818093
-0.04804979047748892 0.015066986631289041 0.02821483786365986
-0.04801719293774365 0.015102040317820196 0.02664284005160572
-0.04799337216481697 0.015136854081309046 0.025071407844635685
-0.04797123126953984 0.015171747670887433 0.023494305334663512
-0.04795885587808352 0.015206354669770963 0.021918734649555682
-0.04795631406288231 0.015240670047979526 0.02034484580986734
-0.047959167379446055 0.015274894173809006 0.018768720685983953
-0.04797196746270921 0.015308818459525446 0.0171945202258732
-0.04796762802845561 0.015343681273092687 0.01559761703335144
-0.04797052625276138 0.015378370128549592 0.01400008235192457
-0.04800434795072661 0.015411794222602698 0.012423814958503199
-0.04803102937830156 0.015445699939732622 0.010833924652554339
-0.04806239293297959 0.015479544231419739 0.009241277130605019
-0.048122250645551146 0.015512223726732853 0.0076681982808305404
-0.04814111783106256 0.01554695625175544 0.00604962575640805
-0.048178441622042045 0.015580989776339604 0.004441179153118424
-0.048217770087091716 0.015615086773209852 0.0028274266870734754
0.06597730532399138 0.016287772870589082 0.04563380632336572
0.06319048300473179 0.016218193008471472 0.04577650631282826
0.060427369499112926 0.016149205095103838 0.0459179922860104
0.05768766353555388 0.016080801608501415 0.04605827966960446
0.057657535145089034 0.01611119199393301 0.04450944469512047
0.05766392529094222 0.016143039375571714 0.04293159694208326
0.0576717003382029 0.016175062815373793 0.04134663491879548
0.05767814397912946 0.01620716345907422 0.039756242733467395
0.05768597829054384 0.016239442068316623 0.03815864819788034
0.05769247607789907 0.016271799007185096 0.03655556135890481
0.05770037035388487 0.016304335847929143 0.03494518270666103
0.05770692294955215 0.016336952163699334 0.03332924858440578
0.05771487790169272 0.016369750347196503 0.031705931775613316
0.05772148597829707 0.016402629171207876 0.030076995283714436
0.057729502329567806 0.01643569185889163 0.02844058379384029
0.057736166570692915 0.01646883637309154 0.026798487339572907
0.057744245055680266 0.016502166777592767 0.025148822109151925
0.05775096615609315 0.01653558021556306 0.023493405542591217
0.05775910752124547 0.016569181601751276 0.02183032492569087
0.057765886187124194 0.016602867249759862 0.020161425487632556
0.057774091190981924 0.016636742935808913 0.018484765199073327
0.057780928140150956 0.016670704133887233 0.016802217467674185
0.05778919755359618 0.01670485749236771 0.015111810528943004
0.05779609351576598 0.016739097635414694 0.013415446365048211
0.05780301780543429 0.016773478431607317 0.011712113802777702
0.05781138383929163 0.016808054633326696 0.01000077153999307
0.05781836824721576 0.016842719570830347 0.008283365172085722
0.05782680066128032 0.016877582120428638 0.006557846716449212
0.0025473900349111123 0.014791583749027974 0.04452600159323
0.0006326379602293319 0.014748435309392054 0.04439215467585622
-0.0014283106033633475 0.014699477130862736 0.04437330472896711
-0.0033971206311081414 0.014653873123492036 0.044297279972814574
-0.005452643489777753 0.014604726006996185 0.044294302057448165
-0.007561137456057299 0.014553321581682424 0.04434057160020394
-0.009687886209945262 0.014500994203874306 0.044411033425607815
-0.011861791970485314 0.014446613144632912 0.04452753447009439
-0.014010336718880967 0.014392994035331069 0.044636327315586366
-0.01611489319508347 0.014340869723284293 0.04472312761092706
-0.01835234850758133 0.014283321335756544 0.04492157285833298
-0.02049519082575385 0.014229244537225478 0.04505994681026648
-0.022622843126938297 0.014175537337794178 0.0451980237078779
-0.02475475992733961 0.014121435261192911 0.045350676606121465
-0.0269726873400844 0.01406370688681268 0.04558135461050605
-0.029009887400678447 0.01401288745013913 0.04568346633367226
-0.03109146276247121 0.013960091809616063 0.045831075304364643
-0.032904794211565 0.013917734461200457 0.04577871375426823
-0.03524926778159593 0.0138540375300042 0.046155713538549636
-0.03728136145753652 0.013802538891095116 0.04629772364574858
-0.03942817569698903 0.013746229881355989 0.04654249056980175
-0.04129520277069426 0.013700896547476601 0.046574291025155756
-0.04310391721903062 0.01365771104354346 0.04656865999888804
-0.044888094333674744 0.013615327269616883 0.04655235877457847
-0.04609863266577452 0.013595908365715198 0.046076429829841836
-0.04725181536173184 0.01357872482143916 0.04555757140435568
-0.04840554890975146 0.013561444343727585 0.04504288215152713
-0.04918896712981968 0.01355912957644167 0.04422447716382649
-0.049157176615514 0.01358998781400183 0.04272614310497652
-0.04902632194490075 0.013625022132922066 0.04113797058393631
-0.048928739043108405 0.013658849637741373 0.039570225332689724
-0.04882368783939406 0.01369313162727719 0.037988754772021516
-0.0487347380304034 0.013726903254116999 0.036413502784411744
-0.048677817199285545 0.013759505664284336 0.03485828744834851
-0.04862502373369454 0.0137920818994695 0.03329945638320647
-0.04857462535487267 0.013824703391162726 0.03173551795311058
-0.04853106069255275 0.013857186558598873 0.030170321635734743
-0.048494380799485926 0.013889528359164315 0.02860395805969823
-0.04847707292777692 0.013921208223692546 0.027047461075543233
-0.04845434360335904 0.013953255735376834 0.02547912249022527
-0.04843418691578827 0.013985339221254894 0.023905927046943665
-0.048432723136006384 0.014016783605384196 0.022342270768533068
-0.04842497691656966 0.014048633208020458 0.020765928552676005
-0.04842348569571503 0.014080363177183778 0.019188087652391106
-0.048429192631670226 0.014111932923015255 0.01760964474690918
-0.04844756117307292 0.014143110406704693 0.016035640376890425
-0.048460584072891055 0.014174655885854188 0.014449686717862176
-0.04849179418660571 0.014205572567333256 0.012873361916616255
-0.04853040695888483 0.014236315152281446 0.011296882046148926
-0.048569187219140775 0.014267191087190783 0.009713563989113327
-0.048609960036282984 0.01429812325566942 0.008125071810750395
-0.04865456540587215 0.014329033193571645 0.006533118882856126
-0.048714014451508525 0.014359447789709065 0.004948135629275874
-0.04879022867545724 0.014389280893079334 0.003372120961902425
0.06542561604906061 0.01491211329202918 0.04597263483539915
0.06264455719279927 0.014848488059267008 0.04611371456311991
0.05988712929373252 0.014785403456974513 0.046253595521097535
0.05737428787423454 0.014730253110643927 0.04625406256382564
0.05738145543306755 0.014759340344040498 0.044682908888206696
0.05738729617683186 0.014788497174003675 0.04310639426312285
0.05739451792138173 0.014817815115452576 0.04152277566306467
0.05740040775850003 0.014847203664953696 0.03993373511202958
0.05740768432539056 0.014876755070203897 0.03833750268453662
0.05741362385410986 0.014906378112595002 0.03673578630281549
0.05741958708393752 0.014936119362951545 0.03512767842244319
0.057426945718299705 0.014966026134527693 0.033512244245020195
0.05743295954419253 0.014996006120281503 0.031891231205958215
0.05744037462586293 0.01502615343862839 0.030262800469384843
0.05744643967047963 0.015056375045882251 0.028628726272622196
0.05745391187216958 0.015086765824871525 0.02698714152944165
0.057461414299607994 0.015117279537496775 0.0253389164174056
0.05746755877357296 0.015147869187194058 0.023684948900728753
0.05747511936199723 0.015178630821340624 0.022023328757234728
0.057481316667838456 0.015209469515406068 0.020355898877538248
0.057487539207271066 0.015240433775631388 0.018681679710089216
0.057495186914583996 0.015271572897148231 0.016999662467133136
0.057501463267125075 0.015302790799976637 0.015311732380972554
0.05750776533223079 0.015334136594504206 0.013616887280397894
0.05751550173698278 0.01536566019469831 0.011914095129033242
0.05752327001590701 0.015397313673019785 0.01020428742564189
0.05752965603276977 0.015429048300855558 0.008488425265760713
0.05753748570305184 0.015460963749881467 0.006764463385042718
0.002429945005976264 0.013554821694734437 0.044610335907741216
0.0004977821392609938 0.013514646924720698 0.04448952158259445
-0.0015277821254416901 0.013471008249201976 0.04444551670999275
-0.0035254634527941975 0.013428175726317984 0.044390960163309845
-0.005576710238623994 0.013383266412201118 0.044385355040111873
-0.0077226096161508995 0.01333480749993457 0.04445972212820437
-0.009866436178036397 0.013286220744250522 0.04454350253694139
-0.01203557163795127 0.013236528386284164 0.044657165021008305
-0.014346352486499792 0.013181564024411101 0.044888337847071136
-0.01642273771761732 0.013134767590099319 0.044955261314730044
-0.018605507518550335 0.013083955180014787 0.04511350382310303
-0.020692845533073045 0.013036362678137401 0.04521060782621755
-0.02290715133185056 0.012983991793344179 0.04541590624501057
-0.02523563156121794 0.012927274499076425 0.045721185601344916
-0.027131158666067856 0.012885993432156144 0.0457041138416332
-0.029231154106426294 0.012837118286018929 0.04585579231145265
-0.03135926034460701 0.012787013287996874 0.04604076154188297
-0.033474524197926236 0.012737162874213462 0.046227209539679626
-0.035546756999088935 0.012688671066125005 0.046391155564581066
-0.03759872862300351 0.012640713319908065 0.0465502436059998
-0.039660439203375586 0.012592192866617532 0.04672828521386102
-0.041611034466168983 0.012547547718471233 0.04682828533330258
-0.04334105999045201 0.01251083422501545 0.046760390774237215
-0.04510659935268174 0.012472651523288763 0.04672996355867953
-0.04625146187608148 0.01245726279836547 0.04620131434573849
-0.04738046909631738 0.01244239516610755 0.04566326077672683
-0.04853705689042359 0.012426438336591725 0.04515149106656535
-0.04955634967471029 0.012415523810137103 0.044529501235351265
-0.049695450146719056 0.012437404257437876 0.04317542474336439
-0.0495635968738089 0.012469512504084991 0.04158879779968683
-0.04944754773102278 0.012501169099562372 0.04000786490651281
-0.0493526611715428 0.012532169813955657 0.0384373316103771
-0.04924508755664375 0.012563784461596056 0.036848576117966825
-0.04917021811106992 0.012594304754255659 0.03528027853179644
-0.049094106831684914 0.012625006854201615 0.03370358715176247
-0.04904664604293579 0.01265475931089946 0.03214432552880769
-0.04901923650545614 0.012683882361473449 0.030595350110787844
-0.0490005362352956 0.012712803480272997 0.029046962085344852
-0.04894277878495906 0.012743343351411716 0.027457207933137717
-0.04891316031131676 0.012772943923679196 0.025884931344819784
-0.048907435078590356 0.012801761565199469 0.024326700010152025
-0.04890881985481993 0.012830435505557151 0.02276779954937369
-0.04890842290434194 0.012859306998579637 0.02120029359980813
-0.04893131838511666 0.012887410155524713 0.019646756300460144
-0.0489291747207789 0.01291660835028719 0.01806358919126133
-0.04895491742166813 0.012944858197460517 0.016498692122466907
-0.04900421556780654 0.012972321441104499 0.014948442341250645
-0.04903655865432627 0.013000569606505948 0.013375770574896806
-0.049054556929901516 0.01302950622511887 0.011782805150968967
-0.04908533839083368 0.013058075218802341 0.01019457062642326
-0.04912171038885743 0.013086555963015972 0.008604466291278201
-0.04917919496570855 0.01311433809847165 0.007027141639135537
-0.04925244012814928 0.013141627528907539 0.0054577925212702105
-0.049334219833989224 0.013168706015105057 0.003889728480825305
0.06487528084036132 0.013539830132496378 0.04631063172668648
0.06209996559122133 0.01348213058782832 0.04645009869641742
0.05934820380081679 0.013424920725854252 0.04658838204215271
0.057099101412692144 0.013382771595128276 0.046425986578806366
0.057104370637746926 0.013409140312190147 0.044857004587180116
0.057111014138138405 0.013435654461970658 0.04328097227299815
0.057116327791162325 0.01346223219300813 0.04169955677763593
0.05712302138477132 0.01348895692685221 0.04011100391457284
0.05712838000669512 0.013515746166903052 0.03851700650709938
0.05713512428203421 0.013542684003602184 0.036915783324443785
0.05714052842251721 0.013569687287574399 0.035309053225046905
0.057147323977433884 0.013596840786250345 0.033695007553890044
0.05715277419504017 0.01362406068972176 0.03207539156376282
0.0571596216369068 0.01365143245063711 0.03044836878880286
0.05716511849928546 0.013678871590674291 0.02881571124143717
0.057172018445192374 0.013706464256062595 0.027175554251617495
0.05717894628411668 0.013734168464871932 0.025528766922896184
0.05718451560620286 0.013761941546975296 0.02387624610087169
0.05719010749834158 0.013789827181512976 0.022217028318042453
0.05719711434343 0.01381786975470284 0.020550121328296533
0.057202754639668174 0.013845982734428929 0.018877379677502415
0.057209815900332084 0.013874254399224167 0.017196851653407452
0.05721550520655183 0.013902597515755222 0.01551042008612491
0.05722121780519818 0.013931056671199269 0.013817084137426938
0.057228360472885764 0.013959677181831259 0.012115813153550536
0.05723553254931418 0.013988415532762921 0.010407537462936434
0.057241321733572714 0.014017227482272045 0.008693216942193716
0.05724855023189235 0.014046203521566087 0.006970809039809456
0.0022723766483588315 0.012317527855832514 0.04472348177307783
0.00036733197622124125 0.012281863694862661 0.04458370757150826
-0.0016154451874016984 0.01224355705949958 0.04450915626465762
-0.003626167681445469 0.012204193082998407 0.0444644663493185
-0.005687040081112593 0.012163049449150493 0.04446632646338872
-0.007868336108521501 0.012117845161396227 0.044567253906434956
-0.010048937800933355 0.012072475245015646 0.04467890344493686
-0.01218366693040962 0.012028404051002733 0.044767636370327046
-0.014391849705157223 0.011981761205320183 0.04492246058582289
-0.01669105295364809 0.011931958377416766 0.045157587505282204
-0.0187641730034534 0.0118893258923866 0.04523379509567749
-0.021075740516276753 0.011838714889913877 0.045502467038449124
-0.023265790270928566 0.01179187365776497 0.04569075291004082
-0.025351079556088396 0.011748275654000974 0.04581013765749975
-0.02743434264643907 0.01170455985488247 0.0459389741994265
-0.029535180430045882 0.011660078958701582 0.04609257277651008
-0.03159208112773032 0.011616861419491305 0.04622306085033767
-0.033755919762464115 0.011569917368840877 0.046448726271728025
-0.03592522687704591 0.011522591436391729 0.04669068815137195
-0.03793183640710884 0.011480475725220448 0.046815287925495996
-0.039976819849433465 0.011436900145135674 0.04698136771673056
-0.041926282903370915 0.011396328822124453 0.04708181058060584
-0.04370409576754264 0.01136133019479478 0.047053906493075504
-0.04526262671324066 0.011333538606841758 0.04685678538552751
-0.046408513056823586 0.011319503111571495 0.04632964884827617
-0.04753159812843438 0.011306175220791342 0.04578741366356648
-0.048657227025380334 0.011292703548240142 0.045250736358835475
-0.04981114441837953 0.011278215774006322 0.04474104784037647
-0.050263801652867424 0.0112874521704283 0.04364981161371789
-0.05011294388352705 0.011317245415558097 0.04204975469446587
-0.049965612602961784 0.011347049006109777 0.04044487703651306
-0.04980362025759838 0.011377484009750463 0.03881975126890469
-0.0496903668213764 0.011406385089808112 0.037228177007375574
-0.04960533446726645 0.011434445755598589 0.035653176343686865
-0.049553128063526686 0.011461502165293218 0.03409904928630214
-0.04947523897345768 0.011489563072313228 0.03251552120162143
-0.04944884976597441 0.011515970586098006 0.030969391315112726
-0.049434676971691904 0.011542072876474746 0.029426936457472408
-0.04941778988383255 0.011568385653863781 0.027875141918902058
-0.049397284106465655 0.011594941760688671 0.026313123516952863
-0.04938733339680018 0.011621249127715016 0.024753385739255063
-0.04939334710095661 0.011647117237993842 0.02320086342103067
-0.04938334253983051 0.011673662167030899 0.021626997916465163
-0.04938758766554591 0.011699827061709434 0.020058853470212024
-0.049417817004477116 0.01172519691279757 0.018507237983472646
-0.049467016684189236 0.011750013394422248 0.016966072701843582
-0.04948586265966476 0.011776014200326748 0.015390330270481756
-0.049500287568665646 0.011802289737884978 0.013803444249418872
-0.049557208795834085 0.011827177842695135 0.012248798032479191
-0.04961617946997171 0.011852106832130047 0.010689266941041053
-0.049697146200118614 0.011876366289779946 0.009143519660619104
-0.049753027518780135 0.011901632967471824 0.007567496893993164
-0.04975456091544522 0.011928961237840508 0.005933084341407047
-0.04982539964059257 0.011953929120172634 0.004357086005030375
-0.04988374817942237 0.011979461565016369 0.0027622460463777587
0.06432629471886797 0.012170910976601721 0.04664780005517344
0.06155670331487628 0.012119108337576597 0.04678566173016979
0.05886212091313331 0.01206915230948981 0.04689034214805077
0.05682425864280194 0.01203697300445656 0.046597695870837286
0.056828983373852116 0.012060675190229833 0.04503003370680636
0.05683507852207448 0.012084508043056054 0.04345533138419472
0.056839843338225726 0.012108397988171673 0.04187525398771741
0.05684598419733422 0.01213242001006304 0.04028804956327131
0.05685078958735401 0.01215649995442344 0.03869540883761563
0.056856976693118455 0.012180713406595859 0.03709555285588251
0.056861823153663726 0.012204985625873991 0.03549019833935951
0.05686805705033404 0.012229392805726269 0.03387753895326062
0.05687294508611079 0.01225385961208254 0.0322593177718265
0.05687922632660264 0.012278462853923483 0.030633700694615462
0.056884156450528744 0.01230312659673997 0.029002457513329805
0.05689048559658588 0.012327928272532295 0.027363725969407005
0.056895458329958626 0.01235279133916479 0.025719302942713462
0.056901835952333335 0.012377793859287516 0.024067297617236028
0.05690685182499977 0.012402858675835845 0.02240953433803361
0.056913278503638254 0.012428064489865265 0.02074409332529603
0.05691833805417046 0.012453333521962458 0.019072826772765228
0.056924814378388366 0.012478745119471871 0.017393785523325322
0.056928519130336475 0.01250418111034872 0.0157098220710859
0.05693504281177597 0.012529800858622035 0.014017020723293527
0.05694159328073656 0.012555525806761975 0.012317268390848568
0.05694676298998519 0.012581316349228272 0.010611516542887833
0.056953364608085866 0.012607253484181631 0.008897740728068204
0.05695857993947623 0.01263325719406683 0.007177893720729356
0.056965233330243614 0.012659409151969862 0.0054499201863749125
0.00025420331674175234 0.011050415661893022 0.044665387305893256
-0.0017297742260888316 0.011015898279811713 0.04459215415390122
-0.003743764936770866 0.010980369254159341 0.044550303119430645
-0.005831946961503243 0.010942540659257809 0.04457267408505827
-0.008014989164331354 0.010901797309080013 0.04467546939709599
-0.01020654965441603 0.010860636269152475 0.04479583823013844
-0.012283691978452305 0.010822643702660596 0.04484224982926638
-0.014694877759409919 0.010774720571501126 0.04514973045934162
-0.016962971594458254 0.010730791419593377 0.04536263088466347
-0.01917210139368053 0.010688410055931819 0.04554306352421855
-0.021339368630302724 0.010647082816309982 0.04570341585485288
-0.023400702168435428 0.010608706439145861 0.04579414403984394
-0.02555197369984541 0.010567509270601856 0.0459649255096119
-0.027718941046216306 0.010525672791440881 0.04615943730541655
-0.029840568170132253 0.010485004929431826 0.04633041353404588
-0.03206518628449079 0.010441100225899207 0.046593503478984444
-0.03405994637190002 0.010403861469506467 0.04668805833472117
-0.036303786594681586 0.010359021938141963 0.046990291840020404
-0.03823805450905299 0.010323259608173499 0.047058936895348846
-0.040146454233847606 0.010288120185184072 0.04711706342098804
-0.04223295688596246 0.01024747430617269 0.04732844018476218
-0.04404170138066771 0.010215023583850765 0.04732686183377055
-0.04546314674262347 0.01019412913325401 0.04701977164867294
-0.04656106133532534 0.010182935954413498 0.046454303800515295
-0.04767391704722096 0.010171241111958705 0.0459043290197475
-0.0487738564004398 0.010159888100806373 0.045347057432446825
-0.0499057324473825 0.01014751282244359 0.044819580765049216
-0.05067764741759112 0.010146072749021927 0.043995236927124426
-0.0506793916930256 0.010168190128300905 0.04252506086470387
-0.050495867067321065 0.010196085184491268 0.04089217166207698
-0.05033382336998782 0.010223442581581728 0.039269370978230744
-0.05022729989486974 0.010249210450756713 0.037685912833842705
-0.05009326912916445 0.01027594094639377 0.036071339819217285
-0.05007456140798433 0.010299222212566392 0.034548281542056414
-0.049963089766271895 0.010325482439240335 0.032938038911026646
-0.04989752824023391 0.010350432752442382 0.03136003157762279
-0.049857142700729384 0.010374710069939492 0.02979669247592137
-0.04983859571380406 0.010398414050267405 0.02824538391571002
-0.04985175403243203 0.010421232229003364 0.026715087780471103
-0.04982514564021662 0.010445399233428994 0.025142652025891055
-0.049813495694786436 0.010469204714418255 0.0235763865276587
-0.04983913484576613 0.01049194304005047 0.022036516769569026
-0.04983993940112963 0.010515567680028452 0.02046741235848748
-0.04987289289792163 0.010538282120653096 0.018920411131246706
-0.049943561515472856 0.010559903709190658 0.017401003613963684
-0.05010679644937077 0.010578682059823668 0.01596000701339373
-0.049939369261245425 0.010608076818873532 0.014208387040507309
-0.05003134832305728 0.010629325159392508 0.012688358013259737
-0.05023456639323137 0.01064711165700834 0.011265548136989767
-0.05012064506346681 0.010675149329671318 0.00954024243096524
-0.05024706615107832 0.010695590975777113 0.00803271339249273
-0.05029961944736172 0.01071850630284667 0.006449019686587287
-0.05034240188686506 0.010741842809347209 0.004849013577332861
-0.050429987784352426 0.01076383720190052 0.00328469901735845
0.06386016083510676 0.010807314645565813 0.046934083398751214
0.061166538999435416 0.01076308671784883 0.047026658992545656
0.05849352007581954 0.01071918643887671 0.04711932109524192
0.056549758921084714 0.010692854187785525 0.04676919084193509
0.05655394051416296 0.010713896482681593 0.045202846433140986
0.05655948867749788 0.010735054728854316 0.04362947200815842
0.05656370602900479 0.010756263607741947 0.04205073059884046
0.05656794007762961 0.010777556455831103 0.04046573871033238
0.05657354908404999 0.010798967136932056 0.038873586283437955
0.056577819538258745 0.010820429559125783 0.03727597487975309
0.05658347060650609 0.010842011092904466 0.035671114201415166
0.05658914426208522 0.010863678888216918 0.034059838884262505
0.056593471538421036 0.010885399562704432 0.03244301027643165
0.05659918801185754 0.010907241303715391 0.030818796638324264
0.05660355283698287 0.010929136699063587 0.02918896554507705
0.05660931263495761 0.010951154488826042 0.027551657144925024
0.05661371547482824 0.010973226721724976 0.025908666058292507
0.05661813609850569 0.010995388108214241 0.02425903864466461
0.056623960440344345 0.011017673918799934 0.02260179278040586
0.056629808440033735 0.011040050252072046 0.020937815352673805
0.05663428873800569 0.01106248264815876 0.01926802148568485
0.05663878728014665 0.011085006391103984 0.017591428058614134
0.056643304178121134 0.011107622040005741 0.01590799345404048
0.056649239625948145 0.011130365601858882 0.014216697545229973
0.05665519943002484 0.011153202492583773 0.012518461354114052
0.056659777863880656 0.011176097552421087 0.010814235147018236
0.05666578391672 0.011199122685179507 0.009101997148683316
0.05667040305703125 0.011222206856235985 0.007383697623095986
0.056676455920924795 0.011245422568145935 0.005657283963982962
0.00014975329413979832 0.00981991485876421 0.0447408009998404
-0.0018461698022866901 0.009788920446094588 0.044676652259130256
-0.0038898653127859006 0.009756568487899034 0.04465694493138961
-0.005961009318493304 0.00972337464394863 0.044667393360471264
-0.008181265166971374 0.009686189792175668 0.04479816468708819
-0.010449402329815172 0.009647610341964779 0.04497601456082634
-0.01256306772846083 0.009612878339679647 0.04505064953973692
-0.014853263940871608 0.009573410918190651 0.045268519485383074
-0.01733121658658887 0.009528885826196588 0.04564031025744103
-0.01938560190625821 0.009495234039820926 0.04570492763958656
-0.021502840541461454 0.009459796081847893 0.04582802125660973
-0.02369540892481009 0.009422233506647315 0.046019995614577314
-0.025795818981249663 0.009386933985964461 0.046152806981168915
-0.027964148357260243 0.00934969658113749 0.04634938624907381
-0.030146368811837576 0.009311934700536428 0.046568575865832795
-0.03267265718585183 0.009264913550360729 0.04706915485228058
-0.034428871385565885 0.009238099950736725 0.046978478915914
-0.03657394179063006 0.009200844819098903 0.04720410088901067
-0.03854824739707652 0.00916797515883697 0.04730574848859809
-0.04008274882532031 0.009146694836135925 0.047066103526831105
-0.042545285411786204 0.009100517903372522 0.047579617216604586
-0.04427138219143728 0.009073868673044437 0.04751255958735473
-0.04540888098498885 0.009062904830436846 0.046975663471146456
-0.0466882244299302 0.009048077676802182 0.046558215228688915
-0.0478152485736964 0.009037292865056244 0.04602043323061672
-0.048919744469595405 0.009027069915001604 0.04546754247698204
-0.05002861663160518 0.009016683982882603 0.0449216069356414
-0.05100490259385737 0.009009850710468637 0.04426838753409301
-0.051231923977491045 0.009023364564304803 0.04298869052247345
-0.05106654559724433 0.009047632676506092 0.04137356589167179
-0.05085371946195061 0.009073303366134109 0.039710250189019525
-0.05072878171484413 0.009096681001148004 0.03811342644150845
-0.05054247124579009 0.00912184551386877 0.0364563092279761
-0.050477834729585336 0.009143775621700967 0.034895714988486204
-0.05041550329223027 0.009165739322462863 0.033329865119997526
-0.05031526550557186 0.009188847416754936 0.03172373299044673
-0.05030571831789393 0.009209547993853843 0.030189300734475233
-0.0503286353191052 0.009229440246417305 0.028676540589546884
-0.050373658343043415 0.009248806750786128 0.027176695622608993
-0.050199121288922344 0.009274378192109667 0.02547516011412526
-0.05031574859423377 0.009291932666608885 0.02402529334749165
-0.05042661725872333 0.009309727293556423 0.02256435614035235
-0.050293731927230134 0.009334440472641176 0.02087727255219729
-0.05029556172048938 0.009355477449100952 0.019304161205469517
-0.05047760364207071 0.00937153108707226 0.017888410913306507
-0.050462876992324324 0.009393215364949725 0.016286693702517507
-0.05045524852275496 0.009414797344154235 0.014684156337088305
-0.05047451899793404 0.009435714497766907 0.013099207736066376
-0.0507626611396918 0.00944908084161962 0.011757685115663719
-0.05060976457414923 0.009475079770946594 0.00999843692474528
-0.0507188840837553 0.009493712415384539 0.008477005543388316
-0.05094230668597327 0.009509157713352444 0.007057367309603324
-0.05086957965535194 0.009533174093163649 0.005350623157742429
-0.050942675371302204 0.009553106537655997 0.0037750610317003885
0.063486021351156 0.00944848321432207 0.04716386695699759
0.0607948097942973 0.009409819466445197 0.047256269229151326
0.058125533667789 0.009371470857654576 0.04734791835211616
0.056274258539559086 0.00935038341509924 0.04694131097987764
0.05627924141301133 0.009368801027932775 0.04537544317186504
0.05628289556501859 0.009387262525964859 0.04380424658036808
0.05628791521011317 0.009405825852371773 0.042225987026211664
0.05629160099124053 0.009424433700647652 0.040642338224870844
0.05629665783556548 0.009443144476744573 0.039051539269518876
0.05630037563399937 0.009461900422435979 0.03745528961285449
0.05630547011188075 0.009480760412029667 0.03585180124613818
0.05631058493949315 0.00949969573736021 0.03424190778690156
0.05631435287472247 0.009518677225371822 0.032626469522720525
0.056319506011327625 0.009537764463752648 0.031003657070274693
0.05632330697318361 0.009556898541210043 0.02937523579228457
0.056328498870671206 0.009576139528138754 0.02773934823911267
0.056332333270047275 0.009595428042432295 0.026097786775980847
0.05633618314726746 0.009614794416426695 0.024449599012699885
0.05634143264206665 0.009634269471558534 0.022793804122461736
0.05634670344601883 0.00965382358143678 0.021131287893315198
0.05635060598025138 0.009673426631952609 0.01946296430479716
0.05635452439566896 0.009693109456350475 0.017787851535697397
0.056358458789410704 0.009712872542578464 0.016105908059044605
0.05636380752359382 0.009732747355227793 0.014416115109144312
0.056367777043807576 0.009752672571897677 0.012720376868180339
0.05637316688586003 0.009772710766642918 0.011016689462966411
0.05637857892180714 0.009792831473322586 0.009305986727973448
0.05638260342540663 0.009813003716866648 0.00758923210867124
0.056386644543334974 0.009833259237520046 0.005865390208140253
-6.435267295284985e-05 0.008587624290200354 0.04489538710209634
-0.0019656949257443324 0.008562619573145299 0.04476342227899999
-0.004021047936327848 0.008534043562096609 0.04475269795443859
-0.006162296065275241 0.008503411009366264 0.04481511834589741
-0.008400316334625624 0.008470463168084004 0.04495980284359752
-0.010626197424695949 0.008437653271432905 0.04510718170332079
-0.012813535661362507 0.008405581677185038 0.04523748552925033
-0.015320565512167261 0.00836610231197995 0.04561899386395296
-0.01734617022504159 0.008337434154137478 0.04565158622054988
-0.019556419384630874 0.008304426965718818 0.04583443187211683
-0.021767801087430705 0.008271255054097214 0.04602998571060174
-0.023976093846082958 0.008238014236622637 0.04623510141077014
-0.025974171951874958 0.008209466437452082 0.046290226981197835
-0.028237468681183875 0.008174686864472763 0.046561112834991314
-0.0304328696705658 0.00814132752608462 0.04679170722420134
-0.032598348082951756 0.0081085188078033 0.04701097062195175
-0.03467009476010169 0.008077743862087022 0.047168371793964825
-0.036793588501283 0.008045635082836747 0.047377935984625474
-0.03879293249076987 0.008016280130987504 0.04750043740685023
-0.040435074895020406 0.007995135563647908 0.04734793986750779
-0.042906586975951455 0.007954503173246736 0.047870178747120296
-0.044495482586181134 0.007934382628507843 0.04769374555470579
-0.045582994722122294 0.007925952050528207 0.04711718622807509
-0.04686226450803016 0.007912971184985972 0.0467004322227863
-0.04793914074591532 0.007904708604055604 0.04612221096731206
-0.04904308878820246 0.007895770129985736 0.04556940924241776
-0.05014540142188173 0.00788683150962682 0.04501856900615281
-0.05128196509796806 0.007877040632488895 0.044499643742259176
-0.05174847049980397 0.007883152000302804 0.04342212453908245
-0.051630130619776116 0.007903237877290624 0.04184897641354529
-0.05138746484974749 0.007926383427159985 0.04016287379779815
-0.0514441674042288 0.007942459874070542 0.03872329324975465
-0.05103112948026989 0.007969883939263893 0.03687509281035534
-0.050897488262468704 0.007990707075315467 0.03525726053446304
-0.05087886663761604 0.008008848999314887 0.03373117474621612
-0.05079912314548046 0.008028548520122985 0.03214500186407243
-0.05075745907618867 0.008047413386612223 0.030584679229527956
-0.05079095613907986 0.008064537900943072 0.029083309154433246
-0.05088252269776483 0.00808032620638584 0.027626770036534964
-0.05080735422021487 0.008100250638919766 0.02601595032302023
-0.05079091514101963 0.00811882930546149 0.02444999075320764
-0.050877798540775676 0.008134960941506455 0.022969732095062145
-0.05094998228719455 0.00815152614161895 0.021469990334414768
-0.05084414057810033 0.008172546133736622 0.01980222769650214
-0.05091036470004068 0.00818941841279185 0.01828338143720437
-0.051096208204910454 0.008203410931347932 0.016867744481766256
-0.05105256267467434 0.008223151730754347 0.015235028905729697
-0.051074912137130224 0.008241344065408352 0.013655813506252668
-0.05117443440823827 0.00825769917176584 0.012141420901030597
-0.05123575509282963 0.008275081978007946 0.010584848635081023
-0.051169564150016056 0.00829573215521092 0.008901393007571146
-0.05142855042471489 0.00830832979508207 0.007517630412553544
-0.05144204179609957 0.008327150782821929 0.0058953208126625856
-0.051461023248090265 0.008345920583179291 0.004270836852027671
-0.05149187818417156 0.008364477787744148 0.0026503460935032863
0.06311113069680163 0.008091900187189534 0.04739411185818054
0.06042370224856192 0.00805881534446613 0.04748549547827202
0.05775816015401708 0.008025999943919802 0.04757613487224788
0.05600044466393661 0.008009618839716546 0.04711237746545471
0.056004885426334194 0.008025385672268587 0.04554782432765103
0.05600799700349507 0.008041190034928411 0.04397795039410607
0.05601247022981343 0.008057081530738112 0.042401023683989736
0.056015609116077336 0.00807301110088678 0.040818715847766196
0.05602011518235839 0.008089028744329164 0.03922926821973405
0.05602328171411258 0.008105085015786334 0.0376343781476024
0.056027821002305356 0.00812123031489634 0.03603225990736025
0.056031015521394056 0.008137414805339725 0.03442463689713593
0.056035588419475146 0.00815368929228556 0.03280969595471228
0.056040179645391375 0.008170029006259358 0.03118828243967381
0.05604341817540576 0.008186408775297013 0.029561268709402067
0.05604666971707806 0.008202854354580747 0.027927718002063173
0.05604993434898531 0.008219366141525221 0.02628759084218768
0.0560545916119764 0.008235970411962694 0.024639915114606337
0.05605926772967268 0.008252641904099087 0.022985568840270476
0.056063962816805035 0.008269381026978776 0.021324511428869153
0.05606590116335419 0.008286135809708339 0.019658609468642008
0.056069238112884556 0.008302984922786041 0.01798498217317629
0.05607398224637916 0.00831992910324864 0.016303566384853974
0.05607874578246119 0.00833694258224786 0.014615273919638905
0.056082129513243484 0.008353999163458648 0.012921045538198339
0.05608692932472892 0.008371152411585168 0.011218880007228538
0.05609034378035532 0.008388349404392419 0.009510707976847388
0.0560951803043066 0.008405644151095085 0.007794497706143488
0.056098625877598396 0.00842298329648777 0.006072209151109675
2.328043465171792e-06 0.007362102488075553 0.04484724312840588
-0.0021064676245695635 0.007336676834876315 0.04486561711068743
-0.004172218457256904 0.007311976822185598 0.04486304057439866
-0.006252386082400696 0.007286895627151131 0.04488123569678948
-0.008555884282111459 0.007257382001153337 0.045074596645031384
-0.010852086276351314 0.00722788726279976 0.045274772298597055
-0.01321804781496927 0.007196911916412209 0.04553923045768782
-0.015332635161978025 0.007170709455636729 0.04562804605482246
-0.017593226576132104 0.007141543933419324 0.04583788190434074
-0.019823678163887803 0.007112846285370085 0.04603705249047729
-0.02172089911330366 0.007090567644264528 0.04599423498567379
-0.02425247810365805 0.007055719568635496 0.046446911348800524
-0.02640397921398946 0.007028214897230792 0.04662139115393438
-0.028541611498029584 0.007000867741240594 0.04679671595194085
-0.03076106843729387 0.006971785182718758 0.04704731356674419
-0.032884265333237184 0.006944488216193292 0.047234844609072124
-0.0347988559387718 0.006921221220561406 0.047269733574704154
-0.03704024469118311 0.006891345689741422 0.047573147204624244
-0.03901744762581677 0.006866615749958495 0.04767907766692381
-0.04093229631409201 0.006843027126033893 0.04774568240576649
-0.043218565524387575 0.006811891482989332 0.04812107432442314
-0.0446920949165473 0.006796949513815559 0.04785270732410046
-0.04584950418071837 0.00678830754390388 0.04733380987850627
-0.047022222375121325 0.006779319332750254 0.046831141926483744
-0.04808630604827929 0.006772488798158979 0.04624310764001066
-0.049163757268742114 0.006765357724449398 0.04566906610494231
-0.05024666305144593 0.0067580848487960995 0.045102642773315826
-0.05138958678931693 0.006749558741272919 0.04458947251334333
-0.052188486340287166 0.006748012430007171 0.04379134168579407
-0.05213888228104396 0.006763804167106156 0.042278132411518454
-0.051889509045473625 0.006783757797723683 0.0405886143490633
-0.051866425323408794 0.006799153125098567 0.03908326842573068
-0.051594245235675906 0.006819741945348566 0.037357687017724295
-0.051416459181435115 0.006838475116552054 0.03570437132834714
-0.05139297368694101 0.006854102166371344 0.03417643246859631
-0.05133026525226331 0.00687061102948076 0.03260743878477884
-0.05133783835849964 0.006885734287446394 0.03109264642749815
-0.051368144658066994 0.006900451973896541 0.02959114296894788
-0.05140995277914573 0.0069149955746271715 0.028093265248003207
-0.05154481782583903 0.006927659472330437 0.026671641714951955
-0.05144315546240674 0.006945334565380929 0.02503295429361302
-0.05152588130263175 0.0069592182366878625 0.023552019478801256
-0.05161951700281775 0.006972934947977076 0.02207470639397363
-0.05155362229867799 0.0069900778469575535 0.020446381342085262
-0.05157865714002724 0.007005376497155893 0.018893315742237904
-0.051608239726524674 0.00702064824763748 0.01733750865684769
-0.05168775226604194 0.007034929354879514 0.01582083207253321
-0.05164996659805837 0.007051771744606874 0.014188928577408388
-0.05168704802894747 0.007067094253821539 0.01261913085784011
-0.05182003643002803 0.0070804366496595925 0.011132188264099785
-0.051783221317169725 0.007097478691160008 0.009479249514974974
-0.051907983192304274 0.007111129067148717 0.007971446463404475
-0.051997238441544524 0.007125606712943148 0.006423590350973729
-0.05198046134118384 0.007142439002946823 0.004767655413933369
-0.05206122279820541 0.007157239953690003 0.0031977315255016237
0.0627368690346582 0.006737593237463062 0.04762397045405614
0.06005457575647932 0.0067100892902311636 0.04771349806728842
0.05739274527699212 0.006682788537783126 0.04780313466540881
0.055726971912555046 0.00667052462264486 0.04728323083208408
0.055729529550625434 0.006683626821290248 0.04572083372570368
0.055733442266614364 0.006696801120854115 0.04415143695078977
0.05573602275873041 0.006710006849220829 0.04257669739326159
0.05573996379815649 0.006723285454273802 0.040994871996958504
0.05574392046653609 0.006736616718280374 0.039406773556899255
0.0557465371167738 0.006749980098518043 0.037813240911740376
0.05575052261199398 0.006763417541408454 0.036212490617810345
0.055753162841781057 0.006776887568675195 0.03460624393150735
0.05575717749886289 0.006790432464036756 0.0329926900152932
