# .PCD v0.7 - Point Cloud Data file format
VERSION 0.7
FIELDS x y z
SIZE 4 4 4
TYPE F F F
COUNT 1 1 1
WIDTH 775
HEIGHT 1
VIEWPOINT 0 0 0 1 0 0 0
POINTS 775
DATA ascii
0.0034096988718367305 0.007106290551513642 0.06625120018614705
0.005549331058805895 0.007080436637048642 0.0662754650352777
0.007580496793490432 0.007056517258873936 0.06623638050802111
0.009290177044422143 0.00703855594831796 0.0659872045911038
0.01162477363059955 0.007008729068988273 0.06617469340835946
0.013627916277159868 0.006985048960327886 0.06614518231065492
0.026401477958180153 0.006757196426897499 0.07360868268959228
0.030593784539531932 0.006691344037036366 0.075169166465505
0.03421491747092409 0.0066360898382124495 0.07635512560562768
0.035021872938822585 0.006634259266009503 0.07557569692510221
0.03524942158069927 0.006643489586188866 0.07438548605692091
0.0403578672165118 0.006559326979106375 0.07667723877307878
0.041218796868350005 0.006556292074890404 0.07595339707117901
0.0417504765001534 0.006559573175963722 0.07499307885777229
0.04207527278817352 0.0065668525208467336 0.07388122418884163
0.04219052415680902 0.0065782062804468355 0.07261342094981599
0.042274482759341536 0.006590212305231931 0.07131796733310136
0.04234587829760145 0.006602511665187343 0.07000827949006672
0.04239089541346608 0.006615374498239941 0.06867392528405392
0.04245589380968634 0.006627902103440259 0.06734913571931955
0.042530626399477967 0.006640292219076105 0.06602643472465475
0.042617733168078376 0.006652492388600233 0.06470789899354656
0.0427198685738403 0.006664449431799678 0.06339566002382524
0.04281024128649985 0.006676687597209284 0.062069448982082776
0.042908757064167635 0.006688817186534472 0.06074434393476802
0.04299372455143807 0.006701265004228576 0.05940370028374742
0.04282023837610971 0.006718869865473635 0.057857601864437
0.043175947759311606 0.0067260757947311366 0.05671621612920014
0.04326450955232031 0.006738610838669557 0.055362604155897666
0.04332540723868811 0.006751749111378053 0.05398189971243994
0.04338040751157607 0.006765060920660308 0.052590945134856015
0.04346284345076201 0.006777882024349045 0.051216151753854855
0.043477865607904176 0.006792106597317618 0.049781960718403684
0.043496477137672684 0.006806320313484481 0.048344573007277625
0.04356727564287133 0.00681954679165876 0.04694328693495292
0.04378159464439152 0.006829940823499087 0.04565297605414442
0.043885951599021866 0.006842598443828692 0.044268335661848346
0.043972076675462046 0.006855679555756984 0.042863257676038824
0.04381411198924701 0.006873763735287751 0.04125093751171138
0.03186885914363091 0.007131305645651017 0.029844235286059895
0.03362799180485149 0.007111051902871449 0.029764373316775894
0.03746344711273314 0.007048358912085251 0.031435566123613035
0.03996736879288326 0.007012610089102182 0.03201088727891621
0.042235588636731325 0.0069815330578957965 0.032401953828581465
0.04472149668158343 0.006945849830515506 0.03299221168445726
0.046903902223927596 0.00691625440510724 0.033338029698047056
0.04914760749074437 0.006885264068110399 0.03374967975786275
0.05113438239991891 0.006859446722456005 0.03395247178251354
0.05288685543486654 0.00683836808370536 0.033962678299124416
0.0543379656436499 0.0068234519475976465 0.03371845733605361
0.05537854739693193 0.006817010841580539 0.033119657576604344
-0.08243358893379027 0.009516574289023525 0.06393363072714986
-0.08133575044831937 0.009511986615837327 0.06301680161753942
-0.0757028245506936 0.009414309090216795 0.0646397921648656
-0.07148061297542502 0.009345269145982577 0.06550000204764589
-0.06870933717315747 0.00930585788032845 0.06556078255252862
-0.06656071461311913 0.009279148451801974 0.06527960499059526
-0.06476035340057207 0.009259539163218714 0.06480752501709125
-0.05967868724749725 0.00917187321764589 0.06623306746318874
-0.057674758321776154 0.009147759145274718 0.06590283471828645
-0.05685185277280691 0.009148114857595488 0.06489177674341917
-0.05665886896602951 0.009161597557090862 0.06351113957014715
-0.0564916862712555 0.009175670596971448 0.062110869804940905
-0.056347753045145166 0.00919028400628308 0.06069219116687785
-0.05594837082271781 0.009199600161640958 0.05942116148610105
-0.05347680734197924 0.009165441364920897 0.0593908660749391
-0.04991057833395163 0.009108120810322144 0.06003268281162577
-0.04698172448682586 0.009064013527719806 0.060306439220527475
-0.043315323712320886 0.009004158330669575 0.06104518876973014
-0.040003868518862784 0.008951581462349745 0.06158579477951209
-0.03672475402566194 0.008899485557053057 0.06212389631832155
-0.033507686614000054 0.008848504493488346 0.06264079924074611
-0.030170366909342994 0.008794764583899736 0.06324983804379586
-0.02694950748612074 0.008743297891337726 0.063803666643304
-0.024077370982796165 0.008699080886243783 0.06415438014367897
-0.021154070248756263 0.008653594566225652 0.06455244507324492
-0.018382076019571814 0.008611174958247269 0.06486910901528625
-0.01575220891696777 0.008571642911239113 0.06510872162381154
-0.013251405166946173 0.008534734196805886 0.0652782640270812
-0.010709685222367649 0.008496796225146222 0.0654868838549515
-0.008258643391575893 0.008460668329752615 0.06564909310705386
-0.005847638498434393 0.0084252641211866 0.06579725523609725
-0.0035214130785282682 0.008391559252806376 0.0659014275639872
-0.001253631974870717 0.00835899105015454 0.06597824515166556
0.0008571907717056515 0.008329713561763229 0.06596128044434879
0.0028036476565925783 0.008303908364662963 0.06584386511365348
0.005278961152511974 0.008266426108086906 0.0660927331694725
0.007389392050729859 0.008236793971433601 0.06610650203817003
0.009261074468505326 0.008212288048806114 0.06596731603590034
0.011371394835199278 0.008182429080221315 0.06600057504787243
0.013372813641966574 0.0081548516173862 0.06596890834259944
0.026406074098299537 0.00788329422990946 0.07361187615275624
0.030657643179320515 0.007805153523925198 0.07521378139941218
0.034379957620029156 0.007738441590532454 0.07647106704980919
0.03579779682473566 0.007722711612173047 0.07612378876943865
0.03910441438692208 0.007664822451524618 0.07712352465178052
0.040274679141334924 0.007654405939131758 0.07661782932164563
0.04108111041971485 0.007652088620597941 0.07585452790346339
0.041571907899905225 0.007656839676827806 0.07486415099895313
0.04188983610146313 0.0076654948393431645 0.07374660525246263
0.04197485977040899 0.007679430151062398 0.07245600286802859
0.042004433678583974 0.007694674369892376 0.07111977745146714
0.042089131384172085 0.007708735503291906 0.06981882559114161
0.04216811426352879 0.00772298463260692 0.06850864034298354
0.04226290703399466 0.007736934215379455 0.06720517766935435
0.04235458940628695 0.007751012856458969 0.0658944076578018
0.04244055295195093 0.00776528083876979 0.06457429421321215
0.04253116410216107 0.007779502502963933 0.06325259487608592
0.042610830481285944 0.00779403455880152 0.061917449391925616
0.042698615249743055 0.007808441579830017 0.06058329957905334
0.042699675403390036 0.007824903462267252 0.059177137004248315
0.04252002481856021 0.007845598807668568 0.05762504253378198
0.04263271742577196 0.007859631676370061 0.05629313983278783
0.042663446855697396 0.007875620739241402 0.05489197042439681
0.04271010778807416 0.007891308467038956 0.05349753129762508
0.042748157615058624 0.007907263250028185 0.05209056331312584
0.04277930992446244 0.007923446896065193 0.050672283711810984
0.04289800493923046 0.00793765687558452 0.04931811253055757
0.04298176164088474 0.007952745014977733 0.04793063479786969
0.0431419885446096 0.007966105793794044 0.04659944080122108
0.04357022193037963 0.007973229128860792 0.04548116853499662
0.043704384432567966 0.007987305482433154 0.04411996790126271
0.043777781026780704 0.008002876306684567 0.042703643303166394
0.04357201170652275 0.008025114640166357 0.04105099337978302
0.03566092048296393 0.00823001149290253 0.03299264286633713
0.037656435760089424 0.008200573417521045 0.033126801144707396
0.03954779252505941 0.008173485295451465 0.03318453967205515
0.041646750600520255 0.008141327529674534 0.03342752496386925
0.04366536992951481 0.008110948779383424 0.03361442850901847
0.045575362957641974 0.008083038370172786 0.033720133291187726
0.047631262935062146 0.008051502219495969 0.033961383000616685
0.04947350311394638 0.008024967240700136 0.03403044973068403
0.0511178813594268 0.008003085726311495 0.03393818056492359
0.05236155469342696 0.00799079058682229 0.03350532714165827
0.05319442573664296 0.007988390340852119 0.032717593280368384
-0.082707484693757 0.01088248489394068 0.06378212922610776
-0.08165224998741671 0.010878251252045676 0.06284069565644429
-0.07605610872056617 0.010767496526157046 0.0644420546878165
-0.07185867873162188 0.010689191717319258 0.06528714377237727
-0.06902156506722651 0.010642617034019124 0.0653839558316488
-0.06687056492135152 0.010612049822268526 0.06510309235673778
-0.06505066255549624 0.010589191273911915 0.0646411734116828
-0.05966673889122864 0.010481857910529037 0.06623995417045886
-0.05801774317136649 0.010462718453466809 0.06570399165632357
-0.057204753030432154 0.010463376191321401 0.06468599140133485
-0.056950140338849986 0.010477333433137503 0.06334030247084854
-0.05675028767956952 0.010492650722928746 0.06195831277620406
-0.05651417217270033 0.010507159986823776 0.0605934458269598
-0.05641497583136301 0.010525004459663886 0.05914269692298385
-0.05424077255733106 0.010493123219882643 0.05893230573624453
-0.05047603479445384 0.010422876558443551 0.05969131726215554
-0.04752785558586148 0.01037202899984831 0.05997484240819123
-0.04400805101980504 0.010307186953419641 0.06062216572658585
-0.04084003611641085 0.010250600525087748 0.06107224950001883
-0.03758884450585648 0.010191778313698656 0.061590163652542884
-0.03437596350941391 0.010133656722857577 0.062101415958735307
-0.03114937271748519 0.01007497443278274 0.06263819963585293
-0.027975248189475777 0.010017341074500514 0.06315918146139632
-0.02482096096078562 0.009959965988477088 0.06368451804502595
-0.021880419232542803 0.009907595453524492 0.06409087304399924
-0.01905000058569284 0.009857718505222757 0.06444225968439132
-0.016383553467856693 0.009811672732709399 0.06470296792559427
-0.013762964894716345 0.00976657360325378 0.06494763792702168
-0.011227765372865461 0.00972340168688435 0.06515015649966649
-0.00876153918590833 0.009681762798167926 0.06532039584945032
-0.006314197672552535 0.009640425833141434 0.06549059500313875
-0.003947180656087401 0.009600916952194855 0.06562000946003727
-0.0016247395276078325 0.009562358396285515 0.06573158211567359
0.0006082645630204331 0.009525873355958104 0.06579490244432862
0.00282016445672556 0.009489768732093447 0.06585496627443044
0.00444911550147864 0.009468098530848328 0.06553187472844935
0.007031939458894909 0.009422436700812801 0.0658635703610112
0.00883908015101631 0.00939606870535809 0.06567892722444574
0.011091780639410631 0.009358383074452751 0.06580842808757648
0.013103539967635247 0.00932661951501068 0.06578284229498182
0.026393204607284393 0.0090098042521494 0.07360293424836947
0.03055509833343839 0.008922771397959443 0.07514213828993321
0.03442935102409417 0.008842680294466932 0.07650576613746385
0.03726455944434992 0.008788673086722074 0.07715987058620355
0.039044931795343074 0.008761312145489662 0.07708127667891718
0.04017943497009019 0.008750323404131769 0.07654980990956259
0.04093560676055369 0.008748965436583796 0.07575004539393945
0.041377748361097866 0.008755649828701874 0.07472396636641998
0.04166995645537053 0.008766212224294068 0.07358698223172455
0.0417452027349986 0.008782401581128195 0.07228837125027857
0.04180183055054676 0.008799138144698498 0.07097108636963939
0.041912016932764196 0.008814560211295439 0.06968813259496492
0.04201483695066016 0.008830237200614151 0.0683949214236223
0.04205848186417416 0.008847515068895837 0.06705268717509277
0.04206684349772427 0.00886578259670067 0.0656785993346885
0.04205097321358586 0.008884758032424191 0.0642805271295917
0.04206630239782638 0.008902998414295421 0.06290016280165128
0.04209300701689411 0.008921017837068035 0.06152274182190759
0.04215207531926818 0.008938264552273315 0.06016445304336182
0.04228121579167299 0.008953742789545055 0.05885471613481913
0.042318130384644936 0.008971715096402093 0.05746864575144617
0.04233591633688205 0.008990268396253423 0.056061986493760374
0.042431904771382034 0.00900683249342117 0.05471067234059773
0.042526489514444654 0.009023504330476842 0.05335298559383772
0.042619664224603004 0.009040284765541695 0.051988869730966836
0.04261174636030862 0.00905982748838825 0.050538958184901506
0.0427982246798948 0.009074269142563263 0.04923829526586615
0.0428650055357937 0.009091972188740916 0.04783673862924753
0.04295863662336952 0.009109032219797582 0.04645120011983572
0.043376305915738156 0.009117467350166586 0.04532355013304573
0.04351552565980832 0.009133429813028402 0.04396564179853957
0.043589483500873494 0.009151220915239667 0.042548956403510696
0.04342676387976219 0.009175484020297827 0.04093103709427465
0.03656246801505303 0.009381315632557868 0.033741164271982094
0.03850077233647953 0.009349171406515942 0.03383154491975804
0.04049705747597526 0.009315309854634933 0.033981067579472446
0.04241019290245751 0.009283566283880305 0.03407152451792733
0.04420091687900807 0.009255027088174004 0.03406857986749773
0.045906803107894745 0.009228684815450567 0.034002686254657244
0.04762684811599749 0.009201837946342823 0.03395759946927929
0.04909673841250661 0.009181750807675644 0.033705854346604
0.0502147764999229 0.009171270808649863 0.03315601970301518
-0.0830543015341027 0.012251912398209394 0.06359029247804926
-0.08194021983111532 0.012245616859077778 0.06268046412424172
-0.07671183015385141 0.012130735733104492 0.06407503937005793
-0.07219975472015822 0.01203435744875007 0.06509511144608116
-0.0694458954305005 0.011984183082876146 0.065143641150825
-0.06715348818514327 0.011946063828269007 0.0649419192704293
-0.06537125335593941 0.01192136367816158 0.06445746995821494
-0.059993559585294676 0.011800795808293508 0.06605158361979419
-0.058250220704546496 0.01177676266470197 0.06556921443630848
-0.057431539732464953 0.011777362300517206 0.06455374616192344
-0.057237836138085474 0.011794707574683531 0.06317156252450273
-0.05709115586388197 0.011813381537375251 0.061757224012888134
-0.051717962401033934 0.011691569393830007 0.06343929276282118
-0.05082747231381396 0.011690074800910168 0.06247725548344135
-0.050973131384454085 0.011716547303131333 0.06089366551134473
-0.05006922188417162 0.011714732206552858 0.059936909845051733
-0.04809587073253219 0.011683926660651043 0.05962995816276501
-0.044869862121456494 0.011618986952092914 0.060095889440235695
-0.04165830115756636 0.011554187944720727 0.06056969935278517
-0.03847620501932347 0.01148993982479894 0.061042057518735204
-0.035279465372687335 0.011425041088728348 0.06154015053420381
-0.03202869817688375 0.011358410125887983 0.06208883698695217
-0.02942800481723673 0.01130934314765422 0.06224639705453039
-0.025883617652163737 0.011234156849651619 0.06301304301451432
-0.023552638309925822 0.011192077257289545 0.06302823019583664
-0.019901134013077693 0.011113409232642476 0.06389832740160156
-0.017149663194795106 0.011059304327907088 0.06421060309167309
-0.014506075344119018 0.011007972806537258 0.06446735831066014
-0.011894617507561267 0.010957329320973885 0.06471673445972442
-0.00938218151690029 0.010909237629958162 0.06491473838631623
-0.006934789051743828 0.010862766453142046 0.06508269241012993
-0.004531612768020721 0.010817344152262499 0.06523371941472511
-0.0021653340050035164 0.010772772327220364 0.06537226667180457
0.0001355595390178932 0.010729854411868828 0.06547895452985053
0.0023768105966003317 0.010688439102200829 0.06555698225556877
0.004451166461212297 0.010651553140978683 0.06553326088752287
0.006622007828507026 0.010611798433455043 0.06558497291685966
0.008363700298248844 0.010584006651926233 0.06535405500449537
0.010732940657521672 0.010538338590067501 0.0655618382763612
0.012732029300033365 0.01050298455682332 0.06552613126765944
0.026220295698780427 0.010140944161848225 0.07348279469307178
0.030397566813359422 0.01004260425524483 0.07503207865853662
0.034356137941312814 0.009950104659362554 0.07645433361879078
0.037214127764736815 0.009888699362670592 0.07712424699889822
0.03896645227046863 0.009858724950427682 0.07702553598656994
0.04002401332371203 0.009848576482648573 0.07643881425624893
0.040757410222983015 0.009847713223457032 0.07562208695261091
0.04118679500708239 0.009855611519695735 0.0745860966231765
0.041456650790224425 0.00986815135414032 0.07343213163406248
0.04154185265204996 0.009886088902002972 0.07213994164387283
0.041605006571152015 0.009904740407335593 0.0708266366234318
0.04145289959901366 0.009929727191355682 0.06934934928582476
0.04149110591307925 0.00994927386044293 0.06800635688973927
0.04153812023434572 0.009968644911838506 0.06666452459121441
0.0416390806419526 0.009986518815561405 0.06535777884047062
0.04175255955042195 0.01000410059110001 0.06405550487379352
0.04186556925038687 0.010021769924886799 0.06274797818652766
0.04192498472970102 0.010041091243179593 0.06139466792559478
0.041988992397849034 0.010060358509304652 0.06003947275764415
0.042096942137085314 0.010078408122550791 0.05871273427979312
0.04208797622798499 0.01009999767932979 0.057290357678591586
0.04214477950316908 0.01011972627976959 0.05591312613246879
0.04221235083231356 0.010139218365176655 0.05453876100723759
0.04230570983042309 0.01015802463419241 0.05317918614469769
0.04239148153912786 0.010177137851232657 0.05180827900493551
0.04242193580043929 0.010197989084767309 0.050387931360929505
0.04256045895256039 0.010215687038167071 0.049048099227896824
0.04263036658599262 0.010235524265066626 0.04764804015923041
0.0428194406334117 0.010251855855063968 0.04633865966616668
0.04318128123826731 0.0102630404247341 0.04516503059013549
0.043309580987369756 0.010281341417842677 0.0437973539387298
0.043392079834591035 0.01030111085766983 0.0423867887862211
0.04322695660415976 0.010328492909541898 0.040766021622901605
0.03708891683505666 0.010537943215539197 0.03417825515928796
0.03882300385609899 0.010507980498670721 0.034100502423112744
0.04066494238844032 0.010474587066071349 0.03412193975418376
0.04242557165503691 0.010443540518553064 0.03408449722035417
0.04401869735028946 0.010417505040979234 0.03391405513985746
0.04557536295764841 0.010392477904507669 0.03372013329119322
0.046817861957770324 0.010377037263453303 0.03326429257801561
-0.08340745281234035 0.013623550895848954 0.06339495192675915
-0.08225319434800454 0.013615399558182062 0.06250631954806868
-0.0764680174494331 0.013471447098523258 0.06421150432704026
-0.07272140514625064 0.013386831027471813 0.06480141224648112
-0.06970805518928458 0.013323474123878793 0.06499516994958704
-0.06749565770779692 0.013283493101887575 0.06474699532791689
-0.06569366460168552 0.013255483970058705 0.06427272336162343
-0.060387447466620114 0.013123653293158108 0.06582455736823617
-0.05853586922183995 0.013093762340638561 0.06540361171102294
-0.057733845386433724 0.013094939665473999 0.06437746385248394
-0.05754971106437212 0.013114514226253643 0.06298864098561324
-0.057357082378758084 0.013133910501430904 0.061600345675541346
-0.05208407870734738 0.013001572716999725 0.06322205644120615
-0.050695952999572025 0.012985034460603388 0.06255574471459685
-0.05090977624394688 0.013016485453419283 0.06093169362323414
-0.05061439598685513 0.013032754081670882 0.05960778873649775
-0.048783582634582934 0.013002849613852585 0.05921239711390991
-0.04565139028149545 0.012933565086202478 0.059618638988303385
-0.04258623718480048 0.012866037880790798 0.059999793071012
-0.03945391392380415 0.012796213245383218 0.06043814485923393
-0.03629189005781941 0.012725214849700621 0.06091122103908575
-0.03297197448577188 0.012649137903743005 0.06149952074896842
-0.030180265686478525 0.012588855626786587 0.06177374253124818
-0.027133930186580224 0.012520563958735017 0.06222299138823828
-0.024486339191960915 0.012464199900137111 0.06243489252971546
-0.02105572473506989 0.01238361676546839 0.06316046522054419
-0.01817874303055822 0.012319715971967246 0.06354923213577623
-0.015407303341494316 0.012258809721245455 0.06388488576276152
-0.012731638021578284 0.01220061469082196 0.06417271110014694
-0.010179610035808584 0.012146007717878809 0.06439353186549435
-0.007653568453853621 0.012091987778664747 0.06461025274732962
-0.005233339714988239 0.012041034054518576 0.06476990141327393
-0.002820715505395033 0.011990113084931602 0.06493665605319221
-0.0004891971462591127 0.01194151369996955 0.06506137789802602
0.0017975532605171152 0.011894116133803716 0.06516765570518662
0.003978859748890673 0.011849824511066774 0.06521404826523863
0.005675968479812055 0.011820522209234277 0.06494202632509793
0.007874978536994925 0.011775347684225465 0.06502006499084151
0.010258410352187053 0.011724190056197233 0.06523574769472534
0.012381573309518112 0.011681027733569818 0.06528396886102605
0.025706098560165924 0.011283953952763054 0.0731255232482228
0.030233584587354034 0.011163638223580232 0.07491751223182597
0.034280246154939686 0.01105807825701092 0.07640101929884302
0.03712888217871785 0.01099015226482861 0.07706403180084731
0.03882492618195005 0.010958644778984904 0.0769250159825072
0.039855552436107056 0.010948237260006112 0.07631850652104447
0.04056873098091174 0.010947935490310676 0.07548660114544747
0.04099905896323802 0.010956693580421123 0.07445054980182944
0.041260242650659196 0.01097091752277969 0.07328954790204323
0.04134599588949106 0.010990843431682202 0.07199698157345152
0.04142259146419203 0.011011147101014121 0.07069276159465826
0.04121380801659624 0.011040753109561046 0.06917292327982488
0.0413510571816198 0.011059281859733221 0.06790245246904314
0.04141687818479972 0.01108020469371335 0.06657408435786744
0.04146385612460812 0.01110182741978396 0.06522636112737323
0.04152058168037248 0.011123223192414652 0.06388057929210156
0.041621939238033534 0.011143251962202822 0.06256327157411462
0.04174546205917212 0.01116263995954256 0.06125782793683371
0.04181789298759414 0.011183784312069288 0.05990834895268837
0.041866975838675935 0.011205784854957145 0.05853554648963022
0.04186540270580674 0.011229545892107284 0.057117941916419446
0.04192092967663552 0.011251524193056993 0.055738788379741944
0.04201099088333771 0.011272454330430485 0.05438109561776355
0.04209081273140047 0.01129381279432257 0.053010017511281815
0.0421453360590795 0.011316102246244046 0.05161347197626581
0.04222572311000117 0.011337626591908753 0.05023181054509995
0.04232856075373287 0.011358494703871045 0.048862596804466474
0.04234659717242756 0.011382285735963938 0.04741983058778976
0.04264994657157123 0.011396626090510401 0.04620162311346476
0.04298248041143221 0.011410049020565973 0.04500344172554277
0.04309805036988479 0.011430825948492032 0.04362450151929459
0.04318732020852428 0.011452579216381787 0.042218578229134274
0.042952731346583284 0.011485364802109722 0.04053954633562812
0.03669910854361058 0.01172201966030659 0.03385461182395638
0.03802460907156391 0.011702616126283457 0.033434104957732746
0.039637726329149636 0.01167335026671672 0.033260003097423385
-0.08373637869547934 0.014996474036009084 0.06321301130440998
-0.08255497569323855 0.014986653676461717 0.06233840305127186
-0.07640427191576094 0.014816536010519002 0.06424718348301839
-0.07258460044000253 0.01472109383879097 0.06487843592118137
-0.0700147532773836 0.01466574999190908 0.06482147497149943
-0.06789048231885814 0.014624647930561256 0.06452207532571408
-0.06593066690678429 0.014588733762108624 0.06413691740004784
-0.06073134041394118 0.014447214690958094 0.06562634683557184
-0.058874894865791505 0.014414197217859673 0.06520706397077208
-0.05807096264914935 0.01441545102606313 0.06418088198627248
-0.05785673096181204 0.014436018623642789 0.06280856702847248
-0.05766044527816372 0.01445725382515752 0.061421382448449746
-0.05244692130690176 0.014313656446476229 0.0630067625843273
-0.050917776829351113 0.01429084317834986 0.062423362775475
-0.05103391798635387 0.014322230212274712 0.06085717913186678
-0.050925060306897585 0.014346300054408014 0.059420240969835225
-0.04951732937136227 0.014327439200793967 0.05876688489274584
-0.04715658157922342 0.01427687624124181 0.058699474121551354
-0.043456564182676904 0.014181582414661826 0.05946526826679144
-0.040416280424287576 0.014107898183940466 0.05984370891816976
-0.03728959309088581 0.01403104211593918 0.06029143679826354
-0.03398125955246373 0.013947809964818907 0.060868965234161576
-0.0308504531264871 0.013870201321151042 0.06135265572756243
-0.028259503109023143 0.013810415932159032 0.06151176064121289
-0.025653374915904692 0.013749884791193549 0.06169327787983364
-0.02281797787727019 0.01368138622382569 0.06203426532796619
-0.019606957881171727 0.013599929530853103 0.0626313443411175
-0.016640811229098607 0.013526438283349826 0.06308765744291522
-0.013823194653661997 0.013457692673607309 0.06346325141999482
-0.01111203578746045 0.013392291392683367 0.06378408992754037
-0.008647586094730153 0.013335029488466914 0.06395690436576101
-0.006090165608364395 0.013274367631912509 0.06420356820464518
-0.0036324517535983314 0.013216871669314421 0.0643971215545549
-0.0012422330995510156 0.013161457334950326 0.06455806160797467
0.001053026180461325 0.013109079715845427 0.06466724916445254
0.00332699465160069 0.013057223753029852 0.06477347953806839
0.005190416479233129 0.013019305551825127 0.06461203581854452
0.007377883943352537 0.012970045867824236 0.06468035302530112
0.009614115701004178 0.012918899895973697 0.06479299743159733
0.011848681172892728 0.012867604467325608 0.06491574447401671
0.02435459954965613 0.012459297349836817 0.07218648261976299
0.030009890619919877 0.012287788471322326 0.0747612281079306
0.03409037207041865 0.01217050876341692 0.07626763190376745
0.03698526145748432 0.012094187116640072 0.0769625819712765
0.03863316260089261 0.012061225218663481 0.07678881440901109
0.0396791789600201 0.012049250621353456 0.07619254794537839
0.04037898454414257 0.012049401667901588 0.07535034901267529
0.04080854060970035 0.012059076508220945 0.07431299413216957
0.04106704510185527 0.012074831303172606 0.07314929491870759
0.04115249581155456 0.012096774613491332 0.07185574169790718
0.04125118473875422 0.012118339461580243 0.07056696565219278
0.04102800066765949 0.012151430359790659 0.06903581578266044
0.04111652117812176 0.012173560705829947 0.06772844641185216
0.04122097710781769 0.012195214768196393 0.06642795239142907
0.04130408905101618 0.012217722442117968 0.06510653643755282
0.0414153492544489 0.012239315848299338 0.06380122757069118
0.041489537169139556 0.012262330899623336 0.062462891750686256
0.04152384854833174 0.012286877457822901 0.06108890447862447
0.041631758549725395 0.01230887384267503 0.05976570289861788
0.04164020372587396 0.01233455689899954 0.058360819802216135
0.04169872061173052 0.012358535655024976 0.056988822243920434
0.04170997875466931 0.012384330852978064 0.05557449649602347
0.0418102737144756 0.012406998152577692 0.05422393352687255
0.04189064442022361 0.012430488003653517 0.05285244349186058
0.041966017262243305 0.012454260608732061 0.051471553619733657
0.04205318753285381 0.012477703160921415 0.05009452892991123
0.04213713979476397 0.01250136420320802 0.04870947335648956
0.0421769967123346 0.012526747467590449 0.047283436577499116
0.04238071657094028 0.012546204739405055 0.04598394969901143
0.0427701103949365 0.012558892616829603 0.04483082358111451
0.04289248916704819 0.012581512320899562 0.04345652701198793
0.04297517842034149 0.012605701332390968 0.042044303206967615
0.04272640824712998 0.012642309398310795 0.04035263215632057
-0.08397827479634223 0.016368268264498588 0.0630792099546505
-0.08291675801410264 0.016361780983343087 0.06213710094667885
-0.07712775859981003 0.016188947461056574 0.0638422391243903
-0.07284711451197673 0.016068628276953007 0.06473063546139818
-0.07009909896591093 0.016001978659036766 0.06477370674897365
-0.06792478793460577 0.015955375177669814 0.06450253242247717
-0.06611744840691547 0.01592160352473394 0.06402988873119464
-0.06112520557803902 0.015774586578575604 0.06539933367760536
-0.05919187731972858 0.015735858367018355 0.06502329561539238
-0.058372822123747004 0.015736708531152437 0.06400485985565829
-0.05809920818914266 0.015757045342946835 0.06266634877419636
-0.05798413936315738 0.015783134284024183 0.061230425221463713
-0.05274412488676755 0.01562555496213966 0.06283041585694171
-0.05128971125730364 0.01560337309836909 0.06220139653835988
-0.051239684067204694 0.015631657880598365 0.06073367067646762
-0.05122838689519171 0.0156614487638353 0.059237122985136614
-0.05023416702547756 0.015655836796284118 0.05833163943339187
-0.04748141298465536 0.015586534716114002 0.05850111155066656
-0.04428244600449677 0.015500776622358159 0.05895804015575412
-0.0413543238482878 0.015424528815997011 0.05926429689039797
-0.03820083681531272 0.015339776370352944 0.05972536204332163
-0.03510006490744039 0.015256616114160652 0.06016998641256038
-0.03177101938479726 0.015164784491434031 0.06077425291045219
-0.02970285581720561 0.015118780611360658 0.06059973015043507
-0.027042423273613225 0.015050857422847156 0.06081058115484406
-0.024978297647347825 0.01500459636547764 0.060653673723539914
-0.021634905297609253 0.014911013609202564 0.061328019297999414
-0.018399899554004784 0.014821062476510875 0.061950741300084655
-0.015414169842057734 0.014739976698609868 0.06242919352953563
-0.012517336530310785 0.01466186413013089 0.06286557260150821
-0.010680519107256037 0.014622811601358797 0.06262069720106733
-0.010470118573251752 0.014644131775274597 0.061308566039766976
-0.0046452569588955606 0.01445617310181043 0.06372394310543822
-0.0022318528080710887 0.014394930370616415 0.0638966168016854
0.00011198582539939661 0.014336046509590427 0.06403476344112274
0.0023828258718598394 0.014279664530670694 0.06413535481064603
0.00453319246858791 0.014227584149784627 0.06416537370216296
0.0067208377786553974 0.01417388945994281 0.0642313309540199
0.008773094618074129 0.014125087556771918 0.06421505951906026
0.0110250037146431 0.014068537293203955 0.06434658965578649
0.023165144429767526 0.013637035980462673 0.0713600323784982
0.029733489871232865 0.013415355855879647 0.07456812031272247
0.0338772905467703 0.013285026440761714 0.0761179411787278
0.03680491397675223 0.013200534941408264 0.07683518934278491
0.038468870840892955 0.013163977156144126 0.07667212490988407
0.039426778972521115 0.013154299990302008 0.07601229440823187
0.04018902772160199 0.01315208912170191 0.0752139458071844
0.040612652052538445 0.013162886526089613 0.0741715611355119
0.040871908765592824 0.013180060136844253 0.07300763446034547
0.04097600483041469 0.013203294108489364 0.07172691712854928
0.04105113648655323 0.013227744729158074 0.07042014960188947
0.04082034905809573 0.01326415467234196 0.06888258937567288
0.04091201334922473 0.013288191504070344 0.06757671874343318
0.041023982900521394 0.01331153822769475 0.06628100500689882
0.04108590475851931 0.013336934574727007 0.06494289905855893
0.041128021822466054 0.013363211350597976 0.06358456501505627
0.0412567136769868 0.013386207441165173 0.06228637803585152
0.04129320485345772 0.013412919119983966 0.060913097821329365
0.04133947652253184 0.013439358661189818 0.05954170954020299
0.04140611126155669 0.01346510721922167 0.05818045282351947
0.041458060480390135 0.013491544802862038 0.05680239575633367
0.04148291531119713 0.013519166975738581 0.05539765592806606
0.04156963025988791 0.013544452716721361 0.054035509045316454
0.04166373826434594 0.013569552254671465 0.05267382123740455
0.04178208595139837 0.013593793287894567 0.051325984779152234
0.04187516022777288 0.013619146952273469 0.049952877704156684
0.04192508521426919 0.013646335564524251 0.04853984444699316
0.042027679694529085 0.0136715292745308 0.047163354669395974
0.04213243479721701 0.013696744617592673 0.04578321300062632
0.042561035882597686 0.013709028733270047 0.0446608840813551
0.04269470243018564 0.013733267474579496 0.0432949054159969
0.042758306433943405 0.01376044459352865 0.04186614231485569
0.042536529910930654 0.013799305698623518 0.040195816729770184
-0.08324560978485795 0.01773777291960786 0.06195412198464978
-0.08267833897254862 0.017749579670416037 0.06073551130395172
-0.07343747789367161 0.01743022406072969 0.06439824954929274
-0.0705684126099892 0.017353431842142587 0.06450791629807895
-0.06836573630164205 0.017301891513484664 0.06425133706913139
-0.06659123339481549 0.01726659868163796 0.06375840265499366
-0.061494336755425205 0.01710333825033386 0.06518657651621923
-0.05950399834504422 0.01705921204066096 0.06484234563917368
-0.05861672943034135 0.017057521396040665 0.06386263114530788
-0.05839106416004447 0.01708142644280572 0.06249516879519934
-0.058264438798475204 0.017109263051450066 0.06106506785049082
-0.0529754193886281 0.016936669358193053 0.06269317649904504
-0.051437111497915966 0.016909391086635958 0.062113429750937976
-0.05157917107844889 0.01694753453120392 0.060529897944764266
-0.051788189422481534 0.016988441492384918 0.058899170709989956
-0.05073023675277155 0.016979909277688252 0.05803043860348556
-0.048251967245986516 0.01691563564483181 0.05803056245434185
-0.04558129531994459 0.016843551067271707 0.05816033173380952
-0.04274847079060334 0.01676480101548756 0.058403158177422365
-0.03921756234900842 0.016658202921398052 0.05909376081315454
-0.03598648868441534 0.016563040331289143 0.05961618905691385
-0.03261978170130725 0.01646213305372911 0.060240965370859434
-0.030609359898928767 0.016414652916952426 0.0600269253482138
-0.028230086437611213 0.016352319708942534 0.06005585841287908
-0.026316120354781702 0.016308279035666194 0.05979871381266172
-0.024844575379457556 0.016281725613147734 0.05926522251938854
-0.021557634813794913 0.016182454654869404 0.05990986584158137
-0.017635447681170147 0.016057331206239478 0.0609854690181858
-0.014429069657034943 0.01596045562850182 0.06161604647083507
-0.011361392105784351 0.015868775456213045 0.06217317267700567
-0.010625148596225209 0.015870726453250536 0.06120609638867086
-0.010473737305585151 0.015896311090463737 0.05984994311020703
-0.0034915058104963426 0.015645496768692584 0.06305468638234601
-0.0010832341835131931 0.015579194794795793 0.06323144019594101
0.0012338028009753477 0.015516334235845662 0.06335877751891289
0.003452695121518079 0.01545721727724824 0.06343104686082757
0.005212256684076988 0.015416604843347947 0.06320037415953722
0.007333818065299702 0.015361026864666042 0.06322600882418816
0.009834353943698304 0.015289696928596185 0.06352385977873237
0.02245049616867706 0.014802794583471663 0.0708634846585195
0.029586984761168944 0.014539328984343559 0.07446576429912424
0.03366837744943657 0.014400723589592901 0.07597117879185011
0.03662699621309823 0.01430792845098006 0.07670951300133991
0.03827064759867077 0.014269179661958637 0.07653133531185252
0.03924910140757437 0.014257860766347129 0.0758854045067284
0.039990250307123054 0.014256357708356308 0.07507120875698806
0.04040362906394579 0.014268498588890227 0.07402064498157562
0.0406739662605653 0.01428665889193064 0.07286393684600764
0.04078294768651869 0.014311641813463588 0.07158600056010345
0.04081543474795546 0.014339933704879468 0.0702471673442101
0.040624579799187266 0.014377721500441925 0.06873813097150172
0.04075500039774871 0.014402147691490402 0.06746022829332415
0.0407980715975908 0.014430358945481224 0.06611248698011468
0.040854377267098174 0.014458128866185289 0.06476925433176578
0.04094579765197359 0.01448452820723459 0.06344715678290491
0.04102619386610695 0.014511506097874731 0.06211161084296579
0.04107975695416516 0.01453973839996473 0.060750398547448126
0.041117743912549354 0.014568753374900302 0.05937178245827812
0.041148853538207464 0.014598184536631023 0.05798223713792611
0.0412003364702368 0.014626868447298826 0.05660275079764421
0.041286411489753594 0.014654190629132868 0.05524461567262695
0.04134101351623232 0.01468298140020647 0.053856501511236
0.04145422247643199 0.014709370916976602 0.05250888881308774
0.04157049670658447 0.014735740771805127 0.051158526607372856
0.04165613560201964 0.014763548336913386 0.04977860608501211
0.041738543237302306 0.014791615132229718 0.04839062384513504
0.04186399182848155 0.014817933031467915 0.0470317156132643
0.04186149319808391 0.014849933460475553 0.04556415575268763
0.04235616081668625 0.014860384764277727 0.044494357966695375
0.04248151257705379 0.014887026206290194 0.04312069715077743
0.04254115764187466 0.01491666171713074 0.04168775402617658
0.04230785760341854 0.01495928784805042 0.040006962402517554
-0.08371495345628488 0.01912144521949392 0.06169297083550024
-0.08292587484604308 0.01912509219692399 0.06059696244363455
-0.07922654975345111 0.01900907476256505 0.06113889100840114
-0.0736266551727841 0.018814313351360423 0.0627759153644451
-0.06888609081357966 0.018654285916352736 0.06395490636371848
-0.06677993301390245 0.018602602687044018 0.06365027487451336
-0.06183592760331369 0.018433133806163973 0.06498969285099526
-0.05978861124996421 0.018383274814660993 0.06467734330290131
-0.05892332104528192 0.01838239087311767 0.06368384958026935
-0.0586965995249501 0.0184081151520183 0.06231596554920854
-0.05849718508476459 0.018435078232871945 0.060927763563877135
-0.05329938408447382 0.018253042791041528 0.06250095097495595
-0.051809937095207315 0.018225740248843235 0.06189093167409543
-0.05282764157761399 0.01830362085574302 0.059780519513072616
-0.05374513674929965 0.01837758592867976 0.05771776339365964
-0.051340545261034876 0.018311785418896654 0.057659874912388
-0.04914777699899758 0.01825467701010146 0.05748352444428656
-0.04602788882453879 0.01815810941663193 0.057886049416712826
-0.04313085612379075 0.01807061577992058 0.05816696584812969
-0.040378623488315446 0.017988932880055177 0.058372496696554754
-0.03743943113500492 0.017898971838355253 0.05870845653896517
-0.034451695099493085 0.017806587903653172 0.05908995221928287
-0.031288257526362495 0.01770633248479656 0.059597941266342436
-0.029089092211713907 0.017646973849060516 0.059509987148326116
-0.027645000154084998 0.01761977795275794 0.0589494690297267
-0.026366664444117005 0.01759960055140554 0.05828700346905846
-0.02538939059128359 0.017592311565494314 0.05743336427134693
-0.024470329310619376 0.017587506164206963 0.05654312238020143
-0.018029715241325905 0.017343896544768943 0.05926263182212116
-0.014098543190803947 0.017208056859938963 0.060374096727076554
-0.010870587459787584 0.0171022081357126 0.06104386952298202
-0.009910685539301467 0.01709460859449551 0.06022418517849104
-0.005204678342370317 0.0169236775370759 0.061909631303380286
-0.0027040984815185354 0.01684839319076496 0.06214203576984084
-0.0003192265577653952 0.016777870514141258 0.062309149044121215
0.002050966887864769 0.016707707567407307 0.062478405311988394
0.0041221150083256 0.016650402757135706 0.06245537677649715
0.006279262781274442 0.016589079427802533 0.06250133319848178
0.008325406612361252 0.016532405367056385 0.06248118872408043
0.025348606717840227 0.015813340838359332 0.07287713285971623
0.030473199512544735 0.015618478193503059 0.07508491955659749
0.03354698689466673 0.015513860312181412 0.0758859013832539
0.03643928682079395 0.015416888121824013 0.0765769201157552
0.03806612634724543 0.015375925109379025 0.07638607250384738
0.03908678861573828 0.015361868984373956 0.07576948748493098
0.03978262197172622 0.015362293381251417 0.0749221160836106
0.04020124461612734 0.015375152128319379 0.07387452190350216
0.04047148396585265 0.01539473250418616 0.07271694354261474
0.040579312300431936 0.015421707933281901 0.07143736270479081
0.040578542707129184 0.015453695921582432 0.07007331151992902
0.04041730563757434 0.015493073304855345 0.06858518308387385
0.04054745297201651 0.015519410318598213 0.06730624549881425
0.04058404979387498 0.015550105279290297 0.06595283789844808
0.04064521105213853 0.015579810700106706 0.06461238047618989
0.04071621544277376 0.015609191658872465 0.06327403767683737
0.040795362875490626 0.015638323800331186 0.06193660773105503
0.04088006450764309 0.0156673241030061 0.06059818427803443
0.040937867974360276 0.015697680918542945 0.05923393267025023
0.04093432256828783 0.015730987062458113 0.057816942184950426
0.04099599224847217 0.01576142886976702 0.05644445629614092
0.041040242768425605 0.01579280418878189 0.05505289561488752
0.041114743805302945 0.015822912896191983 0.05367933171018424
0.04124179233374259 0.015850712836617147 0.05234166218649039
0.041340017744639634 0.015879970998557504 0.05097611853821582
0.04142439081668253 0.01590999946936514 0.049594213399348996
0.04154200954059323 0.015938604900438084 0.04823341056271374
0.04163420813239538 0.01596852223225335 0.046846921776081185
0.04159994749620871 0.016004496239834846 0.045352695121148257
0.04215282376442647 0.016013043462365782 0.044329081977015794
0.04225107458432881 0.016043030768000295 0.04293239455399078
0.042326417479994494 0.016074228801290256 0.04151134443336457
0.042063601679094564 0.016121551454462764 0.039805237983992436
-0.08260703921954221 0.02047714865970767 0.060775418649018476
-0.07912745021206657 0.020362499451564577 0.06119468595177613
-0.07423002062003736 0.02018482768878311 0.06243420619765816
-0.0713498653158845 0.02009570127986797 0.06255136628298191
-0.06910511533140073 0.02003439208978736 0.06231790968787565
-0.06215119218652704 0.019763782610907388 0.06480798292802159
-0.06010690638872179 0.019710523741360723 0.0644928139276999
-0.05925827047936311 0.01971034590192276 0.06348853183146075
-0.05898924678874817 0.019736047376222723 0.062144321459434715
-0.0587874640980382 0.01976485549494604 0.06075651892890632
-0.058633112309970925 0.019795900229938632 0.059336165686181
-0.05849697529331982 0.01982788244667664 0.05790018331973851
-0.05847679507013953 0.01986520546079545 0.05638968746101741
-0.055677410388894455 0.019777381064999527 0.056551251559801896
-0.052712841476298344 0.019681755460725914 0.05682665180649643
-0.04991266415644291 0.01959319876998223 0.05701643603950057
-0.04691875776831955 0.01949551335233946 0.05733890845828854
-0.044086037238854514 0.019404770706975945 0.057576968186392186
-0.041113313749906344 0.019307300886334925 0.05791609891993377
-0.03794818606530853 0.019200674398078273 0.05839060954253672
-0.034576910125081406 0.01908420934505276 0.05901127811745588
-0.031659177804270966 0.01898805477434708 0.05936356293235484
-0.029813244233327096 0.018940695733283188 0.059049811219730686
-0.02852582329151615 0.018918824877774652 0.05838656299823758
-0.027525480142884917 0.01891009067177745 0.05754225362578308
-0.02683931080741403 0.018915821585434898 0.0564962665280469
-0.02627444152938102 0.018927184514252775 0.05537053559903021
-0.025936979905121393 0.01894912950331685 0.05409437183779425
-0.025674451223232808 0.018974640738912085 0.052765478462007354
-0.025854556214460034 0.019020844894495802 0.05113996819550287
-0.011370018643404978 0.018383675478886197 0.0592542142594763
-0.008141939543543975 0.01826969926398639 0.059946416394153546
-0.005119246150811274 0.018164877870267562 0.06051878293871188
-0.0025071581270721954 0.018078889992378677 0.060830416357507855
-2.485271440766379e-05 0.017998654069640675 0.0610676382648942
0.0022314485499252412 0.017928735307248225 0.06116330475041026
0.004173989708709802 0.017873336438378684 0.061054619020235956
0.006412767779186979 0.01780370891156658 0.06115956993200039
0.024402943796640042 0.01698766088270451 0.07222007288636118
0.030675627350800205 0.0167244753435632 0.07522634606763248
0.03391002121608683 0.016604726291237444 0.07614093462056704
0.03624175425118675 0.016527508791076877 0.07643738840090775
0.03786309860035325 0.016483901551287906 0.07624187046904182
0.03888541153892233 0.016468782307933756 0.0756256723811507
0.03957387904353793 0.016469610041860098 0.07477222304924827
0.04000034639787453 0.01648303092580752 0.07372947189424003
0.04026444617261865 0.01650432544961761 0.07256664314623773
0.04036246789622261 0.016533721488301553 0.0712790833025827
0.040381170713219006 0.016567074499244876 0.06992845958412075
0.040201960701668094 0.016610155182870037 0.06842627976084548
0.040309201656131 0.01663950727785799 0.06712948299122706
0.04037237503459867 0.01667112581003853 0.06579493958928645
0.040454123616046334 0.016701970824819595 0.06446906563513077
0.0405169364758563 0.016733870144815262 0.06312376907923545
0.040565096204632944 0.016766620731341216 0.061762032454737825
0.040673996915989885 0.016796528914703922 0.06044111059568125
0.04074110409241166 0.016828617948489524 0.059083140631630504
0.04071687951910885 0.01686534238804404 0.05764940349064268
0.04077552007082014 0.01689813083817427 0.05627366833279468
0.04084941682551724 0.0169303034716378 0.05490427738022635
0.04092182461320448 0.016962686654544132 0.053528275456376506
0.04101490874602731 0.016994180348071795 0.052163057697863724
0.04111100392725575 0.01702565851131621 0.050794870029081785
0.04123947989864524 0.01705565543465964 0.04944708507999657
0.04132475902763044 0.017087941155418288 0.04805962526877938
0.04137109136165407 0.01712231742295336 0.04663532122077341
0.041403301308817475 0.01715755094824436 0.045193705978228194
0.04195460431323811 0.017166809175268586 0.0441679656649378
0.04203464368417148 0.017199878607088336 0.04275553786450753
0.042115888443580995 0.017233030377176613 0.041338394290905744
0.0418162954711474 0.017285619468891154 0.0396009944180119
-0.07905391540638701 0.021675617739347224 0.06276414556737958
-0.07656143373193586 0.021599402387313622 0.06263940246819905
-0.07448506592978443 0.021542492101007765 0.06228976418381177
-0.07169286470019676 0.021451596005209912 0.0623559695926193
-0.06947167989360575 0.02138734408132256 0.062107862562684024
-0.06236340864374135 0.021091417715027913 0.06468566713948254
-0.060481722002237115 0.02104234203570758 0.06427551720350955
-0.059540446813773074 0.021037782575151414 0.06332398745312728
-0.05927695069630107 0.02106548640953225 0.06197557675738147
-0.05907679087277112 0.021096318778885147 0.060585836049122155
-0.05895485430232239 0.021131009458892888 0.05914525901056383
-0.0588873739568917 0.021168442231786162 0.05766719783677349
-0.05849954655832018 0.02119064443926081 0.056376031171547325
-0.056356290772760165 0.02112851864899975 0.05614141209124751
-0.053310374669916616 0.021022661856391695 0.0564638449591684
-0.05040895923976946 0.020923370070978446 0.05671336691810441
-0.047631041314821876 0.02082966568991091 0.0569014484872975
-0.04510776432558916 0.020747936790548076 0.056945866311993165
-0.0423602375841588 0.02065500029274147 0.05714149594052814
-0.03910452905496581 0.020536976842968034 0.05766817891000342
-0.035718238592747475 0.02041212571986967 0.05829416775740648
-0.03250914995734988 0.020295439547961716 0.05882647971248395
-0.0305543141971773 0.020239675384123593 0.058578884468729886
-0.02926611228285736 0.020216379619445956 0.05791346786646545
-0.02838611793300022 0.02021304768116043 0.056989137319206684
-0.027804525731001062 0.02022439245959822 0.05587243859832336
-0.027419507091549 0.02024547840232646 0.05462629766980964
-0.027160926527341922 0.020272897157435247 0.05329438921174939
-0.026977844666198236 0.020304163885655067 0.051908783408026626
-0.027189179957888887 0.020355126672918476 0.05025782661601591
-0.027134581424302417 0.020393070775240777 0.048776025691386615
-0.027422863397860042 0.02044824896776711 0.04705937823788242
-0.02798274140295448 0.02051720644538193 0.04515192406319912
-0.00682391981046554 0.019500073407401224 0.05791289521968901
-0.003601002939947473 0.019377803278610956 0.05863721758280466
-0.0008359321832279165 0.019278033600006364 0.059067072058992864
0.0012660976510601163 0.01921122691846559 0.05905635631340067
0.0032548034561853956 0.019149863955263878 0.058977440759672206
0.021429897538535136 0.018270392502993248 0.07015435829468131
0.030348928653328222 0.017855981244314492 0.07499809753550701
0.034203438282044474 0.01769682194879656 0.07634706142400913
