# .PCD v0.7 - Point Cloud Data file format
VERSION 0.7
FIELDS x y z
SIZE 4 4 4
TYPE F F F
COUNT 1 1 1
WIDTH 762
HEIGHT 1
VIEWPOINT 0 0 0 1 0 0 0
POINTS 762
DATA ascii
-0.08066281245307816 -0.026902784640701758 0.012078912382473994
-0.08059968336421369 -0.02697267840159958 0.010414380624930941
-0.08053544529050938 -0.0270430060217741 0.008740371061503438
-0.08040983820132108 -0.027119170939908305 0.006994198674367069
-0.08026074987621695 -0.027197811736071078 0.005214381619008057
-0.08002015136587154 -0.027285072271636603 0.003329063223797002
0.03263562166402412 -0.0324210568803023 0.04202466143130501
0.03066375917563058 -0.03233209423466502 0.04180053128316519
0.02840270443662224 -0.03222012566887923 0.04178150278703391
0.02632211107395427 -0.032121866359057415 0.0416499445427963
0.024220737607971554 -0.03202157580494071 0.04154215998021887
0.022170338794645084 -0.03192489517899726 0.041408862099038046
0.02014755677304919 -0.031830002376131115 0.041265754956538725
0.01820670929017687 -0.03174120538074874 0.04107462868552808
0.016326422930677598 -0.031656847169601134 0.04084960753134842
0.014472190245345906 -0.03157421390554018 0.0406144167443892
0.01259909659717312 -0.031489741168663356 0.04040070422636255
0.010914960207969837 -0.0314199929933776 0.04006032530035597
0.00921237467351571 -0.03134848365493796 0.03974004414724852
0.007541007312666326 -0.03127917999849622 0.039404260570711946
0.005878124824894249 -0.031210271270853452 0.039069151686101644
0.00425567772701968 -0.031144329336206908 0.038711337583569205
0.002679579935543297 -0.031081849209872073 0.03832603734954276
0.0011850799288003477 -0.031025698857427474 0.037886725817697864
-0.00030077465846983786 -0.03097001444522923 0.03744658342593937
-0.0017661983617194843 -0.030915754561795673 0.036996749192447664
-0.003225423067069799 -0.030861771672121507 0.036547683616896476
-0.004625129442542619 -0.03081240924357008 0.036059139069743895
-0.0059863847888772526 -0.03076597727446152 0.035546392659303094
-0.0073181841830948224 -0.03072175871033822 0.03501585914393485
-0.00859673513257081 -0.030681717180409594 0.03444897059190266
-0.009830080800726837 -0.030645218665929473 0.03385129199356829
-0.011045902209428582 -0.030610007778892234 0.0332437289559368
-0.03447080984905926 -0.028743182269843327 0.049936518311461564
-0.03632107136286611 -0.028651350240300622 0.049925873107857455
-0.038121671166818416 -0.028563239908924395 0.04988547903510693
-0.03995505471701938 -0.028472032738519764 0.04988001662249092
-0.041825527463300594 -0.028377350777450128 0.04991338633556075
-0.04363966152098203 -0.02828695874141184 0.049911386190998275
-0.04543878905552634 -0.028197431905574128 0.049906595371875695
-0.04722483594954696 -0.02810861464629018 0.04990043747039591
-0.04899366844875569 -0.028020858325754395 0.04988944278131424
-0.050752340317451516 -0.027933576821253428 0.049879210895299564
-0.052494191513728916 -0.027847334334000256 0.04986419683596638
-0.05423284112630755 -0.02776098771734563 0.0498554865426557
-0.05595908458978821 -0.02767531516037379 0.049845454047623694
-0.05767552799419656 -0.027590100070178928 0.04983616921978418
-0.05937165355440116 -0.027506239325507248 0.049818734927445374
-0.06104860766443598 -0.02742364418168781 0.049793905586681564
-0.0627211332533496 -0.027341064507777776 0.049773984283852934
-0.06439792918054604 -0.02725775623350045 0.04976638436344416
-0.06606374918183078 -0.027175021707135528 0.04975815480943496
-0.06770462724744286 -0.027094064778552977 0.04973717256779969
-0.0693388608292334 -0.027013321542530524 0.04971900253364686
-0.07092028695293584 -0.026936777638522116 0.049663419088623206
-0.07252179172873685 -0.026858156467002646 0.049633545049108496
-0.07420937388102317 -0.026771722550406534 0.049687780692879324
-0.07583209249592315 -0.026690538188919474 0.049693874757906376
-0.07735340549793768 -0.026617820748887713 0.049618494475486274
-0.07890045026264786 -0.02654253118808887 0.04957391145593876
-0.07988638824400857 -0.026515984261571365 0.04903327952823683
-0.0800157376868989 -0.02656441430929376 0.04772184653137401
-0.08017802681447322 -0.026610168855461146 0.04643509110966493
-0.0803054157729261 -0.02665920414280323 0.04511153177199778
-0.08044363321504844 -0.02670750620675876 0.04379258859524915
-0.08057346202823257 -0.026756770126493145 0.04246065817173933
-0.08069783506999367 -0.026806742427570345 0.0411183022620219
-0.08079517828697103 -0.02685934528266956 0.039745299743339346
-0.08089811502151095 -0.026911690842939876 0.03837177942604747
-0.0809701363199225 -0.026967036834976758 0.03696340462329334
-0.08103423626552364 -0.02702334634699999 0.03554144592805064
-0.08108288445214529 -0.027081301456088763 0.03409857887182127
-0.08111748920759143 -0.02714078696669241 0.03263587777818572
-0.08113721088732134 -0.027201889173301835 0.03115228121058039
-0.08114195169411015 -0.027264628171260134 0.02964742552256383
-0.08114746967950309 -0.027327588872481413 0.028136345826705378
-0.08115225621506228 -0.02739090971775714 0.026617531866739264
-0.08117679097515662 -0.027452730614777227 0.02511102552815203
-0.08119307324262076 -0.027515593640319243 0.023589451511168424
-0.08121628847476386 -0.02757811853820504 0.022067694979212127
-0.08122739001177515 -0.027642047444756644 0.020526824913030706
-0.0812446669513992 -0.02770571120997564 0.018984931084081447
-0.08125128269744619 -0.02777065734999004 0.01742509924981167
-0.08125562244164958 -0.027836121506521802 0.015855601369625882
-0.08122374875563498 -0.027905245336560924 0.01424180972187361
-0.08119248940235091 -0.027974641676780924 0.012620774060586926
-0.08114867315243252 -0.02804553615198388 0.010978903817468577
-0.0810486669882457 -0.028122002951987857 0.0092708422974212
-0.08094265492925395 -0.028199397477639245 0.007547769469595567
-0.08085013865127055 -0.028275901546230168 0.005829891284362232
-0.08066607738964976 -0.02836136166228593 0.004007099198211517
0.03301596694734088 -0.03374875252252518 0.04176902631391638
0.03086713209973646 -0.03364190863793957 0.04166307991372281
0.02842333710921685 -0.033510611145108296 0.04176748042470618
0.026359432462744026 -0.033409786825656825 0.04162443929187509
0.024115702645911563 -0.03329384956544315 0.041614338535487516
0.02199750627310476 -0.03318772891326251 0.041528288048353956
0.019922106949318508 -0.03308469138326359 0.04142240068288838
0.01795036259173649 -0.03298976283522696 0.04125372568862906
0.016037280200669635 -0.03289928353672323 0.04105273159463546
0.014190877670193058 -0.032813943110099074 0.040813128410507216
0.01219006116863569 -0.032715471071158964 0.040691224817786864
0.010537971419028125 -0.0326455217766198 0.04032955495977347
0.008762604042098054 -0.032565038199749714 0.04006301309903709
0.007053974468051838 -0.03248978181371141 0.03975590191047429
0.005365414730214457 -0.032415889940475895 0.03944135682436728
0.003708741667475035 -0.03234435934902759 0.039110557996318296
0.0020757749979042894 -0.03227451913897651 0.038769171718988304
0.0005368370784930021 -0.032212285693557476 0.03836506510443216
-0.0009832023348950725 -0.032151383731625675 0.03795288756484205
-0.00247707938578956 -0.03209243416261249 0.03752702928866475
-0.00393876354670708 -0.032035958857585235 0.03708268622905647
-0.005404879870686385 -0.03197887173100999 0.03664711885069688
-0.006799174930933238 -0.031927640071928394 0.03616260456313103
-0.008135358955145722 -0.031881134867573636 0.03563874530251221
-0.009460327943815405 -0.03183538945925927 0.03511079388617433
-0.010730449484584237 -0.03179413491652558 0.03454502119879538
-0.011983800648768694 -0.031754141039911005 0.0339702685401439
-0.013191670017515589 -0.031717878233598874 0.03336399075743357
-0.0363274372273783 -0.029796857132490064 0.04993085759714022
-0.03813429759295123 -0.029704682010040222 0.049895418653945534
-0.039953266184453995 -0.029611068420409725 0.04987860112335335
-0.041831732348563466 -0.02951190810541344 0.049918323384979923
-0.04364757149607934 -0.02941775143678319 0.04991771362069475
-0.045445760754870945 -0.02932472356149663 0.04991220206676106
-0.04723174892077242 -0.029232357421001377 0.0499060266322543
-0.049001380403284944 -0.02914101984381604 0.04989571119576708
-0.05075913807355997 -0.029050325554740082 0.049884765687338906
-0.05251020151772434 -0.02895982489327847 0.04987734909524111
-0.0542512241965149 -0.028869812984493065 0.049870668627424175
-0.055969857180817095 -0.028781379753352425 0.04985439812954101
-0.057676349793041315 -0.02869363159506172 0.04983685515195435
-0.059371653554401105 -0.028606488898527543 0.049818734927445374
-0.061067199195550204 -0.02851894310145957 0.049809588419184314
-0.06274758892874555 -0.028432358487305714 0.049796419069322084
-0.06440985562369389 -0.028347005384819626 0.04977655166469752
-0.06607715427295391 -0.028260827292681753 0.049769643067867075
-0.06769211237175571 -0.028178945740556578 0.049726390584071245
-0.0692954113474889 -0.028097745791461886 0.04968137181587012
-0.07091797790197818 -0.028014456004324024 0.049661408721904055
-0.07254927506273906 -0.027930010336967705 0.04965759937459785
-0.07416243893551211 -0.027846823110961625 0.04964648542863059
-0.07588387790504103 -0.027753480309381025 0.04973967731303214
-0.07737575048404943 -0.027680509931676256 0.049638361781390694
-0.07890192829756859 -0.027604098278759145 0.0495752325034759
-0.08026122727215546 -0.02754252408405937 0.04937006373215219
-0.08047928574182067 -0.02758472631414384 0.048140517806585736
-0.08063403228787502 -0.02763290481565378 0.04684910824298655
-0.08076796089391547 -0.027683208197690788 0.045533685488001185
-0.08090164039954773 -0.02773376276948185 0.04421278805197287
-0.08102768395788168 -0.02778524987789702 0.04287956403612414
-0.08115271691757686 -0.02783706494071923 0.04154000904810673
-0.0812700679606968 -0.027889826811149147 0.04018785436217864
-0.08134556668982901 -0.0279467074701307 0.03879094056392557
-0.08142657844415224 -0.028003337381453986 0.03739321798791634
-0.08149302270057962 -0.02806158359285979 0.03597571880678596
-0.08154034023497819 -0.02812188256555454 0.03453384799165038
-0.0815766436384261 -0.02818349005166732 0.03307503779947207
-0.0815966178573907 -0.02824691322512754 0.03159396920863272
-0.08160090692651506 -0.028312104241570546 0.030090974001000692
-0.08160596880587384 -0.02837752597281429 0.02858175669650126
-0.08161105413277331 -0.02844325074869703 0.02706554843947806
-0.08163129101934302 -0.028507849763103357 0.02555714970178552
-0.08164631373352543 -0.028573245961201792 0.024036648208476286
-0.08166976267617759 -0.028638148686225197 0.02251744318076654
-0.08168494286920025 -0.028704144746509383 0.020982971072742662
-0.08171698159880797 -0.028768842713090288 0.01945823383869466
-0.08170710020726096 -0.028837858879729165 0.01788423645504672
-0.08173780554420024 -0.028903308789270492 0.01634381102168303
-0.08172024331552635 -0.028973711387130233 0.01474711149132285
-0.08168333373456893 -0.029046314436316036 0.013122909813167993
-0.08160065175263065 -0.029123686923231026 0.011443670936671868
-0.0815562758666124 -0.029197719898608036 0.009795512065394252
-0.08146271829486373 -0.029276883061212816 0.008088090138555715
-0.08137488832290213 -0.029355869750193064 0.006377897131184307
-0.08126077959854766 -0.029437801011522158 0.004631364945143268
-0.08111700360936236 -0.0295230295610674 0.002844427555215412
0.03351839598199419 -0.03508910575509552 0.04143133708550528
0.031150471965396553 -0.034959744527472934 0.04147158218744568
0.02865650869197578 -0.034819202125859906 0.04160901251886551
0.02625591245116332 -0.03468600538565227 0.04169518435138003
0.024189698911081525 -0.03458066604566631 0.041563489338129866
0.021958461815417274 -0.03446085763103011 0.041555267469722657
0.019769601732721298 -0.034344176106301146 0.04152836346445404
0.017747847527211147 -0.03424129723150467 0.041395213140427545
0.015836283855895972 -0.03414743271606315 0.04119393242736996
0.013884757440022932 -0.03404975647931466 0.04102936353947889
0.01189321502661006 -0.03394824054111571 0.04090206209672792
0.010148157704487792 -0.03386754036920215 0.04060794364580467
0.00834636283092538 -0.03378161113666209 0.04036190541941809
0.006654978569691272 -0.033704877913612194 0.04004397991960784
0.004894958194229138 -0.03362187913931638 0.03978288772426841
0.003192997419490695 -0.033543579729674915 0.03948701083383044
0.0015382197522240126 -0.03346906229255309 0.039163685228215506
-9.079337170370128e-05 -0.033396482414373534 0.038828194472904864
-0.0016147096575197528 -0.03333278536745179 0.03842141306906416
-0.0031510365089219006 -0.03326773584110651 0.03802976608427466
-0.004652624604010558 -0.033205463151237145 0.037618079272460914
-0.006146483942640724 -0.03314360939674014 0.037206333932911784
-0.007582144652752754 -0.03308662500211933 0.03675620829668719
-0.008944796349853179 -0.03303584862775007 0.03625573369550039
-0.010294934416072488 -0.03298596573590207 0.035750403199380165
-0.01160055779227348 -0.03293982002482166 0.03521543494771512
-0.0128798268415668 -0.03289582124232062 0.03466437194222688
-0.014126917861646937 -0.03285450171450015 0.03409237643417673
-0.036331984130322625 -0.030942484283041916 0.049934417834552214
-0.038168564661434146 -0.030844104893895982 0.04992239395129855
-0.039980092214362994 -0.030747551196690984 0.049899832060344484
-0.04183350513144679 -0.030646822256219432 0.049919733937525856
-0.04365372344401569 -0.030548649640375836 0.04992263475098718
-0.04545273216626439 -0.03045196865721811 0.049917808530073826
-0.04723779753710894 -0.030356132043371228 0.0499109169601063
-0.049009948824011385 -0.030261052012221287 0.049902675761249904
-0.0507684845340694 -0.030166797161583863 0.04989240315529231
-0.052521154837371464 -0.03007266765724029 0.04988634727537644
-0.0542595794579791 -0.029979428501776335 0.049877569013833
-0.05597317168143834 -0.029888052995223808 0.04985715003620783
-0.05768538930637174 -0.02979640491444232 0.049844400177157855
-0.05939039819964731 -0.02970501796698637 0.049834463553092845
-0.061095486536748844 -0.029613223447681476 0.04983345012434687
-0.062751596983177 -0.029525541236874984 0.049799817955949344
-0.06442496117002083 -0.029435879189100594 0.049789429153668796
-0.06606059487797727 -0.029349315518998803 0.049755451548598506
-0.06768820126938219 -0.029263114297719696 0.0497230210386434
-0.06933265449730258 -0.029174964491107867 0.04971362735502699
-0.07095568812345648 -0.02908842002723954 0.04969424098746328
-0.07256377819429222 -0.029002886627806958 0.04967029299637482
-0.07415941038462281 -0.028918138325564422 0.04964382078701007
-0.07583359376808302 -0.028825640369248513 0.04969520258560983
-0.07742415341499925 -0.02874059277677864 0.049681397647738545
-0.07890857927680522 -0.028665167457877738 0.049581177058382775
-0.08038450076164272 -0.028590206278323458 0.049480822113492806
-0.08092823348884859 -0.028603169599598414 0.04854600225152278
-0.08106593065445461 -0.028654723020442436 0.04724123801784119
-0.0812268916208202 -0.028704297246355103 0.0459525404341663
-0.08135752775000976 -0.028756987281352925 0.04463104266341694
-0.08148790794378141 -0.028809941469472217 0.04330400529278661
-0.08160180682724555 -0.02886471539677286 0.04195634630903661
-0.08171909424135954 -0.028919414407874586 0.04060630661642223
-0.08180279425367032 -0.02897759510791193 0.03921925950762145
-0.08188016067588261 -0.029036653612557986 0.0378203383057053
-0.08195264504632155 -0.029096455698815686 0.036410782932411345
-0.08199864421729675 -0.029159099132232365 0.0349699241731834
-0.08202694719157544 -0.02922375028773612 0.033505732364755625
-0.08205163968997636 -0.02928905236306274 0.032031441200567334
-0.08205472389771623 -0.02935676542336643 0.030529556705484406
-0.0820623265869348 -0.02942435193243864 0.029025087347552825
-0.08206394504414849 -0.029492840233108455 0.027507796815301466
-0.08207989981650132 -0.02956024065377562 0.025997491196746714
-0.08210046239054919 -0.02962750337361906 0.02448474096184533
-0.08213172261894652 -0.029694026431858953 0.022975607400038123
-0.08214414691265465 -0.029762726052435424 0.02144076334208761
-0.08216043298995135 -0.02983136710063117 0.019902612953584975
-0.08217603181956068 -0.029900401278293777 0.01835658327209888
-0.0821810028156536 -0.029970821697468238 0.01679254757952664
-0.08218293277642708 -0.030041880625549796 0.015218008500445857
-0.08216567193407592 -0.030115199190009267 0.013616343757313909
-0.08213061624681561 -0.03019065351710751 0.01198863052355148
-0.08208071408824835 -0.03026796240851759 0.010337576816009442
-0.08205997522135594 -0.030342702199375352 0.008708611181573067
-0.08194364406803206 -0.030427462336145565 0.00697185933944211
-0.08186794582774642 -0.03050851498848758 0.005268714317503809
-0.08170511319959817 -0.03059880805989775 0.003464959900373654
0.0340978159153133 -0.03643931999228539 0.041041901251360924
0.03161864730037128 -0.03629553154428875 0.04115516179267409
0.029044498428122678 -0.03614283321882939 0.04134532720932921
0.026534090648809516 -0.035995120801581904 0.04150507875879972
0.024279246478199568 -0.035869317530293175 0.0415019535038168
0.021953729665546096 -0.03573676810678163 0.04155853734905807
0.019777810611542657 -0.035616908484924305 0.04152265981934039
0.01765829407015229 -0.03550155870618028 0.041457779796733873
0.015663173583010892 -0.03539678306759724 0.04131554316966379
0.01364546426272345 -0.035289569835887165 0.04119839382874352
0.011687617921313842 -0.03518725438877138 0.04104808903830448
0.009856022027581846 -0.0350957972481021 0.04081657475395478
0.008020495557611085 -0.035003612390693085 0.040595902493332836
0.006191254243039901 -0.03491161165023606 0.040378792335869385
0.004470865917059086 -0.0348290152642131 0.040090760197035
0.002733398614716609 -0.03474453902943885 0.03982248190277704
0.001036983179021067 -0.0346634178835991 0.03953154434788059
-0.0006082876209722587 -0.03458658554314965 0.03921005418792811
-0.00222587105662031 -0.03451194282251863 0.038874843603304954
-0.0037948537528275095 -0.034441402768554175 0.038510020104968345
-0.005333029250887633 -0.0343733717116665 0.038128380136909445
-0.006832437470033148 -0.03430859137191593 0.037723585081770095
-0.008293687568739883 -0.03424702653784586 0.037295660231729866
-0.009719450917472339 -0.03418845283685018 0.03684620910461961
-0.011088462931355014 -0.034134840767631236 0.03635853199485484
-0.012599726669949907 -0.034067919358412344 0.03598528916835336
-0.013813646465971496 -0.03402811947753162 0.03538775188741239
-0.01502268841623694 -0.033988601341998756 0.03479001657919911
-0.036323799619017494 -0.03208925975076502 0.04992800933986824
-0.038181187654424076 -0.0319853083189412 0.0499323308675409
-0.03995326618437356 -0.03188884291429487 0.04987860112328968
-0.04181045751641993 -0.03178403664340974 0.04990139561061696
-0.043657238742682736 -0.03167975295507531 0.04992544674532401
-0.04545970328972454 -0.0315791671956231 0.04992341476182838
-0.047245574009362745 -0.03147970417098089 0.049917204265621795
-0.0490219438745349 -0.03138070473186049 0.04991242555266523
-0.05077698086006638 -0.031283285954961826 0.04989934593512413
-0.05253294990818652 -0.031185357166272173 0.049896036956251555
-0.05424704640649908 -0.03109096290647102 0.0498672183026716
-0.05597648611487843 -0.030994703806240708 0.04985990188709666
-0.05769853679274234 -0.030898726739450877 0.04985537401085921
-0.05940751097959607 -0.030803574921319084 0.0498488228811072
-0.06109387025116003 -0.030710163685903423 0.049832086711295465
-0.06276762819775944 -0.03061754715660579 0.04981341265177869
-0.06440269986497477 -0.03052822988287394 0.04977045137530767
-0.06606926906259386 -0.03043549426392199 0.04976288538650736
-0.06771244854036568 -0.030344599850901415 0.049743910873088326
-0.06934429116831253 -0.030254396368656046 0.049723705640545124
-0.07095876610659718 -0.030165471385300388 0.049696920822157986
-0.07256912111174951 -0.030076549994693558 0.04967496929494797
-0.07414805278971398 -0.029990283256820207 0.04963382791543253
-0.07583134185446927 -0.02989347581829732 0.04969321083930156
-0.07739958153534321 -0.029807455677761455 0.04965955037303754
-0.07891005723271582 -0.029726695857799967 0.04958249803530179
-0.08043290217186327 -0.029644360971280405 0.04952430966197491
-0.08145397450395431 -0.0296109238493759 0.04902084549353053
-0.08149294007721691 -0.0296739863669832 0.047628929015921806
-0.08168443081660165 -0.02972229023474359 0.046370125363617565
-0.08181130817720739 -0.02977720091923544 0.045047364274591495
-0.08194085783402105 -0.02983209662632204 0.04372173801969481
-0.08205765109550361 -0.029888509462478563 0.042378945325338646
-0.08216457677476158 -0.029946162286842864 0.04102145641579047
-0.08225716256286297 -0.030005509794268973 0.039644899975591674
-0.08233755368097223 -0.030066349148224366 0.03825104707695287
-0.08241012798082609 -0.030128251884458987 0.03684382195832614
-0.08245778235671064 -0.0301929434376149 0.03540679405508779
-0.08249151871015253 -0.03025933540495836 0.03395007358044744
-0.08250156472388875 -0.030328425823353582 0.032464012973416945
-0.08252509687623438 -0.03039647294362836 0.030984139645581443
-0.08251056864516138 -0.030468695751658954 0.029460533946141065
-0.08252222841166934 -0.030538594170889964 0.02795531092932413
-0.08252792699237593 -0.030609426726075153 0.026437261788981148
-0.08251631828247924 -0.030682358449827165 0.024895051569919946
-0.08256357279881732 -0.030749608676999454 0.02340390925520941
-0.08255351022416274 -0.030823055422328587 0.021848868109528463
-0.08260713244330292 -0.030890300500222487 0.02035024692580123
-0.08265794876392235 -0.030958152997874556 0.018842009992716846
-0.08268004346238156 -0.031029294672099413 0.017297825469217598
-0.08267933344925077 -0.031103136233729903 0.015723214717385026
-0.08266790362786536 -0.03117844250458511 0.014130128827198385
-0.08262418519304471 -0.031257468290804884 0.012496164767797968
-0.08262949095299865 -0.03133175916910409 0.010904798238975777
-0.08257774473788954 -0.03141237162738627 0.009246548652351416
-0.08246615373069799 -0.03149964399412347 0.007517525903218469
-0.08238499121944182 -0.031584140586354 0.00581146281047229
-0.08224577385397203 -0.03167515956890414 0.0040354274277930036
-0.08209481194042395 -0.03176785954408823 0.0022375235992694864
0.03475112579818157 -0.0377998352915733 0.04060280300057734
0.03224946573332593 -0.03764899122635403 0.04072881763766756
0.029400290559645326 -0.03746597015028876 0.04110352401303119
0.026889890148344975 -0.03731304817269509 0.04126192715572191
0.02445009301839557 -0.03716594766479082 0.04138455015352138
0.022104029433869465 -0.037026818013762355 0.041454681359722245
0.019695736878620196 -0.03688142451357611 0.041579685809847444
0.01759900147226451 -0.03676403038030328 0.041499204658658695
0.015522487997152112 -0.0366480172053385 0.04141437542404819
0.01344189173021515 -0.036531153954388974 0.04134219201156064
0.011509455608450125 -0.03642749214637645 0.04117463020538081
0.009551940863203268 -0.03632108489330299 0.041033736830712375
0.0077018727578672674 -0.0362242017452711 0.040824697493408446
0.005853886408753006 -0.036127112998091085 0.040622374423921914
0.00406090985622104 -0.036034744611152386 0.04038837039408483
0.0023022189578310592 -0.035945192602553806 0.040137209223433445
0.0005576751100064836 -0.03585659194592526 0.039883310068385414
-0.001123306824781345 -0.03577357740036723 0.039590087563518284
-0.002774029863403693 -0.035693057752421875 0.03928153149454672
-0.004410953648224858 -0.035613500355567165 0.03896959843207032
-0.005991956795482312 -0.03553888160369395 0.038622573257369286
-0.0074938223270598625 -0.03547142553101919 0.038222309942089694
-0.009008808814887914 -0.03540244443477535 0.03783782505602512
-0.010455576248894483 -0.03533964416675195 0.037407315853877465
-0.011861051315327886 -0.03528050429374975 0.03695061310384423
-0.013260802324532195 -0.035221659937876466 0.036494644387688124
-0.01461499559998275 -0.035166915363786376 0.036008514053344653
-0.01587545114987171 -0.03512090550119383 0.03545416155931064
-0.03610085049666484 -0.033256677155495705 0.049753439568732516
-0.03822085390279922 -0.033123830164724616 0.049963556440435486
-0.040016747671226705 -0.03302161870929068 0.04992884230515887
-0.04179981910537661 -0.0329202071741495 0.04989293093176517
-0.043661632763616176 -0.032810747871834946 0.049928961656331816
-0.045465802786567255 -0.03270640360505458 0.049928320024671846
-0.047256806055642864 -0.03260288868600624 0.04992628541504557
-0.049011662455364424 -0.032502444667695925 0.04990406863143598
-0.05077952967311805 -0.032400297607462734 0.049901428699822226
-0.052533792381015354 -0.03229903758631191 0.049896729049837496
-0.054271276110590294 -0.03219898129952497 0.04988722896559561
-0.05600382762772027 -0.03209897376698311 0.049882602528933506
-0.05771496965645706 -0.032000636185440544 0.049869090055779
-0.05940180692070174 -0.03190426493431078 0.04984403660716907
-0.061098719059249185 -0.031806476177332295 0.049836176909387964
-0.06272754715177764 -0.031714999736387625 0.04977942336008517
-0.06442416617699609 -0.03161639357651038 0.04978875142155059
-0.06607715427299526 -0.03152169198029476 0.04976964306790249
-0.06772808996216984 -0.03142677650936886 0.049757386480804966
-0.06934273966208476 -0.03133506551266085 0.049722361912366064
-0.07095722712265301 -0.03124296372728458 0.04969558091145032
-0.07256988437068379 -0.031150635909474655 0.0496756373244831
-0.07418590819159032 -0.031057557942550884 0.04966713462979444
-0.07578329316360766 -0.030965942677647483 0.04965071329318971
-0.07734968101608924 -0.030877048291600675 0.049615182975544014
-0.07891301310140308 -0.030788064314391603 0.049585139950587276
-0.08045343142656047 -0.030701005089439487 0.0495427547228704
-0.08169466208405274 -0.030643979742049365 0.049238231749426764
-0.08197051735989436 -0.030685093896542268 0.04806253165678176
-0.0821237959473135 -0.03073891632386175 0.0467711232645695
-0.08226226351099991 -0.030794499532274564 0.04546109399910098
-0.08239098495463804 -0.030851335767292758 0.0441368674492465
-0.08251505100290613 -0.030908909988257138 0.04280298652621545
-0.08262049213143235 -0.030968667384150644 0.04144632867151132
-0.08271236858113235 -0.031030100095782998 0.04007132518773576
-0.08279576960663804 -0.03109269259600338 0.0386825307597235
-0.0828610559780642 -0.031157453465437652 0.03727065628580373
-0.08291404291294979 -0.031223792679828215 0.03584092591696331
-0.08295169405387709 -0.03129203782212579 0.034390210057793746
-0.08296351648688566 -0.03136329889923183 0.03290814761369909
-0.08297464848120889 -0.03143496327065231 0.03141860016871445
-0.08296867048756718 -0.031508757976719017 0.029905558872788562
-0.08297687460249992 -0.03158140426428008 0.02839927333708936
-0.08297612140927962 -0.031655335321638875 0.026877196540200377
-0.0829573303449791 -0.031731520442232874 0.025330182900373643
-0.08303710321110658 -0.03179761603583688 0.023873548874496386
-0.0830334683119251 -0.03187288475536944 0.02232735061707425
-0.08307368279876753 -0.031943838963138 0.02081777332926693
-0.08315347694000125 -0.032010903825872176 0.019341147074950715
-0.08311363877914962 -0.032091087811212615 0.017736840062663906
-0.08317257644999115 -0.03216105862258733 0.01622520724897919
-0.08318982202952957 -0.03223584535635813 0.014664053479483352
-0.08320026678750836 -0.03231172230254288 0.01308854631632167
-0.08315250509170086 -0.032394250527296796 0.01144539104279435
-0.08309527341172018 -0.03247820039574347 0.009784235899216731
-0.08304699545246552 -0.032561582320721906 0.008124109721779238
-0.08297063793439108 -0.0326484217605882 0.006426222901280476
-0.0828139823515347 -0.03274443939091188 0.004634961523793724
-0.08271244642053449 -0.03283489580698863 0.0028925717177570864
0.03552404303227341 -0.03917562237263574 0.04008331506018348
0.033222854095185717 -0.03903852382154393 0.040070944600117675
0.03024715208725226 -0.038837484983593414 0.04052798058175622
0.027364848920290064 -0.03864442988281499 0.040937342700305024
0.024768273042410804 -0.03847755431962305 0.041165901296051965
0.02233265145677371 -0.03832522044352397 0.04129670529204399
0.01984466679530167 -0.03816730728152413 0.04147620719723322
0.0175130002721251 -0.03802359130379144 0.04155928952537141
0.015557073607003924 -0.03791503190802724 0.04139007887817214
0.013400745157993998 -0.03778692683849705 0.041371256847772375
0.011332587318762133 -0.03766671902653914 0.04130025228244172
0.009387707790063593 -0.0375578172389549 0.04115102523727382
0.0074663143929527 -0.03745072037177087 0.04099384601687178
0.005589063512990378 -0.03734742475349256 0.040813578526264216
0.003728733474779644 -0.03724533238188287 0.04062951594059527
0.0019494575377633216 -0.0371506397256986 0.040394697383637435
0.00013262673044717177 -0.03705192303032215 0.040195254429748806
-0.0016014507532943756 -0.03696081545531809 0.0399429106229825
-0.0032650636461438176 -0.036876171202402934 0.03964583740582611
-0.004895600862818372 -0.03679439249255794 0.03933111992847288
-0.0065094307962944575 -0.03671390119851341 0.039010676764827834
-0.008100497258845762 -0.036635297183982105 0.03867978015387313
-0.009659773514623715 -0.036559476221534395 0.03833134998477772
-0.01112151328569072 -0.03649290724506504 0.037914922031761944
-0.012582057502113553 -0.03642617532309488 0.03750316366183354
-0.0140495522315785 -0.03635847671199914 0.03710237192858162
-0.015362980276621863 -0.036305705441844145 0.03658793763820645
-0.01666753475194671 -0.03625358849813786 0.036071048680895446
-0.017963307864609757 -0.03620212090783258 0.035551694198173
-0.038240683605123504 -0.03426406054796004 0.04997916653316592
-0.04004445757256325 -0.0341575355567081 0.04995077276491394
-0.0417820869460816 -0.03405715647367379 0.04987882196068194
-0.04363087222709827 -0.03394522957692372 0.04990435536745619
-0.04547974366598412 -0.0338328132931234 0.04993953138842405
-0.04727235687923914 -0.033725564170269916 0.04993885831131201
-0.049003094122514135 -0.0336240811541596 0.049897104137380466
-0.050782078447062895 -0.03351729212182772 0.04990351143256422
-0.05254305929880643 -0.0334118606059837 0.04990434184653014
-0.05427211155391931 -0.033309206351766686 0.049887918935839826
-0.05601376886260645 -0.033204825486592336 0.04989085636674684
-0.057716612851518356 -0.033103939182955545 0.049870461584056947
-0.05939610266072176 -0.03300499374968814 0.04983925016450014
-0.06106234943792321 -0.03290696849482221 0.04980549742011192
-0.06276201745523186 -0.03280508953367151 0.04980865466306561
-0.06442496117005314 -0.03270653243233068 0.049789429153696274
-0.06606453774805965 -0.032609944917538485 0.04975883061630154
-0.0677265258898413 -0.03251061973185077 0.049756038980213024
-0.06934972131936534 -0.032414863529799796 0.049728408584597594
-0.07096569134666891 -0.03231943067156397 0.04970295025694205
-0.07256530476097883 -0.03222527112959995 0.0496716290981723
-0.07416622454076421 -0.03213055592363243 0.04964981615731312
-0.07576076516519642 -0.032036082647150806 0.049630787991706504
-0.07734521151792906 -0.03194224114260574 0.04961120906897082
-0.07889527702761184 -0.03185157922481382 0.04956928768872737
-0.08048715201255968 -0.031756120897235784 0.049573051890076936
-0.08188184070693327 -0.031680976880328726 0.04940728933019256
-0.08243350160605722 -0.031694383048248696 0.04848288496732306
-0.08254659573165579 -0.031754197567790965 0.04715700237557119
-0.08270676895538315 -0.031809296980749906 0.04586890626179452
-0.0828383085135393 -0.03186768681993804 0.04454941129592066
-0.08296667755976794 -0.03192668024503433 0.0432216754337123
-0.08307356377098624 -0.03198823432416806 0.04186855083771801
-0.08316326577688388 -0.03205190717066807 0.040493714006505144
-0.08325185659412826 -0.03211599138781896 0.03911200970622691
-0.08330474580884278 -0.03218420419623941 0.03769063919147586
-0.0833667083796274 -0.032251755054950364 0.03627163705157316
-0.0834082458339015 -0.03232182161647487 0.03482688076370283
-0.08342553114823065 -0.032394835174770126 0.033352342726388595
-0.08343250513887135 -0.03246930536497505 0.03186108695066969
-0.08343356049177708 -0.032544765174249125 0.030357178187253975
-0.0834286559076674 -0.032621226025794724 0.028840438181468864
-0.08342372822362448 -0.03269804699850148 0.027316554517645253
-0.08343076345815997 -0.03277391940968762 0.02579730295883992
-0.08342731941542542 -0.03285129741404831 0.024260558842346125
-0.08347352701354999 -0.03292358262194948 0.022766056404911805
-0.08351616854970123 -0.03299660196621129 0.0212611847837772
-0.08357562080806047 -0.03306811043456682 0.019766365395033625
-0.08359293582665922 -0.0331446223832788 0.018222127588416848
-0.08361412551537994 -0.033221068208845024 0.016674588857688966
-0.08360650901813393 -0.03330108221066663 0.015090325967276164
-0.08363469202071183 -0.03337748733601429 0.013535263404380049
-0.08361333226527601 -0.03345979490123238 0.011921706758574013
-0.0835895681023085 -0.03354276691867381 0.010297784161876877
-0.0835088252660206 -0.0336325363609151 0.008606407189975906
-0.08346387242828229 -0.033718710236793126 0.006943976821031539
-0.08336690797516799 -0.03381116943527668 0.00521837019392557
-0.08327406236185209 -0.03390361090635668 0.003488207935487264
0.036990288494071266 -0.040623290598752755 0.039097832007840616
0.03436529583683329 -0.04045052608936114 0.03929881535730917
0.03121557159294991 -0.040226109814170574 0.03986982400355171
0.028157682875204537 -0.04000972399063833 0.040395523930566224
0.025397720393112555 -0.03982151145472061 0.040733353889928436
0.022636299815223804 -0.03963239390437921 0.041086886600845585
0.020215711032486927 -0.039475875059391805 0.04121840041308955
0.0177606441467979 -0.0393153373082576 0.041386272763072385
0.015536321521058327 -0.03917682645187325 0.04140465731152526
0.013430461270306226 -0.0390494180157385 0.04135026618219367
0.011333720584983553 -0.03892238817923926 0.0412994473713022
0.009270803627098423 -0.038798182538558566 0.04123451331146283
0.007282307785665687 -0.03868084187857165 0.04112597652279293
0.005323495276915391 -0.038565965772937985 0.041005320769861076
0.003448697026442571 -0.03845897612473271 0.04083281017266577
0.0016060547900178523 -0.038354750601250945 0.04064535444729539
-0.0002287892941596481 -0.03825087240946667 0.04046049880287017
-0.0020000636933619753 -0.03815292828911693 0.04023704765718905
-0.0037228585300222994 -0.03805944111477698 0.039985482840035835
-0.00539383082268019 -0.03797077490256851 0.03970277344306683
-0.007004450482126279 -0.03788781936743028 0.03938193962253822
-0.008647756789013528 -0.037801216046054846 0.039092447498523974
-0.01019116996331243 -0.037724356867198564 0.03873422497106327
-0.011715934523104488 -0.03764906540127707 0.03836801575640081
-0.013231547269201838 -0.03757438658847221 0.038000906870963136
-0.014728922986976256 -0.03750124940600169 0.0376258234242261
-0.01611300498254764 -0.03743936321055036 0.03716894152426875
-0.017430982711530485 -0.03738397415334867 0.036665633915375306
-0.018829380421144792 -0.037320108799664985 0.03622983137308461
-0.038248795098670796 -0.03540536291664014 0.0499855519626789
-0.04006680100622079 -0.03529382069435439 0.04996845603872524
-0.041826413889076874 -0.03518782354616801 0.049914091639152725
-0.043679207709614365 -0.03507174166600195 0.04994302039025389
-0.0454797436659517 -0.03496057373623087 0.04993953138839796
-0.04724125379137134 -0.034852978042524733 0.04991371135398798
-0.04902879780225938 -0.034742210146025146 0.04991799654759832
-0.05080246723105253 -0.034632409753842304 0.0499201721443035
-0.05253716222940885 -0.03452620536738921 0.04989949738892102
-0.0542679342947428 -0.03441995058127838 0.04988446904949312
-0.05601376886259868 -0.03431165300281289 0.0498908563667404
-0.05766895345392864 -0.03421241543063748 0.04983068163763127
-0.0593855085015203 -0.03410627666764971 0.04983036060900625
-0.0610938702511713 -0.034000538366534744 0.04983208671130496
-0.06275881122837634 -0.033898931887731035 0.049805935737519735
-0.06443688558965327 -0.03379548523940014 0.049799594729873775
-0.06606848052002023 -0.03369652391079037 0.04976220959991351
-0.06772574384786845 -0.03359439038170423 0.049755365224912806
-0.06935049703989904 -0.03349527614586834 0.049729080420470084
-0.07095722712270469 -0.03339765088088488 0.04969558091149534
-0.07255996171221579 -0.03330001992654597 0.04966695268467597
-0.07416168180350691 -0.03320206279213099 0.04964581927325562
-0.07576226713457695 -0.03310379024848188 0.04963211643607962
-0.07734074188906515 -0.03300746514424729 0.04960723504618669
-0.07890710130673417 -0.03291201888234884 0.049579856068807326
-0.08049228274722559 -0.03281410175208146 0.04957766173659822
-0.08206079009648282 -0.03271755583173765 0.04956891436200017
-0.08290883101072888 -0.0326990726219322 0.04891444671160988
-0.08298272629733255 -0.03276504429869367 0.04755504816744832
-0.08315650228216565 -0.032820383446372635 0.04628151485393078
-0.08328575818744721 -0.03288085816374826 0.04496207145207359
-0.08341476261634506 -0.03294163627232332 0.043637081126653765
-0.08351797246007925 -0.03300553471666987 0.042282699910422494
-0.08361281101243073 -0.03307065048175795 0.04091483634395848
-0.08370143391218754 -0.033136753307494916 0.03953535875635972
-0.08376987089243332 -0.03320540016454396 0.03813091203650498
-0.08382977164898497 -0.033275313007988944 0.036712241694125236
-0.08386414703772321 -0.03334839446708428 0.03526292922350066
-0.08388538704346143 -0.03342328220180753 0.03379446233490563
-0.08389044634801346 -0.03350032984645925 0.03230365544578018
-0.08389256272491452 -0.0335780665092111 0.030803077802196155
-0.08387684859453903 -0.03365817208009086 0.02927809873690601
-0.08387223703120644 -0.033737400176776275 0.02775679786571361
-0.08387432586615795 -0.03381624225850743 0.02623495062688186
-0.08388540782676229 -0.03389443582138551 0.024714883340871907
-0.08393855184350302 -0.03396822050278409 0.02322965156536494
-0.08394457021588098 -0.0340477184229928 0.021690482688883794
-0.08399356438961297 -0.034122688501303976 0.02018735283813977
-0.08400351505009696 -0.03420248008817548 0.018637838422654096
-0.08404075607364841 -0.03427952210433336 0.017108787323108887
-0.08406527334786634 -0.03435839361730634 0.015559643746553664
-0.08408382305001488 -0.034438329411816154 0.013997102382027393
-0.084105506523514 -0.03451828612856532 0.01243042314411652
-0.08403869591480267 -0.034608870310386404 0.010764406223999823
-0.08405502170353552 -0.03469024376078057 0.009176810293499371
-0.08398697631983781 -0.03478182322201102 0.0074930849909675135
-0.0839285821475203 -0.03487272020857657 0.005811009724331573
-0.0837934093165722 -0.03497303144156917 0.004039014693346443
-0.08375897721532755 -0.03506202715575198 0.0023650217741235102
0.03632530395030831 -0.04195146067512109 0.03797412673172246
0.03257950423580713 -0.041660448613453444 0.038942869067346064
0.029228118912625334 -0.041407878621193155 0.039663993282459786
0.026144779922327832 -0.04118126533844695 0.04021998504149071
0.023328321020465892 -0.04098064889782015 0.04060870524558785
0.020541524436844094 -0.04078221552321221 0.04099202065135166
0.018034221809421658 -0.040611276675393666 0.04119513732115182
0.0156954760935748 -0.04045674400631572 0.04129285051126658
0.01345560915298638 -0.04031163355654635 0.041332502391634385
0.011161538856457653 -0.04016040679198811 0.04142174078188199
0.009082105510156091 -0.04003047236246088 0.04136927363125836
0.007156391156495356 -0.039915729552545146 0.041216394079865715
0.0051356039443063994 -0.03979076810093697 0.04114097971085234
0.0032315364960098236 -0.03967728080000125 0.04099045923418082
0.0013176345540081291 -0.03956231186674282 0.04085587859112466
-0.0005334065212866945 -0.03945335054750372 0.04068405835737299
-0.002352854266648108 -0.039347202349989674 0.0404973723042133
-0.004107234880273425 -0.03924735199094685 0.0402706578757962
-0.005795696159874797 -0.03915392731561516 0.040002543984772654
-0.007497121132929885 -0.03905876389179878 0.039751440713025166
-0.00908191363202876 -0.038975358454661706 0.03941982846074166
-0.010749011914759632 -0.0388830064067038 0.03915714945445681
-0.012387661786912696 -0.03879324363839134 0.03888003549719021
-0.013879785813166068 -0.03871847137690903 0.03849769119229385
-0.0153621040402393 -0.038644414054884585 0.03811368600398973
-0.016824619079045255 -0.038572129249962624 0.03772019077269384
-0.018178191351418516 -0.03851103734699703 0.03724757171319909
-0.01960344114037399 -0.03844210384659356 0.03683592302832439
-0.03821724825715328 -0.03655081549921829 0.04996071804871555
-0.0400757375645554 -0.03643138170412971 0.04997552870313232
-0.04187427405444455 -0.036317819546021264 0.049952172601430256
-0.0436484503592347 -0.036206369544571716 0.04991841665006719
-0.0454684167890807 -0.03608954519171922 0.04993042222584232
-0.047260261918630586 -0.03597523103009055 0.04992907949258024
-0.04904250481397271 -0.03586145479624728 0.0499291378516612
-0.05080671457939684 -0.03574912721233176 0.049923642868524076
-0.05254390172007761 -0.03563922713187069 0.04990503389776141
-0.05426208595355214 -0.035530903629953925 0.049879639061318704
-0.05596902854511643 -0.03542332636953828 0.04985371014411888
-0.05769196318237135 -0.035313544103457696 0.04984988720486483
-0.05940995551471301 -0.03520381969818316 0.049850874089718
-0.06109306210229376 -0.0350974180328968 0.04983140499964789
-0.06273075400467448 -0.03499551139267033 0.049782142816522934
-0.06446629534192999 -0.03488244176228152 0.049824666564575626
-0.0660716346669658 -0.03478316240698395 0.04976491272627881
-0.06772887199258026 -0.034677736343060886 0.049758060226143874
-0.06933498190067983 -0.034577479145456724 0.049715643072041904
-0.07094645380991083 -0.03447618462610957 0.04968620116635636
-0.0725546184795397 -0.03437480571757256 0.049662276110212844
-0.07415789608705126 -0.03427351716252511 0.04964248844673169
-0.07575100200659957 -0.03417290729168142 0.04962215278697513
-0.07731988189248079 -0.03407454720543236 0.049588688069642006
-0.0788989722136843 -0.03397460503844964 0.04957259039585027
-0.0804871520126556 -0.033873195623707435 0.04957305189016309
-0.082097862747179 -0.03376880068034943 0.04960239795399812
-0.08325982493046608 -0.0337144049795444 0.0492331216068449
-0.0834479860802087 -0.03376953475693576 0.04797967948952986
-0.08351503031683799 -0.033838598664692965 0.04661044699842154
-0.08374493425797702 -0.033889534868209316 0.045385546269501864
-0.08384698029742549 -0.03395521469102817 0.044037776670223794
-0.08396033851524598 -0.034019907851453285 0.042694945431357545
-0.08406465468299723 -0.0340859282768981 0.04133811179582936
-0.08415696570962644 -0.03415362372273762 0.03996431490250951
-0.08425183802518893 -0.03422133730301109 0.03858712703809297
-0.08426355752306247 -0.03429890952863935 0.037124988898750655
-0.0843238032527614 -0.034371256440871106 0.03570256917821829
-0.08434972068514984 -0.034447897889277046 0.034240886986657726
-0.08435141534084917 -0.034527695547788576 0.03274915008434759
-0.08434128856035333 -0.034609234467308396 0.031238994368155082
-0.0843251846287057 -0.03469184805665793 0.029715899271103685
-0.0843201479070026 -0.03477355962671397 0.028196454301135376
-0.08431508740281413 -0.034855657024810756 0.02666983477216095
-0.08432866342101442 -0.034935960413515224 0.02515449689710586
-0.08439690065962385 -0.035010233654920696 0.023686591236681986
-0.08437399711683713 -0.03509556793019453 0.02212080797361221
-0.08441635288625104 -0.03517361895060154 0.02061322048159825
-0.08444986364262119 -0.035253084552578466 0.019089765688250437
-0.0844737178391865 -0.035334070873951025 0.01754942930371417
-0.08452565820626218 -0.03541211118125918 0.016030619333259277
-0.0845164513533676 -0.03549779584517813 0.014441971696961653
-0.08453986596131596 -0.035580002266369704 0.012879381535431
-0.08454892391880747 -0.035664318773827745 0.01129450842822416
-0.08457862870955729 -0.035746567998566244 0.009723622833361978
-0.0844830009990975 -0.03584426206571961 0.008013767800383154
-0.08446897328422426 -0.03593260747247201 0.006381192875446584
-0.08438793769127034 -0.036029465411991306 0.004669557038009364
-0.0842555118193718 -0.036133009122961475 0.002894351189694777
0.03846518202655136 -0.043483206673039156 0.036527871418668756
0.03469799206447388 -0.04318133381163322 0.03750310387046607
0.03053132573142986 -0.04283686410365398 0.03877338824353205
0.027364446379522955 -0.0425947712589569 0.03938184732940492
0.02360483689857612 -0.04229005239746123 0.04041763489059952
0.02146299504308896 -0.04215268913756157 0.04035176984061001
0.018491404713234183 -0.041928120464907515 0.04087572580370308
0.01598065729457543 -0.041750858043506756 0.041092509439856206
0.01371756531526569 -0.04159883865268659 0.041147463576970245
0.011343920273087948 -0.04143458164050051 0.041292202963572
0.009037204140625088 -0.041276697329580087 0.041401340315416646
0.0070205369455832445 -0.041148763741996955 0.04131394756386281
0.0050351015099778795 -0.041023604956788425 0.04121354321667636
0.003022284491213001 -0.040895029036623204 0.04114236705145602
0.0011295783693834882 -0.040778671479509636 0.040993144851660446
-0.0007620905000066958 -0.04066194207960551 0.040851890258696344
-0.002636542206955028 -0.04054656319071754 0.04070670602375559
-0.004440934824813392 -0.04043818755667739 0.040518235265912084
-0.006200923723777452 -0.040334112887554056 0.040304822571906485
-0.007911056528552673 -0.040234950970576715 0.040061890665390454
-0.009546262734814626 -0.04014342739019455 0.03976997624378509
-0.011323766398087853 -0.0400361926973826 0.039592896071055095
-0.012927808018831255 -0.03994723022773562 0.03929175845166344
-0.014517605816118162 -0.039859433578176194 0.03898649115682551
-0.015944493675085658 -0.039788924608049475 0.03856241407034533
-0.017427777461005767 -0.03971199137261881 0.03818742519985524
-0.018898329504367317 -0.03963611778874349 0.03780842659158845
-0.02032943746993382 -0.03956422451748645 0.03740438013530578
-0.021712807687657265 -0.039497243623665634 0.03696829670317903
-0.04007573756450716 -0.037569862382389047 0.04997552870309413
-0.04184857304225176 -0.03745557297921962 0.04993172304242249
-0.043589556447713396 -0.03734429808650754 0.049871305618727824
-0.04548322870582494 -0.03721571037576464 0.049942334084593976
-0.04727149298229605 -0.03709821604214764 0.04993815984755656
-0.049039934834944066 -0.036982409836651756 0.04992704892678157
-0.05078972453426822 -0.03686817284005105 0.04990975943906262
-0.05251862721256345 -0.03675576379285054 0.049884270825124866
-0.05426041496069911 -0.0366414306052579 0.049878259033126704
-0.05598725755960399 -0.03652826922328308 0.04986884501728095
-0.057703466826156624 -0.036415804652117474 0.04985948896981823
-0.05940588126900165 -0.03630439612667746 0.04984745539148455
-0.06108255579759658 -0.03619539356103402 0.0498225424365929
-0.06271792620787758 -0.03609056650692196 0.04977126466410864
-0.06438202586746883 -0.03598203408940106 0.04975282677775178
-0.06605428608196012 -0.035872099617469386 0.049750044865542464
-0.06768507231772802 -0.03576638348017618 0.04972032534220455
-0.06917198022392046 -0.03567655439141777 0.04957447061499559
-0.07089565531441505 -0.03555935266861815 0.04964197364318773
-0.0725378242650705 -0.035450935950338595 0.049647577256676845
-0.07413896611250281 -0.03534673080562084 0.04962583308913643
-0.07572396232890005 -0.035243911814162025 0.049598237047976224
-0.0772982738944612 -0.03514186056673968 0.04956947603234246
-0.07888123450204326 -0.035038354906886414 0.04955673667010241
-0.08053478785472706 -0.034926232789788555 0.049615851593356186
-0.08204479515259205 -0.03483021687926231 0.04955446791252294
-0.08352126927962711 -0.03473765647842019 0.0494704925295123
-0.08389882047259456 -0.034772424231056975 0.04839114510750181
-0.08403243665458754 -0.03483577104459786 0.047085142307547345
-0.0841303667319615 -0.03490357334019692 0.045741011105383256
-0.08428085069149482 -0.03496553373344595 0.04444000439250473
-0.0844093806245681 -0.035030352720676956 0.04311341243649314
-0.08451876989980595 -0.03509771914968308 0.041763515173407095
-0.08459946685318842 -0.03516877621604478 0.040381000601019235
