# .PCD v0.7 - Point Cloud Data file format
VERSION 0.7
FIELDS x y z
SIZE 4 4 4
TYPE F F F
COUNT 1 1 1
WIDTH 770
HEIGHT 1
VIEWPOINT 0 0 0 1 0 0 0
POINTS 770
DATA ascii
0.02672428914881203 -0.03911598469605709 0.03789776369448672
0.028524891791950724 -0.03900170878865669 0.03782062210355125
0.030303588150618732 -0.038889357340562446 0.03773474898158219
0.032090942956982116 -0.03877556557837542 0.03766463108201795
0.03387442228712306 -0.03866171208444865 0.03760024932246214
0.03548485149706526 -0.03856656993825016 0.03740336974908348
0.03664743767062534 -0.038520820840676706 0.036846047979329055
0.03730724454473089 -0.03853090927891164 0.03587709016165058
0.03729923385523787 -0.038615633700271344 0.03435287356372446
0.037252207232837564 -0.038705094984736794 0.0327894030664474
0.03712026621607495 -0.03880447323225308 0.031147603146346237
0.037013787751931204 -0.038901424012304016 0.029519402502108605
0.0369114568017494 -0.03899833303249256 0.027887015020942707
0.03680955351933751 -0.03909562007610509 0.026247274519814234
0.03672785024958369 -0.03919104995452673 0.024617080782023015
0.036633477030006745 -0.039288338557840745 0.02296833806685994
0.03661812152306515 -0.03937707574623015 0.021380231693622076
0.03668138300630608 -0.03945725024312038 0.019853443364150736
0.036732557716375736 -0.03953916142273548 0.01830962037976125
0.03677633336124697 -0.03962228446528837 0.016752676943072142
0.036809805714613286 -0.03970696057711124 0.015179897329160641
0.03683004520037858 -0.039793536934209894 0.013588487955003281
0.03682930654199246 -0.03988291861832812 0.011971294616584804
0.03684392049627483 -0.03997092968400619 0.010360617007903195
0.03670849552682076 -0.04007670058087819 0.008607243183241964
0.036525033373118854 -0.040188520993327204 0.006801603663405709
0.036358955261031944 -0.0402988269447158 0.005002662888871634
0.03615793729476169 -0.04041370446362986 0.003162602874221765
-0.06462783846375009 -0.04338782826865951 0.04488867850035122
-0.06187447423953596 -0.04320507903850817 0.04501903469722096
-0.06174743407338662 -0.04327716311640536 0.04352191924383164
-0.06395518191917748 -0.04357715494715939 0.040552557722112914
-0.06664820201597316 -0.043925727529218306 0.03725458240200502
-0.06890516480750863 -0.04423299104935911 0.03420812009149299
-0.04782249516788961 -0.04225256762227504 0.046054674194140666
-0.045323267098622555 -0.042090385426385046 0.046103938577042036
-0.04299007685609518 -0.041943909322127756 0.04605786705722725
-0.041504380157278364 -0.041880459749234045 0.04547180284426844
-0.0372614207131885 -0.04154420822890063 0.04669261449670142
-0.03567545908551306 -0.04146978026490042 0.04619201132000211
0.004109677870433426 -0.037604088000257906 0.07094532301097745
0.008407663505295926 -0.03725180777514593 0.07239979183584552
0.011098237090263252 -0.037058278952366776 0.0728062198084887
0.013211990662782669 -0.036921563150243794 0.07283945071157555
0.014909228550797071 -0.03682596604813359 0.0726014336162524
0.01647540163414596 -0.03674312206917566 0.07228152943257019
0.017854529545210607 -0.03667873127191714 0.07184004036689623
0.019104936291160834 -0.03662703546397935 0.07131495645434827
0.020226542901034594 -0.03658811976196274 0.0707047827939093
0.021251195113024757 -0.036558843815657195 0.07003019332182259
0.022151635295519168 -0.03654202657616511 0.06927104630818459
0.02302115180083175 -0.03652827852055515 0.06849145507056376
0.023781179738703084 -0.0365256064895745 0.06763557241092583
0.024489583825893613 -0.03652818308620057 0.06674322768499125
0.02507931063901514 -0.03654288617750784 0.06576593131670144
0.025628394160835677 -0.03656180755299643 0.0647583219180125
0.02612948972952578 -0.03658572618582952 0.06371461011141549
0.026493072671932627 -0.036623869284850126 0.06256922739195653
0.02677427326479559 -0.03667065020858228 0.061360767304567465
0.026965490156865612 -0.036726906720888915 0.06008264883724557
0.026949324978612743 -0.0368048325141007 0.058647141716962725
0.026586120736076357 -0.03691902827017839 0.056948107135082804
0.025986113603020444 -0.03705827897358144 0.05506354032859939
0.024800175840100358 -0.03725905481148396 0.05272866509736096
0.022711181065985575 -0.03755479593126197 0.04969713436674067
0.011547622091185816 -0.038881168155825256 0.038239720699156765
0.013808212454571478 -0.03872597853617165 0.0384428402077206
0.015685994498376155 -0.03861037022890147 0.0383632418516468
0.017560648502012333 -0.03849460219340891 0.03829035326417102
0.019390155418936905 -0.03838310872561991 0.038191468320977695
0.02121701848854879 -0.038271421119745595 0.03809935849471341
0.023054895761291494 -0.03815809032332708 0.038024798658640835
0.024867301252269547 -0.038046981742332155 0.037939109069808075
0.02667691794645688 -0.03793569485489174 0.03786007178606837
0.028451997669802553 -0.03782761559472116 0.03776231187785445
0.030230316981115446 -0.03771872574944646 0.03767582373667566
0.03200314895925094 -0.03760995513174516 0.037593649322147704
0.03372549792802976 -0.037506135975423426 0.03747920094213497
0.035217845525270464 -0.03742661804461695 0.03718518559788536
0.03644280093508806 -0.03737559154080385 0.036677938377126795
0.037144563311207024 -0.03738088781708437 0.03574273609294831
0.037073155921303835 -0.03746994961812042 0.0341651694584274
0.03693167626942334 -0.037567005915017715 0.032521864969089376
0.036809980726901725 -0.03766233418458111 0.030887242694657147
0.03669047195378711 -0.0377578415743169 0.029246670392168717
0.03658254928385729 -0.03785250227871363 0.027608096811799543
0.036474084119387906 -0.03794763881380992 0.025961286618116697
0.03639053870756098 -0.03804046001863718 0.02432800239148586
0.03631887686250068 -0.038132384340534314 0.022697299506684254
0.036324593853909626 -0.03821618633365496 0.021126013313237324
0.03638351315875238 -0.038294482796759885 0.019594104077517382
0.03643601562700932 -0.03837383799660564 0.018050076907403123
0.036463000539794344 -0.03845637854817807 0.01647699404797548
0.03649774339197548 -0.03853842509354293 0.014903888082951067
0.03652402046895131 -0.03862178266092787 0.013316396179104406
0.03651204023974991 -0.038709788185726395 0.011687726304810853
0.036512505785412874 -0.03879679608184355 0.01006284854949241
0.03638089526842092 -0.03889901739666412 0.008311358395273027
0.036158601699018744 -0.039011899751328336 0.006468912500430357
0.03599134065526571 -0.039119089763093806 0.004667149952210681
0.035752031508867355 -0.03923490636301804 0.0027902039327067363
-0.061607915813941316 -0.04182984307740088 0.045184623761267584
-0.058504259973005346 -0.041619044605365293 0.0455481072673769
-0.0562334916092731 -0.041486083651852065 0.04540418832206533
-0.05886531381330967 -0.041816541084102446 0.042172459582616006
-0.050479149093381304 -0.041103597853366876 0.04591727595723771
-0.04785114238329624 -0.04093489649767327 0.04603636667058403
-0.04534003174614093 -0.04077665674203433 0.046093164241981566
-0.04286869664874726 -0.04062158488046894 0.04613631628299958
-0.0392352042753753 -0.04035483190910057 0.046946658795911256
-0.036370386697227586 -0.04016062717278773 0.04727500242035976
-0.03476587920697216 -0.04008657586062708 0.04678986040950922
0.005937298279441117 -0.03625325133588166 0.07215331886916787
0.00970373288841031 -0.03596283472122101 0.07326124670664322
0.012243178687008305 -0.03578969149207363 0.07357147909561834
0.014278282471158699 -0.035664633368248426 0.0735561196005064
0.015991985544260345 -0.03557022073242813 0.0733332244000019
0.017565497912502837 -0.035489041628668005 0.07302237989278468
0.018965289739084068 -0.03542443876735589 0.07259912834236551
0.020293706082669227 -0.03536653389964074 0.07213186241037733
0.021440574833217485 -0.03532613142654459 0.07154366956538369
0.022441098710564877 -0.03529989168413536 0.07085695517170304
0.023375509246138904 -0.035280030674284535 0.07012610766868932
0.024236947979168033 -0.03526726156130264 0.06934555733301961
0.02501389552130462 -0.03526276242320866 0.06850632981264393
0.025719955248140414 -0.035265241399677405 0.0676171085479298
0.0263332363601802 -0.03527690644374605 0.06666143273410913
0.02691723351503522 -0.03529152159458493 0.06568380496686721
0.027434976599288896 -0.03531277651683824 0.06465718135071058
0.027865323441443546 -0.03534281623848616 0.06356542152330075
0.028174073213394046 -0.03538510572475884 0.06238251144356399
0.02838894656545815 -0.03543695111566573 0.061127328035334494
0.02844465000477764 -0.0355049499726993 0.059750544100980574
0.02826110515718372 -0.035597238300750685 0.058190805188371886
0.027738636677663686 -0.0357239904444794 0.05637083096258455
0.026809817904522026 -0.03589221637643994 0.054235888905154406
0.02516331775500097 -0.036133612212701255 0.05154619624761231
0.011639541651952912 -0.037656811352053725 0.03830978578689881
0.013776506813405698 -0.03751901331338031 0.03841854226126934
0.015642368564178444 -0.037408238344476444 0.0383296283051065
0.0175012711119214 -0.03729770473517562 0.03824435678683569
0.01935720866827889 -0.03718700558779183 0.03816580887527554
0.021183342083988865 -0.037078890148237835 0.0380729897780544
0.022990042940846667 -0.036972309845958326 0.03797374602434417
0.024808812779493206 -0.036864032659136715 0.03789281951132928
0.026599550131087446 -0.03675818340154066 0.0377985124321476
0.028374274873299354 -0.036653535405322984 0.03770013904865599
0.03015891968709139 -0.03654741046240495 0.03761840547701706
0.0319408168876702 -0.03644111390128461 0.03754325362026034
0.03366832970053507 -0.0363400159019269 0.03743273358523963
0.03504831198224179 -0.0362747093374508 0.03704665112265737
0.036262038204600555 -0.036226488823617745 0.03652944133120073
0.03696414101716555 -0.03623162494506882 0.03559373015806583
0.03677714046562275 -0.03633007337800361 0.03391939882838019
0.03661520873869556 -0.03642631501909306 0.03225771850366016
0.03648605737786598 -0.03651952272523119 0.030615438719252652
0.036361865992959264 -0.0366126148210645 0.028969475780739662
0.036247377556130445 -0.03670508851585066 0.027323866464460222
0.036155869143516095 -0.0367955312986507 0.025690008125199115
0.03605351436760357 -0.03688752594682847 0.02403917013516138
0.035977177638180036 -0.03697715489560201 0.022402914203245916
0.036004936030780144 -0.03705606500966541 0.02084916413473542
0.036078472809068673 -0.03713042607278819 0.019328521819591382
0.036139918117984726 -0.037206414823731264 0.017790922546506105
0.036146235177736186 -0.03728866853863059 0.01619829106475884
0.03618416109416783 -0.037367884261008136 0.014626534466817775
0.03621361871235068 -0.03744836911338322 0.01304041271593237
0.036191308423477786 -0.03753481762013261 0.01140106056366652
0.036142879791363436 -0.0376244879225849 0.00973074813623559
0.0360391463353702 -0.03772057467370432 0.008002694686983391
0.03575938416510316 -0.03783627492108062 0.006106454353315527
0.03563948662980887 -0.03793504152563817 0.0043460213150311455
0.035338336747782195 -0.038054094542188076 0.002410658982888003
-0.06052139711255622 -0.040460500082238615 0.0442878915072899
-0.05594306818651801 -0.04012127828660059 0.045586664840577606
-0.05307840686880538 -0.039937661226161325 0.04582910951354496
-0.050591001813218406 -0.03978793884170257 0.04584619705711629
-0.0481860763536045 -0.039645209731853384 0.04582232103074424
-0.04555292789855331 -0.03948089298509989 0.04595633974408109
-0.04283293462590204 -0.03930791021569136 0.046159429631259186
-0.03844658771062115 -0.03898012684163356 0.047459221900149895
-0.03551408268165274 -0.03878576935627434 0.04783469050040812
-0.03380730943880683 -0.0387044530957304 0.047419909596663645
0.007601365851905906 -0.034928967604259155 0.07325321178203914
0.010985942916451108 -0.03468320881110968 0.07411348971803755
0.013410302943554442 -0.03452616198693778 0.07435156489134398
0.015390567160250557 -0.03441005229505179 0.07430370091553157
0.017173769694782903 -0.03431195784926326 0.07413194355393454
0.018808980435751743 -0.03422737607214079 0.0738674746040576
0.020328444355729947 -0.034153352380096834 0.0735307014072886
0.02161958969180433 -0.034100572650829254 0.07304299106206472
0.02277761279556878 -0.03406016543127479 0.07246755256206802
0.02380609662583072 -0.03403186661973891 0.07180537503011941
0.02474457418775705 -0.03401199715758345 0.07108260693154772
0.02560502260584363 -0.03399946925717274 0.07030663588769231
0.026391783486250098 -0.03399391405980965 0.06947963295449427
0.027129375801859257 -0.033993032450209605 0.0686181604477521
0.027786780531107003 -0.03399982203240341 0.06769949331725134
0.028353350234461228 -0.03401535126550572 0.06671504417885649
0.028908485602545442 -0.03403204334811743 0.0657210658213096
0.029379650007169744 -0.03405689098386113 0.0646647564781303
0.02973024347526848 -0.03409347674240339 0.06351839364297607
0.02997863062426015 -0.03414009768750828 0.06229400223606124
0.030058306021870485 -0.03420326090207886 0.06094126308520803
0.030009072659166358 -0.03427920458505815 0.05948765057066524
0.02966880253358234 -0.034383784875987145 0.05781063382851481
0.028922076782011308 -0.03452843580072981 0.05582007492750013
0.02765669328369036 -0.034724372818381775 0.05342635474997093
0.025094212421962137 -0.035048143174691175 0.05003287598944717
0.01171696664406191 -0.03643447814330408 0.03836880248389207
0.013744795726432946 -0.03631184078050852 0.0383942401413675
0.01560482167448013 -0.03620522083989167 0.038300698629501195
0.01746100427836822 -0.03609852924876467 0.038213164231991836
0.019303282923623433 -0.03599276112585579 0.03812381066029841
0.02112389783902152 -0.035888691877827936 0.03802644477204681
0.022927133036777847 -0.03578590661597639 0.03792422286861963
0.02473860139136108 -0.03568186274528973 0.037837252080645145
0.026540534593616494 -0.03557832554113514 0.03775155545991504
0.028333000776018025 -0.035475291446416285 0.03766712264271016
0.030062725656522404 -0.0353781035308137 0.037541045488794555
0.03188224234866277 -0.0352714778215784 0.0374958958968421
0.03355675091944832 -0.035178989417794425 0.03734204035807609
0.0349112603407446 -0.035118383566974574 0.03693465926019318
0.03616462630375611 -0.03506774087620961 0.03644941720524053
0.0367816770019489 -0.03508135024033059 0.035443038020410544
0.03646387118429556 -0.035189945261112444 0.033659302988218454
0.03628696142710103 -0.035284675893859724 0.03198373978949337
0.036150293506910125 -0.03537571646713299 0.03033369936580793
0.036027002563313704 -0.03546578854940558 0.028687002699519404
0.03591343982106221 -0.035555259517484776 0.027040682560281082
0.035819131131560766 -0.03564314750067352 0.025402938730865743
0.03571962119748684 -0.03573195809454047 0.023753021313659806
0.03564619590280804 -0.035818471478833144 0.02211776237478108
0.03569419962188941 -0.03589281952248018 0.020580041612752953
0.0357614612155388 -0.03596550301568091 0.019052516842264056
0.03583376872983107 -0.03603798604603364 0.017522970447593378
0.03583176039475505 -0.0361185233465446 0.015921603425700814
0.035873845268380555 -0.03619482318113338 0.01435206994178806
0.035899778475930844 -0.03627315247820329 0.012761372042069952
0.035847833154523945 -0.03635998962842898 0.01109406703342114
0.035813017098049016 -0.0364454193766497 0.0094343741297227
0.03567638839392495 -0.03654194529329848 0.00767505588378814
0.03538744181300002 -0.03665496790720169 0.005768759927786249
0.035244991179780194 -0.03675302070080463 0.00398597488362612
0.03494421691788746 -0.036868288126172745 0.0020490730863985673
-0.05485288328434307 -0.038763493809684746 0.044707847477618634
-0.05118808587671858 -0.03851463582004811 0.045466768836010696
-0.04866657816212416 -0.03836640741200733 0.04551524761876968
-0.04595866083167294 -0.03820099396988466 0.04569558254285078
-0.042972184899358556 -0.038010071383068715 0.04606943080542153
-0.03801460324211253 -0.03764216835392036 0.04773999117391059
-0.03464893421550097 -0.037415409492434756 0.048400159393663544
-0.03286293027257953 -0.037329537896217284 0.048040631578315396
0.009098032049400406 -0.0336300612485603 0.07424245799463133
0.012248620091694917 -0.03341331212380417 0.07495274988190709
0.014653288655833485 -0.033263050550927355 0.0751823551803816
0.016752123940541097 -0.03313985786215583 0.07521882131435864
0.018643665855321012 -0.03303496350578421 0.07512538572964386
0.020367750942854312 -0.032944859118737166 0.07492684511149245
0.021790206583081284 -0.032881847546738514 0.07452966242146408
0.023155964181147626 -0.03282375267762702 0.07409876609941912
0.024311898244234242 -0.03278459941162464 0.07352773206182542
0.02540407865588107 -0.03275112583141316 0.0729156755468767
0.026367859912580616 -0.03272929895493098 0.07221671792365825
0.02724218978449311 -0.03271560857004017 0.07145675316575154
0.028007667399691016 -0.032711892172165274 0.07062105005793762
0.02875285141872741 -0.03271003429030874 0.06977124661943651
0.029417622996387283 -0.03271560857285642 0.06886417294266822
0.03002154269190288 -0.03272684736964029 0.06791293112772939
0.030583077402022152 -0.03274207007366213 0.06693013356783745
0.031069611709205025 -0.03276433761461158 0.06589159487178925
0.031453098059390394 -0.032796310122751984 0.06477594232015127
0.03174723034345722 -0.032836767834556295 0.0635919832105668
0.031926388815668394 -0.032888163478499925 0.0623197239362952
0.03195095138942966 -0.032954284564341525 0.06092836183186384
0.031785216641853575 -0.03303858139720261 0.05938936815812712
0.031280244005152835 -0.03315520704137485 0.05758869126192184
0.030260344904355585 -0.0333209596342218 0.05538966820815128
0.028442977832489225 -0.033562892509226346 0.052571722122440656
0.011772692651912775 -0.035214709672691184 0.038411279271172216
0.013704893395757312 -0.035105238980162566 0.03836366057702534
0.01556828219846651 -0.035001860716593336 0.03827254516069584
0.017416700513257055 -0.03489947402898991 0.03817884448293102
0.01925333741703983 -0.03479778016062171 0.03808491231710365
0.021072363692370977 -0.0346973423299266 0.037986093394604625
0.022879936179183658 -0.03459757709490089 0.037887069142780394
0.02467714384502373 -0.03449838392479254 0.037788612706934344
0.026466979690348558 -0.034399477733032556 0.037693029930904565
0.028208160174250152 -0.03430485182357234 0.03756725884778839
0.030033190235994323 -0.03420169514922742 0.03751729287368233
0.03179718000495818 -0.034104021464763844 0.037427122688981906
0.03343759239530092 -0.03401795170945409 0.037245186180304035
0.034821698940310064 -0.033956504806631704 0.036861474087582335
0.036037444645322325 -0.03391124579915432 0.03634493714719722
0.03649044793671391 -0.03394049586045263 0.035202519744324756
0.03615935536505083 -0.03404683728627254 0.03340647482226028
0.035961832109440595 -0.03414050316369383 0.031712363576363645
0.03580918829663565 -0.03423015392992002 0.03004747809630154
0.03567173542515606 -0.03431869647038994 0.028387318128773875
0.035569424142356365 -0.03440414801122054 0.02674895241790931
0.03547133241370748 -0.03448955673450604 0.02510644007689944
0.03535093154198804 -0.03457756076201647 0.023437051656706565
0.03533170100867322 -0.03465586954273511 0.021846814511133517
0.03538385903498442 -0.03472739373134893 0.020311261904190525
0.035448642704599076 -0.03479797131884557 0.018780162556863655
0.03552229707258742 -0.03486797275874864 0.017250360122243347
0.03551000558632361 -0.034946929251327384 0.015638510525670668
0.03554664712846184 -0.03502130666352866 0.014062673544309623
0.035570933629880175 -0.03509726515948471 0.012468990515453415
0.03552490514256662 -0.03518068325738342 0.010805438362402497
0.035458343094470546 -0.03526656007355975 0.009115707734349776
0.03527405107292947 -0.0353647967767356 0.007311669439906077
0.03501957306116443 -0.03547063115397531 0.0054347640111640505
0.03481440920475587 -0.03557190702529613 0.0035929931558936756
-0.0568560975166888 -0.037671963555589626 0.04186492496640071
-0.04995272891747221 -0.03715379307451015 0.04469330960780743
-0.046566108606098444 -0.036935946593652576 0.04530518686967999
-0.0433597539732653 -0.036732768306987656 0.04581894108847684
-0.03745247426145587 -0.03629563922245744 0.04810534816510914
-0.03381806450851804 -0.036053359356460556 0.04894322337866591
0.005132987172601189 -0.03274943043583491 0.07301460603125545
0.010545393360104516 -0.03234471964605437 0.07519911532895432
0.013661958219345682 -0.03213815394641105 0.07589214944647607
0.016208499015799127 -0.03198045862164851 0.07622183105826696
0.01843235921488129 -0.03185031994228349 0.07634812976233199
0.020407831940213006 -0.031741400796095214 0.076317712807392
0.022106663092846923 -0.031656307562018426 0.0761086433546132
0.02360254719364474 -0.03158870758449696 0.07576820695386755
0.024897353783073395 -0.031538542319334076 0.0752954246515978
0.0260713697899147 -0.031498832870273545 0.07474351343077429
0.027163733528625 -0.031466182171344226 0.07413830864148074
0.028108836815452454 -0.03144644638806051 0.07343305403280012
0.02901183142386604 -0.03143036872079999 0.07269993434599906
0.02981322594742719 -0.031423264240345895 0.07189644824125502
0.030528262437839015 -0.03142382925286467 0.07103224609113967
0.031190003006669464 -0.03142915750525163 0.07012993277564938
0.0317797655121943 -0.031440950666343385 0.06917546661051643
0.03235915198259193 -0.031453723103643964 0.0682124726378519
0.032853443921814995 -0.03147419679674279 0.06718657915672299
0.033231311753455395 -0.03150524133370636 0.06607389880429998
0.03354506056217399 -0.031542201605359234 0.06491141654189458
0.03377931055600686 -0.03158650545105877 0.06368699742527811
0.03390228674877477 -0.031641078505518457 0.06237608911924314
0.033893623085800906 -0.031707834644017927 0.060962129188601555
0.0336553422839887 -0.031795767109280365 0.05937000582290103
0.03298787016985544 -0.03192321011796183 0.05744639001331914
0.0316946257126276 -0.03210837820304755 0.05503693919031716
0.029263742661988612 -0.03239851406925984 0.05174371845418385
0.013664982440841855 -0.0338983763925387 0.03833307440340766
0.015531735454062778 -0.03379826122236757 0.03824438609163511
0.017372386008157603 -0.033700128137789435 0.03814451641417771
0.019204377510629977 -0.033602378665675774 0.038046781574768984
0.021018831926382264 -0.03350583697290574 0.03794417787576998
0.022828792286703814 -0.033409300984304724 0.03784680828101106
0.02463030489433976 -0.033313138239275814 0.03775154293499716
0.026411793590005617 -0.03321842945698375 0.03764911993207243
0.028141862916523097 -0.033128114753892234 0.037514225654614264
0.029962666341963096 -0.03302892390176547 0.03746057700909705
0.03172248019836432 -0.03293502397467276 0.03736672762928506
0.03338877962765674 -0.032849505052925866 0.037205510290485966
0.03480396778318917 -0.03278726036413636 0.03684698505784201
0.03596870918086642 -0.03274837845521979 0.0362884707871543
0.03602569485512008 -0.03281408378819579 0.03481869263592713
0.03583749652426077 -0.032903311547185884 0.0331392473901479
0.035637029389523844 -0.03299409368048509 0.0314412599651005
0.03546741155726546 -0.03308233613962502 0.02976069334695225
0.035335536731263384 -0.03316736461861845 0.028103718689245327
0.03521716319703644 -0.03325147555520919 0.026450230173281464
0.035119044364543994 -0.03333401582315753 0.024806114264803003
0.03500427626210317 -0.0334185187492468 0.023139965616367164
0.035012825223961486 -0.033491527342382435 0.02157209236381774
0.03507296336811855 -0.03355988344166795 0.020042001452095337
0.03513621639442488 -0.03362824182019259 0.018508149739616397
0.035198769557338805 -0.03369697206391622 0.016967198110097226
0.03521453934288704 -0.03377055116007842 0.01537854736887051
0.03522268054621819 -0.03384520135890703 0.013776135357301544
0.035229893488617825 -0.0339202763708263 0.01216576594515123
0.03522070791308568 -0.03399729125966559 0.010533551010356301
0.035101974367868105 -0.03408538486903639 0.008795518669506397
0.03486105169953008 -0.03418587334927974 0.006938653152841867
0.034651901213708036 -0.03428368912580365 0.005100946868243861
0.03435825772152318 -0.03439028179723319 0.0031766747580361243
-0.060320426607937516 -0.03668475565496017 0.03806764400638046
-0.052243335000719315 -0.03608749969240546 0.041656536379245435
-0.04399956713706071 -0.035474035004714514 0.04540542352712679
-0.03726169218148101 -0.03498348612246079 0.048229347405697676
-0.03296112968189957 -0.03469426842514783 0.0495033237625403
0.007705105933690448 -0.03136485864520576 0.07470520945784856
0.01225306384670466 -0.031046558363360375 0.07632782830720733
0.01545992016646014 -0.030839508679480234 0.07708719586685275
0.018182765455084127 -0.03067232135267937 0.07754139681797592
0.020457130683076863 -0.03054224310718705 0.07770900556298235
0.022431531551463713 -0.030436961651294576 0.07768544788879184
0.02411181775714255 -0.030356132015261585 0.07747138514663532
0.025578629234922545 -0.030293068030403186 0.07711865156319753
0.02684585653708621 -0.030246697853600447 0.07663440846197231
0.02804377805392283 -0.030206037213067104 0.07610643244201326
0.029053833649744176 -0.03018122994697123 0.07545157693970778
0.03001711098067389 -0.030160318440035954 0.07476627262373758
0.030852187055621982 -0.03015029737137125 0.07399279242271797
0.03161128864196178 -0.030146753050194496 0.07316655155470089
0.03231733968247602 -0.03014775462281385 0.07230295210571222
0.03295902196557493 -0.030154305002569767 0.07139329228601105
0.03355094671332365 -0.030165177205552465 0.07044730717990472
0.03409599256887946 -0.030180148943441468 0.06946648447189824
0.034582715497902816 -0.0302002374802003 0.06844195480224957
0.03499341134704764 -0.030227012197417726 0.06736009325936027
0.035309418555373395 -0.0302621388085985 0.06620628450016236
0.035545842576555464 -0.03030435194870291 0.06499052382175419
0.035713237971996825 -0.03035277344324299 0.06371966314377742
0.03582121879957384 -0.030406600159892157 0.06240001486279628
0.03577087517980532 -0.030474546242779794 0.06095664734638179
0.035458439829041066 -0.030565825988759978 0.05930935148740912
0.03473409402369809 -0.03069378942479803 0.05734129360811524
0.03331836308328878 -0.03088334913835783 0.05483432651636655
0.030083216587576123 -0.031234723943902132 0.05091535816912762
0.015492134942926561 -0.03259469246667603 0.038213874111809876
0.017339143078879293 -0.03249950654577122 0.03811876490100463
0.01915440483530595 -0.03240674437275119 0.038007862072133414
0.020966276089773805 -0.032313890604307005 0.03790302651230293
0.022787473152608484 -0.03221980729400444 0.03781428154388605
0.02458540607526749 -0.03212740767301747 0.037716008642299514
0.026352715854522535 -0.03203736355536225 0.03760211347066367
0.028096689727480806 -0.03194903411552185 0.03747809024656107
0.029908324667146935 -0.03185422161105729 0.0374168750111778
0.03165058709935181 -0.03176527251586776 0.037308601802664654
0.03337845210306095 -0.031677244103408664 0.037197115893943145
0.0347582317272756 -0.03162043936003184 0.03680961180183734
0.03587856873673473 -0.031586995491906626 0.036214420181501616
0.03563153921499168 -0.03167809475372101 0.03449317006146607
0.035507555451244455 -0.031758345624388444 0.032865309581032176
0.03530223127173421 -0.03184639612143126 0.03116181347893776
0.03512025261816898 -0.03193268862342565 0.02946939239558677
0.034982629833072154 -0.03201527889254676 0.02780602509212282
0.03485566155754949 -0.03209724945885112 0.026143671689808023
0.03476034194481764 -0.032176656538562116 0.02450032019724646
0.03466264443070616 -0.03225663389561984 0.022847184707109558
0.034693364004209526 -0.032325047486056725 0.021296865844645962
0.034767248416956 -0.03238974945470061 0.019777227913138906
0.03482226989743875 -0.03245649683963988 0.018234813377315584
0.03487175946037613 -0.03252405791075831 0.01668098802692425
0.03493011093544629 -0.032591090446872265 0.0151282957468174
0.03493281050011998 -0.032663644685433466 0.013519754477206769
0.03490943899490001 -0.032738975724849316 0.011880844423012127
0.03487627504623819 -0.03281556786646293 0.010225701592119885
0.03474584547237369 -0.03290169321666048 0.008475545087370917
0.034479249869603656 -0.033001099449788844 0.0065938141284597185
0.034287365009046056 -0.033093865021629906 0.00476997664255735
0.033913684463774574 -0.033204341610746466 0.002770923525825808
-0.05559068285292046 -0.03508742874092974 0.03791397106041744
-0.04090626895409666 -0.033979932021665944 0.045860546561664606
-0.03205167173196888 -0.033336253295353516 0.050097753736735584
0.010078956881988177 -0.030012164388958058 0.07626549532338686
0.014540769965931732 -0.029712218406893566 0.0778399254052495
0.017854178152672262 -0.029503859872098314 0.07867858073485459
0.02052213983395057 -0.029346920707502187 0.07910499445002123
0.02274432054275244 -0.029225513534107787 0.07924625625048798
0.024640585853501373 -0.0291301095994276 0.07917845655905925
0.026210780009911783 -0.029060878666275384 0.07889788038546039
0.027545811127290487 -0.02901056011154899 0.07846301385516091
0.02880037051458928 -0.028966618703415707 0.07797752310096254
0.029903687307991034 -0.02893489223493374 0.07739161549858675
0.030923961764751318 -0.02890985534919505 0.07675096840559884
0.031821021734685095 -0.02889485400473676 0.07602657756181794
0.032604901584362744 -0.02888912231057507 0.07522408223190724
0.033376024254681336 -0.02888442108024551 0.07441311351045693
0.034030667439354456 -0.028889342719993286 0.0735198564580121
0.034652747853366306 -0.028896985602896712 0.07260288062734274
0.03520612631874448 -0.02891037038263751 0.07163584992779307
0.03574056437248058 -0.028925387848547222 0.07065387755790553
0.036228732135459296 -0.028944329133518357 0.06963689099821407
0.036636288477025936 -0.02897009070789684 0.06855926466976608
0.03697920794560444 -0.02900137616156263 0.06743174825910442
0.037279570600737943 -0.029036365560934394 0.06626984410440051
0.03746834857812498 -0.029080891225947973 0.06502180811065456
0.03756381854829405 -0.029133471481168998 0.06369990321419527
0.037644549040820874 -0.029187517064671258 0.06236189552532834
0.03748809286635452 -0.029261875324995804 0.060839834710266716
0.03708604947566907 -0.029357387013910285 0.059124414332379305
0.036311902679247 -0.029484944746105735 0.057116132616175264
0.034713793200692455 -0.02968325905993254 0.05446404851087949
0.01545151016737878 -0.0313909510359999 0.03818257294179078
0.01729682515302966 -0.0312994427630248 0.038085983475040275
0.01911841600779135 -0.0312095811007974 0.03797983340930472
0.02092263323464094 -0.031120830748287344 0.03786885403765111
0.022746144537679314 -0.031030040669861814 0.037781747343376415
0.024539519574204804 -0.03094146425431269 0.0376796926679972
0.026300401195176126 -0.03085531958891952 0.037560488195159
0.028036120389245522 -0.030770986841029597 0.03742963899042784
0.029890207058000384 -0.030676009473007127 0.03740230468886252
0.03158718324731952 -0.030594300585835444 0.03725733956246474
0.03328735569508662 -0.03051196037510228 0.037123071105662375
0.0347451620759634 -0.030450454678141774 0.03679893192543293
0.03560972817746394 -0.03044066287418077 0.035993566973712865
0.035286969315054206 -0.03053508912067046 0.03420859902025786
0.03516667555956848 -0.030612108836284874 0.03258228967737592
0.03493668777189951 -0.03069913879985993 0.030856704695044812
0.034767681224433855 -0.030781159165123834 0.029173549855318004
0.0346299522729267 -0.030860768184161506 0.027508524952448044
0.03450954493402386 -0.030939188921559595 0.025850159916628923
0.03439233188119184 -0.031017670447229185 0.024186591356655573
0.034327022080802405 -0.031091869963553863 0.022559553966232215
0.03438383412181156 -0.031155484123533788 0.021030195504570914
0.03445333256190286 -0.031218243781633022 0.019505351737109933
0.03450295744044657 -0.03128306582908838 0.0179568051616818
0.034558558546866125 -0.03134763859061543 0.016406864199133786
0.03460957240942619 -0.031412912802723895 0.014846272981268782
0.03461542260523576 -0.0314825597127939 0.013239034930923377
0.03459613642579623 -0.0315547949439802 0.011602281798274106
0.03452048472310493 -0.0316324704981336 0.009907701033714245
0.034364650984523404 -0.031717789698045 0.008133050649792528
0.03407217816363478 -0.03181595177372371 0.006226151642486466
0.03386911643239843 -0.031906386801978166 0.004390239804252072
0.033495558331631814 -0.03201284699446096 0.0023893099438586085
-0.060360111926865634 -0.034172357921874084 0.03321647770850428
-0.031198337507443163 -0.03198819095410744 0.05065550073438774
0.013064983491270499 -0.028626795632246474 0.07822815229472088
0.017501656158386447 -0.02833987463907183 0.07979697197762861
0.020624233777471024 -0.02815389654664617 0.08051974598530545
0.023113486453589183 -0.028016474083006317 0.08083700599758678
0.025078789623204756 -0.027919368163387 0.08081528393033041
0.026707403763427784 -0.027848186283674158 0.0805753335197287
0.02812105336975851 -0.02779355237127655 0.08019613901258935
0.02940883172693559 -0.027748575304453394 0.07973619283928576
0.030594122852319328 -0.027711474964072513 0.0792101645920231
0.0316329108953573 -0.0276857672043013 0.07858649575989488
0.03259345677132941 -0.02766613224609201 0.07791095714994598
0.033505754314104574 -0.02765023433527234 0.07720361849051458
0.034298780917566996 -0.0276437263696006 0.07641404005263067
0.035016588659324555 -0.02764316668841804 0.07557196425164206
0.03567019635937263 -0.027647714761360135 0.07468434461299694
0.036223931758275874 -0.02766024719205845 0.07372495459879569
0.036777292180669885 -0.02767286109859267 0.07276406452444789
0.0372794535211779 -0.027689627353002354 0.07176496698026685
0.03774806701972638 -0.027709155101105897 0.07073986177358693
0.03817444562218636 -0.027732160072927923 0.06968199870722402
0.03851048934460677 -0.02776254002844368 0.06855556056154088
0.03880785675160009 -0.027796169346887254 0.06739756854745871
0.03899813216730258 -0.02783860454139617 0.0661567793165167
0.03914422300710224 -0.027884799577319225 0.06487880235498339
0.03922574326661149 -0.02793643455978443 0.06354778510439774
0.03921594605127887 -0.027995721623626367 0.062142742282384644
0.03898430729193236 -0.0280733596453918 0.06056356695295245
0.03843788011908578 -0.028177064745855015 0.05873664510140497
0.03754032295041371 -0.028309979641134984 0.05663018885614407
0.036018881586833584 -0.028494686956755274 0.0540296214722889
0.01724945776465381 -0.03009951591352322 0.03804929050146011
0.01907241992244857 -0.030013005649624464 0.03794401093726141
0.020889894187895552 -0.029926581271252084 0.03784321927471851
0.02271169678058782 -0.02983943038824592 0.03775462980657429
0.024507294371528987 -0.029754082389894587 0.037654188661259747
0.02626067055508413 -0.02967188092769931 0.0375288756632135
0.02802458102853922 -0.02958844913322584 0.037420408304779273
0.029862550280376987 -0.02949847305073372 0.03738006289299889
0.03157393179093204 -0.0294187059577212 0.03724662571277643
0.03323474233827428 -0.029342837046600036 0.037080306029052434
0.03462095144572841 -0.02928972560051153 0.03669743310596674
0.03515575599250187 -0.029308115782835056 0.03562062766140184
0.03494827110792964 -0.029389260245400162 0.03392887725270277
0.0348025829632585 -0.029465528696251807 0.03227999712787122
0.034575088184863156 -0.029549067115906918 0.030554887783222406
0.03440966655876104 -0.02962769518491117 0.028873139867360564
0.03428130114590211 -0.029703511425317825 0.027214421298830782
0.03412754531207007 -0.029781827800006214 0.02552621885522799
0.03402449718635936 -0.0298561507435063 0.02387301201808556
0.03397927723413374 -0.029925843359885847 0.0222615341594099
0.03406034267376529 -0.029984992686401667 0.020751496809008618
0.03412349515510066 -0.03004594654984511 0.019219686226976562
0.03416767351091993 -0.03010880855038072 0.0176648914422598
0.03423612336882009 -0.0301698506906825 0.016124658236738143
0.03427396378527592 -0.030233818561363326 0.014550990933584695
0.034277139908134524 -0.030301084080522154 0.012939834593492627
0.03426675514362787 -0.03036983170112209 0.01130942331721263
0.03418924788237143 -0.03044474604362646 0.009611646044387578
0.03398262113449496 -0.03053129173419006 0.007789805658603044
0.03367492995560156 -0.030627087856406783 0.005867361626938017
0.03345674453174141 -0.03071545217607041 0.004015838525910531
0.03303791782290483 -0.03082188643851536 0.0019716325485387154
0.00918290018408957 -0.02771495908460864 0.07704904436197207
0.016828102030386316 -0.027202186134937186 0.08070157661444827
0.020710023756007223 -0.02696747572568822 0.08191759546726374
0.02339121952396389 -0.026821378132293704 0.08235887078818935
0.0254449353525239 -0.02672158700881729 0.08239530637504727
0.027137364186093527 -0.026648448584483488 0.08219887923996125
0.02861126609860548 -0.026591412264400566 0.08186207553000613
0.02995468378932331 -0.026543956181489126 0.0814423096189559
0.03110924091118894 -0.02651053596831425 0.08089824399331846
0.0322254634007374 -0.026479874311549006 0.08033119897549562
0.03323940884170845 -0.026456824443756105 0.07969657354275153
0.03419531171596557 -0.026438080125244352 0.07902394862253698
0.03507008382953353 -0.02642542107485098 0.07829653963902261
0.03582682918664565 -0.02642169229958959 0.0774875008078271
0.036493437841059184 -0.02642482173781428 0.07661517094564804
0.03713056442088852 -0.026430216764462465 0.07572158237610668
0.03770614099419556 -0.026440346712420768 0.07478348657501796
0.03824389215483992 -0.026453420481220593 0.07381719299319181
0.03872742799262463 -0.0264707163760605 0.07281041532879512
0.03919422586442112 -0.026489373183127968 0.07178970993988812
0.03959917421670156 -0.026512882037991237 0.07072193880192418
0.03993885602061459 -0.0265415374479005 0.06960384342054621
0.04022368112840674 -0.026574564473038954 0.06844230729347278
0.0404448890134837 -0.026612670950026382 0.06723015163788032
0.04059623707945126 -0.026656374608706356 0.06596192897663022
0.04070014193246391 -0.026703961850106407 0.06465357842485708
0.04075551941978295 -0.026755541816861496 0.06330367529287234
0.04061415233150861 -0.026822750327726217 0.061799224059030655
0.040286620611103885 -0.026904855428871995 0.06014583552512476
0.03972116873482062 -0.027006022662000837 0.05830150260788153
0.03872332086135705 -0.027141703648542948 0.05611337731824101
0.036910436024310544 -0.02734234556145439 0.05327959515995473
0.019039415567391194 -0.02881509824964342 0.037918306628350384
0.020868064867566705 -0.02873124983446247 0.03782612685733805
0.022680195923207636 -0.028648357592875432 0.03772983209167413
0.02447701693338894 -0.02856633138520817 0.03763022617469025
0.026234501641573427 -0.028487095102002515 0.037508053808533504
0.028069772573629748 -0.02840129519503744 0.03745655839639378
0.029837750865420176 -0.02832052269971387 0.03736011901043529
0.03154458572371871 -0.028244315933749334 0.037222899312909674
0.03321124912126716 -0.028171015523073797 0.0370612103224488
0.03452095826350665 -0.028126206644589927 0.036615723594220606
0.03468000605165833 -0.028174270287631538 0.03522979786687369
0.0345826361576787 -0.02824332696052155 0.033626909151269924
0.03441607535076924 -0.02831830470115129 0.03195909422359222
0.034210847319005366 -0.028396757304742306 0.03025086627093654
0.03404901993256165 -0.028472011800439078 0.028570521402192794
0.0338977384026537 -0.028546733602728535 0.02689086805194041
0.03376568042364125 -0.02862020810109661 0.02521935233153405
0.033657797388864874 -0.028692020425127866 0.023560400180302143
0.03364712684280491 -0.028756148053572673 0.021976878911724507
0.03372473304924789 -0.028813277155092482 0.02046235789935258
0.03380841714837107 -0.028870156774736234 0.018946803534874435
0.033839451495909556 -0.028931651149591637 0.017379126152723967
0.03391502126366103 -0.028989720852322973 0.015843619023948707
0.03395318224439842 -0.029051162763569734 0.014268754353731095
0.03394304630904854 -0.029116907669099145 0.012644339380652736
0.033921205500913265 -0.029183925473309173 0.011002189272732166
0.033835948322891496 -0.029256557391011195 0.009295871696705371
0.0335938864227327 -0.029342683438376316 0.007440536504101258
0.03332782197763812 -0.029431217880073957 0.005553857690879793
0.033081820804471807 -0.029518459963295267 0.0036754372460302
0.015649721113429327 -0.02610072077435208 0.08127581724184577
0.0205014717069138 -0.02580726051872588 0.08311601075964711
0.02343444139661205 -0.025649497426329253 0.08371834424945668
0.025610916937800488 -0.025545172805879104 0.08383423096084597
0.027389798441075974 -0.02546890460062129 0.08369521944043098
0.02896394310723488 -0.02540702228641663 0.08342654719696507
0.03034009663893622 -0.025359127548551755 0.08303052077092035
0.03157740289865407 -0.02532104365957673 0.08254514083012074
0.03272110026302383 -0.025289564073509685 0.08199978063360694
0.033755733300597335 -0.02526584688799699 0.0813827790244312
0.03472893536467181 -0.025246486513274036 0.08072582496748756
0.03560121919065112 -0.025234377576428692 0.08000079302147378
0.03643439041645247 -0.02522506604017155 0.07924971447027532
0.0371740887503722 -0.025222533478586568 0.07843395668751965
0.03781573881176448 -0.02522715578842282 0.0775492089240625
0.03843166726637015 -0.025233680559691222 0.07664570078199834
0.03899606846900644 -0.02524401306794307 0.07570469894234463
0.0395125881020581 -0.02525790872387275 0.07472821156930465
0.040001209124519266 -0.025273917186880775 0.07373009478930051
0.04044475565159361 -0.02529331967273005 0.07269753995371017
0.04087605600791483 -0.025313708428746317 0.07165396232976459
0.04122705340353583 -0.02534013520471182 0.07054925558831399
0.041519302478028375 -0.02537103626657756 0.06939834806116019
0.04175791780281385 -0.02540605877795162 0.06820430894934609
0.04191774323616554 -0.0254471052182177 0.06694770351302426
0.04199072131667897 -0.02549481570373135 0.06562150799210376
0.04203710508038638 -0.0255447182670349 0.06427006970420718
0.04201244916374758 -0.02560016329179861 0.06285933429970236
0.04179428303807664 -0.025670399130241942 0.06129504141068032
0.041436667674949246 -0.025751443722905946 0.05961619298637044
0.04081287023573005 -0.025852939836926075 0.05772336381905557
0.03975767621376797 -0.025987525179539714 0.05548519932413443
0.037577886269643535 -0.026208001535301274 0.052356358117028934
0.020842263186662102 -0.027536076093298636 0.037805924070787866
0.022655582045620515 -0.02745655137268159 0.03771045585973143
0.024446734380814017 -0.02737837974678269 0.03760625964040132
0.026223839131719995 -0.027300948663585678 0.037499569954948964
0.028038043543193614 -0.027220340891091547 0.03743117737977203
0.029796728804139028 -0.027143653265558967 0.037327128749409744
0.03153795851415603 -0.027067979801253743 0.037217541190373515
0.033264809051858135 -0.026993089635979767 0.037104744791141064
0.034265575241142765 -0.026974033565551683 0.03640703714578525
0.03430428367879429 -0.02702946496406177 0.03492114097555454
0.03422187505551405 -0.02709454531842055 0.033328966230286305
0.034039087460730644 -0.027167723183000328 0.0316460951910188
0.03383732460555061 -0.02724270057180104 0.029939097463913267
0.03368192911701745 -0.027314380241981902 0.028262495619869932
0.03351904622059426 -0.027386960571601515 0.02657142335290713
0.03339924310282921 -0.027456476365183113 0.024908608320758252
0.03328841024515394 -0.027525591970125923 0.023245497377960722
0.03331338375322013 -0.027584300173620555 0.021690858710306182
0.03339520872683033 -0.02763877355277344 0.02017846168086368
0.0334831371897637 -0.027693004597856386 0.018665085138490578
0.03352315906585024 -0.0277512802586478 0.017103747312425865
0.03360299649401488 -0.027806646627340562 0.015570524596278335
0.03362987227496256 -0.02786648388025331 0.013984293160120842
0.03361705233543061 -0.0279297615667502 0.012356008030150079
0.03358957284731956 -0.027994497044484392 0.010707329059175152
0.03347802739060507 -0.028066273040769408 0.008975966828776993
0.03322878288753017 -0.028149453154228253 0.007112499415600215
0.03294166445930363 -0.02823606301816262 0.005205084658791437
0.03258462134368345 -0.02832871680149884 0.0032240192095119302
0.012270168484025568 -0.025145646048752923 0.08042269128929261
0.019948066235002004 -0.024673799812411804 0.08408525464342473
0.023245637678984465 -0.02449834661088009 0.08491969745782982
0.025602969769114914 -0.024386345439640512 0.08515166884981737
0.027516863416803983 -0.024304212610587184 0.08510105116291874
0.029168226124768826 -0.02423973492485786 0.08488388994144477
0.030624721252784204 -0.024188374227117483 0.08454277825021142
0.03190312358989433 -0.02414905586733461 0.08408690620585038
0.03311593973318955 -0.024114099098215953 0.08359076014334385
0.03414083851609473 -0.024091977889514633 0.08297002267339565
0.035122041480910915 -0.024072790747720545 0.08232168687542321
0.03604350697162645 -0.024057667747827288 0.08163418388457735
0.036911006105116884 -0.024046232688379198 0.08091085149561536
0.037678375177397805 -0.024041721841404406 0.08011882627840103
0.03835495449507442 -0.02404352597805817 0.0792635201638475
0.0389963503747317 -0.024047796846112277 0.07838316130101522
0.039612194868059 -0.02405387492104276 0.07748417968408691
0.04014080738596759 -0.024066100547481147 0.07652222370110623
0.04065194700697766 -0.024079605324432936 0.07554635647590516
0.04113795204322518 -0.024094937125721742 0.07455083163963663
0.041589462735187266 -0.024112768268871473 0.07352854730609854
0.04200226085049985 -0.02413341277467329 0.07247600350670055
0.042364404099662245 -0.02415773501767645 0.07138396089154847
0.04268189770525155 -0.024185331161473967 0.07025622867100717
0.04288873282760708 -0.024220922133673904 0.06904327891959311
0.04306100311524186 -0.024259128010282772 0.06780051564072287
0.0431513412318697 -0.024303352305867772 0.06649196845814603
0.043209300388336314 -0.024350081971798915 0.06515397706164616
0.043204519277400544 -0.024401512951591875 0.06376309500769073
0.0431530278208872 -0.02445652140700211 0.06233073578989834
0.04285754806798919 -0.024529355710245556 0.060705099390225836
0.0424365145588137 -0.024611570395942892 0.058974372995650504
0.0417478648911111 -0.024713512508315317 0.057026891679596736
0.04054772533566897 -0.02485300518492411 0.054669315320297895
0.036913911030134694 -0.025170075062822237 0.05039006818493674
0.02263588852235393 -0.026264223493481995 0.03769495296819264
0.024432079696337483 -0.026189085692568802 0.03759466147683399
0.02619766481446406 -0.026115866584895526 0.03747874380066374
0.028016887704677196 -0.026038399515638796 0.037414254180996254
0.02981676402456146 -0.025962021758630226 0.037343241229641055
0.03176030685619907 -0.0258747324416305 0.03739731061687546
0.03327702217783979 -0.025818575456705784 0.03711467183818573
0.033840980975744006 -0.02583266126490027 0.0360600795898291
0.033937149676485645 -0.025881490490299357 0.03461953945263646
0.03386319333510629 -0.025943172335394282 0.03303274061494005
0.03365561003811601 -0.026015072911919918 0.03132770814076152
0.03346394973293887 -0.026086098763661938 0.02962745205544537
0.03330454939383132 -0.026155022331005688 0.027945836418536152
0.033168166966021595 -0.02622252251971625 0.0262754401687168
0.03303107877252909 -0.026290372015302373 0.024596399781604716
0.03294415930283051 -0.02635474316520456 0.02295202320515316
0.03297611705532305 -0.026410429017810495 0.02140181875150371
0.03306602550926546 -0.026461978974076986 0.019894859335607196
0.03313794842541101 -0.026515120202487655 0.018366124127921435
0.03318695343537087 -0.02657023791351055 0.016811031117461128
0.03325069573573358 -0.026624478994802542 0.01526217928747553
0.033296255699714006 -0.02668034899965294 0.013690763797667316
0.03329725938716094 -0.02673987538926499 0.012073161290277856
0.03326121069741572 -0.026802507692572086 0.01041537670588455
0.03311056734625534 -0.02687422228924347 0.008647536032048486
0.03284916840285146 -0.026954784944014248 0.006771424574356144
0.0325871831910044 -0.027035756023649615 0.004884921251650132
0.03216623713570438 -0.02712938436004191 0.002844159228616694
0.01892807889656556 -0.023571625885654778 0.08475001508810018
0.022857564841215317 -0.023363527142168865 0.0859869293514684
0.025422109379170166 -0.02324331892934677 0.08635024979852293
0.027510604281490103 -0.02315363544258208 0.08641255134956002
0.02923085455651625 -0.023087624487444575 0.08624028493778133
