# .PCD v0.7 - Point Cloud Data file format
VERSION 0.7
FIELDS x y z
SIZE 4 4 4
TYPE F F F
COUNT 1 1 1
WIDTH 782
HEIGHT 1
VIEWPOINT 0 0 0 1 0 0 0
POINTS 782
DATA ascii
-0.07626873419477358 0.1008661182240696 0.01592509272870135
-0.07643956932883694 0.1009261474972345 0.014416136338167407
-0.0766185511971288 0.10095927868996413 0.01287068873879027
-0.07679628181667984 0.10100024566516247 0.011326430899172513
-0.07696910917070013 0.10106239282643875 0.009798187859637875
-0.07715442015334509 0.10108205121777408 0.00821554299045485
-0.0773292505875845 0.10114326847323818 0.006671554140439129
-0.07752463197704415 0.10113292543732744 0.005039930596876019
-0.0777968257021393 0.100847516077533 0.003089814885747666
-0.07992524283742353 0.0657580934595055 0.036339330902796785
-0.07968371448944914 0.06742822829888351 0.03635295028722518
-0.07944303962632966 0.06909067791470791 0.036368647030267875
-0.07920680564126062 0.0707313210424636 0.03637348489405834
-0.07896860227472655 0.07237549331653698 0.036390457226959716
-0.07872158210931764 0.0740500172481488 0.03644441257124409
-0.0784774729472283 0.07570873124306443 0.03649305629559002
-0.07823993216806292 0.07733742381207254 0.03652297899688217
-0.07800247112746668 0.0789615642082711 0.036557665157192054
-0.07775971908194396 0.08060204227207896 0.03661678134710444
-0.0775326115381634 0.08217748157075433 0.03662360221467498
-0.0772948597836497 0.08379007284412449 0.03667446418590198
-0.07706252591107426 0.0853774930782869 0.03671037060103993
-0.07683646382683347 0.08693659689043937 0.03672798495248103
-0.0766081793127282 0.08850020850309448 0.036758667050627136
-0.07638848085082943 0.09002681139238944 0.03676221426504844
-0.07616174024130572 0.09157643949922922 0.0367967511720147
-0.07594330791487626 0.0930903002066018 0.03680497854799525
-0.0757182872265137 0.09462535461336752 0.03684261318586124
-0.07549658908911965 0.09614376590196821 0.03687251445966849
-0.07527600526660998 0.09765399439606004 0.036902921916445286
-0.0750760525800096 0.09908225667630177 0.036859832317826136
-0.0750701403386226 0.0997748136796402 0.03608353047806495
-0.07517670456549093 0.10004388367969608 0.03487868147087103
-0.07531854034973595 0.10018240288003322 0.033536761817864524
-0.07546417078732293 0.1003092385927909 0.032177281021536386
-0.07561509086375137 0.10041890509807422 0.030794372520365598
-0.07576442602609296 0.10053717561436781 0.029414360502994397
-0.07591526821497141 0.10065250709677798 0.028025346996712608
-0.0760679998008557 0.10076352107919201 0.02662580219070021
-0.0762248563205254 0.10086199291284942 0.02520697915251574
-0.07638495765975158 0.10095128312315954 0.023772175444395527
-0.07654610548151042 0.10103957691417315 0.02232987635354794
-0.07671485610962654 0.10110280846738018 0.02085436330091406
-0.07688754702871683 0.10115460809434995 0.019359780922330316
-0.07706233862778922 0.10120180887032504 0.017853249489101275
-0.07723963357876795 0.10124299806237058 0.01633311158288392
-0.07741336434473363 0.10130032364528951 0.01482331581896229
-0.07759094035534625 0.10134679197618068 0.013294554477201626
-0.07777490887671368 0.10137328153475877 0.011736562995801947
-0.07794738878508763 0.10144455745453945 0.010220520484596318
-0.07813305349353702 0.1014714018646784 0.008648032514890103
-0.07830985644121696 0.101533415429715 0.007107159347426728
-0.07850548167155472 0.10153109618901651 0.0054867828643685446
-0.07872020574197221 0.10146395909420824 0.003785186473025892
-0.0810429341734589 0.06572826551195926 0.03631253127358425
-0.08079206986736427 0.06742183274575303 0.03634717398563503
-0.08054722874848415 0.06908750657454421 0.0363657677907554
-0.08030690007809257 0.07073132094660528 0.036373484894345776
-0.08006679528116509 0.07237003436826267 0.03638544899466695
-0.07981733420769428 0.07404073856295135 0.03643585539994021
-0.07957220197799686 0.07569033027847794 0.03647599742631008
-0.07932995199761149 0.07732449831545785 0.03651093368317476
-0.07908623089135516 0.07896005620469893 0.036556252587481075
-0.07884088439771358 0.08059755681495756 0.036612557660536615
-0.07861042200865528 0.0821737740154791 0.03662009284868134
-0.0783709027595543 0.08378051423287569 0.03666536925953062
-0.07813762406103296 0.0853592631598677 0.03669293461826595
-0.07790706206931812 0.08692357860313543 0.0367154688625404
-0.07767596495420868 0.08848586281730875 0.036744803030379636
-0.07745112453449753 0.09002040783347315 0.03675599359258025
-0.07722421624891154 0.09155879791206323 0.03677952424010944
-0.07699900540184026 0.0930868003792027 0.03680154330922675
-0.07677288665968383 0.09461424737578283 0.03683165415195866
-0.07654662237196136 0.09613825775863638 0.03686705166630305
-0.07632479274501192 0.09764170215522278 0.036890667560247004
-0.07609208025700309 0.099181835505741 0.03695961954381932
-0.07604128417092101 0.10004088346283307 0.03635153807463437
-0.07613258446253526 0.10037148789233419 0.0352103802632468
-0.07627167939288779 0.10052667798700593 0.033887143972910094
-0.07641988840471726 0.10065064106982213 0.03252653717444115
-0.07657106422729801 0.10076627795413168 0.031151574152237904
-0.0767230239139578 0.10088169456288748 0.029770458866052507
-0.07687466148790406 0.10100096897494792 0.028387382051570043
-0.0770276437532388 0.10111799254186138 0.026995983361301712
-0.07718571885127334 0.10121911640863457 0.025581855818251675
-0.07734575703069507 0.10131587419765559 0.02415686661880545
-0.07750777869512374 0.10140824363174844 0.022720875338145985
-0.07767766877260238 0.10147494682779651 0.021251080450123916
-0.07785172562911433 0.10152957584037692 0.019761576029790562
-0.07802828226713696 0.10157825351566924 0.018258707087315085
-0.0782067921183854 0.10162301251954708 0.01674452404704624
-0.07838342365237733 0.1016776571113458 0.015233931100477438
-0.07856027432767367 0.10173462765163815 0.013718772847678362
-0.078747256188078 0.10175852679708491 0.012160118633901151
-0.07892223892149702 0.10182847078082624 0.010644785606570395
-0.07910584829673806 0.10187083621522686 0.009091722983896156
-0.07928972263699115 0.10191549574132042 0.007533758020577208
-0.0794801971577772 0.10194005182103738 0.00594573859986558
-0.07967477342499069 0.10195349253588476 0.004337399168455158
-0.08190005523668639 0.06741703588668002 0.036342841605870146
-0.08165226501430284 0.06908116379816531 0.03636000913694781
-0.08140781441861016 0.07072817556095568 0.03637061426545657
-0.08116482312770026 0.07236535510339148 0.03638115608408182
-0.0809141646052644 0.07402759284460286 0.036423731860639574
-0.08066806844960042 0.07566809285916232 0.0364553819000894
-0.08041826374475365 0.07731841530049494 0.03650526494797196
-0.08017099537664199 0.07895477831019576 0.036551308482226486
-0.07992465020388936 0.08058335219326923 0.036599181825635485
-0.07968747341182905 0.08217303241849805 0.036619390965437426
-0.0794487715253987 0.08376433679495748 0.03664997652162122
-0.07921188355611801 0.08534467759863901 0.03667898429429017
-0.07897524653667098 0.08691996214202424 0.036711991975904135
-0.07874308749882265 0.08847438524394019 0.036733710841828526
-0.0785122893907023 0.09001969622766404 0.03675530239041552
-0.07828454620630272 0.09154962339854028 0.03677056541154777
-0.07805303245099754 0.0930896000828868 0.0368042915078432
-0.07782663061507798 0.09460661062508935 0.03682411932664875
-0.0775950198973086 0.0961389461856424 0.036867734527591345
-0.07736941199450083 0.09764511665675357 0.036894071654730465
-0.07713351729882176 0.09918522122508244 0.03696301243693495
-0.07702785172624202 0.10024313967897092 0.03655526736529807
-0.0770847833572062 0.10070371939462358 0.035546764178193746
-0.07722213203344097 0.10087146381849582 0.034238045911778925
-0.07735978593546121 0.10104048178199088 0.03292534582966383
-0.07752561979113255 0.10110941801409701 0.031504423223667866
-0.07767704692031317 0.10123349847199314 0.03013408703778253
-0.07782944146418977 0.10135670853393919 0.028756978262927668
-0.0779854447251625 0.10146953744860815 0.02736310827543531
-0.07814283009163629 0.10158009870678675 0.02596078311218475
-0.07830388619754494 0.1016802053711181 0.02454128356351648
-0.07846751190212423 0.10177389987916896 0.023108681491616545
-0.0786371778690458 0.10184883955604696 0.021649667837954356
-0.07881257387275227 0.10190628834638299 0.02016524072671866
-0.07899126282888791 0.10195506722077169 0.018664562188711487
-0.07917115163321786 0.10200269150788138 0.0171555733246761
-0.07935010887954978 0.1020567394317598 0.015646449489208125
-0.07952948572491463 0.10211241422969225 0.014131999421711283
-0.07971498167243991 0.10214964485236377 0.012590131077806432
-0.07989660614767342 0.10220370538699602 0.011059459820395579
-0.08007628346725414 0.1022677481206008 0.009532611528795698
-0.08026653384111503 0.10229793409009796 0.007960756447469963
-0.08045128381670345 0.10235061454346933 0.006406497912583686
-0.08064674202993424 0.10236923959789918 0.004806377983735954
-0.08300681266016408 0.06741703579020952 0.03634284160612783
-0.08275734593292262 0.06907482076548804 0.036354250250444975
-0.08250688120849434 0.07073210706744898 0.036374202543190626
-0.08226288405260947 0.07236067569756022 0.036376863044175256
-0.08201026733022475 0.07401753945928091 0.03641446022282324
-0.08175980934207121 0.07566195776360113 0.036449694333609894
-0.08150621333392567 0.07731385285675152 0.03650101324861321
-0.08125519305398785 0.07895176224780104 0.0365484832023284
-0.08101252333587058 0.08055419125631563 0.036571722227176084
-0.08076214145936264 0.08218118865984808 0.03662711149583542
-0.0805263610592111 0.08374962850680401 0.036635981679271123
-0.08028447797711395 0.08533665488877684 0.03667131103355592
-0.08004326157443498 0.08691706889097517 0.03670921040554603
-0.07980951568044925 0.08846577645374648 0.03672539113321199
-0.07957365263445319 0.09001827309791804 0.03675391997551608
-0.07934129271011692 0.09155385772678537 0.03677470032634961
-0.07910742109482811 0.09309099986862768 0.036805665587523406
-0.07887910122315023 0.09460383346642337 0.03682137929160206
-0.0786417137427528 0.0961458310937634 0.036874562955037604
-0.0784132556809593 0.09765126262625762 0.03690019881905715
-0.07817791362030269 0.09917777224625324 0.03695554796718736
-0.07801728202181622 0.10042963302790253 0.036743118991503954
-0.07804273803746603 0.10100629221645852 0.035853118730164446
-0.07817492968614603 0.10119860149284104 0.03457098663986247
-0.07831861238621737 0.10135184944829267 0.03324387625416236
-0.07847278296448694 0.1014699308195256 0.031875136590472586
-0.07862831638478612 0.10158577676993202 0.03049820554236904
-0.07878257340727983 0.10170884642758993 0.02912283251876835
-0.0789402893308025 0.1018222389510205 0.027731441043473914
-0.07909825612204686 0.10193744339619126 0.026335891966868807
-0.07926107398882631 0.10203815826173435 0.02491897058871806
-0.07942687373213425 0.10213111865396052 0.023487539068137775
-0.07959549526202543 0.10221696602366614 0.02204210811963697
-0.07976968866681361 0.10228609444069392 0.020572220344057868
-0.07995030274993031 0.10233566721729359 0.019074495393382906
-0.08013056087199161 0.10238958254581931 0.017574430532253937
-0.0803130115294135 0.10243892778656755 0.016062347871709015
-0.08049411983821027 0.10249607857155663 0.014551655148163256
-0.08067763583688763 0.10254796344313388 0.013028060105878037
-0.0808679772356548 0.10257932407574538 0.01147455848600204
-0.08104498471943043 0.10266007391895449 0.009968405840798333
-0.08123787108584327 0.10268906345864598 0.00839745853182533
-0.08142419101638239 0.10274396225454901 0.006847937460860876
-0.08162478477194171 0.10275304372598937 0.005239323938255214
-0.08186930112335696 0.10261512606690831 0.0034560401495694615
-0.08411335701270922 0.06741783516430161 0.036343563678870205
-0.08386077713142998 0.06907482066933046 0.036354250250724085
-0.0836059203254891 0.07073603847495646 0.036377790730580506
-0.08335846682484939 0.07236535491230223 0.036381156084710375
-0.08310436143785158 0.07401521928112531 0.036412320528675046
-0.0828501467631671 0.07566119077637895 0.03644898337214447
-0.08259583897685613 0.07730320675123414 0.036491092122753366
-0.08234349599937399 0.07893366508845634 0.036531530343976604
-0.0820955317035738 0.08054372179572722 0.036561863644029746
-0.08183392763907434 0.0821997240466264 0.0366446565985305
-0.08160285325729989 0.08373933181680326 0.03662618447121502
-0.08135473825972171 0.08533738414234299 0.03667200862030806
-0.0811110993510606 0.08691489889238674 0.0367071241922286
-0.08087462733095972 0.08846218925534727 0.036721924444714504
-0.0806334597174964 0.09002254207678423 0.036758067181979326
-0.08039995518878362 0.09155103470172699 0.03677194373071779
-0.08016199307837514 0.09309169971060871 0.03680635262266707
-0.07992812884992678 0.09461355287662904 0.036830969185969176
-0.07968854859184124 0.09615202721942889 0.03688070825957973
-0.07945686427384817 0.0976580911808827 0.03690700646983541
-0.07922293179975957 0.09916829118695641 0.0369460471661463
-0.07901593627949349 0.10057824740737087 0.0368928157848345
-0.07900597211587433 0.10128207592330568 0.03613234934926812
-0.07912118405841595 0.10154040868658182 0.03491885710370307
-0.07926567236157075 0.10169678418369454 0.03359674592040207
-0.07942056597087026 0.1018187618041273 0.032233837606955196
-0.07957816391374344 0.1019338071878319 0.03085793339497206
-0.07973428241698156 0.10205673162597773 0.029484268430641725
-0.07989293688289469 0.10217338216917543 0.028098146466335572
-0.08005241697846383 0.10228982105980211 0.02670578687821501
-0.08021524786321341 0.10239723522526006 0.02529784365701543
-0.08038127199922589 0.10249625948426505 0.023874798582338264
-0.08055130658011868 0.10258412981181175 0.022433522139322593
-0.08072559444557395 0.1026601045767016 0.02097298932799474
-0.08090694599847734 0.1027145548597686 0.019482584271412973
-0.08108733202675192 0.1027754097509252 0.01799213600974331
-0.08127329812609382 0.10282007779648084 0.016477116324538688
-0.08145572292654224 0.10288007077064526 0.01497166948761397
-0.0816387677868008 0.10294102228182317 0.013460206331585844
-0.08183433297183931 0.10296222200371263 0.011897701484095968
-0.08201240031695135 0.10304646434757392 0.010397607163322997
-0.08220589484068865 0.10308118359036572 0.008835266818262466
-0.08239825981058001 0.10312301287446096 0.007273331917532155
-0.08259666324769234 0.103147635052946 0.005684438268501235
-0.08281006533735769 0.10312491797709955 0.004034064418230177
-0.08522378164778574 0.067404243517452 0.036331287949401936
-0.08496292087292402 0.06907957779959523 0.036358569437905386
-0.0847057848664213 0.07073682466790643 0.036378508357458206
-0.08445380458374387 0.07237081383393973 0.03638616446849985
-0.0841969968973953 0.07401831262205444 0.036415173447849614
-0.08394069906549001 0.07565965688537896 0.03644756143822114
-0.08368533234394926 0.07729332041112263 0.03648187903003619
-0.08342923875760108 0.07892536978607567 0.0365237596097
-0.08317388524910592 0.0805504520920231 0.03656820138364114
-0.08291498095113449 0.08218415430284376 0.036629918858347266
-0.08267596537869351 0.08374153819661201 0.0366282839302387
-0.08242398358354494 0.08534176005419364 0.03667619406673345
-0.08217875203732695 0.0869134521780644 0.036705733366529936
-0.08193836792465954 0.0884636240156772 0.03672331113094851
-0.08169482295367851 0.09002111897469506 0.036756684793947225
-0.0814556797137599 0.09155879754431412 0.03677952424223546
-0.08121440328699811 0.09310009855892587 0.036814596779588815
-0.08097845018846768 0.09461841229040735 0.036835763891067574
-0.08073863211774185 0.09614651939336594 0.03687524578088058
-0.08049926719031757 0.09766901624304275 0.036917898033084984
-0.08026840282324396 0.09915745492796713 0.03693518833052928
-0.08002743515834941 0.10067768457957288 0.036992977225218215
-0.07997758988791255 0.10152118790099973 0.03637444990575578
-0.08006781365125132 0.10187202021597114 0.03525635104627006
-0.08021251931563339 0.10203350579570558 0.03394121352931562
-0.08036581137787865 0.10216740040510902 0.03259234079621981
-0.08052470142278295 0.1022843377678549 0.031220245440182315
-0.08068228598235556 0.10240846841726581 0.02984970596014208
-0.08084262539800777 0.10252567164144627 0.028466048943231015
-0.08100204307220663 0.10264874229594995 0.027082550651335913
-0.08116757361003787 0.10275336703391813 0.02567360920303574
-0.08133535516824676 0.10285300152514182 0.02425315054605076
-0.08150560895589035 0.10294694200902921 0.022820297157515712
-0.08167915491232507 0.10303243970963094 0.02137196346962833
-0.08186180683132425 0.1030896963655456 0.01988663829510423
-0.08204647802958853 0.10314311431661027 0.018390221502108117
-0.08223077832093904 0.103200877650169 0.016891503736251312
-0.08241570656035505 0.1032595864318725 0.015386787348060316
-0.08260329378182378 0.10331237893228412 0.01386849221966413
-0.08279784973387969 0.10334476411626708 0.012320451268068577
-0.08298063239871589 0.1034200675216686 0.010812604445283813
-0.08317224240785778 0.10346875268101868 0.009267993796794383
-0.08336928428544495 0.103502424990565 0.0076991320675868224
-0.08356352569944844 0.10354875306520939 0.00613691495098323
-0.08376805940432294 0.10356398807204531 0.0045319012275514825
-0.08606590063423601 0.0690811634135497 0.036360009138070526
-0.0858054278245019 0.07073839713777452 0.036379943600074904
-0.08555125145061626 0.07236847418310788 0.03638401804031727
-0.08529238547370589 0.07401135220837751 0.03640875430048396
-0.08503211091203466 0.0756550553103662 0.036443295550590116
-0.08477384176239147 0.07728723615531408 0.03647620913849281
-0.08451336402939676 0.07892310728375584 0.0365216402452454
-0.08425239910069388 0.08055643431574616 0.03657383469324371
-0.0839988376342839 0.08215894278689961 0.03660605452019716
-0.08374947330439848 0.08374227358706021 0.03662898374333795
-0.08349687966002972 0.08533300782255765 0.03666782305223476
-0.08324600845847048 0.08691345208527274 0.0367057333670211
-0.08299906590036438 0.0884758196079361 0.03673509741473918
-0.08275358408035707 0.09002894526575311 0.03676428776536422
-0.08251114823092376 0.09156726563664064 0.03678779343061106
-0.08226774549318674 0.09310499762421853 0.03681940565078784
-0.08202794636425935 0.09462604823342413 0.03684329810089021
-0.08178914854928959 0.09613963433614109 0.036868417387393104
-0.08154393163164884 0.09767174730979838 0.0369206207940585
-0.08131181952849968 0.09915406836514468 0.03693179477481323
-0.0810582683006071 0.10070723341821475 0.0370227413523439
-0.08095486689638502 0.1017345050700178 0.03659043326285871
-0.08101144511819916 0.10220552153898665 0.035595768304516384
-0.08115420344373833 0.10237944731081983 0.034295113134652555
-0.08130813386395064 0.10251718334389065 0.032952020701318196
-0.08146888111743436 0.10263399518012123 0.03158165497013776
-0.08162674583130484 0.10276335338320153 0.03021841428988259
-0.08178875660833401 0.10288111245633796 0.028837242424994247
-0.08195298838107785 0.10299395274020223 0.027444922051065468
-0.0821210471333079 0.10309645482878466 0.026035611615120968
-0.08228900176513233 0.10320208087448629 0.024623375646671886
-0.08245804383975582 0.10330678626224254 0.023203908207120705
-0.08263238989442934 0.10339632921517505 0.021761887736846397
-0.08281310905702453 0.10346723176890071 0.020293270715461553
-0.08299866304949403 0.10352483162594761 0.01880347751168282
-0.08318484737766833 0.10358337227765502 0.017307735404580193
-0.08337329665384466 0.10363739170112574 0.0158000343655898
-0.08355973324278688 0.1037012450500055 0.014296028783526649
-0.08375318003821723 0.10374479544767568 0.012762528496835346
-0.0839483517636808 0.10378579656700754 0.01121885517064064
-0.08413508705614767 0.10385800695459158 0.00970260230777914
-0.08433851468721819 0.10387804662382638 0.008120678300066575
-0.08452971731280763 0.10394180081327703 0.006580288064152839
-0.0847405383016426 0.10394409667805532 0.0049628849452296175
-0.0850191733556023 0.1037270922266329 0.0030874492311599444
-0.08716842897203758 0.06908433468955377 0.036362888494484935
-0.08690374685963564 0.07074468714639365 0.03638568442508816
-0.08664501712516544 0.07237939171082525 0.03639403443040845
-0.08638695854923249 0.07400748513407729 0.03640518798270115
-0.0861248448189663 0.07564585184191497 0.03643476339177715
-0.08585876358935397 0.07729408072503952 0.036482587751422546
-0.08559474592725698 0.07893064841863112 0.03652870467252506
-0.08533276893804033 0.08055568644499012 0.03657313054220318
-0.0850774233219929 0.08215300997974168 0.036600438800841684
-0.08481964084827924 0.08375477616587057 0.03664088003253296
-0.08457025324903825 0.08532279625068506 0.036658056246427484
-0.08431367679080022 0.08691200535682514 0.036704342527743405
-0.08406254219048381 0.08847797159027743 0.03673717724628672
-0.08381391679369249 0.09003107956915307 0.036766361232921096
-0.0835659484549054 0.091577850083093 0.03679812924026177
-0.08332366694689979 0.09310079826536605 0.03681528377219445
-0.08307798685408939 0.0946316013676527 0.036848777275795885
-0.08283832370015551 0.09613756869079187 0.03686636880586114
-0.08258956416203464 0.09767106443454954 0.036919940109481686
-0.08235309968747773 0.09915813203174922 0.03693586703336649
-0.08210314002491423 0.10068775859253054 0.03700312478778761
-0.0819376657352559 0.10192347837139637 0.03678176849589476
-0.0819631548222698 0.10250293196673504 0.03589845446575057
-0.08209669586727461 0.10271387098855628 0.034637229947438675
-0.08225085602625187 0.10285674962315455 0.033301194873173734
-0.08241248271617402 0.10297676492717606 0.031935945339480964
-0.08257020249470037 0.10311265467405761 0.030581321452305743
-0.08273288961803371 0.10323431232713565 0.029206095647346886
-0.0828978118374332 0.10335107689018869 0.027819799402052037
-0.0830663914048402 0.10345821626026114 0.026417317146048502
-0.0832354572872953 0.10356646618265858 0.025009833871858234
-0.08340884069415455 0.10366300674483764 0.023583656146029253
-0.0835821383399763 0.10376265533344659 0.022154422945246666
-0.083759206341128 0.10385255740227617 0.020708293764028385
-0.08394947937206106 0.10390143593878148 0.019211198073770697
-0.08413672189787841 0.10396346217985747 0.017721350244837952
-0.08432933403403776 0.10401076957415833 0.016208438655706037
-0.08451827677056195 0.10407332206642583 0.014705106672972867
-0.08470889963334814 0.10413341772808266 0.013191997511730946
-0.08491312502297048 0.10415194220061397 0.011625568640600992
-0.08509756185699772 0.10423861832279124 0.010127560881199538
-0.0853032462427881 0.10425886067704343 0.008548051791192668
-0.08549912473975484 0.10431441515047507 0.007000611502154808
-0.08571037533328972 0.10432317266951019 0.005392697839482874
-0.08591903640961271 0.10434376699713993 0.003790259552100661
-0.08827071211392376 0.06908829871850075 0.036366487608129994
-0.088001578521679 0.0707525493248074 0.03639286013107035
-0.08773584287721137 0.07240044486465669 0.03641334976581617
-0.08747805592129612 0.07401599226508299 0.03641303376511407
-0.08721350932851261 0.075651220448551 0.036439740547093424
-0.08694363683987075 0.07730092498830965 0.03648896607875951
-0.08667693395751495 0.07893517288231777 0.03653294316087946
-0.08641421231532312 0.08055119961272555 0.03656890556074094
-0.08615562681453466 0.08214856019740663 0.03659622686609615
-0.08589309602149532 0.08375551149126959 0.03664157978373356
-0.08564118236122369 0.08532133731773023 0.03665666093417169
-0.08538010417955866 0.08691489852123307 0.03670712419420391
-0.085127661532844 0.08847438468892965 0.036733710844869594
-0.08487629506353266 0.0900260991721788 0.03676152309674541
-0.08462190128231993 0.0915842003452037 0.03680433036594355
-0.08437961898975332 0.09309659878486654 0.036811161774198464
-0.08412758193387346 0.094638542507549 0.036855625947562476
-0.08388630598853164 0.09613963415403443 0.036868417388615626
-0.08363580206689258 0.09766833317318896 0.03691721733673203
-0.08339395209336174 0.09916355010307704 0.03694129652986561
-0.08314736472978336 0.10067096778063828 0.03698621178404993
-0.08293035892717845 0.10207420764298641 0.03693438171473101
-0.08292091543337059 0.10277245672670882 0.03617276030664873
-0.08303595841575642 0.10305082420829009 0.034981934491278954
-0.08318694267126775 0.10321014633491671 0.033664590800056904
-0.08335258740994367 0.1033226997124167 0.03229350712405055
-0.0835105122155661 0.10346375808807196 0.030946100932881027
-0.08367364337075249 0.1035899673973007 0.029577512879350842
-0.083842440675718 0.10369992130499095 0.0281859854212389
-0.08401070884068582 0.103814346320385 0.026793080846398698
-0.08418472248479014 0.10391242652551558 0.025376751030148026
-0.08435823690274186 0.10401495422281926 0.023958848860176518
-0.08453165031613916 0.10412060349561525 0.022537980792100787
-0.0847090627411938 0.10421587735436616 0.02109961513784253
-0.08489897409342534 0.10427296436146916 0.019613423360570093
-0.08509201753164235 0.10432284475182074 0.018112431318635325
-0.08528385990845486 0.10437975144363382 0.01661203455600102
-0.08547406096844364 0.1044450903673938 0.015113845146840166
-0.08566679196919214 0.10450526050245368 0.013602923389343546
-0.08587178488348719 0.10452876075236067 0.012044137552646883
-0.0860588989593824 0.10461339496789163 0.0105460048959235
-0.0862634330532803 0.10464482055298846 0.00898120024663146
-0.08646145538125795 0.10470049449632701 0.007436123988504684
-0.08667371238624433 0.10471364314468262 0.00583543029286393
-0.08687664799633231 0.10476005873899202 0.004264697891728619
-0.08937161323145107 0.0690970193451782 0.03637440533786712
-0.08909845762755551 0.07076355574783977 0.03640290551231512
-0.08882741258993286 0.0724183767678766 0.03642980150517561
-0.08856731997917067 0.0740306853664906 0.036426584553399644
-0.08830125451704145 0.0756596565057488 0.03644756143968747
-0.08803065118772932 0.07730016442464521 0.03648825739025996
-0.08776170134540806 0.07893064823006296 0.036528704673342904
-0.08749525514074227 0.08054820828593945 0.03656608883694096
-0.08723042191161652 0.08215597617837633 0.03660324668931708
-0.08696718705561357 0.08375404055673608 0.03664018027928989
-0.08671105967213408 0.08532352547910138 0.03665875389863954
-0.0864467218916076 0.08691706833424856 0.036709210408508774
-0.08619133736779767 0.08847581933047516 0.036735097416301155
-0.08593724865328306 0.09002609907998854 0.03676152309729058
-0.0856773932484561 0.09159196142129733 0.03681190915245919
-0.08543209547224438 0.09310429747993992 0.03681871868095027
-0.08517815153477508 0.09464201290654117 0.03685905016012092
-0.08493345783725428 0.09614445357400986 0.03687319729951344
-0.08468185736967282 0.09766628467017369 0.03691517522313026
-0.0844343618708075 0.09917032242401502 0.036948083108871654
-0.08418951050603844 0.10066156401392018 0.036976739623532706
-0.08393691644420474 0.1021748260590542 0.03703625777885894
-0.08388061464361474 0.10302885550607954 0.03643370733041157
-0.08397256703625823 0.10338829534235433 0.035327168863264646
-0.08412047080621174 0.10356331689751647 0.03402775417880366
-0.08428716034104503 0.10367842622372697 0.0326611897354121
-0.08445068265635693 0.10380665277325013 0.03130235194285513
-0.0846146383835231 0.10393604510292181 0.029938928293029132
-0.08478451278520731 0.10404856489817749 0.028551960635467055
-0.08495486670843497 0.10416220681552063 0.027160119078238676
-0.08512877331696614 0.10426691915027991 0.025752717317268914
-0.08530627208013958 0.10436265755136437 0.02432951711054704
-0.0854824477430878 0.10446552460098374 0.022907579554418633
-0.08565955992755091 0.10456814342973753 0.021479030704700475
-0.08584573625443903 0.10464418030926387 0.020015310354620508
-0.08604004435669596 0.10469686708437342 0.018519443414577563
-0.08623586446960856 0.10474775867335007 0.017014564385999242
-0.08642772305903924 0.10481451018933002 0.015520001599612754
-0.08662064926416317 0.10488087860520379 0.014018021405666381
-0.08682636631367699 0.10490933873357189 0.012466882426291237
-0.08701979449812158 0.10498032872979784 0.010955692210212864
-0.0872203198156851 0.105031768539041 0.009415457620834955
-0.08742457892475022 0.10507452015104068 0.007858039446472675
-0.08763608993187541 0.10509751530373018 0.006270681289184898
-0.08784470181480408 0.10513303854676481 0.004689774604739461
-0.0901954864839958 0.07077377529624718 0.03641223273230271
-0.08992224161699726 0.07242461340402268 0.03643552340427986
-0.089656480453314 0.07404537707065789 0.03644013405307328
-0.08938960908906911 0.07566579150334635 0.03645324909203801
-0.0891167842443575 0.07730244572593231 0.036490383446752594
-0.08884892471038175 0.07891782782363332 0.03651669493958454
-0.08857697632867911 0.08054297339218597 0.03656115943591681
-0.08830472872158814 0.08216487489172175 0.036611670020317955
-0.08804128864769985 0.08375256960774874 0.03663878076109428
-0.08778113633199486 0.08532498420445761 0.036660149191358904
-0.08751439282073395 0.08691562164115402 0.03670781960322078
-0.08725500284052806 0.0884772539580515 0.03673648397423174
-0.08699630096127814 0.09003250220571274 0.03676774352912232
-0.08673723862071381 0.09158490573922629 0.036805019364298974
-0.08648368098568067 0.09311479507491865 0.03682902290682849
-0.0862295260081829 0.09464270690326648 0.03685973499323192
-0.085979130113592 0.09615409201923664 0.03688275663890733
-0.08572690203327019 0.09766765019086748 0.03691653663652844
-0.08547390631630714 0.09917980316664082 0.036957583775198755
-0.08523253677401103 0.10064947256205087 0.03696456020412048
-0.0849673303662855 0.10219414180380831 0.037055815028757655
-0.08485403151708701 0.10323376950023988 0.03664225630144746
-0.08491034138170157 0.10371370087026865 0.03566006007313827
-0.08505507798045141 0.10390433254787457 0.03437841873003994
-0.08522098076983704 0.1040279399983367 0.033022450799094105
-0.08538651449335803 0.10415535377706586 0.031664635435504906
-0.08555432693642938 0.10427793845933264 0.030295973913571306
-0.08572587704277607 0.1043910056871421 0.02891142469579855
-0.08589688082456134 0.10450853384853054 0.027525539307545033
-0.08607022236881354 0.10462118128033476 0.026128439147102334
-0.08624987084074044 0.1047161954830591 0.024706405322891645
-0.08642901978168577 0.1048156341117748 0.023282737929048114
-0.08660598338410301 0.1049248986571023 0.02186328140536914
-0.0867904006228352 0.10501306190948723 0.020414670130218637
-0.08698531883871213 0.10507056171877294 0.018926098908336186
-0.08718175098632183 0.1051262916761197 0.017428607404114838
-0.08737821987728078 0.10518498441428514 0.015927317309023692
-0.08757322155183599 0.10525141116335884 0.014427499354596807
-0.08777769713148473 0.1052909193617213 0.012890741036570508
-0.08798096917680365 0.10533743186369188 0.011354403476304564
-0.08817628621448396 0.10541217639528833 0.009842375251404967
-0.08838620758511072 0.10544411792757769 0.008274960086946781
-0.08859209196555085 0.10549199713847224 0.006717961995275579
-0.08880818266371243 0.1055112110684292 0.005120769335390518
-0.08906605279718705 0.10540358637059366 0.0033703595669781206
-0.09129520152552581 0.0707745612992095 0.0364129501857714
-0.09101725511950493 0.07243007024326875 0.03644052987755009
-0.09074712694761847 0.07405465528682337 0.0364486909680925
-0.0904788231940783 0.07566885886285935 0.036456092833259346
-0.09020155487585928 0.0773092896146852 0.036496761425064694
-0.08993110994357646 0.07892235266884395 0.03652093378534055
-0.08965607495535294 0.08054671245940959 0.03656468045480871
-0.08938029375683036 0.08216932400417076 0.03661588149919842
-0.08911671478729125 0.08374668594731388 0.03663318254932396
-0.08884815483103467 0.08533665414413333 0.0366713110373979
-0.08858423805098233 0.08690694164959556 0.03669947448354899
-0.08831908814652731 0.08847725386558186 0.0367364839747687
-0.08805487935117437 0.09004032788869237 0.036775345909803636
-0.08779479717256776 0.09158561122173459 0.0368057083587599
-0.08753666945416162 0.09312039343866074 0.03683451818913125
-0.08728236594557531 0.09463854223359841 0.03685562594938718
-0.0870257763405858 0.09616028778809188 0.03688890158955471
-0.08677546652481566 0.09765740769569592 0.03690632572391028
-0.08651730296842516 0.0991764171370707 0.036954190753848815
-0.08627154736298667 0.10065081600763809 0.03696591352522194
-0.0860088206961594 0.10217682419227647 0.03703828106874146
-0.0858317125556324 0.10341985500347373 0.036831642790601526
-0.08585243927548031 0.10401721453456825 0.03597055582141678
-0.08599005765243857 0.10423592328276937 0.034719391693970314
-0.08615267200918547 0.1043759182578275 0.033382124738596364
-0.08632535439081798 0.10448594656892468 0.03200810537566384
-0.08649130340529494 0.10462032319339432 0.030653532688604934
-0.08666514019718526 0.10473194173847067 0.029269309215801176
-0.08683427073740758 0.1048613286139134 0.027897783836752454
-0.08700886400618808 0.10497587837354505 0.02650462228794992
-0.08719254583004458 0.10506415928365981 0.025077351248269764
-0.0873727943409317 0.10516620357030204 0.02365838915836238
-0.0875516758115885 0.1052753764688501 0.022240770885376293
-0.08773320149350483 0.10537895207878595 0.020810791313868482
-0.08792955078393092 0.10543854283142085 0.019326536933824245
-0.08812678091583934 0.10549840091392926 0.017835624048143484
-0.0883274794294764 0.10555041829246958 0.016329091439923005
-0.08852304313847409 0.10562163497103871 0.014836636101172418
-0.08872620392037796 0.10567213293458727 0.01331419192276323
-0.08893553373386658 0.10570654155893372 0.011766520253200241
-0.08913007799217403 0.10579018178238259 0.010266596680313267
-0.08934242066173351 0.10582161254028283 0.008700788662629688
-0.08954405731697314 0.10588946664461774 0.007168630252366692
-0.08976926694141044 0.10588766966270619 0.005549810741682648
-0.0899786414307973 0.10593812434007455 0.003982694581828317
-0.09238909620997847 0.07079499838227821 0.03643160270006912
-0.0921110742288166 0.07243942444696078 0.03644911199364714
-0.09183632910019716 0.07406857161390384 0.03646152537690067
-0.09156687325963432 0.0756757603165309 0.036462491043008194
-0.09128922880088683 0.07730624778757006 0.03649392680387392
-0.09101168308053023 0.0789321561481976 0.036530117517931615
-0.09073469825463065 0.08055194703581225 0.0365696097348413
-0.09046028612970898 0.08215894222488596 0.036606054522908216
-0.09019018841832481 0.08374742131249197 0.036633882338375834
-0.08991751292031458 0.08534030074867521 0.03667479893516895
-0.08965414600471482 0.08689826114914845 0.03669112887462134
-0.08938578581210092 0.08846864524314613 0.036728164428301346
-0.08911556502777787 0.09004103920990053 0.03677603701569454
-0.08885321106137582 0.09158349439642982 0.036803641367676276
-0.08858961725451968 0.093125991586191 0.036840013259203275
-0.0883354489084328 0.09463368331551264 0.03685083191480476
-0.08807385684774416 0.09616166451847968 0.0368902670985945
-0.08782452661931175 0.09764579865770001 0.036894752470028935
-0.08756093341827513 0.09917235381304795 0.0369501190212439
-0.08731075577689576 0.10065148768055332 0.03696659018129572
-0.08705105891500751 0.10215750588531536 0.03701872140807416
-0.08682739907149746 0.10354355412081889 0.036957536247444245
-0.08680460358944914 0.10428117705895867 0.03624059059999213
-0.08692673018119562 0.1045541959608976 0.03504666977549975
-0.08708514152009253 0.10471312409349515 0.03373066419174081
-0.08726176348022299 0.10481641794574703 0.03235144917127569
-0.08742618916193842 0.10496120546752197 0.03100952241684135
-0.08759876208420662 0.10508265928223498 0.029637461478660587
-0.0877720176466838 0.1052045935273514 0.028259973130556504
-0.08794469545027275 0.1053310036698204 0.02688125957022497
-0.08812609447904408 0.10543258543025247 0.025470110999576412
-0.08831270580731938 0.10552056498825357 0.02403810364453629
-0.08849370728848005 0.10562898522337644 0.022621632611848574
-0.08867780912300068 0.10573048091228704 0.021191364585963823
-0.08887257713373524 0.10580152310656982 0.01972153303575147
-0.08907036422748696 0.10586615177863318 0.018237873462895737
-0.08927055360889864 0.10592635077088303 0.016742408191961988
-0.08947077240829819 0.10598952246704779 0.015243190974846832
-0.0896714531449998 0.10605433162100492 0.013738737069561469
-0.08988712366275092 0.10607602788871179 0.012179057548090566
-0.09008083365056217 0.10616851822562517 0.010691189640880783
-0.0902951478214048 0.1062008061004695 0.009128533716248555
-0.09050244912627083 0.10625781990736055 0.007586285250669844
-0.0907192250496924 0.10628910462735952 0.006007317148971569
-0.09093298626458536 0.10633288009595032 0.004434903405986179
-0.09348402430453036 0.07081150328570768 0.03644666641004435
-0.09320459353567347 0.07244955753976928 0.03645840870272149
-0.09292450307450384 0.0740855787769023 0.03647721030646184
-0.09265279401309127 0.07568956238897345 0.036475286600140155
-0.0923764648095568 0.07730472680402961 0.03649250947233157
-0.09209264328502258 0.07894045089177004 0.03653788790617418
-0.09181668913589033 0.0805459644466463 0.03656397625897401
-0.09154035304085227 0.08214855972908242 0.03659622686839015
-0.09126275967654243 0.0837510984575987 0.036637381230116506
-0.09098951990440646 0.0853351952539686 0.03666991585557422
-0.0907250032258925 0.08688668638778668 0.036680000634732035
-0.09044880075754351 0.08847223209932564 0.0367316309658684
-0.0901779972970014 0.09003605915155383 0.036771199208484484
-0.08991185800612429 0.09158067194549113 0.036800885332671396
-0.08964425545805688 0.09312599149460998 0.036840013259810234
-0.08939093412711956 0.09462118834635719 0.03683850365452124
-0.08912299667454097 0.09615959919040346 0.036888218831725494
-0.08887175795952776 0.09764033520612647 0.03688930590743589
-0.08860480514577096 0.09916761313640338 0.03694536851909397
-0.08834932869746165 0.10065417461078824 0.03696929677131017
-0.08809364949256664 0.10213751863604398 0.036998484444487334
-0.08783383664063435 0.10363014445155999 0.03704566266019382
-0.08776222625365103 0.10452160741074512 0.03648655187457128
-0.08785960357504295 0.10487700714211373 0.03537861477377957
-0.08801598267971673 0.10504753837980335 0.03407631827103158
-0.0881882041293986 0.10517052077616701 0.032719344898564484
-0.08835920877764837 0.10529993245821151 0.0313632613426813
-0.08852961164173306 0.10543381740679963 0.030006076223920763
-0.08870575787374638 0.10555231444613739 0.028626864090201376
-0.08887899025332942 0.10568256803807491 0.02725412021927276
-0.08905973444238516 0.10579205847349166 0.025853326320073866
-0.08924486098959597 0.1058906740416079 0.02443469243851698
-0.08943312778139718 0.1059823619000918 0.023002244373858838
-0.08961700011987753 0.10609047679721856 0.02158110448174283
-0.08981031685911067 0.10617225926126289 0.020124969104030332
-0.09000970485685496 0.10623829612414781 0.01864492850751548
-0.09021195233876811 0.10629857719060037 0.01715165034030036
-0.09041467049991056 0.10636047689039124 0.015653135128808116
-0.0906158695739839 0.10643007938504884 0.014156116552734466
-0.09082929416335357 0.1064655006742865 0.012613910029087017
-0.09103502262868794 0.10652752482912675 0.011094089444209587
-0.09124235767039471 0.10658779310512018 0.009565070075236548
-0.09145717045199216 0.10662859864026147 0.008006690351857415
-0.09167390227232185 0.10666686805697534 0.006437845645828166
-0.09189416491664963 0.10669779827458187 0.004852932075963545
-0.09230001443838988 0.10617540597200303 0.0026230985393722595
-0.09459860020126633 0.0707627691146081 0.036402188010208614
-0.09429946143454683 0.07245501350257755 0.036463414371890934
-0.09401349815398126 0.07409949231850105 0.03649004214634516
-0.09373885109382835 0.07570259653615163 0.03648737023781967
-0.09346115437422663 0.07731157059066063 0.036498887355468745
-0.0931765481801601 0.07893894267883872 0.03653647514035285
-0.09289987124536311 0.0805362422932207 0.03655482138510818
-0.09261821146698404 0.08214559310320158 0.03659341884285566
-0.09233530457736346 0.08375477551234939 0.036640880035881285
-0.0920642704779175 0.08532133675934528 0.036656660937174235
-0.09179280460621494 0.08688523939783227 0.03667860954404478
-0.09151312708621047 0.08847151462413166 0.03673093766577201
-0.09124179503906238 0.09002681010160168 0.03676221427255799
-0.090971406451382 0.09157502697149061 0.03679537310193548
-0.0907010830497994 0.0931189935703477 0.03683314439042307
-0.09044019746425333 0.09462882414240437 0.036846037719313995
-0.09017345001438433 0.09615340320977245 0.0368820738528704
-0.08991623208275264 0.09764374974043505 0.036892710034583664
-0.08965363154850306 0.09914729445432807 0.0369250074245383
-0.08939170971801798 0.10064476972547287 0.0369598234840699
-0.08913363963543977 0.10212619122639438 0.03698701555354972
-0.08886003024838574 0.10365260944199989 0.03706852623973417
-0.08873223542581163 0.10471759661762359 0.03668704968544195
-0.08879073626002722 0.10519775772892004 0.03570844087430952
-0.08894669505075288 0.10537457760021451 0.03441434940746291
-0.08911588235205023 0.10551253480799844 0.0330746809513473
-0.08929080674212911 0.10563519851632874 0.03171338595270551
-0.08946109391481831 0.1057748482201602 0.030364060215987365
-0.08963737749263208 0.10589850492211134 0.028992140233084218
-0.08981156637135067 0.10603125714526268 0.027623931436662363
-0.089992037101192 0.1061472861081863 0.026232015834528277
-0.09017756285168652 0.10625049804058978 0.024820260328373533
-0.09036385513467264 0.10635413641149155 0.02340267190420109
-0.09055179159794433 0.1064555378625992 0.021976328057705052
-0.09074708593269377 0.10653733098834894 0.020522241128412222
-0.09094806725709755 0.10660475906822003 0.019045769182173655
-0.09115104639662097 0.1066691345196144 0.017559057416864032
-0.09135582204325834 0.10673111096343624 0.01606272526137753
-0.09155906560978866 0.10680077058942467 0.014567879225792724
-0.0917710597609672 0.10684713446127558 0.013040010146878112
-0.09198448825082785 0.10689236157003773 0.011503532192655763
-0.09218895851220943 0.1069676040460591 0.009993511557549462
-0.09240865533523177 0.1070004217659421 0.008428279630548985
-0.09262392164593033 0.10704972432986332 0.006874178340039783
-0.09284776381595572 0.10707675717127674 0.005287044957177078
-0.09309275212202656 0.10704444740079233 0.003623741937344771
-0.09539285446006525 0.072465145578204 0.03647271014773995
-0.09510715421813735 0.07409794632558675 0.03648861644385187
-0.09482647196892816 0.07571026312605822 0.03649447778137549
-0.0945474415565621 0.07731309131697578 0.03650030462437748
-0.09426210008653224 0.07893215586542035 0.036530117519227356
-0.09398056694447506 0.08053474644234099 0.03655341289112801
-0.09369447447945391 0.08214781791421255 0.03659552486802886
-0.09341034810469824 0.08375036283044784 0.03663668145973442
-0.09313752361750742 0.08531258332677899 0.036648288774071225
-0.09285880160689497 0.08688957995425872 0.0366827827774629
-0.09257926243287595 0.08846505792977372 0.03672469780851173
-0.09230543579469032 0.09001827199163709 0.03675391998208977
-0.0920307731215786 0.09157008742837858 0.03679054972495599
-0.09175796166448598 0.0931119953082361 0.03682627518941717
-0.09149138713775241 0.09463021235082714 0.03684740750693716
-0.09122570020576984 0.096141699041419 0.036870465945737174
-0.09096198723952995 0.09764306673124129 0.03689202921648449
-0.09069849603954565 0.09913984348477095 0.03691754095993949
-0.09043437533381522 0.1006346923738406 0.03694967283311318
-0.09017392758020579 0.1021141965079817 0.036974871013651545
-0.0899015780677241 0.10362684027939223 0.03704230006056536
-0.08971061867018017 0.10488311730841865 0.036856378086106145
-0.08972819547600486 0.10549156667064807 0.036010563033939735
-0.08987415750701344 0.10570412670206508 0.03475497478249068
-0.09003978657487263 0.10585830372051958 0.033433918142461105
-0.0902154473699379 0.10598412225158732 0.03207777352610641
-0.09038857071160902 0.10612030986913784 0.03072669530600808
-0.09056559638312833 0.10624712987208529 0.029359985062908378
-0.09074266694089304 0.10637642889126953 0.027990012226754124
-0.09092151864974705 0.10650292742298101 0.026611146351234682
-0.09110762746554525 0.10661005139196994 0.025205538206751588
-0.09129449974274463 0.10671761480837672 0.023794163932456813
-0.09148610343875832 0.10681365480404542 0.02236403376568369
-0.09168072430595953 0.10690343912707889 0.020920640978150717
-0.09188328182871766 0.10697225477069561 0.01944773949730133
-0.09208963665812583 0.10703268314660047 0.01795875881885195
-0.09229602401956562 0.10709606351483814 0.01646603670860841
-0.0925006372640718 0.10716778436869018 0.014975557026868147
-0.09271249104078612 0.1072209895830275 0.01345742526458743
-0.09293099711838936 0.10725758517094997 0.01191340909935007
-0.09313410268981273 0.10734299546057263 0.010416967643469832
-0.09335735436526862 0.10737192284405961 0.008849503757471455
-0.09356970002579693 0.10743627008806056 0.007314715856447718
-0.09380152835215684 0.10744651774690878 0.005710620788570653
-0.09401706442260396 0.10750793507637857 0.004157417215789827
-0.09648423911807161 0.07248151143956943 0.03648772511960974
-0.09619721081711147 0.07410799428926756 0.036497883257824604
-0.09591116742427347 0.07572712839130308 0.03651011312852498
-0.09563514519374273 0.07731004956553184 0.036497470073707905
-0.09534911918823254 0.07892084389933057 0.03651952085307075
-0.09505868802378484 0.08054147713808163 0.036559751006861485
-0.09477399208482487 0.08213965967594838 0.03658780262567718
-0.09448751314012761 0.08373933069639167 0.03662618447692506
-0.09420991649056598 0.0853067473880752 0.03664270705865519
-0.09392637352193935 0.0868888564288201 0.03668208724768823
-0.09364909402828338 0.08844712134674099 0.03670736343527059
-0.09336845832283987 0.0900118680595659 0.036747698947150964
-0.093087696492972 0.09157290990059241 0.03679330596133884
-0.09281444319304605 0.09310639643696511 0.03682077958995583
-0.09254412592907334 0.09462674148520134 0.036843983015392545
-0.09227870068678293 0.09612792822487493 0.03685680837156763
-0.09200818775841313 0.097641017865499 0.036889986741283576
-0.0917466992115129 0.09912223067060144 0.036899891393601725
-0.09147189218631749 0.10064073872688234 0.03695576331178074
-0.09121019302618019 0.10211486281323118 0.036975545738308135
-0.09094138207822729 0.10360701459081595 0.03702212278426509
-0.09069832141265867 0.10501631028889785 0.03699263511368722
-0.09067564790829298 0.10574814019102585 0.036274396220998206
-0.09079877760935792 0.1060348568306631 0.03509682087847599
-0.09096504986087826 0.10619207826249316 0.03378069376522841
-0.09114057323856183 0.10632364272858041 0.032432341103600104
-0.09131569089348236 0.10645900017517351 0.031082222440631746
-0.09149148278660589 0.10659487877529078 0.029726905549037397
-0.09167101268028008 0.10672205899498977 0.028356579139560356
-0.09184949312792204 0.10685501734195141 0.026986490912203676
-0.0920352787256647 0.10696867176579083 0.025589816356957895
-0.09222248104480685 0.10708080128338698 0.024185341539956107
-0.0924142224734704 0.10718211715923348 0.02276293965541898
-0.09261167031161202 0.10726924320082265 0.021318709943380587
-0.09281578891266518 0.10733944011632468 0.019849370340957684
-0.09302260972377878 0.10740461255348188 0.018367674417436697
-0.09323193680991479 0.10746539883335837 0.016874191578890363
-0.09343857470936227 0.10753717166884152 0.01538587132685354
-0.0936502363985075 0.10759718828296794 0.013877457023232231
-0.09387042161421214 0.10763529160751739 0.012337295025832029
-0.09407437800693882 0.10772410342865996 0.010846872221802695
-0.09429656454125208 0.10776267948132906 0.00929256067145623
-0.09451608540329046 0.10781226326749405 0.007743226838547668
-0.09474736981093414 0.10783088705706073 0.006150931517054092
-0.09496547854763385 0.10789106181622499 0.004598562232019543
-0.09758212012538524 0.07247683553245854 0.03648343528959508
-0.09728890036770477 0.07411263153927666 0.03650216004577839
-0.09699937318602789 0.07573249415919736 0.036515087652095546
-0.09671854007361426 0.07732069500529198 0.03650739075617809
-0.09643095782826022 0.07892612278333627 0.03652446606270032
-0.0961379495478094 0.08054446841007662 0.036562567856908534
-0.09585404080281917 0.08213001756825833 0.036578675799253224
