# .PCD v0.7 - Point Cloud Data file format
VERSION 0.7
FIELDS x y z
SIZE 4 4 4
TYPE F F F
COUNT 1 1 1
WIDTH 789
HEIGHT 1
VIEWPOINT 0 0 0 1 0 0 0
POINTS 789
DATA ascii
-0.04071559929541957 0.007218632302091253 0.010606308192944003
-0.041338399444765084 0.007221814131946731 0.009547280852408024
-0.08546642329173831 0.006419957819848551 0.03679543250903078
-0.08709489394237013 0.006399614753867293 0.036880181031555215
-0.08871450925769425 0.006379369155034535 0.036965778486104994
-0.09023015426561332 0.006361288200341051 0.03695975727702555
-0.09162653028919904 0.006345720199199589 0.036845669771186806
-0.09302729260637072 0.006329983644385875 0.03674313715276528
-0.09457397743175822 0.006310980669229057 0.03679192631308004
-0.09622842608833165 0.006289525088997061 0.0369564844012803
-0.09851860931522932 0.006253993657918074 0.03776488419735835
-0.09987963293244762 0.00623876759618365 0.037658882398829974
-0.10061386553666912 0.006237312880659776 0.036928698781442226
-0.10065053476936286 0.006251294293102647 0.035492920365468195
-0.10068736876519524 0.006265338527168198 0.03405069067491118
-0.10080751854792586 0.006277596416883159 0.032687028828987774
-0.10093490774462044 0.006289751449543512 0.031324980484066234
-0.1010478782773721 0.00630228695665725 0.029942233192851497
-0.10116197898665025 0.00631485731830004 0.028554668672741645
-0.10129761587719222 0.0063270045055769395 0.027183572245659815
-0.10143922295764352 0.006339075882681913 0.025812908963333714
-0.10158068955284694 0.00635120879760056 0.024436286011393638
-0.10177253653709711 0.00636226084495966 0.023107240054967393
-0.10194523496130914 0.006373800810322716 0.021752434264012355
-0.10209461103243683 0.006385927135206876 0.020367041311836864
-0.10218012528907894 0.0063995678893521615 0.018906969758849035
-0.10240948477392453 0.006409989573905082 0.017595981050532117
-0.10259357552869214 0.006421498993854209 0.016230639703990635
-0.10277764084170482 0.006433065606166618 0.014859634244835385
-0.10294722249634997 0.006445022543042228 0.013467026557573925
0.15255405413414402 0.007593493636764799 0.05240129648296815
0.14923191347098097 0.007560171755879587 0.052423407994182714
0.14604088709303886 0.007528593720895824 0.05239342144049608
0.14286377330051936 0.00749709827733128 0.05237014727130129
0.13966847304569818 0.007465227431761627 0.05237005219542712
0.1365285117317221 0.007434031156383555 0.052355310133900046
0.1333814341231203 0.007402617888266246 0.0523580134044479
0.1301707929958752 0.0073701757637462265 0.05240789195860901
0.08690078912213306 0.006761240512506594 0.07359604055178012
0.0813049539348002 0.006693107899585767 0.07506764024884643
0.0783270871992518 0.006662529430500281 0.07517225973418493
0.07563391204758407 0.006635956201169485 0.0751376170533343
0.07339574962759221 0.006615879445246613 0.07486904148339443
0.07172442297775683 0.006603959474302583 0.07430142519511693
0.07001536147771625 0.006591445890987563 0.07375976282295885
0.06831276459517227 0.00657897964097838 0.07322014931792742
0.06709014359665766 0.0065734761864873386 0.07242063687874101
0.06594380760111773 0.006569068195770006 0.07158115180888258
0.06477613192879911 0.006564330770048348 0.0707555958600154
0.06360879812566955 0.006559580475836969 0.06993198485669067
0.06260628176780142 0.00655723742957418 0.06901717865030427
0.06184074791852329 0.006558379209634159 0.06796843159766075
0.061064279826720524 0.0065593638220021455 0.06692543195281475
0.060274266101281726 0.006560151724818804 0.0658897920259579
0.059484062562091156 0.006560939816942463 0.06485390326957557
0.058850284436777256 0.006564054632343423 0.0637264391311157
0.05840832227899351 0.006570036262480248 0.06248504652691028
0.05795891660394942 0.00657592982879694 0.061245304913057075
0.057492777236857695 0.006581596022271182 0.0600127872745122
0.05702716079050896 0.006587291852004091 0.058777351900883734
0.0567080467171448 0.006595206933205774 0.05745135601282608
0.056599447454017515 0.006606316060341845 0.05599461862454802
0.05648648763505809 0.00661740253921373 0.054535390533627603
0.056353150309015054 0.006628224613331965 0.0530834684458244
0.056220711053112604 0.006639102319083989 0.051625969792068904
0.05640084648001076 0.0066547561065015024 0.04997033888599994
0.056708047652541116 0.006672399041947906 0.04822847645880679
0.05699936385462523 0.006689869437304667 0.046488298079637946
0.057277338778894404 0.0067072050276628156 0.04474832663031725
0.05803330513550825 0.006731904312903583 0.04269819198221919
0.05898215393821277 0.006759650503464983 0.04051388270065981
0.0598975708047903 0.00678699372224183 0.03833787769113123
0.06176947007507766 0.006829130279797195 0.03553426205107424
0.06402053363513788 0.006877266535993098 0.03246567531525235
0.05596322125002551 0.006848119070886963 0.026345871867887283
0.05293857810869018 0.006814601566627642 0.026745900093239683
0.050400852989533895 0.006788575534386413 0.026831136656202514
0.04788377202194871 0.006762768476368342 0.02691481301121701
0.04535537053109673 0.006736679043221836 0.027018736154415635
0.042800618869404394 0.006710068683337882 0.027153496496413576
0.040255610517585916 0.006683504135976489 0.027294394801231525
0.03769605733549125 0.006656601393920382 0.027458366613328178
0.03519764342173887 0.006630558303168404 0.027592490586981655
0.03275515717577693 0.0066052973361135315 0.027699818744805926
0.030186831402568615 0.006577929718557019 0.02790887891981625
0.027897233772492813 0.006554896063880211 0.027932294276552305
0.02554665045386534 0.006530792914572378 0.02801081249337828
0.023109256886550744 0.006505200019631176 0.028163868473031206
0.02084063384785756 0.00648221036253269 0.028207023560515854
0.018685387576814316 0.006460949154024589 0.02817878149852976
0.01642530297614081 0.006437910157353369 0.028238007370877782
0.014308458261094892 0.006417088886104526 0.028202966979420485
0.012252714003460896 0.006397169829913336 0.02813294699709773
0.010249875362205507 0.006378025729275741 0.028033386105339952
0.008066596037999807 0.006355869160837984 0.028078712781477
0.006036052758934263 0.006336107237559447 0.028019951979527724
0.004046076664411535 0.00631692444461635 0.027940343013359292
0.00197044281134906 0.006296260122533279 0.027935663591022675
-0.00018074056828687457 0.0062742705677427575 0.02799928600145357
-0.002643555810763143 0.006247070136883528 0.028314113325521917
-0.005222800575493847 0.006217838402531172 0.028732884644380563
-0.008191099812162261 0.006182066057683941 0.02946946832043057
-0.01084059876444754 0.006151410820048881 0.029974593537894112
-0.013552981819817511 0.0061195834723729355 0.030544819619252706
-0.015988882728678877 0.006092209488133576 0.030912458279687804
-0.01816402679962753 0.006069055861929722 0.03108660821475956
-0.02031266154712036 0.006046244900214817 0.03125140932015508
-0.022427307974662414 0.00602390375079499 0.031400583149824524
-0.024661266646118174 0.005999468978939421 0.03165771132166867
-0.026678341071764533 0.005978567581906469 0.031751145917719215
-0.028750009037063207 0.00595665790229259 0.031899987649757267
-0.030850559544457423 0.005934166623331281 0.03208389775617265
-0.0328623416942998 0.00591307670336517 0.03220616408120641
-0.03486644807922634 0.005892024915992393 0.0323330219598123
-0.03686935930424129 0.005870901596792596 0.032469850767028074
-0.03887362755776852 0.005849662896039215 0.03261884807021931
-0.0400627826608535 0.005842216392831834 0.03209137337232226
-0.022138760354949216 0.006161039323236929 0.01535956030186686
-0.02224705908282587 0.006172738035699426 0.013832737670834483
-0.02238027335017012 0.006184061090006398 0.012321105336537908
-0.02260086079370427 0.006193932645978687 0.010878770123089854
-0.022883518261258062 0.006202778865876677 0.00948496946335714
-0.024456726681827134 0.0061893874685757175 0.009210091321083747
-0.02665486062241096 0.006165125346448172 0.009489285624822819
-0.028681433894643893 0.006143729664940198 0.009630456838189638
-0.030678189830353864 0.0061227565309071984 0.009756677172508277
-0.03274647962412397 0.006100443638193448 0.009957720583815277
-0.03469701654874868 0.006080086005198527 0.010065482781786317
-0.03675848579755575 0.006057696100964051 0.010283855905578565
-0.03872873115275988 0.00603680476783125 0.010431896780122796
-0.040719369640828285 0.0060154606602273964 0.010609731370271436
-0.042467038666796575 0.005998299385959679 0.010577362502796284
-0.043949462784285576 0.0059857426578065085 0.010310950953795694
-0.08411543385936726 0.005361861691700374 0.036984049251374884
-0.08560845442872139 0.005347411172205423 0.03693127873625207
-0.08724075248560215 0.005330383725850135 0.03702041392342725
-0.08886411923087395 0.005313438526674568 0.03711036617413527
-0.09047223222350392 0.005296690618360847 0.03719492490893789
-0.09209414734162219 0.005279614090505644 0.03730229823677805
-0.09369309194378622 0.005262875529367872 0.03739666663644653
-0.09518308119606961 0.0052480450353101895 0.03739290790493682
-0.0969319849953974 0.0052284130879659135 0.03765426247146364
-0.09852743261050062 0.005211499752621933 0.03777368036634454
-0.09992612057206884 0.00519811940574928 0.03770546729305013
-0.10075087488541412 0.0051952390598444965 0.0370667059622094
-0.10081675658700695 0.005206345321861883 0.03566121970098424
-0.10085326807740558 0.005218047523816387 0.0342195328391206
-0.1009567949749745 0.005228563254469914 0.03283973922232153
-0.10108170110895098 0.005238731976275271 0.03147592729665466
-0.10120641690179888 0.005248952940160981 0.030106100348919418
-0.10132212578075156 0.005259391129290752 0.028721053441680633
-0.10143897505149518 0.005269858203747185 0.0273311962618486
-0.10159166365602618 0.0052797034122111595 0.025972927717282823
-0.10177556875608712 0.005289009179613583 0.024641908995641726
-0.10193558071160863 0.00529881046490676 0.02328016074379463
-0.10205248893384644 0.00530947390118203 0.021866772080830044
-0.10221090125476096 0.005319403062696446 0.020491651602038807
-0.10238223069644276 0.0053291354164070924 0.01912465161281396
-0.10254322067103283 0.005339112222717218 0.017740766626066717
-0.1027185416571445 0.00534886450895776 0.016366628169475206
-0.10289381714193258 0.005358665631601444 0.014986708986349462
-0.10306560821855437 0.00536858189795736 0.013597185036601567
-0.10289525882123696 0.0053851244421121635 0.01182370331446747
0.14935166986930792 0.006049498226739733 0.05236289004691491
0.1459971314951486 0.006022376861288428 0.052415668830335105
0.14273746977017154 0.005996238142378963 0.05243475944926157
0.13963632381659374 0.005971814613355069 0.05238659908788784
0.13639064209232798 0.00594564675052752 0.05242670305056102
0.1332747126840902 0.005920870433858546 0.05241361310443193
0.13013962982269178 0.005895782573286607 0.05242422588130796
0.12692307919211843 0.005869664178580905 0.05249165888914942
0.08374182060154017 0.005382587559466957 0.07377487926919785
0.07964360022663736 0.005345233376384487 0.0744696383487807
0.07698094532517408 0.005324356343198036 0.07441438394988012
0.07438481636273742 0.005304172949137314 0.07433481743373141
0.07270946924452276 0.005294611676046828 0.07376618773251778
0.07101406306279567 0.005284781156754608 0.07321386435056476
0.06930582701654431 0.005274764179958044 0.07267409826273133
0.06789746825520393 0.0052682131352116525 0.07197407685308421
0.06675395492048564 0.005264737524457499 0.07113037146110435
0.0655916911972475 0.005261028922455181 0.07029911734815575
0.06442164165612796 0.0052572148370392275 0.0694743383517622
0.0632921943083053 0.00525386427710406 0.06862871987499436
0.06252560156034143 0.005254780515450747 0.0675782905620948
0.06175874138860332 0.005255697073425046 0.06652749480975828
0.06096757564100691 0.0052563293687316725 0.06549018728197953
0.060177552662616596 0.00525697762932867 0.06445185724569397
0.0594419104030951 0.0052582746301981535 0.0633814466035274
0.05899989581319154 0.005263072762889647 0.06213807557118056
0.05855574277988396 0.005267863781304478 0.060893218554879225
0.058093479310105944 0.005272456738428319 0.05965635871197977
0.057627747949923036 0.005277025843340541 0.05841892831377815
0.0572130961200808 0.005282225452982673 0.05714820657537273
0.05710522361185011 0.0052911331985561446 0.055689282019366904
0.05699698666477926 0.005300071038250684 0.054225428600942926
0.05687101128052208 0.0053088294699255665 0.05276722983111154
0.05673926654609429 0.00531755217675159 0.05130749090535175
0.05681486467375002 0.0053288208988241355 0.0497146075253494
0.057122109101979957 0.005342945557063296 0.04797125687282894
0.05742693623740436 0.0053570960282340995 0.0462211702553611
0.05770764551295193 0.005371008007393455 0.04447795975020019
0.05831891196822647 0.00538901086224995 0.042517721790604424
0.05926818619107177 0.005411219875954921 0.04033211816277393
0.06020189049821101 0.005433325523859114 0.03814339666123112
0.061798671687188556 0.005463662902506283 0.03551549470432003
0.06408528107534012 0.005502610083952025 0.032423828405730715
0.07010632784169957 0.005587762906101168 0.026881902824897774
0.06151015602909632 0.005525557650497469 0.02592770710167419
0.05848922804571832 0.0054989914476837555 0.026295153991233444
0.05578577268070661 0.005476280715961028 0.026465137408536787
0.053154918420506125 0.005454386584676489 0.026599684601401552
0.05060432675548343 0.005433409986346885 0.02669285195957688
0.04805859216324809 0.005412409725078566 0.026795341798742767
0.04555229306921904 0.005391820682452062 0.026883413743451323
0.04290004667673508 0.005369308364490074 0.027084792642688427
0.04034109717597939 0.005347883167720502 0.027234997461833887
0.03784995108006062 0.005327229039668948 0.027350848519215598
0.035438964823166 0.005307507416574328 0.027422961221278297
0.032924942937021584 0.005286395726438398 0.02757988663198907
0.030584118130128957 0.0052674033429646085 0.027626702934551217
0.02823782100644512 0.005248263228778899 0.027689061088487676
0.0259770462933252 0.005230138081570043 0.027701756091259744
0.023713637632947204 0.005211904537619271 0.027727501074529204
0.021453935174393923 0.005193643336095401 0.0277617935808242
0.019374462169931383 0.005177625624653261 0.027675811107972348
0.017203753609111805 0.0051603651794869905 0.027666699968631414
0.015107225080842834 0.0051439914953539875 0.027613555849557547
0.013043714405911289 0.005127977168882218 0.027546090995400674
0.011140592554076068 0.0051139769938540365 0.027368957625447388
0.009123097073960418 0.00509843130289545 0.027286341073823384
0.0070282084563872416 0.005081812192805527 0.027271805561643214
0.005374703951732007 0.0050708860307917885 0.026933052314524586
0.00331889232211674 0.005054650385218728 0.02690781671600284
0.0012750950740411104 0.005038503846210172 0.026883591280309427
-0.0009961229903193702 0.005019301126691286 0.027044775240266494
-0.0038651870787023146 0.004992145649143945 0.027681214331156778
-0.006624238495130608 0.004966326562219799 0.028249172173339387
-0.009935013569581208 0.004933102652097286 0.029265517859355883
-0.012904977117308647 0.004904253189905745 0.03003470538100067
-0.015716411141998066 0.004877385690165592 0.030696815968531965
-0.018083931945383214 0.0048563105286125 0.03102287903414208
-0.020239363516018294 0.0048379734027613475 0.031192775995399435
-0.022355701332792022 0.004820079978131625 0.03134299653099809
-0.02457660796657496 0.004800709027937834 0.03158926447772076
-0.026613964804430734 0.004783718124966242 0.031698819737235984
-0.028707499978250672 0.004765898112483217 0.03186525133710888
-0.030796979237555144 0.004748055570228683 0.032039881396863756
-0.032816841367015404 0.004731076046310088 0.03216858658092858
-0.03482136925306989 0.0047142302471166984 0.032295594686020945
-0.03682377000056508 0.004697339848815584 0.032431798669235457
-0.038854274147089585 0.004679993484384445 0.03260260862969788
-0.04078948515007208 0.004663869778194584 0.03270438116322161
-0.04245870926929923 0.004651308061319053 0.03259116326854067
-0.0426599234165444 0.004658784797330878 0.031234719011943024
-0.022245463007887434 0.004949098186323499 0.012205571914404911
-0.022239764065845047 0.004960110548019834 0.010567673221969331
-0.022659436089346174 0.004965310641265325 0.00929089642424491
-0.024424214772309383 0.004951958938990569 0.009181784946703575
-0.026903100251629397 0.004928664657381684 0.009706553181957456
-0.028560812767091215 0.004916656841299621 0.009524329489323413
-0.03057249228399056 0.004899674607576213 0.009663191038548458
-0.03271517581214378 0.004880791063263518 0.009929887833977136
-0.03468635212085358 0.004864217723934601 0.010055951060979895
-0.0367085493757493 0.004846855769251246 0.01023898918466204
-0.03862023493801714 0.004830965702978389 0.010333904246016101
-0.04054396066974014 0.004814834568455164 0.010450473809551775
-0.04255678348029818 0.004797374947155652 0.010659270417921862
-0.044328099583737735 0.0047832467843520405 0.010658331918134312
-0.04546353582043816 0.004778055062627895 0.010080552706722368
-0.08275251348853563 0.00429913385350764 0.037167913362755156
-0.08452717665100534 0.004283580600500901 0.03737582246583171
-0.08614113522463701 0.004270266983734864 0.03744076333220353
-0.08765803657577209 0.004258290959865982 0.03742160368852465
-0.08912075005887732 0.004247042360807766 0.03735838211391318
-0.09061969622553567 0.004235216596602017 0.0373381794226999
-0.09221643747634961 0.004221915865267257 0.03742171466158156
-0.09383034195053663 0.004208303169475873 0.03753138729627026
-0.09538968756467503 0.004195422457444649 0.03759675925435774
-0.09698264493816511 0.004181989805851198 0.03770450616356258
-0.09853693400878094 0.004169060561486706 0.03778315255358394
-0.09997326634964115 0.004157802984129362 0.03775271170208083
-0.10086360633430341 0.004154531378848513 0.03718025842842809
-0.10093709468553225 0.0041633001850036825 0.03578306184124064
-0.1010102206709228 0.004172116045386063 0.03437926958073012
-0.10110254158652088 0.004180689274145686 0.03298883860000873
-0.10122699094487625 0.004188825878640048 0.03162532803921836
-0.10134651407539907 0.004197074851098816 0.030250906231359842
-0.10146041118424082 0.004205447452857109 0.02886472528373235
-0.10159919165568215 0.004213487787348221 0.027498513442971217
-0.10171879806432127 0.004221854672646697 0.0261063821675398
-0.10187494853065304 0.004229712227458623 0.024746767623347488
-0.10201396558487053 0.004237866255011293 0.02336329383529384
-0.10212553870063867 0.004246474786097146 0.021944646593600736
-0.10226217516313718 0.004254745425676809 0.02054659393919195
-0.10238223069641927 0.004263308333126031 0.0191246516127887
-0.10250277044087985 0.004271905776717843 0.017696974271285082
-0.102737757330567 0.0042787982623636546 0.016387538715191385
-0.10289656570994432 0.0042868904426931545 0.014989715396167391
-0.10305666395685797 0.0042950027339188545 0.013587351321211305
0.14617037312624348 0.004518261788066209 0.05232758469278115
0.14282587586994966 0.004497934804014946 0.05238953418409359
0.13953097350889532 0.004477958172935112 0.052440821856543696
0.13632526797536315 0.0044586738165799545 0.052460555673261466
0.13312957236853795 0.00443940447834233 0.05248922825799085
0.1300600077945322 0.004421150839162606 0.05246595911705498
0.1269607615952676 0.004402573438021338 0.05247178836658223
0.0860809448332065 0.00405717124638433 0.07253397078022664
0.0809690715929951 0.004020410028845306 0.07376223590887215
0.07833591414860469 0.004005029682220133 0.07368689018743449
0.07562510057044447 0.003988916628268749 0.07366490343437215
0.07369740560949012 0.00397956701198326 0.07322937989817052
0.07201717756413151 0.0039723427238319 0.07266555374197387
0.07030326910114032 0.003964796790001219 0.0721256389805463
0.0687076941636906 0.003958259412973855 0.0715259120427425
0.06756023218957913 0.003955631394327256 0.0706817444779882
0.06640887116885397 0.003952959176505201 0.06984173170888741
0.06523744924075187 0.003950100089539307 0.0690150230274626
0.06406637421672345 0.003947233248402798 0.06819027187858845
0.0632125670780036 0.00394716192795615 0.06718694645279388
0.0624446443282623 0.003947851468041342 0.06613446188871092
0.06166439679444857 0.003948434198311942 0.06508855853945544
0.06087188248686076 0.003948910024062883 0.06404932439787353
0.06007917714450656 0.003949385964511437 0.06300983974990026
0.05959172231263837 0.003952589645852941 0.0617909562457401
0.0591488481313292 0.003956204483620807 0.06054332722700784
0.058695821898281764 0.0039597422005303385 0.05929895674448754
0.058229976733771505 0.003963178398325348 0.05805952502387801
0.057763322361827574 0.003966620565049656 0.056817940318868054
0.05761350047794356 0.003972932708928857 0.05538243573888951
0.057505997903107064 0.003979651593411596 0.05391637001707755
0.057390094425433136 0.0039863204991931675 0.052450244880131836
0.05725904786475439 0.003992877990598697 0.05098825915881028
0.05722966376741795 0.004000384780046443 0.049458393817294055
0.05753829923151954 0.004010998290583734 0.047712714927054145
0.057848576747485225 0.004021668268821867 0.04595774839599592
0.05813743701572921 0.004032184285296075 0.044207916596073815
0.05860488893176452 0.004044377095253981 0.04233701771950099
0.05955596012053471 0.004061055493313108 0.04014924684395721
0.060508008518930956 0.004077808586231007 0.03794776637759295
0.06182787713387039 0.004098016221205666 0.03549672489315664
0.06412892579956758 0.0041273604189320506 0.03239562038978233
0.06909155276519624 0.004181436891608321 0.02754145816086606
0.06613296397587898 0.0041789172615977 0.024517290143490134
0.06151999464790775 0.00414425995873277 0.02592116769397934
0.05869075733703044 0.0041261261097442605 0.02616045527625649
0.05598936921216496 0.004109116185535199 0.02632829747518628
0.05338373781958605 0.004092935975095048 0.02644503500929485
0.050762116646739075 0.004076540339194888 0.026585614905497434
0.048150730047616275 0.0040601749176428234 0.026732375228195104
0.04572292933660671 0.004045475570527602 0.026766154889685645
0.04323399265777511 0.004030138643433685 0.026854038526214874
0.040560152325063215 0.004012987687880465 0.027082794845876834
0.038155506994918265 0.003998322481779807 0.027137371423689438
0.03571110262877941 0.003983219285371472 0.027231783193566228
0.03339603740790548 0.003969287254241435 0.02724711811939251
0.031034634657498783 0.0039548556066617835 0.027306720070362833
0.02886989359748421 0.003942247030740002 0.027237661223546594
0.02669065925190406 0.003929447633943798 0.027189328615751795
0.024487780520398128 0.003916368290974487 0.02716856414630986
0.022252448340921605 0.0039029224348597533 0.02718210789365244
0.02014008622043817 0.003890607664186978 0.027116965619327138
0.018150220176289644 0.0038794264261513525 0.02697208513641819
0.016156443709630708 0.0038681608644516845 0.026839335986916957
0.014267738431505306 0.003857868714464619 0.026637967758780245
0.012303182399774903 0.003846795566293677 0.026501726352753496
0.01043738094356711 0.003836639107783524 0.026300633233835413
0.00831521151223602 0.0038239350335699702 0.02630132610109942
0.006535546003171522 0.0038145314342270453 0.02605296697201337
0.004707205674704895 0.003804610669869217 0.025849583886659755
0.0031443733702046783 0.003797258898929658 0.0254510504997828
0.0009990662225916047 0.00378413639092835 0.02550749273392644
-0.001476156289533459 0.00376770049718852 0.025830560397408886
-0.004533346389377635 0.0037454358928103184 0.026620752636205447
-0.007078309624384271 0.0037281563185273536 0.02702871087553338
-0.011795524747799546 0.003689215524392668 0.029161336024022433
-0.015241180540356503 0.003662772141880637 0.030320703998405585
-0.017824142280815358 0.0036448257032329115 0.030816171841626383
-0.02016603585411414 0.0036292134603743646 0.031134118968063784
-0.02234973282890529 0.0036151198075593844 0.03133819661370957
-0.024475161775835363 0.0036015507825456934 0.03150724487117684
-0.026546637468341794 0.003588466345279706 0.03164409487533343
-0.02865628233805889 0.003574940281894968 0.03182339879996715
-0.030704131903197762 0.0035619803759532826 0.031963607073959954
-0.03272201102936295 0.0035492678627944527 0.032090268747801576
-0.034740573822181486 0.0035364930917160466 0.03222851324289594
-0.0367679300060354 0.003523573128827093 0.0323851906107383
-0.038782370989054404 0.003510728417296304 0.03254227471349125
-0.04074929509419367 0.0034983131093443594 0.032670478957386784
-0.04260638850279663 0.0034869683290002147 0.032716397339195846
-0.04447391938159945 0.0034754664923723976 0.032781151860398816
-0.04538420511475205 0.003473762488259516 0.032035638467109606
-0.02212914228773838 0.0037212235490385872 0.010472368862471437
-0.022601067590724666 0.003724586160039157 0.009240344647549581
-0.024436407429270723 0.0037138429259258535 0.009192400438618853
-0.02669810130535344 0.0036986263717605746 0.009527131304746361
-0.028407176146491464 0.0036890909260117472 0.009389153773726677
-0.030592253653300483 0.0036745499171919258 0.00968066934416767
-0.03259871565331063 0.003661810267774683 0.009826341132733118
-0.03458840275018532 0.0036491891284524736 0.009968405243843348
-0.03665571633058223 0.00363569639821069 0.010191519914599712
-0.03861452271669891 0.0036232843717161644 0.01032874503337744
-0.04053075056880362 0.003611265215002271 0.010438480076055912
-0.04231829470035797 0.0036005515545314316 0.010441607491413152
-0.07023505127903573 0.0033130296521212553 0.034426708040075804
-0.0726059352406655 0.0032953961118978663 0.03511261203373589
-0.07434031645787392 0.003284454722162499 0.03522444486666537
-0.07623255210921837 0.0032717798802214355 0.035493341023833336
-0.07793955379092177 0.003261026946031366 0.03560027586554593
-0.0794938667279611 0.003251860480574257 0.03557326036024483
-0.08262171525985984 0.0032257549251604005 0.03704410385366719
-0.08443935531478364 0.003213630666507059 0.03729226047546247
-0.08613388093084051 0.003202778495830175 0.03743382493500175
-0.0878162816039122 0.0031920071457078574 0.037573745328148445
-0.08946816669135499 0.003181516495561642 0.0376941362525286
-0.09106614278026609 0.0031715626315867583 0.0377718817720018
-0.0925441452800504 0.0031628686546174723 0.037741721621958046
-0.09400224310974908 0.0031543512554450307 0.037700120530911874
-0.09545112851181109 0.00314589470754256 0.037657380909285054
-0.09701070556154612 0.003136184662940457 0.037732336225031915
-0.0985613632618807 0.0031265269176781944 0.03780750670153704
-0.10001097166706985 0.00311793683835816 0.037790495901026344
-0.10089848115540939 0.0031155134088943874 0.03721538724105794
-0.10104994437999387 0.0031212259755212714 0.035897321983863695
-0.10106945348729218 0.0031284298115141686 0.03443955311521135
-0.10114839361195044 0.0031350069883571323 0.03303574540891979
-0.10126278357546303 0.003141220371623197 0.03166213340522295
-0.10137695155296916 0.0031474659908528376 0.030282366721857468
-0.10150918538777592 0.0031535392157800513 0.028915399320830093
-0.1015564398106748 0.003160595903510705 0.027453866895687795
-0.10152975453302548 0.003168518905152146 0.025907940998999845
-0.10132612275233194 0.0031784767661202575 0.0241676848249045
-0.10180734426280286 0.003180736722781282 0.023144156282876693
-0.10200536192097914 0.0031862186750907587 0.02181653245206
-0.1021596086150664 0.0031922248188743173 0.02043668919342162
-0.10231512286843991 0.003198245845164751 0.019052371723790873
-0.10247053902608982 0.003204297460936704 0.017662079796117447
-0.10260387914794261 0.00321063152630926 0.01624185212921464
-0.10272054855047225 0.0032171880850830436 0.014797186153989006
-0.10279841015936142 0.0032242234894604943 0.013303415717665856
0.13962739417694559 0.002985856292345824 0.05239119508571077
0.13625814411751003 0.0029720650323225993 0.052495314362779544
0.1329897552997087 0.0029588012775731173 0.05256207010823394
0.12995965001308374 0.002946857381036736 0.05251856082852918
0.12682547341071504 0.002934270349471671 0.052543127949505886
0.12378574155576394 0.0029221812223168527 0.05253152640615166
0.08283237695600831 0.0026910368470817376 0.07276779212566747
0.07965635122589604 0.0026776615589805064 0.0729779367998582
0.07697459946006302 0.0026671022661816967 0.07293599937136983
0.07468963458215566 0.002658808446673297 0.0726902396206377
0.07301088303304232 0.0026540116282475702 0.07212238618762887
0.07130649720842763 0.00264904736649496 0.07157399816240947
0.0695920406948487 0.002644005635043513 0.07103674847581448
0.06837077004051262 0.002641831365771536 0.07023074683151531
0.06722359228237323 0.0026400833562321563 0.06938572232260765
0.06605488128554865 0.0026382022441148747 0.06855479310091472
0.0648824292443822 0.002636291995947179 0.06772810838410426
0.0639016542551431 0.002635504824283812 0.06679439369630902
0.06313266601631445 0.002635965938635022 0.06574021489228671
0.06236206486394985 0.0026364192599736026 0.06468644165757115
0.06156839123982494 0.0026367374733447186 0.06364552833140363
0.06077586531308732 0.0026370637217791077 0.0626035827126789
0.060186474050755445 0.002638600561487727 0.06144212120315129
0.0597435488843156 0.0026410169371209754 0.0601924947220549
0.05929847364713381 0.0026434297457886002 0.05894137133548527
0.05883385388200868 0.0026457348127988515 0.05769913800885518
0.0583670855212341 0.0026480358786995775 0.05645553921302543
0.05812295265847078 0.002651684077336763 0.05507487992216048
0.05801484751805547 0.002656165632039358 0.0536074095667875
0.057907718914717465 0.0026606704621051644 0.052134150676399205
0.05778005936087155 0.0026650686700142433 0.05066827187973216
0.05764793838047516 0.0026694569777108612 0.049200033345362604
0.05795527718522159 0.002676529723975452 0.047453683576131556
0.05826695944109361 0.00268365653222315 0.045696361872544056
0.05856942737227189 0.0026907551083305728 0.04393649187576376
0.058891236746087594 0.0026979996266900505 0.042156079313974915
0.059844108771011206 0.0027091330120430595 0.03996613740167304
0.06080625921263427 0.002720367131673839 0.03775716385224254
0.06185708641587295 0.0027321902005753916 0.035477952617102126
0.06415849642198823 0.0027517555773671097 0.03237650860471297
0.06797938874599585 0.002780767259002503 0.028264311658473762
0.06189559306558101 0.002765174325200643 0.025671519727146708
0.05897738447526907 0.0027525356994184368 0.0259688786228236
0.0562110638804173 0.0027407941542195334 0.02617929354368248
0.05359642804865555 0.002729953826977155 0.026301286457804274
0.050920021414330774 0.0027186828454625086 0.02647829977924393
0.0484153445235031 0.0027084444541591647 0.02655153901540258
0.04593873391721898 0.0026983412134529037 0.026617857003501277
0.043576338917296564 0.0026889169572596352 0.0266174798816165
0.04111983536018066 0.002678860055381983 0.026693919156773105
0.03877310591507349 0.002669456979369071 0.026705885017228426
0.036248786744938644 0.002658889352909245 0.026854057692959177
0.033987040551581194 0.0026499471198619126 0.02682964933294746
0.031758007540885036 0.002641176592019365 0.026792938859153015
0.029589672774765652 0.002632757390342925 0.026723624975149685
0.02749923076924632 0.0026248016193876956 0.02660871379308316
0.025384692154164445 0.0026166586971966823 0.026520987269239737
0.023421552564076964 0.002609454184006794 0.02633338928338541
0.021245262581251034 0.002600848577782597 0.026310273584262633
0.019212153536113385 0.0025931303714475462 0.026192728856824443
0.017252660749144777 0.0025858556907146697 0.026030435932657137
0.015505234585640848 0.002579923581899332 0.025719849331935274
0.013577716839925313 0.002572798458147954 0.025550990262366013
0.011898527173896778 0.002567257865803684 0.025204779188973847
0.01003181612207732 0.002560472502418123 0.02500690064643174
0.007979546185129083 0.002552447344363431 0.02495820701466306
0.006353944955856561 0.0025471795771376767 0.024594367572968845
0.0048648007899014245 0.0025427841537458387 0.02413258312993749
0.003280912316495077 0.0025377477645078792 0.023749342649904914
0.0016341614326862985 0.002532276226377938 0.023421164187896526
-0.0008740780615092425 0.0025210980947671965 0.023770857120161915
-0.0042339779430805025 0.0025042419699031673 0.024801591408097845
-0.006585838918810316 0.002493992590596039 0.025060231652560216
-0.014247759208535327 0.0024484438233847686 0.029534480104182137
-0.01751923017874102 0.002431912566886688 0.030573562018450073
-0.01998912392890617 0.002420655264887269 0.03099260173754742
-0.022227334951497257 0.0024108977568292915 0.031239763287870814
-0.024344083174924036 0.002401911631467801 0.031401267355464335
-0.026489047539614785 0.002392697383393037 0.031597284752140686
-0.028564440066205676 0.002383911207865989 0.031748349811385745
-0.030605487834887035 0.002375318453298499 0.03188257071927131
-0.032640415853884164 0.002366729727469968 0.03202288148023186
-0.034665381612160984 0.002358171068217308 0.03216608394578757
-0.036704622898723116 0.0023494782388746296 0.03233234996514461
-0.038710437780896445 0.002340974685180204 0.032481915582236454
-0.04071000932756208 0.002332476428304535 0.0326373395621406
-0.04273493722804189 0.0023237677138716628 0.03282540846932397
-0.0445663547301543 0.0023163450468615724 0.032859953060686675
-0.045977323878633125 0.0023117734879413154 0.03254394546612882
-0.04826132623471113 0.002301180410161809 0.03298611883082875
-0.022583655781268197 0.0024831773955915674 0.009225264631371521
-0.024502436581587184 0.0024754393783860584 0.009249888477100732
-0.02649185957232847 0.002467178100365778 0.009346621699351687
-0.028412166440298314 0.002459359341036103 0.00939354443614654
-0.057163006752654344 0.0022650097118083272 0.03318165937776846
-0.03251940015056515 0.0024417593924478285 0.009755820374826807
-0.0608619052903519 0.002249349057726404 0.03345130496260301
-0.06350860332308994 0.0022358869246436454 0.03431821828245957
-0.06506436981092145 0.002230015411478425 0.034217942915919064
-0.06738486182998132 0.0022187418053715813 0.0348199026921292
-0.06921347030140507 0.002210882621440499 0.03498818210074012
-0.07100950382660265 0.0022032177870119087 0.03513723082390868
-0.0727751977162725 0.002195732808181422 0.03526871423625799
-0.07451966412765909 0.0021883642779290465 0.03539071250257736
-0.07624174133138734 0.002181121254078853 0.03550190455540586
-0.07795245671617518 0.00217392601782241 0.03561236299185272
-0.07962333401292776 0.002166982285849022 0.03569517454477378
-0.08060027859157953 0.0021649743184056205 0.035130675177407145
-0.08142760010122257 0.002164030679649189 0.034426575768561785
-0.08560918244404597 0.002138959233082426 0.036931975049309174
-0.08767314910684404 0.0021290365405993036 0.0374361333409452
-0.0893662383925033 0.0021217474578091072 0.037595629603789815
-0.09102163014790532 0.00211469745265758 0.03772863979146923
-0.09266325604787712 0.0021077144785205154 0.037858033392168866
-0.09428921690416353 0.0021008128240821624 0.03798180575520438
-0.09579099509068273 0.0020947844829212006 0.037992715493565754
-0.09721380970706334 0.0020893050515993113 0.03793377155231148
-0.09869022595731591 0.0020834070531971912 0.037935973222287644
-0.0999941401774122 0.002078748180662887 0.03777362919900279
-0.10054867226729775 0.0020795842496332613 0.036863030712851685
-0.10066669446540277 0.0020836455137234577 0.0355092820329328
-0.10083035051606004 0.0020873885319688565 0.03419620874811369
-0.10089197032047248 0.0020919059559592504 0.03277342333653538
-0.10097145125322693 0.0020963122107892497 0.031362557973826144
-0.10104652247751694 0.00210077241985182 0.029940831824148695
-0.100981935973944 0.002106297013534533 0.028367612695528233
-0.10034108565918987 0.0021161621248375548 0.026184649939529625
-0.0999944522036671 0.002123866989894449 0.024296316490022285
-0.10032731412963525 0.0021264977849076027 0.02311381141883101
-0.10090365519736977 0.0021273053850239822 0.022185725623526442
-0.10092394437700264 0.0021323199852565718 0.020663690108587374
-0.10100434310627787 0.002136903547636241 0.019198769380102065
-0.10106850436962816 0.002141632823616588 0.01770967520939315
-0.1011765652811667 0.002146050982293496 0.016261193890116876
-0.1012691248174507 0.0021506091394160156 0.014789369000783092
-0.10133706753632254 0.0021553780767254865 0.013283921469901372
0.1363146683177775 0.0014861942723252578 0.05246604448482273
0.13295655987657884 0.0014793054678745754 0.05257936424878934
0.12980745798336302 0.001472991552060599 0.0525983310378792
0.12677240524944444 0.0014669824660598402 0.052571111623794076
0.12355873532825146 0.0014604361686603908 0.052651953509148586
0.08526092796251267 0.0013525327583795257 0.07147167743692523
0.08098436835192413 0.0013426735989304727 0.0722649136225719
0.07833206316898922 0.0013374864804557584 0.07220279327507276
0.07568618420065798 0.0013322986584739496 0.07214875166503892
0.07400198240525846 0.0013298898035175538 0.07158064314709839
0.07231279209638614 0.001327457377209692 0.0710206710264889
0.07059400161252638 0.0013249293606608912 0.07048252820226192
0.06918422924598955 0.0013232961164505934 0.06977812369152336
0.06803308108174966 0.0013224149571705523 0.06893264152664119
0.06687666085775984 0.0013215149845216708 0.0680921154330098
0.06570146875239313 0.0013205563628895082 0.06726425466307645
0.06459287293592925 0.0013197904663577308 0.06640062668470564
0.06382281628514508 0.0013200217373132315 0.06534474818637787
0.06305248970828409 0.0013202530893356695 0.06428849957348293
0.062268434960010666 0.0013204446144211446 0.06323968289246984
0.061473404203446214 0.0013206042611178925 0.062196829597406134
0.06078282630595527 0.001321075443799429 0.061092347421910775
0.060339851484753515 0.001322286886611114 0.05984071723737705
0.059894721797184414 0.0013234965441139832 0.05858758552301757
0.05943938617153266 0.0013246803019973362 0.05733776322433398
0.058972504950725424 0.0013258339919305167 0.056092143952271356
0.05863224244712928 0.0013273726862989953 0.05476742214125446
0.058526217757584265 0.0013296226911897915 0.05329691865782665
0.058419833016732536 0.0013318803369157498 0.05182142146314167
0.058302305406848 0.001334113071828228 0.05034752638273887
0.058170888588329805 0.0013363124321496998 0.048877016699646336
0.058373045202164575 0.001339532691440354 0.04719416142912053
0.05868613697235148 0.0013431028594791733 0.04543447877059337
0.059000902128109545 0.0013466921090408987 0.04366539111355833
0.05928591356745733 0.0013502046170266184 0.04190668961660449
0.06013263287488002 0.0013554489959802904 0.03978278937051766
0.061095226450890716 0.0013610691522917934 0.03757249408778596
0.06204077548584608 0.00136665915605618 0.03535989898163672
0.06418807095575751 0.0013759687830907949 0.032357394291700425
0.06687125478610517 0.0013869673859871262 0.028984545809998263
0.06309130974930899 0.0013863028657985534 0.024876766008934237
0.05934107293283819 0.0013774002777195427 0.025725795507870075
0.056605434383110775 0.0013716275034124275 0.02591423189004105
0.05394317530348319 0.0013660609304010861 0.026066934293001665
0.051283503781670736 0.0013604800457838319 0.026231270150329333
0.04886245120313876 0.001355625632472877 0.026245988540929854
0.04636037740142257 0.0013504967623861048 0.02632810950484582
0.04396525975247495 0.0013456841928399042 0.02634873856177722
0.04170577164395767 0.0013412803998595678 0.02628680233916786
0.039415782114733955 0.0013367621732812381 0.026256878332048594
0.037118108436088704 0.0013322011634970086 0.026243355310073546
0.034824633033743 0.0013276348626900542 0.026237996444455458
0.03269286010139483 0.001323564704408825 0.026128952564017205
0.03058036368914574 0.001319539351563991 0.02601611487063088
0.028644295354892546 0.0013160614800203521 0.025786471780991915
0.026568282019318545 0.001312120972381411 0.025666426574793344
0.024570566052665554 0.0013084155456905612 0.025499255669034993
0.022605905018293182 0.0013048011249082742 0.025317111356538746
0.0206388446041596 0.001301163992032176 0.025145675731846118
0.018741185146839867 0.0012977359278524333 0.02493205174169777
0.016943549296864813 0.001294617357346444 0.024652740367140602
0.014993346739626268 0.001290990922232061 0.0244950043322264
0.013536623441702866 0.0012889533119953979 0.023976213297562
0.01178911028020857 0.0012859600232214953 0.02368179276976451
0.010292236296148005 0.0012837722566878195 0.023204855069879182
0.008391710734719449 0.0012802550082922812 0.023041093852965655
0.007017895187226508 0.0012784493564885304 0.02248253694108382
0.005655899387319696 0.0012766749038377865 0.021919427946509085
0.004324805836252832 0.0012749946604924873 0.02133686637459392
0.003438716580192791 0.0012747751775032516 0.0204119850698678
0.0022876624517841893 0.0012736788949151284 0.019695129184128468
0.0011397053348069508 0.0012725882029207942 0.018978624363665042
-0.01158758327033288 0.0012330529074041057 0.027429135857527986
-0.016633120980591276 0.0012189041938036698 0.029868510318581343
-0.019727460883045833 0.0012111999992309714 0.030783289507548717
-0.02201318780688022 0.001206164363713214 0.03106754448710458
-0.024285904832003102 0.0012011506132760788 0.031354229957993196
-0.026422649620287342 0.001196571490219321 0.03154331533679039
-0.02847061513976079 0.0011922711144212086 0.031671680694961124
-0.030546083215260977 0.0011878594227193473 0.031833769672147016
-0.032616689194576776 0.0011834449971628923 0.03200328626850646
-0.0346456382768055 0.0011791523594975029 0.03214969178829574
-0.03666271575926722 0.001174881272064455 0.032297371265313846
-0.03863939730024657 0.0011707288445890508 0.03242230553833947
-0.040652434822857186 0.0011664343672127243 0.032588772754588824
-0.04266433797668595 0.0011621249124641158 0.03276553930950282
-0.044578914861576 0.0011581295435310669 0.03287066058164351
-0.0465505903803356 0.001153920741340787 0.03303523893526794
-0.04854495489304006 0.0011496153589645804 0.03323047440059035
-0.050339604679654315 0.0011459788603062125 0.033264130865990005
-0.05185451230209531 0.0011432919774594604 0.03306387254952431
-0.05410081093000452 0.0011380625425889412 0.03351089166469434
-0.05543988159227914 0.0011359557852857684 0.033173621883514026
-0.05797522030394425 0.0011296820546560875 0.03390003655370494
-0.05996351052028265 0.001125285722837947 0.034156844088285676
-0.061918261368911265 0.0011209867475797262 0.0343954616779929
-0.06359850890149799 0.0011176288924609654 0.03439899636685856
-0.06553916138492782 0.0011133427169204653 0.034646769208335704
-0.06733436290186562 0.0011095483913138192 0.03477405363400643
-0.06912610856173773 0.0011057490563660378 0.03490844915931768
-0.07093238860867157 0.0011018811606469455 0.03506648133836254
-0.07269955942969175 0.0010981340641422783 0.035198956878119914
-0.07443078939938563 0.0010944973556094566 0.035308319511466624
-0.0761774052135103 0.0010907893327171787 0.03544194905900333
-0.07790539371970406 0.001087130694282181 0.03556827559526998
-0.07960076046227121 0.001083571757071153 0.03567391793140673
-0.080682676721192 0.0010821922238646391 0.035208670667715936
-0.08154257925028158 0.001081602835107104 0.03453597841442996
-0.08323747918998375 0.0010780081205925677 0.034663550350356676
-0.08504791938263018 0.0010739803112897015 0.034912156699623276
-0.08823818194003308 0.0010649489922549033 0.036505441089188406
-0.09078329221111253 0.0010582117599101392 0.03749710541849771
-0.09248595568895196 0.001054500750536486 0.03768489943474529
-0.09415379185057982 0.0010508990863929255 0.03784887641693013
-0.0957524300051607 0.0010475328695261194 0.037954664659134774
-0.09734154217256685 0.0010441856534529961 0.03806045449582007
-0.09875393592110138 0.0010414701132100495 0.03799948731654912
-0.09978998323194849 0.0010401238231508936 0.037569045146419344
-0.09970990917372385 0.001042879632548062 0.0360181589509172
-0.09972026444073168 0.0010453148519404601 0.03455102308400465
-0.09973066818197357 0.0010477614708719746 0.03307701938707097
-0.0997411207386183 0.001050219569574201 0.03159609952334064
-0.09975708242503994 0.0010526689387114507 0.03011382915861366
-0.09977585487147328 0.001055119567259608 0.028627456691351805
-0.09981390978418403 0.0010575099583466753 0.02715409000974156
-0.09969267585198582 0.0010605080731276996 0.025507503512015417
-0.09975347776350724 0.0010628376423825814 0.024043362849314187
-0.09998705542361902 0.0010645286455945903 0.022754794092281205
-0.10014267979082359 0.0010665217470306404 0.021378653602248943
-0.10025117083665136 0.0010687026676372909 0.019946481636055113
-0.10034555652631516 0.001070947649967252 0.018492849438858316
-0.10045005690156866 0.0010731651792279479 0.017043563435427678
-0.10055568618622895 0.0010753892639675578 0.015589015820939522
-0.10069100123843777 0.0010775109658020727 0.014160253420873126
-0.10089377876641742 0.0010793850008434455 0.012799047999655477
0.1330876192927476 0.0 0.05251108495753082
0.1297884403289793 0.0 0.05260829898609776
0.1266012929038579 0.0 0.052661341849054355
0.12349947614775769 0.0 0.052683390582532186
0.08757141741808355 0.0 0.07023857205287976
0.0823200309851641 0.0 0.07154778551038876
0.07966915045419115 0.0 0.07148059308486149
0.07696823007625309 0.0 0.07145213567395248
0.07499600191104983 0.0 0.07103730393762042
0.07331243817933553 0.0 0.07047099984100291
0.07159902679869612 0.0 0.06992661297265673
0.07000062562831305 0.0 0.06932386625420217
0.06884685600657597 0.0 0.06847716173376223
0.06769599043586816 0.0 0.0676308171587966
0.06652214791354999 0.0 0.066799472343116
0.06534591890219904 0.0 0.06597163848172366
0.06451510502806107 0.0 0.06494805610196752
0.06374370631014642 0.0 0.0638901011419104
0.06296933669370153 0.0 0.06283334002622182
0.06217313925678292 0.0 0.06178879584223612
0.061380785547596906 0.0 0.060741631107596505
0.06093641698534408 0.0 0.05948878465970725
0.060492579601682306 0.0 0.05823284461675815
0.060046580416444006 0.0 0.05697539660373674
0.05957958747498837 0.0 0.05572775044017492
0.05914405440774606 0.0 0.05445844172743758
0.059038775212873096 0.0 0.05298570690187082
0.058931789262756606 0.0 0.05150878864672165
0.05882579039583913 0.0 0.050026019969706015
0.05869508145735325 0.0 0.048553232485170295
0.05879024968542579 0.0 0.04693498935551166
0.0591061116084447 0.0 0.04517209767370911
0.059422300234123704 0.0 0.0434006216312498
0.059721010079485604 0.0 0.041631759391198564
0.060421533166437336 0.0 0.03959920228386876
0.06138595554129056 0.0 0.03738669837970243
0.06235004942529032 0.0 0.03516113422709022
0.06421764940164609 0.0 0.03233827745024659
0.06655014367220213 0.0 0.02919325269836931
0.060033872358973006 0.0 0.02526274027738934
0.05709040350788713 0.0 0.025588277698994077
0.05445748272060735 0.0 0.025719335127041387
0.05183190417366823 0.0 0.025858566664536675
0.04960745076931078 0.0 0.025736859553835978
0.047143539468643414 0.0 0.02578993149778447
0.04461723796651473 0.0 0.02589822660690294
0.04265843175476197 0.0 0.02562488061950574
0.04030558671120116 0.0 0.025635215023949443
0.03812615724445195 0.0 0.02553519650580166
0.03606882834380598 0.0 0.025359130212099845
0.03375594804704429 0.0 0.0253738860901655
0.031746596049228304 0.0 0.02518324039182185
0.029861865460677317 0.0 0.02491216538273966
0.02782309827430285 0.0 0.02476043989661042
0.025977896616091345 0.0 0.024477595139272057
0.024170962637249882 0.0 0.024174742083727996
0.022208914917730027 0.0 0.02399339612129886
0.020347851659181238 0.0 0.02374649032259557
0.018604882785494437 0.0 0.023420170161610576
0.016983739119545593 0.0 0.02301027562658381
0.015324074444148794 0.0 0.02263563193043877
0.013711152824457229 0.0 0.02223245447720351
0.012547094695312122 0.0 0.02149534788577795
0.011192939066929142 0.0 0.020905875763977233
0.009974419162938397 0.0 0.02021677417451001
0.009292157369018283 0.0 0.01911771082232272
0.008220371042138297 0.0 0.01831918108350089
0.008227515300475274 0.0 0.016682393583987765
0.010848706665035568 0.0 0.012991808205694344
-0.015092406348106713 0.0 0.028642607830587752
-0.01913127518366159 0.0 0.030306382431040668
-0.021803775274216286 0.0 0.03089913329812849
-0.024162583258723613 0.0 0.03125452402675005
-0.02633766327119097 0.0 0.031474236913551445
-0.02838642062233271 0.0 0.03160288107524806
-0.03048953441293978 0.0 0.031787314686250845
-0.03260055323068228 0.0 0.03198996000858878
-0.03461742962957404 0.0 0.03212627119700634
-0.03659005268679605 0.0 0.03223672146115747
