# .PCD v0.7 - Point Cloud Data file format
VERSION 0.7
FIELDS x y z
SIZE 4 4 4
TYPE F F F
COUNT 1 1 1
WIDTH 760
HEIGHT 1
VIEWPOINT 0 0 0 1 0 0 0
POINTS 760
DATA ascii
0.005642948591293264 0.05538747317913012 0.037635979779710005
0.005434362927891445 0.0681967018236187 0.04729212996824178
0.005418040799546449 0.06983880275421384 0.047285294179849946
0.00540182978114455 0.07147029882302058 0.047277821514927765
0.00538570220277929 0.07309282518360344 0.047271069245171715
0.00536967063705916 0.07470569212460482 0.04726435717373828
0.005353747349773996 0.07630823397722347 0.04725701310929509
0.005337905177388311 0.0779020451870801 0.04725038233680989
0.005322156483998517 0.07948645188683723 0.047243790690041976
0.005306500444659298 0.08106153707061181 0.04723723782370798
0.005290936244103563 0.08262738275883336 0.047230723396579355
0.005275463076601043 0.08418407001247519 0.0472242470714177
0.005265506606147959 0.08542498681140237 0.046934961949335274
0.005268821172800966 0.08591499863537855 0.045954960377519616
0.005272152638834754 0.08640491191861949 0.04497305711194871
0.00527599796536509 0.08686683764304232 0.04396311257395347
0.005280652968216186 0.08728440721569325 0.0429092903122722
0.005285303405202736 0.08770342878128334 0.041854283145120574
0.0052899748502507355 0.08812247492050895 0.04079673665744682
0.0052958739408353476 0.08847444296641505 0.0396724528507173
0.005301966350057182 0.0888172006130935 0.038536048036032944
0.005308072792968384 0.08916074779228533 0.03739702554539048
0.005315007876362012 0.08946009728012172 0.03621167065338421
0.005322700231802503 0.08971950132802031 0.03498344275067916
0.0053304278922671495 0.08997894229081765 0.03375095262435107
0.005338778136965647 0.09020622347715018 0.03248240325746221
0.005348306609786656 0.09037118121439258 0.0311473545294354
0.005357869155619326 0.09053672882665498 0.029807531780098873
0.005368257354165361 0.09065976923394609 0.02841971894579748
0.005379944311203273 0.09071491587251324 0.026957644338463038
0.005391668958120043 0.09077102445245439 0.025489920152681755
0.005405075890358652 0.09073917746895954 0.023926019493048234
0.005419369641605167 0.09066293656820401 0.022309069140738214
0.005434374504107532 0.0905521000467589 0.0206483853274268
0.0054518154657507804 0.09031432814391499 0.018847914423578083
0.005469450899081186 0.09007062442969771 0.01703127744246885
0.005491048933576111 0.08961972314629446 0.01498812113232284
0.005513430411631389 0.08913261433696179 0.01289451013800258
0.005540586428446139 0.08839737192641545 0.01052615593884687
0.005571959422757699 0.08744541419117435 0.007912232550583376
0.005610151258000154 0.08614068123959645 0.004904021697004934
0.0053040494642983965 -0.06073620729176449 0.058088290281258614
0.005246109682481171 -0.0550457323656775 0.05995984821195344
0.005221080119045554 -0.05211668763733407 0.0602072625833352
0.005197540027780593 -0.04931958360673394 0.06038946758568625
0.005184403274728759 -0.047393738341589164 0.06005627658413304
0.005171348061872175 -0.04547887149011076 0.059723991304505286
0.005158084388552866 -0.043550960865317734 0.05940729435275782
0.005148647561289701 -0.041943175904711305 0.058900575025895074
0.005141407255990129 -0.04051936890627561 0.05828506508736575
0.005134172202039377 -0.039098320591983315 0.057672058570576445
0.00512679203895254 -0.0376676903581879 0.05706930461579429
0.005119463055842923 -0.03624362343699894 0.056466728895335105
0.005116045997866628 -0.035141654025807934 0.05566377426354402
0.005112633498250521 -0.034041154643100646 0.05486189077404424
0.0051092255478793515 -0.03294212234930416 0.05406107628490853
0.0051056282242682065 -0.031828798140484504 0.053271511962978135
0.005101976383823661 -0.030712209146283476 0.05248619883949435
0.005100442638209 -0.029768214914623503 0.051590242037832135
0.0051001151054802215 -0.02892214067829707 0.05063083575440719
0.005099787614805952 -0.028076175074468912 0.049671552654760254
0.005099311372198853 -0.027218347656114916 0.04872034906390088
0.005098760838675515 -0.026354708532665805 0.04777331458641293
0.005098210423997541 -0.02549125584463785 0.04682648454696364
0.005100174284236158 -0.024829040519623313 0.04574397683535347
0.0051027802438840435 -0.024217437963948985 0.044625890521675815
0.00510532921089474 -0.02360045861105825 0.04350990814102429
0.005107716511897446 -0.022969809921013273 0.04240177983431215
0.005110120988716573 -0.022339756423150614 0.04129179565848634
0.005112512774340416 -0.02170792544185357 0.040181588560529446
0.005118382226307259 -0.02135007326138494 0.0388785126016149
0.0051243102459892055 -0.020994952316489846 0.03756994458024199
0.005129996004672795 -0.02061886455989642 0.036272570565809514
0.005135694394894303 -0.020241941282959752 0.034972314292330775
0.005141405458794082 -0.019864179698284634 0.03366916614424059
0.005150208422189239 -0.01972636897590152 0.03219020985052029
0.005160580227231546 -0.019708160272309427 0.030619485570142158
0.005170733800677067 -0.019669622596380276 0.029057126673659728
0.005180927407745724 -0.0196309329735867 0.027488607690916433
0.005192981459781576 -0.01973325804364806 0.025810288828120864
0.005211098188021262 -0.02030093877225503 0.023781107782454736
0.005228919318869075 -0.02083996625905976 0.02176192607500227
0.00524804446085545 -0.02147377296032238 0.019660945688844245
0.005286301842363189 -0.023572977439474174 0.016448987483566546
0.00423450261993166 0.06753252874249777 0.06495814943050815
0.004225543879272407 0.06887901873387076 0.06469143076675632
0.004226473756537 0.06948906637625968 0.06382551958964178
0.004253848822935917 0.06814189031930984 0.06134258709810808
0.004281591307908809 0.06677637437314787 0.058826637701203
0.004309687396824097 0.06539371381002579 0.05627831012134765
0.004338154656111692 0.06399278726565433 0.053696317225916834
0.004367000489835968 0.0625732303723181 0.05107998746302256
0.004396243559239282 0.06113385928888432 0.04842794464818756
0.0044258697032444295 0.059675900092773404 0.04574084253273364
0.004455897853397552 0.058198157405524975 0.043017278312255325
0.0044863362480080365 0.056700225804182935 0.04025650476907061
0.0045172050279040175 0.055180841328483166 0.03745702022664188
0.0043474891499243554 0.06819670172859194 0.04729212996823373
0.004334431418536976 0.06983880265947107 0.04728529417984062
0.00432146257528949 0.07147029872856009 0.047277821514917384
0.004308560484228148 0.07309282508942377 0.04727106924516017
0.0042957352034518025 0.07470569203070426 0.04726435717372568
0.004282986049081771 0.07630898555483256 0.04725768494270716
0.0042703227798283495 0.07790204509373239 0.04725038233679485
0.004257723797413886 0.07948645179376368 0.04724379069002582
0.004245198938402863 0.08106153697781099 0.047237237823690825
0.004232747550580179 0.08262738266630337 0.047230723396560925
0.004220368989360197 0.08418406992021465 0.04722424707139816
0.004212058604236885 0.085449373248631 0.04695745240557292
0.004214719978828247 0.0859386437797297 0.04597688113578319
0.004217374541360001 0.08642924873276325 0.044995736923926166
0.004220429905196673 0.08689258454992094 0.04398723169210722
0.004224153252404653 0.08731014050271785 0.04293352240641507
0.004227872946960589 0.08772914823572664 0.04187862845906931
0.004231599198301302 0.0881488945627319 0.04082187502753237
0.00423629708068496 0.08850228834508006 0.03969908575437947
0.0042411700800520985 0.08884504558201994 0.038562819130700476
0.004246064619454634 0.08918787837814068 0.0374232454648859
0.004251570283136107 0.08949009202279823 0.03624080925547701
0.004257733277614221 0.0897487984414253 0.03501205149399006
0.004263903762376353 0.09000897087910181 0.03378042790970176
0.004270551276942789 0.09023842213807293 0.03251417264804424
0.004278182847412218 0.09040270284074925 0.031178617243899087
0.004285820721384689 0.09056900614144603 0.02983970994977958
0.004294097788819282 0.09069425035644313 0.02845427229296915
0.004303434548841466 0.09075018523473138 0.02699317065450535
0.004312811999566339 0.09080636388394803 0.02552570136242238
0.004323492164602185 0.09077750059307665 0.02396502251250765
0.004334924164515538 0.0907013710473934 0.022348387860050056
0.004346870835648861 0.09059429233309424 0.020691771514927404
0.00436081957722921 0.09035669023284681 0.018891700406565792
0.004374869079030516 0.09011682511050778 0.017079277805427007
0.004392119977711508 0.08966765213616906 0.01503817436032756
0.004409908026368503 0.08918823319278268 0.01295289398204924
0.004431635848018078 0.08845265754441345 0.01058448957123248
0.004456565705854188 0.08751174273439677 0.00798257908317207
0.004486863514525086 0.08622376186929798 0.004992589674882697
0.0039460855380980065 -0.05717182637809032 0.06020322715186721
0.003924393415412869 -0.05391120414512568 0.06063692169147922
0.0039056715035728036 -0.050989934938040715 0.060883581403593234
0.0038932929834113047 -0.048780223550291046 0.06071507876645432
0.0038834764191228318 -0.04685940995044463 0.06038070710184329
0.003873697784271714 -0.04494699332013169 0.060048789713417094
0.0038647430035020666 -0.043129609723815354 0.059666073702038025
0.0038592922241625837 -0.041701683392531996 0.05904974051381828
0.003853868129585253 -0.040279023756948584 0.058434370213892306
0.003848447960448551 -0.03885911872401154 0.057821501086362304
0.0038428064061717896 -0.03741731486537914 0.05722661858078898
0.0038391819671365164 -0.03619818595896929 0.056495440144829046
0.0038366197048332407 -0.03509636621686518 0.05569255331337525
0.003834060860221556 -0.03399601614450459 0.054890737417849
0.003831460625955322 -0.032892269639507976 0.05409311578363396
0.003828729702941571 -0.03177547888679311 0.053305972788547595
0.0038266505301770212 -0.030730327545774927 0.05247442281976766
0.0038264046928706322 -0.029883900066717595 0.05151462925871669
0.0038261588871401357 -0.02903758130295131 0.05055495897361484
0.0038259019454225988 -0.02819017094195414 0.04959620529308667
0.003825477555164709 -0.02732490912379615 0.04864952123336985
0.0038250644216349045 -0.026461034185398635 0.047702248434775885
0.0038257007263284904 -0.02570945555937737 0.04667982972165957
0.0038276557648016275 -0.025098211845320073 0.04556205514902206
0.003829612802509444 -0.024486343069647254 0.04444313753312884
0.003831448639334899 -0.023860764750395558 0.043332016332280954
0.0038332526054514334 -0.023231022041815264 0.04222227863131267
0.0038350470501388673 -0.022599499227121567 0.041112315478741834
0.0038385623636811314 -0.022148848414039635 0.03987522917548125
0.003843030385010381 -0.021797047192289254 0.038566233732334476
0.0038473845897379544 -0.021431366529369444 0.03726336177382916
0.0038516581232118717 -0.021055356833263372 0.035964244252612465
0.003855941161088406 -0.020678510885896728 0.0346622374744614
0.003861427833465483 -0.020425586019244157 0.033268233331548935
0.003869293108829552 -0.020418318243331235 0.03169333869434926
0.003876938190482531 -0.020384768413837573 0.030130969622448545
0.003884579004391914 -0.020347499350621245 0.028565017922423774
0.003892261553649171 -0.02031128080153216 0.026992007324414424
0.0039056106898181704 -0.0208577479986351 0.02498502229227323
0.003918957965569315 -0.021398302842721817 0.022971361558698444
0.0039323967814853976 -0.021942564996014713 0.020943890453577807
0.003957950723629373 -0.023726097969310633 0.01798082930898287
0.00402587069571431 -0.029843413669794594 0.011746185370757334
0.0032089044590770705 0.06493902677217417 0.06147186369393004
0.003202021576586861 0.06630735511232039 0.06121173616114811
0.003195191523968793 0.06766751996441162 0.06095081748503761
0.003213112781462254 0.06658721521347827 0.058669585986316
0.0032342101768461974 0.06520248018124425 0.056118692945019144
0.003255586453532898 0.06379944067584176 0.053534080273216544
0.0032772553722803803 0.06237692962298752 0.05091439864010666
0.003299206370304142 0.060936166311426565 0.04826029832786932
0.003321453403759984 0.05947597258550258 0.0455704043020857
0.003344002501890878 0.0579959527132301 0.04284398756557395
0.003366859858786031 0.056495700142869254 0.040080299189555246
0.0033900406070282428 0.05497394867740224 0.037277834799735954
0.0032606153719571813 0.06819670163356722 0.04729212996822746
0.0032508220375274026 0.06983880256473074 0.04728529417983346
0.0032410873549869744 0.07147106901899353 0.04727849933059575
0.003231418765676887 0.07309282499524689 0.04727106924515123
0.0032217997698443133 0.0747056919368067 0.0472643571737158
0.0032122378690257083 0.07630898546121273 0.04725768494269639
0.0032027403822682305 0.07790204500038844 0.04725038233678325
0.003193291110829087 0.07948645170069424 0.04724379069001333
0.0031838974321462513 0.08106153688501427 0.047237237823677336
0.0031745588570566046 0.08262738257377794 0.0472307233965466
0.003165274902119149 0.08418406982795884 0.04722424707138295
0.0031587832372176414 0.08547375568951038 0.04697993917616683
0.0031607789302731666 0.08596300151033548 0.04599946251043441
0.003162777146695235 0.08645286593673263 0.045017746123806324
0.003165045365884766 0.08691832698045177 0.044011346616919966
0.0031678373814628966 0.08733586931181758 0.04295775028386006
0.003170626657569103 0.08775486321071291 0.041902969532889744
0.0031734208499631686 0.08817459561484259 0.04084632965931445
0.003176920538631911 0.08853012845944797 0.03972571362296856
0.0031805823073277717 0.0888721715056911 0.03858889891323092
0.0031842447912357606 0.08921571772059289 0.03745015034846516
0.003188357737829965 0.08951936669104005 0.03626924833838424
0.0031929712771698628 0.08977880405278582 0.03504135208604864
0.003197605988249201 0.09003827856325969 0.03380919557639134
0.0032025671457210007 0.09026989842487604 0.032545229297195055
0.0032082817352380483 0.09043493384691886 0.03121058350937428
0.0032140167551834866 0.09060055929298672 0.029871166182671993
0.003220183654840208 0.09072944144929718 0.028489537095653328
0.0032271924817645673 0.09078472656076503 0.027027963632211827
0.0032342239044862733 0.09084097381486111 0.025560743954042897
0.0032421920292385518 0.09081581366891245 0.02400401530541796
0.0032507718422868305 0.09073907052596397 0.022386954670831904
0.003259680893231979 0.09063647244769335 0.020735145186272175
0.0032701394319983265 0.09039904006184812 0.01893547371753662
0.003280673509358936 0.09015934618140375 0.01712345523235642
0.0032935499966545863 0.08971556546963022 0.01508821123801829
0.0033068115905851296 0.08924308983373819 0.013010477720481417
0.0033231013738187704 0.08850792241786348 0.010642801315378758
0.0033416809940026203 0.08757728828627998 0.008052095194267417
0.0033642129222556157 0.08630603444181062 0.005080296225592307
0.0026465334053522296 -0.06066748736714145 0.05964743766383651
0.0026220104923565476 -0.05571360379079293 0.06106846825045242
0.0026095055453754673 -0.05278253724999854 0.06131049719895981
0.00259885726336412 -0.05016898317137164 0.061376347164234735
0.0025922960636472177 -0.04824220755472308 0.06103987853888154
0.0025857679091504985 -0.04632513606631433 0.06070510452412636
0.0025791431302106286 -0.04439624812255222 0.060385109518574176
0.002575031208790688 -0.042887238905556735 0.059814929534625805
0.0025714014436635014 -0.041460465187581785 0.05919873656720587
0.002567789442535072 -0.040038951228106856 0.058583505985488504
0.0025641123307790195 -0.03860905254071284 0.057977731132059285
0.0025608959716434047 -0.03725713239751982 0.057327263197366585
0.002559185842376259 -0.03615398597576175 0.05652336944212577
0.0025574779954588875 -0.035052311820209014 0.05572054856846048
0.0025557724263253036 -0.03395210698548684 0.0549187984299882
0.002553987014722731 -0.03283999792132131 0.05412670993489649
0.002552159370104742 -0.031722173337235704 0.05334042475698314
0.0025518164540127676 -0.030846322288491657 0.05239903186306849
0.0025516524459125384 -0.02999965007882366 0.051438974086557065
0.0025514810086794226 -0.029151883133107848 0.050479830700108086
0.002551257451264926 -0.02829582354177984 0.04952637255083653
0.002550981801068538 -0.027431525965268877 0.04857865659773841
0.0025508476857864226 -0.02659013274839228 0.04761596126409162
0.0025521514152096305 -0.025979248116841436 0.046498498667791266
0.002553463939779729 -0.02536893208506591 0.045379086615873254
0.002554747937668637 -0.024753219136723237 0.04426176351822281
0.0025559435092146862 -0.024122595282161208 0.04315308276164237
0.0025571402003450516 -0.02349138088451813 0.042043363789068644
0.0025588999071564106 -0.02294871884229638 0.040871007518641145
0.002561870735218334 -0.02259667901229212 0.03956407027516978
0.0025648484695107113 -0.022243820801592762 0.03825409481818692
0.002567697313607843 -0.02186872457964134 0.03695611591770798
0.002570552493390675 -0.02149279416255573 0.03565525037752032
0.0025734670828572686 -0.021124358266353838 0.034345571044364254
0.002578707261231613 -0.021118515671030402 0.03277337206203623
0.0025838847740645723 -0.021099503983539936 0.031204196554635355
0.002588983395229061 -0.0210648510906864 0.029639945035103532
0.002594094476652762 -0.021028861670911336 0.028070378803177254
0.002601810706081797 -0.02139451724742425 0.026201329928242423
0.00261082050002003 -0.021955862042181418 0.024179113119007556
0.002619767235549286 -0.022501654633066803 0.022157196989480765
0.0026341324780711317 -0.02387869598968584 0.019507443868385432
0.0026529986150868505 -0.02594031267068242 0.01632914122308493
0.0021570431733354276 0.06368258337806693 0.057659765846891364
0.0021523939634830376 0.06506262432981019 0.057403775137534585
0.0021574371588686247 0.0650110161429776 0.055958883452560726
0.0021717052832088152 0.06360585959010034 0.05337164655518961
0.002186168854701992 0.06218119092552343 0.05074928393444145
0.0022008208275303433 0.06073823035215814 0.04809244595568729
0.0022156705219689727 0.059275797691994314 0.045399755174632295
0.0022307219674483373 0.05779349611729223 0.04267048093581938
0.0022459850765766463 0.05629007814438408 0.03990314907918591
0.0022614526369639067 0.054766794731821555 0.037098423071092235
0.0022771347151195505 0.05322238508160315 0.03425479864909203
0.0021672126565177563 0.0698388024699928 0.04728529417982841
0.0021607228205917234 0.07147106892453847 0.047278499330589974
0.0021542717359941555 0.07309358898585278 0.04727174505383219
0.0021478643362367236 0.07470569184291243 0.047264357173708804
0.002141489688969537 0.0763089853675964 0.04725768494268873
0.002135152767428143 0.0779027904596204 0.04725105219841824
0.002128853237704307 0.07948719110055574 0.04724445859140447
0.002122595925889506 0.08106153679222178 0.04723723782366779
0.0021163701635328893 0.0826273824812569 0.04723072339653639
0.0021101808148779504 0.0841840697357078 0.04722424707137213
0.002105685536902241 0.0854974171762315 0.04700176104737813
0.0021070106923621727 0.08598735524710344 0.04602204018250966
0.0021083426038793155 0.08647719488276817 0.04504041860338531
0.0021098442995732157 0.08694406493580353 0.04403545734948655
0.0021117053074080037 0.08736159364416235 0.04298197394570885
0.0021135644889185346 0.08778057370740955 0.04192730636768688
0.002115426947076667 0.08820029218714598 0.04087078002854583
0.002117749390428645 0.08855724966022704 0.039751653883988436
0.00212018496531724 0.0889000060706463 0.03861566000516847
0.002122626148901656 0.08924355178825794 0.03747705013431146
0.0021253520760424346 0.08954934932381908 0.03629837517623241
0.0021284323170209524 0.08980808932082301 0.03506994926231277
0.002131516299758248 0.09006829499282204 0.03383865892705512
0.002134807406265272 0.09030208308440552 0.03257698487304922
0.002138616289422835 0.0904671577535976 0.03124254273367283
0.0021424387883490904 0.09063282252201216 0.029903330309853593
0.0021465333237806155 0.09076390614046576 0.028524073977079456
0.0021512047704135167 0.09081925972341776 0.027062748387062796
0.0021558912749178316 0.09087557554836012 0.025595778245773027
0.0021611807179766213 0.09085339409287113 0.024042262450196583
0.0021668937489045903 0.09077748499142424 0.022426252915969946
0.0021727991382377207 0.09067936732438814 0.020779253843415335
0.0021797748930099748 0.09044137763624038 0.018979234361990838
0.0021867955829602526 0.09020185490850996 0.01716761983465892
0.002195338814540805 0.08976346315434686 0.015138231773403954
0.0022041269585623613 0.08929792599583153 0.013068039961982303
0.002214982771691914 0.08856316655844199 0.010701091183606015
0.002227285068795986 0.08764355766320064 0.00812237897643242
0.002242178802550671 0.08638902256381575 0.0051687655857819426
0.0013138897815787602 -0.05752261381711499 0.06150269627502003
0.0013076097255499877 -0.0545764885058152 0.06174317930505108
0.0013013661577182833 -0.05165062332051795 0.061986010498894295
0.0012978096486629663 -0.0496285458040836 0.06170073778031071
0.0012945371348611944 -0.04770553060227112 0.061363869932184456
0.0012912810824854907 -0.045792188567321035 0.061028696599316534
0.0012886036155249636 -0.04407479447814955 0.06058140944684631
0.0012867856095699168 -0.042645143624073345 0.059963616141989196
0.0012849765051161782 -0.04122076853477652 0.059346792786147906
0.0012831687114110133 -0.03979915085616853 0.058732472690136595
0.0012812945977455639 -0.038358046881525665 0.058134548119470775
0.0012803145319450903 -0.03721279583424897 0.057355120456752395
0.0012794595994315555 -0.03610979531195274 0.05655129285063637
0.0012786058077963868 -0.03500826670606155 0.05574853792478823
0.0012777419441612596 -0.03390454915403868 0.05494919119209579
0.001276830735505167 -0.0327865241782867 0.05416107660557795
0.0012763494811117277 -0.031809408029083885 0.05328404419735561
0.0012762636553005084 -0.030961172796647174 0.05232438460409089
0.0012761815687226657 -0.030114258266413618 0.05136406522117276
0.001276099492694081 -0.029267452574708475 0.050403869250550126
0.0012759615283513223 -0.028402731971827133 0.04945570974707497
0.0012758235938210053 -0.02753819822370407 0.04850775512831229
0.0012762707535555536 -0.02686174421147658 0.04743442093754158
0.0012769234565791236 -0.026250593216629703 0.04631612412989189
0.0012775768276035056 -0.0256388167469474 0.04519668281532946
0.0012781934717972898 -0.02501447630348258 0.044084208215775134
0.0012787919964293076 -0.024383570573541957 0.04297473365800886
0.001279391081904823 -0.023752073657684836 0.04186421947462532
0.0012808650758877596 -0.023397408533349262 0.04056096651009039
0.0012823537617365354 -0.023045500668945784 0.03925222277375895
0.0012838081870172045 -0.022680852417116426 0.037948762161471083
0.0012852356682197925 -0.022305837200899625 0.03664904247670797
0.0012866663274997225 -0.021929987068308177 0.035346429156808856
0.0012889438097477698 -0.02181826691406713 0.033852717203310845
0.0012915767311429578 -0.021815026414765626 0.03227595332684213
0.0012941207589106125 -0.021780595853612583 0.0307151218209612
0.0012966748284628583 -0.021746029388091392 0.02914812940197542
0.0012999270898736 -0.021925671802822844 0.027419334009450957
0.001304503115713201 -0.022512645479864646 0.025385184270326044
0.0013089702749831725 -0.023059963715165055 0.02336880960663107
0.001314626129124057 -0.02396953496878479 0.021074046355405218
0.0013242248799768882 -0.026089941533399497 0.01786688538222081
0.001089954037771677 0.06099741298514416 0.05402858191474569
0.0010875663353496776 0.062401892996053865 0.053781122867849473
0.0010865087550863547 0.06341204358156549 0.05320901571365427
0.0010937494113687264 0.06198521310389743 0.050583967516411144
0.0011010844435236128 0.060540050962833325 0.04792438715152303
0.0011085185198293499 0.05907537495279652 0.04522889475869052
0.001116053659995672 0.057590787146694244 0.04249675801932684
0.0011236948291532232 0.056085037870229004 0.03972650014379331
0.0011314384192057329 0.054559378996425045 0.036918784611727706
0.0011392894725249878 0.05301254747729678 0.034072104428631345
0.0010836032755080626 0.06983880237525714 0.0472852941798253
0.0010803582861964177 0.07147106883008608 0.04727849933058653
0.0010771326729750337 0.073093588891682 0.04727174505382836
0.0010739289026290687 0.0747056917490212 0.047264357173704585
0.001070741508913294 0.0763089852739835 0.047257684942684175
0.0010675729784751682 0.07790279036628406 0.047251052198413246
0.0010644231443569035 0.0794871910074943 0.04724445859139903
0.0010612918415652411 0.08106227019100903 0.04723790377625725
0.0010581814700090782 0.0826273823887404 0.04723072339653023
0.0010550867276366525 0.08418406964346142 0.04722424707136563
0.0010527527748762 0.08552179174482982 0.047024240557739905
0.0010534152225961627 0.08601170499101585 0.04604461415291955
0.0010540810477265544 0.08650151983749166 0.04506308736340564
0.0010548266584225277 0.08696979841714442 0.04405956389090121
0.0010557569822737885 0.08738731350091788 0.04300619339305922
0.0010566863929158381 0.08780627972698785 0.04195163896456944
0.0010576174414215062 0.08822598428081435 0.040895226136341944
0.0010587707474573756 0.08858507938536936 0.039778271815731125
0.0010599882896094532 0.08892783536828197 0.03864241603292701
0.0010612086352789819 0.08927138058263351 0.03750394482387226
0.0010625661585654984 0.08957861217407476 0.03632680277847383
0.001064103368648611 0.08983808280158323 0.03509923800879444
0.0010656476322209302 0.09009759081135676 0.033867414946755325
0.0010672824167993183 0.09033426066805644 0.032608733467359985
0.0010691890486763307 0.09049865870903828 0.031273784947007444
0.00107109725303071 0.09066507863253259 0.029935487340395917
0.0010731361550589292 0.0907983627050108 0.028558602714859993
0.0010754686772241578 0.09085450391166516 0.027098249345729797
0.0010778113611602314 0.0909108897009323 0.02563153386057998
0.001080444755610188 0.09089168727339736 0.024081234994831946
0.0010833005246614592 0.0908158893606526 0.02246554083259783
0.0010862389429596086 0.09072152290168062 0.02082260228312971
0.0010897258232953034 0.090483702961342 0.019022982345425654
0.0010932351615376456 0.09024435129719927 0.01721177161791665
0.0010974862556204557 0.08981134519798406 0.015188235974489261
0.0011018538997438192 0.08935274169053092 0.013125580718590213
0.0011072770013394882 0.0886191360996979 0.010760146444021512
0.0011133917956974483 0.08770904476026053 0.008191833091681255
0.0011207750233780962 0.08647120355387183 0.005256374505153427
5.241203796498712e-09 -0.05995238456512031 0.061579422911551496
4.928863198267123e-09 -0.056379624406751816 0.06217698128104027
4.67244615937271e-09 -0.05344655523772368 0.06241362888663776
4.46028630258292e-09 -0.05101972925035014 0.062362520901268925
4.291648466664236e-09 -0.0490907371799677 0.062023550527088245
4.1237487054234746e-09 -0.047170187700122435 0.06168705596051971
3.957025019100135e-09 -0.045263090949835216 0.06134995112535807
3.83189929968045e-09 -0.04383181950349502 0.06072978535205292
3.7070162092858203e-09 -0.04240332340976788 0.06011213381253894
3.582593733110959e-09 -0.04098009612877451 0.05949545170955273
3.4576529149208763e-09 -0.03955093970583223 0.05888666426297645
3.3458062162983136e-09 -0.038271562560269756 0.058188579659109396
3.2492630512093217e-09 -0.03716723744343026 0.05738374540487662
3.1528487917187176e-09 -0.03606438683480562 0.056579985774914465
3.0565631798239385e-09 -0.03496300778319028 0.055777298618383486
2.9594468265889966e-09 -0.033852126157720486 0.054982693125623705
2.8650142095723995e-09 -0.03277194289797247 0.054170447800112986
2.790934125493629e-09 -0.03192456549150163 0.0532096168789456
2.716863565476009e-09 -0.031077297027593875 0.05224890948632288
2.642802527683059e-09 -0.030230137485242337 0.05128832559842311
2.568013699768753e-09 -0.02937465299381109 0.05033340859505686
2.4923967586434253e-09 -0.028509695990850903 0.049385010200907464
2.425397026015698e-09 -0.02774330836911737 0.04837142523142007
2.3719999679255255e-09 -0.027132517216103658 0.04725344102221163
2.318548253133881e-09 -0.026521100863295954 0.04613431245535732
2.2648325875470245e-09 -0.025906665265183537 0.04501565516012557
2.2097040639022e-09 -0.025276068453801648 0.043906425252176584
2.1545238735236167e-09 -0.024644880643869105 0.04279615576825274
2.1153562365833005e-09 -0.024196855105775295 0.041558572023287554
2.0847788976285517e-09 -0.023847091128628317 0.04025023941261502
2.0539213741243324e-09 -0.02349412221370173 0.038940514313072216
2.021216520874379e-09 -0.023120022308440846 0.03764193559561607
1.9884388572102317e-09 -0.022745089549143116 0.0363404658683541
1.968548674633305e-09 -0.022517572398789654 0.03493137477579633
1.968390309945674e-09 -0.022515760949192998 0.033357316813717675
1.9666565826857003e-09 -0.022495929451333163 0.03178968096300827
1.96375893978539e-09 -0.022462784309786932 0.030225259656865566
1.9632736100402226e-09 -0.02245723281605122 0.028634635405177578
2.0160902724940844e-09 -0.02306138507945993 0.026594855996876665
2.064706841886631e-09 -0.023617493875791096 0.02457873184991749
2.1130173836520286e-09 -0.024170102124120962 0.02255407571571122
2.2939994847731588e-09 -0.026240296205212066 0.019398448910626365
-5.217769565730387e-09 0.05968433042336285 0.0500810934444616
-5.3414906027584675e-09 0.06109953418283637 0.04983685582242714
-5.275232319682209e-09 0.06034162769410334 0.04775612153432268
-5.146989779586873e-09 0.05887470390732358 0.04505782266161107
-5.016929971668136e-09 0.05738699299800992 0.04232210509775841
-4.885161748031232e-09 0.05587974008917801 0.0395496293577462
-4.751576336724722e-09 0.0543517009746487 0.03673891899157855
-4.616135886070581e-09 0.052802442681659234 0.03388917757917098
-6.105501655757613e-09 0.0698388022805238 0.0472852941798243
-6.248198915076839e-09 0.07147106873563636 0.04727849933058542
-6.390044117675492e-09 0.0730935887975141 0.04727174505382714
-6.53104487238535e-09 0.07470644950105138 0.047265030987240886
-6.671142984851166e-09 0.07630898518037399 0.04725768494268262
-6.8104778452150914e-09 0.07790279027295144 0.04725105219841158
-6.948990542388679e-09 0.07948719091443696 0.047244458591397254
-7.0866883318846105e-09 0.08106227009822525 0.04723790377625531
-7.223578384094042e-09 0.08262810984403424 0.04723138741165722
-7.359604695933616e-09 0.08418406955121976 0.04722424707136341
-7.478682622777495e-09 0.08554616231999718 0.047046716385149345
-7.521510028745557e-09 0.08603605074305454 0.04606718442257435
-7.564328835443494e-09 0.08652584080188513 0.045085752404782464
-7.605452619374419e-09 0.08699624205904238 0.044084335692212484
-7.641951723152212e-09 0.08741374313813322 0.04303108121226512
-7.6785152621846e-09 0.08783198127061831 0.041975967324645314
-7.715205782264238e-09 0.08825167189701605 0.04091966798381441
-7.746723317133494e-09 0.08861219046614455 0.03980420239740318
-7.776750325655575e-09 0.08895565940009165 0.03866916699794226
-7.80672159438509e-09 0.08929849074502416 0.03753014500543844
-7.833830695303986e-09 0.08960858270428845 0.036355917859200226
-7.856453396689848e-09 0.08986735623143521 0.03512782362502559
-7.879204201379508e-09 0.09012759508958029 0.03389686636997902
-7.900083916654342e-09 0.09036643117815951 0.0326404750824269
-7.914459492707671e-09 0.0905308685814038 0.03130573025226824
-7.92894916188122e-09 0.09069661105779558 0.029966922910673932
-7.940918887443015e-09 0.09083352873724565 0.028593842404433578
-7.945770141295488e-09 0.09088902058631465 0.027133017492454004
-7.950705534534529e-09 0.09094547487770999 0.025666551388612513
-7.949350094319262e-09 0.09092997041741585 0.024120197324900616
-7.942733348986125e-09 0.0908542836376301 0.022504818424788242
-7.934811334950024e-09 0.09076366632311722 0.020865938223017966
-7.914035291613779e-09 0.09052601604246824 0.019066717673334843
-7.893189482150044e-09 0.09028756773009161 0.01725667149210225
-7.855741405782338e-09 0.08985921160820198 0.015238223849273869
-7.81612531088302e-09 0.08940605624315184 0.01318154570932184
-7.752156523650792e-09 0.088674338529737 0.01081839230211834
-7.67355615740729e-09 0.08777525505001038 0.008262054207346992
-7.566799342887106e-09 0.08655409932260127 0.0053447454122749205
-0.001322797881654039 -0.06221356814931023 0.06176522402790452
-0.0013121316787687385 -0.05777992812121319 0.06285361646286064
-0.0013065756183262755 -0.05507347948412156 0.06294751678867289
-0.0013011361558239857 -0.05241319551493878 0.06302677624631436
-0.0012978471587972073 -0.05047821121329743 0.06268569271349139
-0.0012945747484159613 -0.048552985174718954 0.062346329288952895
-0.001291318799524385 -0.04663744376744744 0.06200867299348434
-0.0012889493718483234 -0.04502049788183726 0.06149724746175689
-0.001287130619057208 -0.04358912082812383 0.06087799253142129
-0.0012853169920188986 -0.04216177779411673 0.06026048283402591
-0.0012835122395661 -0.04073969663426452 0.059643942060542965
-0.0012817463886867027 -0.03933275484319243 0.05902220317477813
-0.0012808897278476427 -0.03822709878563513 0.05821635867275632
-0.0012800342114761046 -0.037122919843808555 0.057411590749146646
-0.0012791798372801593 -0.03602021505962644 0.05660789724798715
-0.0012783228629102011 -0.0349177586593975 0.0558060530849569
-0.0012774110129039104 -0.03379849766407361 0.05501696545396306
-0.0012771385084663224 -0.032888622787785815 0.054095459835719284
-0.001277056456840312 -0.032041000103318173 0.05313436412646949
-0.001276974415766354 -0.031193486423526096 0.05217339201447502
-0.0012768923852423968 -0.03034608172737796 0.05121254347589843
-0.0012767581305164588 -0.029481909174239596 0.05026291128877791
-0.001276646285125111 -0.028625135270526014 0.0493087087924709
-0.0012772994841985853 -0.02801470420106955 0.04819103741779507
-0.001277953351980002 -0.027403648207189435 0.04707222183502696
-0.0012786116312265203 -0.026793165644205585 0.04595145421050334
-0.0012792293886762982 -0.026168874685016053 0.04483843873830118
-0.00127982899867716 -0.02553799623236913 0.043728414189284526
-0.001280714415837705 -0.024997403965543785 0.042555243208953764
-0.0012822028224891277 -0.024647395802019467 0.041248966898142225
-0.0012836984642097126 -0.024297769927572266 0.039938823946328805
-0.0012851522361150367 -0.02393296247392951 0.038635602026171056
-0.0012865865726584195 -0.02356014402464668 0.037334444036177916
-0.0012881190471941855 -0.023216432551002586 0.03600934543627915
-0.0012907486131530312 -0.02321604833010238 0.03443799025963051
-0.0012933774509600508 -0.02321205480216032 0.03286276886295153
-0.0012959286058059445 -0.023180331634328755 0.03130090965555016
-0.0012984898446942708 -0.023148483073101134 0.0297328768304303
-0.0013025894901916226 -0.023593582517660472 0.027814182688513878
-0.001307141219666431 -0.024174246743872474 0.02578696725434443
-0.0013116264277889802 -0.024728378865021772 0.023767873191242128
-0.0013196964712890182 -0.02638890104813485 0.020925692481430336
-0.0013315205905711394 -0.029201296267918453 0.017213523381895968
-0.0011110713786467023 0.056903949599508064 0.046297683220925145
-0.0011085878512574593 0.05834553048500202 0.04606340334826947
-0.0011099030291275992 0.05867378409384333 0.0448865384897672
-0.0011174595245132559 0.05718377682114956 0.042147947502174266
-0.00112511672322798 0.055674184315831154 0.03937253630285664
-0.0011328795875586808 0.0541437601686669 0.036558825779488435
-0.0011407503199024845 0.052592070184031836 0.03370601765610831
-0.0010836154865113742 0.06983880218579286 0.0472852941798253
-0.001080370782594248 0.07147106864118913 0.047278499330586476
-0.0010771454530632692 0.07309358870334903 0.04727174505382836
-0.001073939324905956 0.07470644940716681 0.04726503098724233
-0.0010707548511992636 0.07630898508676798 0.047257684942684175
-0.0010675865994308588 0.07790279017962254 0.047251052198413246
-0.0010644370423379883 0.0794871908213835 0.04724445859139903
-0.0010613060149419048 0.08106227000544569 0.04723790377625725
-0.001058193354199383 0.0826281097515269 0.047231387411659276
-0.0010550988989744294 0.0841847911199014 0.04722490916026967
-0.001052595266165391 0.08557052890271505 0.04706918853051173
-0.0010532601214135436 0.08605967662429598 0.046089087322543465
-0.001053923274838675 0.08655015777693048 0.04510841372843083
-0.0010546559939387016 0.08702196647165922 0.04410843373825246
-0.001055586062789701 0.08743945392297697 0.04305529211692849
-0.0010565177734342976 0.08785767833946728 0.04200029144901862
-0.001057448570991889 0.08827735503692252 0.040944105572077893
-0.0010585887137787586 0.0886400098078744 0.03983081039785946
-0.001059805861337497 0.08898276492921559 0.038695227172464264
-0.0010610258109810325 0.08932630913243306 0.0375570296373538
-0.0010623673812448964 0.08963783374371259 0.03638433398772628
-0.0010639040158344384 0.08989733758894969 0.03515710053311205
-0.0010654477001674795 0.09015687904969633 0.03392561074976158
-0.0010670662277418588 0.09039787994869553 0.032671504582154565
-0.0010689694435505942 0.09056307136125957 0.031337668523276185
-0.0010708794606273594 0.09072885309642703 0.029999065912551137
-0.0010728964189012675 0.09086796888800824 0.028628354694051228
-0.0010752304846406774 0.09092352910632151 0.027167777425124773
-0.0010775720704407118 0.09098005186586477 0.025701560625655706
-0.0010801775082507964 0.09096824352886934 0.024159149444415273
-0.0010830317655116048 0.09089266782633171 0.022544085696607485
-0.0010859416305765185 0.09080579759395518 0.020909261668486112
-0.001089426455792228 0.09056831688493128 0.019110440351209346
-0.0010929309853002656 0.09033003924556215 0.017300797433235815
-0.0010971436950650596 0.08990706239265461 0.015288195405750993
-0.001101486187213404 0.08945491090562158 0.013232829102823085
-0.0011068773370995525 0.0887295202620289 0.010876616321356836
-0.0011129108323227185 0.08784068377040899 0.008331446409646115
-0.0011201666119690168 0.08663618888303459 0.0054322568632363954
-0.0026540462894488717 -0.06448784255821377 0.06195300050181157
-0.002627432480529073 -0.059155863266471154 0.06354825119474888
-0.0026162933667480577 -0.05644033174083013 0.06363931926908956
-0.0026052560728878193 -0.05374903088955896 0.06372885020022423
-0.002598438762638453 -0.051770958118327826 0.06340784992426735
-0.0025924643696962966 -0.0499380427067917 0.06300805914121577
-0.0025859356609700527 -0.0480165699395696 0.06266830567166631
-0.0025800718847630837 -0.04620991646340605 0.062266770855707365
-0.0025764357301290924 -0.04477691812431972 0.06164514289056261
-0.0025728022353814356 -0.04334669798101276 0.0610260312725881
-0.0025691865287630457 -0.04192175571584833 0.060407896151534246
-0.002565528244009743 -0.0404921088558412 0.05979687248028548
-0.0025632255124478603 -0.03928815396374408 0.059049909802417366
-0.002561512455854235 -0.03818264439555985 0.05824413182334287
-0.0025598016876001452 -0.03707861159164422 0.057439430220283416
-0.002558093203103406 -0.03597605259492653 0.0566358028379097
-0.0025563271697476527 -0.03486518412899825 0.05583946261710332
-0.002555161154274902 -0.03385334537345752 0.05498191410655229
-0.002554996863587249 -0.03300536818120525 0.0540204297733935
-0.0025548325940350737 -0.03215750007683765 0.053059069130128256
-0.002554668345614306 -0.03130974103930684 0.052097832152888934
-0.0025544667805315734 -0.030456047293941968 0.0511406690693334
-0.002554183120933609 -0.02958922115951007 0.05019237730311127
-0.0025549897528433503 -0.028898358711543337 0.04912811735899619
-0.0025562978327209373 -0.02828766214887296 0.04800961131721421
-0.002557607252625808 -0.027676339974594732 0.04688995945206276
-0.002558903027715579 -0.027061989427014432 0.04577077428322718
-0.002560102607024188 -0.026431420583219734 0.04466099490476533
-0.0025613108189944996 -0.025801458610020256 0.04354936018353822
-0.002564264747523104 -0.025448805206163827 0.04224675798551403
-0.002567248124186976 -0.025098934544275975 0.04093867593004619
-0.0025702308909180214 -0.024747049430408063 0.039628375382938175
-0.002573091785727095 -0.0243739508592829 0.03832919719198685
-0.00257595905641393 -0.024000020789223142 0.037027123612700164
-0.0025806758021269536 -0.023915888985366507 0.03551797432486353
-0.0025859454255839293 -0.023915730156558512 0.033943753931870935
-0.0025911136759823932 -0.023896263809922047 0.032376804266131765
-0.0025962332016008344 -0.023865838965258068 0.030811349097975116
-0.002603225181010218 -0.024124980871902124 0.02903167858516431
-0.0026124633918671284 -0.024730223943797203 0.026993519345066552
-0.0026214213416446957 -0.02528587514770203 0.0249799738054321
-0.0026344854495454944 -0.026474024819951203 0.022493688911510212
-0.002653767323132057 -0.028618261019638103 0.019289558463006617
-0.002246421997855159 0.05406196704403071 0.04243088190179295
-0.0022413170355345675 0.055529888812730355 0.04220636606984607
-0.002236309621319469 0.05698030684755623 0.041973572401126424
-0.0022516433485869837 0.055468370063562755 0.039195220559880506
-0.0022671888077857192 0.053935556079393654 0.036378504543209345
-0.0022829504148749705 0.05238142947245883 0.033522624213711105
-0.002167219492552758 0.06983957883423264 0.047285974011097076
-0.0021607353169895535 0.07147106854674462 0.047278499330589974
-0.0021542845160823906 0.07309358860918685 0.04727174505383219
-0.0021478721187670065 0.07470644931328535 0.0472650309872466
-0.0021414977831187058 0.07630973666071506 0.04725835677282175
-0.0021351663883838333 0.07790279008629725 0.04725105219841824
-0.002128867135685392 0.07948719072833405 0.04724445859140447
-0.002122604943195433 0.08106226991267035 0.047237903776263024
-0.002116379484820334 0.08262810965902406 0.04723138741166544
-0.0021101904382810235 0.0841847910276694 0.04722490916027616
-0.00210501062994938 0.08559489149396426 0.04709165699473161
-0.002106340079816057 0.08608401451286823 0.046111650302196994
-0.002107671209962092 0.08657375572997444 0.04513040498810761
-0.002109121101567425 0.08704768641379584 0.04413252759644798
-0.002110980879392675 0.08746516023576628 0.04307949881042189
-0.0021128439398840756 0.08788337093470455 0.04202461133879659
-0.002114705174106693 0.08830303370170522 0.04096853890224711
-0.0021169696445897386 0.08866782389268857 0.039857413370302686
-0.002119403449511232 0.08901057856878641 0.03872196814602957
-0.002121842856943199 0.0893541222510077 0.03758390917728932
-0.0021245099660850727 0.08966779217868748 0.036413437318448316
-0.00212758776467288 0.08992659918779311 0.035185674596318384
-0.0021306692986466304 0.0901868711839584 0.03395505025278667
-0.002133890036446192 0.09043003647576381 0.03270323240060735
-0.002137695616351156 0.09059526705094523 0.031369599762351597
-0.002141514794248714 0.09076108802356497 0.030031201824778975
-0.0021455267363551488 0.09090311817049368 0.02866357759879179
-0.002150193738576019 0.09095874814754101 0.027203253053555476
-0.00215487577475648 0.09101534076662965 0.025737290672982027
-0.002160069371909273 0.0910057847577625 0.024197356698762607
-0.0021657764236275748 0.09093031798255868 0.022582602050313316
-0.0021715622797592268 0.09084791671944842 0.02095257262493677
-0.002178524507520551 0.09061133450238473 0.01915490389494845
-0.0021855369884303437 0.0903724984388124 0.017344910572152206
-0.0021939159295544927 0.08995563336415802 0.015338919066808454
-0.0022026036214900287 0.08950300945687789 0.01328331879778849
-0.0022133319869424494 0.08878468130821204 0.01093481851401712
-0.0022253151789851234 0.08790683505197783 0.008401604942587404
-0.0022396997622012244 0.08671899245256554 0.0055205294815435235
-0.0039466930975016416 -0.06062326864524997 0.06419345976320007
-0.0039291716423787565 -0.05781179158764166 0.06433201435139257
-0.003912564062955517 -0.05511016058201418 0.06441949397517222
-0.003900235055068498 -0.052893852108097106 0.06423334677995302
-0.0038915388271257537 -0.05108807570580298 0.06381304045201969
-0.003882881292963307 -0.04929033408760025 0.0633946042727409
-0.0038740904307845462 -0.04748148649619316 0.06298948266340515
-0.0038679057085259797 -0.04596545443634642 0.062414352398249995
-0.003862457620643751 -0.04453361542972395 0.061792870093814456
-0.0038570135094353987 -0.04310455049220607 0.061173901862537905
-0.0038515960416619288 -0.041680756479415215 0.0605559096056702
-0.0038469952528392723 -0.040349162398265914 0.05988516790881471
-0.003844422738795712 -0.039242323982717486 0.05907837996149268
-0.0038418536630981195 -0.0381369649342812 0.05827267034267214
-0.003839288018857684 -0.037033082289017416 0.05746803689190605
-0.003836725799204045 -0.03593067309090581 0.05666447745451059
-0.003834066059124002 -0.03481873393742435 0.05586898032445803
-0.003833819415833495 -0.033970401949816376 0.054907107059751825
-0.003833572804283826 -0.03312217913340154 0.05394535757767832
-0.003833326224468881 -0.032274065467108204 0.052983731854343685
-0.00383307967638255 -0.03142606092987066 0.052022229865859915
-0.0038326874635944393 -0.030562443285395813 0.05107112776907968
-0.003833057402047017 -0.029781074781524808 0.050066275761071866
-0.0038350200805774624 -0.029170739064689144 0.0489480831783532
-0.0038369847700213742 -0.028559778012559933 0.047828744922361555
-0.003838951473470831 -0.027948190663588446 0.04670825923145072
-0.003840830154629303 -0.027326356294788634 0.04559308990730099
-0.0038426318172179452 -0.02669550476068905 0.044482511412021086
-0.0038461724283192222 -0.026248924291867703 0.04324525400549539
-0.003850658264692305 -0.025901206343275085 0.04193758943809389
-0.003855154576974106 -0.025552676358452375 0.040626871042218904
-0.003859525023217688 -0.025188906972492764 0.03932305533685121
-0.0038638256594022394 -0.024815896016616767 0.03802212757938739
-0.0038697803861655225 -0.02461528334231311 0.03659726966885701
-0.0038776797761090488 -0.024616552238515 0.035025755418269966
-0.0038855538897667324 -0.024611784255461178 0.03345208013347423
-0.003893228756685458 -0.024582781493711015 0.0318891999147895
-0.0039019094579886052 -0.024655581940550453 0.030247347807087044
-0.003915804471397098 -0.025268349664662904 0.028210654507744903
-0.00392938647091738 -0.02584259260761801 0.02619038111405264
-0.0039443207665274295 -0.026551437296294556 0.024061231200602273
-0.003973821521546016 -0.028763338140916805 0.020822670180148495
-0.0033990345814325033 0.05264795912624837 0.038260720309114093
-0.0033912780987257495 0.05412849854047014 0.03804087673767326
-0.0034029351381916176 0.053727088206482976 0.03619795484940197
-0.0034266076842367934 0.05217052003367317 0.03333899680510566
-0.003250826186044295 0.06983957873950658 0.04728597401110218
-0.00324109183711179 0.07147183883338554 0.04727917714293012
-0.0032314235791014514 0.07309358851502767 0.04727174505383863
-0.0032218049126279905 0.07470644921940706 0.0472650309872536
-0.003212243339073619 0.07630973656711615 0.04725835677282947
-0.0032027383516181405 0.07790353554190554 0.047251722056796286
-0.0031932972290327133 0.07948719063528842 0.04724445859141335
-0.003183903871448873 0.08106226981989917 0.04723790377627257
-0.0031745656154411905 0.08262810956652572 0.04723138741167565
-0.003165281977587517 0.08418479093544218 0.04722490916028699
-0.003157261217412668 0.08561853371953448 0.04711346110229431
-0.003159247439098664 0.08610834841248305 0.046134209583799046
-0.0031612437855718105 0.08659806484652982 0.04515305898832089
-0.0031634029761114717 0.0870734018866145 0.04415661726788789
-0.0031661921396597932 0.08749086207766948 0.04310370129384561
-0.003168978564286332 0.08790977255519922 0.04204960236956151
-0.0031717775727033133 0.08832870789253089 0.04099296797543217
-0.0031751582873285654 0.0886949197384378 0.03988332938032868
-0.003178800598099704 0.08903838694697475 0.038748704061123795
-0.0031824667286214623 0.08938121714382585 0.037610094601822575
-0.0031864434009951878 0.08969703141442925 0.03644184198020417
-0.003191051397930498 0.08995656842941074 0.03521493967318595
-0.003195672741616509 0.09021685717589217 0.033984483726661296
-0.003200479403440046 0.09046218593622585 0.032734953246665366
-0.003206186510581103 0.09062745565280494 0.031401523971819445
-0.0032119140079504838 0.09079331584155936 0.030063330649700126
-0.0032179068863652537 0.09093754191920211 0.028698073451999595
-0.0032249057356720364 0.0909932401971893 0.027237996395872766
-0.003231927126950389 0.09104990121581996 0.025772283164306464
-0.0032396756401950246 0.0910440380050262 0.024236288601674205
-0.0032482339754396432 0.09096868219679571 0.022621848888126683
-0.003256870017704678 0.09089002370484806 0.020995871097769625
