# .PCD v0.7 - Point Cloud Data file format
VERSION 0.7
FIELDS x y z
SIZE 4 4 4
TYPE F F F
COUNT 1 1 1
WIDTH 762
HEIGHT 1
VIEWPOINT 0 0 0 1 0 0 0
POINTS 762
DATA ascii
-0.042640272779191114 -0.03707228601891044 0.06333323398194668
-0.042734991923424094 -0.03702669074370413 0.061898492675174166
-0.042830906256626965 -0.03697464350639784 0.06045265095342339
-0.0429325803493184 -0.036879403223904095 0.058967735531255505
-0.04302325193342195 -0.03687612400500706 0.057546195593917104
-0.04311755442553972 -0.0368467610221358 0.05609865957821719
-0.043217557975463915 -0.03677491305290037 0.054612128879412025
-0.043317122332562505 -0.03670995956043477 0.053124286211764626
-0.043420098721087035 -0.036621153585129795 0.05161122928669848
-0.0435136417493869 -0.036610930206898096 0.0501528231041834
-0.043620191461568855 -0.03650054551340132 0.04860930647879763
-0.043721621806792926 -0.03643434749018076 0.047093611786440004
-0.0438298879912769 -0.03631750784989768 0.045530803207907145
-0.04392288284926287 -0.03632487242364607 0.044060054301453766
-0.04402829596804765 -0.036237571851570505 0.042506895470276196
-0.044140317792030495 -0.03610189645516365 0.04090749206852523
-0.04423982225528099 -0.036068179185278326 0.03938336510376783
-0.044344750382859045 -0.03599538449932055 0.03782054337375257
-0.04444863040187374 -0.03593432403890645 0.03626021464991219
-0.04455252002766425 -0.03587670308097096 0.03469563585765523
-0.04465677631734563 -0.03581974602540161 0.03312450153423324
-0.04476707362661157 -0.035719449847657625 0.03151004590828099
-0.044862152653952984 -0.03574069108268102 0.029989994211331028
-0.04497493002082435 -0.03562844402451154 0.028350792107832812
-0.04507958372013233 -0.03558262346612684 0.026760138144423073
-0.045185586421180916 -0.03552996916408907 0.0251564206651243
-0.04529666089681887 -0.03544198317885483 0.023515076487537312
-0.045408282801084034 -0.035353563556230094 0.021865642973616595
-0.045520705804971494 -0.03526280013428762 0.02020640860450612
-0.04563305973873361 -0.03517636658518136 0.018543099944234642
-0.045743448886469903 -0.03510867775892995 0.016888340589268802
-0.04585804637793841 -0.03501278704427041 0.015201031572044887
-0.04596570993960975 -0.03497327647444204 0.01355553960979805
-0.04608129727062132 -0.03487754409817845 0.011852480624885697
-0.04619682466604002 -0.03478617394811223 0.010145165187586291
-0.046313449544255654 -0.034690457830672206 0.008425775546730907
-0.04643196326686465 -0.0345845128523668 0.006688881667713253
-0.046553695668511516 -0.03445847792900403 0.00492532920527905
-0.04665390179462568 -0.03449737193763086 0.0033036366285766894
-0.044522990838472054 0.015810797346361427 0.0778411838656643
-0.04434029873411883 0.013403949649884617 0.07792254081109998
-0.04419169320575393 0.011307609850207068 0.07782358857046098
-0.04402033330686548 0.009013787645086868 0.07785667551707276
-0.04388088770324303 0.007009587101707515 0.07771963543606433
-0.04372410275463973 0.004856413453034725 0.07768501527105104
-0.04358370439060435 0.0028537688579720055 0.07756521266389599
-0.04344735734695072 0.0008918011399287051 0.07742847470099945
-0.043306175377326984 -0.0011080680425368805 0.07732463171345699
-0.043165907976024646 -0.0030949821925459475 0.07722146141453157
-0.04302631724782373 -0.005071078691326059 0.0771202576023958
-0.04287875335975452 -0.00711222427622854 0.07707026506786888
-0.042731181593288065 -0.009148311645388041 0.07702642788513916
-0.04258899753381446 -0.011132225769614645 0.07695777903377693
-0.04244107006489026 -0.013161251733909252 0.07692810044079795
-0.04229715451619638 -0.015150244953127945 0.0768813549959379
-0.0421587190004128 -0.017086671375346085 0.0768087762153675
-0.04201736400561259 -0.019043578031171515 0.07675892762979888
-0.04187651982715796 -0.020991157157425833 0.07671194757803029
-0.04174868884124436 -0.02282156697290827 0.07659449490482251
-0.04160867326129586 -0.02475245022032646 0.07655403376904682
-0.04147395578993359 -0.026632941480821015 0.07648808478973393
-0.04134317390562136 -0.028475001476130246 0.07640439285599035
-0.04121552589751277 -0.030285696636144943 0.07630748085936234
-0.04108459110424136 -0.03212002896174615 0.07623546725718594
-0.04095873998075524 -0.03390648077304731 0.07613843505998458
-0.040826851186573435 -0.03573991763078377 0.07608289183048264
-0.04071702688849704 -0.03738146975429052 0.07589977700521311
-0.04072913199105984 -0.03798628370958762 0.07498353997465573
-0.04083138849237898 -0.03782936879315091 0.07351952153067623
-0.040937165870157534 -0.03764630211124853 0.07202982186358492
-0.04103161664525664 -0.03756227344501489 0.07060497136125071
-0.041116880720697656 -0.037558713036261016 0.06923254996186295
-0.04120932701544343 -0.03749789500507239 0.06781240221877843
-0.04129712542270956 -0.03747917904787984 0.06641712345523176
-0.041389643116686574 -0.03742410823950193 0.06498897363302159
-0.04148396014259264 -0.03735725905488735 0.06354580891744432
-0.041571330331514174 -0.03735145075710533 0.062142061368224144
-0.041665726427017075 -0.03729037892899867 0.06069073481667958
-0.041762601994288655 -0.03721205595166466 0.059219934105799676
-0.04185353487104272 -0.037186203434639575 0.05778255155988499
-0.04194747677007423 -0.037138699108038464 0.05632238929333705
-0.04203659379073232 -0.03713415917953683 0.05488892600407097
-0.04213564295503534 -0.03705116391765756 0.05338859884392533
-0.04224111947572692 -0.036918947496475174 0.05184315578917836
-0.04232849717442352 -0.036938374454523915 0.050409212774839285
-0.042429819257887975 -0.03684706833185669 0.048882091808289785
-0.042533082323257955 -0.03674348036547892 0.04733826889248671
-0.042629203735087634 -0.03670149927967653 0.04583633410483873
-0.04273016506031174 -0.036623622459334815 0.044299033479128114
-0.04282842843518399 -0.03657107804477333 0.04277510367575199
-0.04292634686990379 -0.03652473214294899 0.04124935613735664
-0.04303181482747746 -0.03642098054595927 0.03967012827817551
-0.043140334937465205 -0.036296362816569006 0.038066487990052245
-0.043235523204862 -0.03628243422507016 0.03654618798350351
-0.043340426158704516 -0.03619407200071245 0.034957742269422
-0.04344151964023846 -0.036139773464527014 0.03339020835149825
-0.04354261669830951 -0.03608895895210068 0.03181846458849136
-0.043644774560782904 -0.036033223371763345 0.030235457894053686
-0.04374682097240319 -0.03598192142552065 0.02864896687255436
-0.0438512488325448 -0.0359153146248305 0.027042264860175802
-0.04395366664175719 -0.03586821194552964 0.025444772800853332
-0.04406100693548613 -0.03578587464116595 0.02380979383931192
-0.04416682131240364 -0.035719265853959625 0.022180707644631426
-0.044277753172813815 -0.03561618151504864 0.020512464994470625
-0.04438315012139195 -0.03556028264793332 0.01887735496413928
-0.04449149890051591 -0.03548498813835055 0.017217699828860233
-0.04459927055509412 -0.03541795631384881 0.015557515797314181
-0.044712140822980855 -0.0353150193058549 0.013857800247729202
-0.044818251572180244 -0.03526845246614668 0.01220004379033196
-0.044930485990178855 -0.0351781640839654 0.010495520555779458
-0.045046296288288865 -0.03506415359155057 0.008761532464146737
-0.04516548110978538 -0.03492815922918108 0.0069992590447801595
-0.04527933672341173 -0.03483728603814079 0.005269257109360326
-0.045385229133280525 -0.03481146517600403 0.0035903018366664763
-0.04548176281247278 -0.034860964326426935 0.0019726887017825767
-0.0431485399077361 0.013464850161644282 0.0778851378296897
-0.042983692750681 0.01118260529489834 0.07790080154345724
-0.04283701021506481 0.009072511194020916 0.07782019580486169
-0.042683910778301415 0.006909034727379582 0.07778245597874844
-0.04253753801563407 0.004812355735503204 0.07771269725512525
-0.04240336567266625 0.0028319228606051294 0.07757901678106749
-0.04226958269780383 0.000859817482512848 0.0774487993076311
-0.042131336459615025 -0.0011479650288315768 0.07735012860014195
-0.0419926461819528 -0.0031548275109052892 0.07725992290469991
-0.04185865317326028 -0.005114329463419887 0.07714821099514568
-0.04171511030027765 -0.007155093954430425 0.07709812830332388
-0.041575955097496564 -0.009151276430049482 0.0770283656947599
-0.04143161268961178 -0.011189042838227636 0.07699512377263446
-0.0412935804724279 -0.013165135790416782 0.07693066767128726
-0.04115635723759271 -0.015129068130001089 0.07686727945917893
-0.04101972206557656 -0.017082854026968297 0.0768062247660376
-0.0408837785839608 -0.019025602363710425 0.07674684594832959
-0.04074936660514763 -0.02094988816442378 0.07668405557604732
-0.04061520625811962 -0.022867142713842326 0.0766254690488565
-0.040487553464371974 -0.024722016843974237 0.0765332357573083
-0.040357490251948624 -0.026593620736104273 0.0764610641320935
-0.04022568795144842 -0.028475908214696588 0.07640501940522318
-0.04010046813889787 -0.030295588931147976 0.07631435416393129
-0.03997785443415009 -0.03208792101295971 0.07621303499713789
-0.03985104021970604 -0.03391267249768004 0.07614278477307129
-0.03972502799892419 -0.03572588395804044 0.07607297882279818
-0.03960788745165971 -0.037457193200552685 0.07595356015642654
-0.03959362981679355 -0.03828853863892373 0.07519939777094956
-0.03969234717151087 -0.03813774178633139 0.07374095634202313
-0.039790551370650504 -0.037994919788313986 0.0722815263526424
-0.03987609603131943 -0.03796515062282291 0.07089744251806929
-0.03996860991653295 -0.03787825441511905 0.06946579003440612
-0.040055942791113304 -0.03783930938627206 0.06806296725348793
-0.04014294097172078 -0.03780636130725212 0.06665855162645734
-0.04023247887679309 -0.03775472453459772 0.06523426314687031
-0.040328827103257255 -0.03764796190754721 0.06376265799560821
-0.04041358902238165 -0.03764365766220151 0.062361215362058076
-0.04050924266676432 -0.03754949299635185 0.060886122707183965
-0.04059099403488464 -0.03757705795533661 0.05949665808053306
-0.04068959544278935 -0.03746444274027544 0.05799463760484369
-0.0407794766879425 -0.03742924920812435 0.056545055311438996
-0.04086911873172798 -0.03739928825673777 0.05509320647027888
-0.040961929127575666 -0.03734579083473338 0.053616830442699714
-0.04105666233239904 -0.03727941551717556 0.052123893857056125
-0.0411534498038131 -0.03719916062817491 0.0506134090056749
-0.04124755756342225 -0.03714483252512124 0.04911649398686124
-0.04133829378865188 -0.03712207652641947 0.047637901343440925
-0.041437725221148414 -0.03702995844368806 0.04609767958081373
-0.04153478425190786 -0.03696115756573476 0.04456903800641704
-0.04162965449781837 -0.03691402022573714 0.04305090037402304
-0.04172772648164168 -0.0368437087158307 0.0415072497641657
-0.04182147950672755 -0.03681265291395608 0.0399884864935684
-0.041920681912173886 -0.03673993091703265 0.03842894993504753
-0.04202327501687005 -0.03664280343100762 0.0368422321305632
-0.0421281768161629 -0.036530351251714555 0.03523546621259693
-0.042222606523841945 -0.036507588060005924 0.03369559105797931
-0.04232281226584707 -0.03644089706905851 0.0321122172680402
-0.04242853002649734 -0.036332744985139886 0.03048678631494378
-0.04252523230789096 -0.03630187390605871 0.02891886179464609
-0.04262792109328792 -0.03622575331773081 0.02730552117636953
-0.04272739247993388 -0.036179417265872815 0.025710075487843487
-0.042828728581338314 -0.036121529710934575 0.024097452545948972
-0.042933593283565136 -0.036038743234962145 0.02245594801519285
-0.043040857136254995 -0.035940354748441816 0.02079322480508028
-0.04314203063791888 -0.03589480060480321 0.019168601716178124
-0.04324308645705603 -0.03585380419972006 0.017540499794433284
-0.043345811315391745 -0.03580304679480956 0.015896333896492143
-0.043448545299202244 -0.035755884801322746 0.014247731721495682
-0.043560451725958994 -0.0356392436908623 0.012529720467379546
-0.04366893477448952 -0.03555383821042418 0.010831292900176981
-0.04377869060019633 -0.03546220209724116 0.009119169754274181
-0.04389071412034684 -0.035356522621464104 0.007386151836611288
-0.04400651337539874 -0.03522500273792378 0.0056212733115412195
-0.04410968533109803 -0.03519719012927597 0.003942343557041761
-0.044192720862397415 -0.03533148721738122 0.0024043706024179934
-0.04193685426489873 0.013340893839281998 0.07796126750228266
-0.041791185976919776 0.011196610482588909 0.07789215080127998
-0.04163348672643367 0.008944409760862138 0.07789977381913851
-0.041500386396042914 0.006929141054256127 0.07776989446168622
-0.04135963093598019 0.0048469716707705834 0.07769094765431808
-0.04122304946744439 0.002809039230569188 0.07759347656081661
-0.04109078967136636 0.0008164932854601847 0.07747633046991434
-0.04095498792077321 -0.001204215844629375 0.07738607669571337
-0.040819100180488344 -0.0032207369707786815 0.07730228170756737
-0.040686817388131076 -0.005198790794048891 0.07720279917086956
-0.04055054974777137 -0.007208916446610258 0.07713311034273457
-0.0404151918314004 -0.00920562248231066 0.07706388675782078
-0.04028359958381297 -0.01116259567323269 0.07697774057257911
-0.04014716897233086 -0.013159309675228936 0.07692681680544233
-0.04001218282040119 -0.015137731670600896 0.07687303782923494
-0.03988007733202871 -0.01708476271120557 0.07680750049741872
-0.039748324702938216 -0.01902371008495729 0.07674557412300259
-0.039617542394103665 -0.02094895012347253 0.07668342159304536
-0.03949353286595421 -0.022807612909535757 0.07658501145683239
-0.0393620886247589 -0.024729395107019936 0.07653827802405053
-0.03923514013474379 -0.026605509318205822 0.07646923379696405
-0.03911260896571254 -0.02843691427028122 0.07637807489567569
-0.03898716263124768 -0.030290193202735072 0.07631060513655777
-0.03886459258004592 -0.032112894369854816 0.07623048266531096
-0.038745146707111044 -0.03390294254619752 0.07613594944046095
-0.03862526200854827 -0.03569254943910849 0.0760494322182581
-0.03848896241067689 -0.03762505901104368 0.07607278811969095
-0.03846137285156563 -0.03857900260464281 0.07540683495545006
-0.03854115178542658 -0.0385723593759294 0.07405304419046957
-0.03864644462806176 -0.0383410922122302 0.07253146535120689
-0.038731800349476764 -0.03829114221721969 0.0711340981143111
-0.03881999749962252 -0.038219089540432016 0.06971457286696875
-0.03890325203591223 -0.038194086433279206 0.06832333918856903
-0.03899223264505223 -0.038121492087119346 0.06689108699688423
-0.0390726339779549 -0.03812789538054806 0.06551112456218305
-0.039164899522304786 -0.03803274430373621 0.06404968547794565
-0.03925689638009003 -0.03794334403508709 0.06258597892640255
-0.03933981084606286 -0.03793699279480228 0.0611783213089947
-0.03943354740525603 -0.0378389553926915 0.05969521397641381
-0.03952374732561153 -0.03777525417358407 0.058231551535705195
-0.03960881997611943 -0.037759559516129915 0.056798191968421397
-0.039699927503725134 -0.03769449557363547 0.05532066205138869
-0.039788763203211334 -0.03765249773151974 0.0538544197509116
-0.039879141325661165 -0.0376004028566152 0.05237388375993973
-0.03997567782432182 -0.03749839862218751 0.050847713108705894
-0.04006239437540804 -0.037484637157897516 0.04938399071082311
-0.04015497024581417 -0.03742363191287934 0.04787656139566898
-0.04025083532043945 -0.03733777851855963 0.04634260312929822
-0.04034056011076985 -0.03730806788074409 0.04484654204626276
-0.040435710545937024 -0.037235255360688835 0.043309240101551794
-0.04053045148982133 -0.037169432038703654 0.04177059816092443
-0.04062013378494955 -0.0371501619733407 0.04026281981550828
-0.040719645012006866 -0.03705067518034788 0.03868287480015764
-0.040807880435040224 -0.037050440490263126 0.037177106929877024
-0.04091137925973291 -0.03692432297723769 0.035560836810948404
-0.0410094647263061 -0.036847703008322574 0.03397797578307804
-0.04110581161228436 -0.03678932979675631 0.03240304409944034
-0.04120172416089892 -0.03673814590800362 0.03082695800613533
-0.04130042764435997 -0.036667079515043 0.029226929852810557
-0.0414044252112032 -0.036555338362090906 0.027585013864088792
-0.041503990798884546 -0.03648442195146484 0.02597009213069168
-0.04160267815206942 -0.03642447935133847 0.024357082474359693
-0.041704565474134356 -0.03634156098555724 0.022716835561049253
-0.041804552971685484 -0.03627814293760273 0.02108577625055985
-0.041902380046459395 -0.03623627725748885 0.019465907029538154
-0.04199870503606804 -0.03621040857348762 0.017852611688768727
-0.04210022553876927 -0.03614527051142563 0.016197436091665074
-0.04219909360203542 -0.036105666938451075 0.01455710286899925
-0.04230205444491529 -0.036036123494457895 0.012882592936076853
-0.042406930111583536 -0.035954690540668854 0.011189569175288572
-0.04251409996295941 -0.03585837577101275 0.009475122551689419
-0.04262704053764161 -0.035718980532238154 0.007713519570518801
-0.042734491220213916 -0.03562836168355504 0.005987491439974402
-0.042839244424048725 -0.0355635681685299 0.004276727822702053
-0.042921610296451744 -0.03568378935640315 0.0027275907047650816
-0.04074290433451743 0.013382204000552067 0.0779358962344657
-0.04058550590164202 0.011083520091084764 0.07796200461839711
-0.04044660139924816 0.00897002335062469 0.07788386237645167
-0.040306894509608004 0.0068540174860394765 0.07781682824475475
-0.0401737982217303 0.004807111435648881 0.07771599231063836
-0.040044708302187364 0.002803838784038004 0.07759676263524276
-0.039916016301755966 0.0008092735366035941 0.07748091839285201
-0.039779731549057916 -0.0012532939252031805 0.07741744092583
-0.039652099263421364 -0.0032278335485353415 0.07730684254813264
-0.03951729231916074 -0.0052661316990483265 0.07724632224975239
-0.03938872466851404 -0.007239807580129487 0.07715318809845423
-0.03926026454152159 -0.009207598404748718 0.07706517823829831
-0.03912748589564931 -0.011211568937857463 0.07700992973374246
-0.039000004611459485 -0.01316028070724784 0.0769274586248907
-0.03886846908800098 -0.015142544572426697 0.07687623680653954
-0.03873993933541558 -0.017091442949086377 0.07681196545235022
-0.0386150672217543 -0.019001001204545342 0.07673031118713358
-0.03848511408377803 -0.02095364027996799 0.0766865914754378
-0.03836009361470907 -0.02285505231492907 0.0766172521828288
-0.038240607385275543 -0.024699880231727978 0.07651810771117828
-0.038114038339841706 -0.02660642379171957 0.07646986221018243
-0.03799131615396533 -0.028472281232924446 0.07640251318928495
-0.03787469214028984 -0.030276703159380247 0.07630123206624417
-0.037754175649182375 -0.03211289436990211 0.07623048266534402
-0.037635186463976955 -0.03393036192931831 0.0761552116745983
-0.037522156973772286 -0.03568816284184312 0.07604633364433552
-0.03739003064199618 -0.037618104082818626 0.07606784832924465
-0.03733477524123401 -0.038834379308985256 0.07558921428916421
-0.03739577228595399 -0.03897903622150173 0.0743450685005419
-0.03750813519883891 -0.03865440171142004 0.07275767707998171
-0.037590711098816475 -0.038606931678643486 0.07136334740958333
-0.03767346030331237 -0.03856099934363266 0.06996414012985885
-0.037761469480084214 -0.03847020156988329 0.06852598091251721
-0.037837068639125886 -0.03849573128740236 0.06716723853975398
-0.0379224561304867 -0.03843517659884704 0.06573910140957212
-0.03800988318207279 -0.038359356342869855 0.06429332092546641
-0.03809146205186961 -0.03833976089272678 0.06288328996204101
-0.03818075044139539 -0.03825363377970814 0.06141708802174001
-0.03826888095105122 -0.03818131640960615 0.059954772829355185
-0.038352566728753576 -0.038152298799925044 0.05851895127382212
-0.03844268691202504 -0.038068708290904696 0.05703511126963612
-0.03853203221128823 -0.03799546385086461 0.0555525564201062
-0.03861496685186305 -0.037982879314593765 0.05411034856304786
-0.03870511568189081 -0.0379091054925364 0.052614306145783885
-0.03879416667240091 -0.03784850839252063 0.051121849940731434
-0.0388822035118387 -0.0378002827074117 0.049632469225487086
-0.038975037466516434 -0.037712884510195666 0.04810548464851827
-0.039062870841315274 -0.037673205844925284 0.04660949297092537
-0.03915233924695053 -0.03762242409623062 0.04509800507856193
-0.039244810238861054 -0.037548593351447945 0.04356122888593339
-0.03933188636037615 -0.03752564830013272 0.042058600200567564
-0.039423848220479285 -0.03746317106666602 0.04051723913250638
-0.03951750258302648 -0.037389367831159204 0.0389596377072296
-0.03960621675240829 -0.03736222089671165 0.037433235264307974
-0.039702756666723925 -0.03727027773523911 0.03584655149380789
-0.03979667626290753 -0.037204754383354965 0.03427442219004617
-0.03989200538078506 -0.03713056068570858 0.032687859762037585
-0.03998779229877949 -0.037056010686829566 0.03109367816705566
-0.04008079575273108 -0.03700911183142791 0.029515450151913425
-0.040174558777118875 -0.03695918660381842 0.027927482772926282
-0.040276294986874586 -0.03684427648772687 0.02627686829791992
-0.04037328015412035 -0.036773958891488656 0.024656588847330685
-0.040472056668171205 -0.03669197936816615 0.02301873263175319
-0.04057430970045214 -0.0365840509108728 0.021350716892760024
-0.04066806052509016 -0.03655242294538885 0.019741158037386852
-0.04076392344456479 -0.036506385822581644 0.018111660726555234
-0.04085686793000924 -0.03648872650212981 0.016499622491160937
-0.040954414439210204 -0.03643563577210912 0.014848949781329612
-0.04105560470614139 -0.036355466084338484 0.013166525771737492
-0.04115684013628038 -0.036278742007955944 0.01147920190007079
-0.041255138564603985 -0.036230534257358504 0.009809498263824545
-0.04136530796044993 -0.036086480051973124 0.008045440826509098
-0.0414671523496995 -0.03601625689910998 0.006339669720405006
-0.041573803989307524 -0.03590974737284797 0.004592677106284859
-0.041661016597383374 -0.03596920541489029 0.0029894460766678455
-0.03954002885033609 0.013336545901929342 0.07796393785455516
-0.03939127644405526 0.01107813645269251 0.07796532999101877
-0.03924919423485146 0.008892125740164625 0.07793225322583147
-0.039118850167888804 0.006828630149107229 0.07783268909631644
-0.03898757664883224 0.004760967713129394 0.07774498495627408
-0.0388571812282499 0.0027071360271847533 0.07765786747582251
-0.038733689483218356 0.00072678140670146 0.07753333954246186
-0.03860891232670988 -0.0012614723787531257 0.07742266751366997
-0.03848051985389283 -0.003280542681639853 0.07734071774272194
-0.03835665160100793 -0.00525005247085053 0.07723593008889212
-0.038228509564236395 -0.007256745723216107 0.07716419707936542
-0.038101925689178986 -0.009243161435869895 0.07708842255170342
-0.03797817798479038 -0.011196878313042169 0.07700027387572703
-0.03784926900536502 -0.01319620530564608 0.07695120357405552
-0.03772458786846441 -0.015149282423397858 0.07688071523413245
-0.03760062741274034 -0.01709048864438928 0.07681132761167156
-0.03747630997544337 -0.019030332974847963 0.07675002545401649
-0.037354457038875154 -0.02094144562053768 0.07667834961053469
-0.037234451637412846 -0.022829938892304724 0.07660018462114773
-0.037108814579259713 -0.024768126002958246 0.07656474651768877
-0.03699275247059803 -0.026609167183999916 0.07647174743041704
-0.03687647089579023 -0.028447797164203203 0.07638559488996152
-0.03675763790034152 -0.030306379893004942 0.07632185187476706
-0.036643851849296034 -0.03211200252555024 0.0762298595771313
-0.03653391530991366 -0.03387640355800264 0.07611730568753164
-0.036418288154932636 -0.03569079481356774 0.07604819279813005
-0.036296262117294135 -0.03756158490598993 0.07602770515584345
-0.036224766966216064 -0.038947662501744806 0.0756701163952106
-0.03626494829366683 -0.03927239073839095 0.07455571892564933
-0.036368865670538195 -0.03899578159515216 0.07300415582980471
-0.036448301020579374 -0.0389543283611819 0.07161554216077215
-0.03652974999128637 -0.03889700054208978 0.07020939457603675
-0.03661165676354524 -0.03883854195442871 0.06879630702155287
-0.03669346473911329 -0.03878420105068886 0.06738010071491524
-0.03677451353668618 -0.03874015453124513 0.065965369412336
-0.03685092859419724 -0.038742556118135096 0.06457916785561707
-0.036938068552140976 -0.03864794614568229 0.0631144276519724
-0.03702067800244698 -0.038598880629009236 0.06167742530978182
-0.037102607497392 -0.03855934606138367 0.060241373633609874
-0.03718231126330192 -0.03854362365863723 0.05881723602330646
-0.03727131641136995 -0.0384450140061387 0.057323496973772536
-0.03735668307951905 -0.03838343896829377 0.05585148907095777
-0.03744438649038368 -0.03830367714454508 0.05435885335799251
-0.03752830191775155 -0.03826213092030778 0.05288924780721538
-0.03761710839347787 -0.03817901659781053 0.05138063869795578
-0.03770554730225601 -0.03810272429007816 0.04987055347964264
-0.037787073179081074 -0.03809298105818526 0.048406304551156576
-0.037876214524575916 -0.038017046367980256 0.04688307695031507
-0.037967277077783884 -0.03792712195053721 0.04534174209601022
-0.038052751776194015 -0.03789142576228183 0.043836937306234836
-0.038142849800388165 -0.03781721681428629 0.042294334320158444
-0.0382362145107178 -0.03771701687067558 0.04072356948346467
-0.03831750788642872 -0.03772923331077693 0.039237358992079086
-0.03841050268311228 -0.03763939884227835 0.03766093759604733
-0.03849942614676792 -0.03758971681341583 0.03611036759346625
-0.038591860934093704 -0.03751206232874804 0.03452956848723182
-0.038684948239490015 -0.037432179571515234 0.032939612418652675
-0.03877389714627165 -0.03739281276925338 0.03137628860899955
-0.038865351235662 -0.037334628802657976 0.02979003898286081
-0.03895607992006257 -0.03728644557683469 0.028205002919892197
-0.039051675131808766 -0.03719870113980078 0.026579015486236146
-0.039142958044136165 -0.03715278451776394 0.02498124501823379
-0.03924449363456882 -0.037020030430749584 0.023301359513647535
-0.039340974604609356 -0.03693569785654882 0.0216552711239531
-0.03942800911901968 -0.03693804130212436 0.020076895152896734
-0.03952333702761473 -0.03687114058849916 0.018430906112571144
-0.03962010685763289 -0.03679535307671833 0.016769404888535067
-0.039709913289679356 -0.03678405058552353 0.015157111574605309
-0.039812656400545286 -0.03666370131889102 0.01344058287207528
-0.03990654175939635 -0.036624241932002644 0.011788004959200404
-0.04000819676733354 -0.03652114901046455 0.010070608835239914
-0.04010713528680687 -0.036445490166724215 0.008369694551486284
-0.04021239549809069 -0.03631918131634515 0.006614701213664642
-0.04031223509409478 -0.03624360292272666 0.0048973788922055395
-0.04040226648388912 -0.03625609621796544 0.003252654455106363
-0.03834226675645427 0.013340893839027979 0.07796126750243865
-0.038189776092037095 0.010997399524558915 0.07801519967965836
-0.03805847786472634 0.008878256810411322 0.07794086875699843
-0.03792365555274553 0.006728171044541487 0.07789545136830214
-0.03780235277285857 0.004722173535475993 0.07776935979610106
-0.03768009708462816 0.002711294287823851 0.07765523994107881
-0.03755782246033083 0.0007051330977205783 0.07754709636078178
-0.03743684005882574 -0.0012829391521277378 0.07743638624129973
-0.03731065950034374 -0.003319051643101145 0.07736546674704245
-0.03718473326981252 -0.0053475117920743775 0.07729891899178148
-0.037068300767464 -0.00727467856341224 0.07717585256570725
-0.03694546683429712 -0.009261928085519622 0.07710068860080752
-0.03682014708261819 -0.011269340801550176 0.07704790204057885
-0.03670299591023444 -0.013189409295339016 0.07694671164021466
-0.03657969575791618 -0.01516660719252877 0.0768922304374886
-0.036460168538411344 -0.017100985723013384 0.0768183436766389
-0.036341514368249686 -0.019021817786640527 0.07674430228452667
-0.03622090849031611 -0.02095739231774113 0.07668912732226604
-0.03610305814485171 -0.022860632600067654 0.07662104465119227
-0.03598884377374658 -0.02472293914367818 0.07653386605214799
-0.035869643245874064 -0.026630198454833554 0.07648619982121055
-0.035755344083890334 -0.02848406865279912 0.07641065820390491
-0.03564931406489128 -0.030251518984178216 0.07628373374998607
-0.03553424489637376 -0.03210397572200996 0.076224251640431
-0.0354226981209255 -0.033917095023813404 0.07614589161663096
-0.03531256297906452 -0.03571184915117781 0.0760630650140024
-0.0351960209744075 -0.03756506354332162 0.07603017588435443
-0.035106054572027624 -0.039153284020733425 0.07581696266189333
-0.035133225705551836 -0.03959286374060961 0.07478584244605285
-0.035226615278432995 -0.03938757596685788 0.07328703420526722
-0.035309798311483925 -0.0392853995445579 0.0718558853157707
-0.0353858504485886 -0.03925584015330613 0.07047131926713801
-0.03546250074773319 -0.039223537088958926 0.0690788561013766
-0.03554942399608945 -0.03909492646620538 0.06760938536184385
-0.035623517419041476 -0.03909367394402152 0.06622765111527162
-0.035703845887985676 -0.03903532682775934 0.0647975594465991
-0.035783804740941144 -0.03898376046735408 0.06336628703139668
-0.03586117884613054 -0.038960205174657814 0.06194988616643421
-0.03594581825172006 -0.038870198968702696 0.06047704481131683
-0.03602120378112553 -0.03887200555873527 0.0590675429246576
-0.03610492280192609 -0.038797389075305 0.0575935431844139
-0.03618950024926327 -0.038717968930430946 0.05610924252956501
-0.0362723103622979 -0.03865872540821519 0.054633890118597206
-0.036355783932877854 -0.03859652328462265 0.053149677750732816
-0.03644125721687787 -0.03851877002359638 0.05164666648611532
-0.03651692511474771 -0.03853695046985539 0.05021237954481389
-0.03660699220614485 -0.03842262412324021 0.04866719404162867
-0.0366954820158746 -0.03832673219692512 0.04712948502546155
-0.03677549909430447 -0.0383138128817736 0.04565106785240036
-0.03686344563802398 -0.03822994207316782 0.04410917468628195
-0.03695620917058599 -0.038104646800429076 0.04252672242600064
-0.03703962540573422 -0.0380701301377806 0.04101058618092035
-0.03712026502976138 -0.03806476761904243 0.03951154105760507
-0.03721046448706925 -0.03797399752708641 0.037935811199616254
-0.03729831708042448 -0.037908566179053416 0.036373696665479516
-0.03738908501511091 -0.03781974774544772 0.03478502818473006
-0.03747637764674129 -0.03776659249202835 0.03321873731801178
-0.037566602154085506 -0.03768999278570523 0.031625652197199206
-0.03765543654023885 -0.037629768590939694 0.030039003235397543
-0.03774408067617231 -0.03757485448673459 0.02844957767463152
-0.03783252889751643 -0.037525290736923456 0.026857433276665066
-0.03792149548108569 -0.037474556912778345 0.025257006176988672
-0.038020701412721465 -0.03733430009419486 0.02357211326263431
-0.03811502378159691 -0.037242332531753075 0.02192084114784304
-0.03819885376773034 -0.0372491305472315 0.02034774378858567
-0.03828567415324983 -0.037232287567745326 0.018746993844853177
-0.03837899956219637 -0.037160310886585 0.017090509453650926
-0.03846949944034144 -0.03711748970052997 0.015452027840138549
-0.03856712839827753 -0.03701434519901331 0.013752346208207256
-0.03866375718877701 -0.0369240758518945 0.012055992374679303
-0.038759689380211744 -0.036843910096814037 0.010360602136635089
-0.038855018958379305 -0.03677296841881805 0.008665469067934362
-0.038953423155998174 -0.036678519392642606 0.006940951862625611
-0.039055163379140084 -0.036558429329102804 0.0051847132447800925
-0.03914658219140376 -0.036533781952539035 0.0035074176302559157
-0.03714488585683741 0.013349589999491707 0.0779559266223907
-0.03698836387241974 0.010912392392830872 0.07806770699309504
-0.03686343065563805 0.008817458473385387 0.07797863735031199
-0.03673654837074754 0.006707028356170708 0.07790866035681315
-0.03661736601486386 0.0046833871190582466 0.07779372975945206
-0.03650161030915744 0.0027008988040659876 0.07766180867188283
-0.03638140401206351 0.000676272484898488 0.07756543637096669
-0.03626383153093602 -0.0013156457839418323 0.07745728800262705
-0.036140361339121956 -0.0033646442609487903 0.07739476828760017
-0.036025584799778076 -0.0053173751056531104 0.07727944135956982
-0.035905727699174245 -0.007318507189969403 0.07720433907161664
-0.03578713826777921 -0.00930143066245187 0.07712650783638941
-0.035666136051092194 -0.011304582611786018 0.0770710657875347
-0.035549774551134124 -0.013254446579323342 0.07698969909368336
-0.03543379904096824 -0.015195478181768862 0.07691142003301407
-0.035318577773681394 -0.017123886349662443 0.07683365005759649
-0.03520062667263823 -0.01907574058470779 0.07678054450315874
-0.03508718709582512 -0.020976151339731575 0.07670180576776459
-0.034973392608178465 -0.022875512514865026 0.07663115732549444
-0.03485800118275189 -0.024786566343872496 0.07657734855113907
-0.0347514807736003 -0.026601851377630437 0.07646672011212238
-0.03463922978835576 -0.028471374476004285 0.0764018866273698
-0.03452778965364856 -0.030327959835872886 0.07633684592011922
-0.0344205628844492 -0.03213697245532221 0.07624730485094036
-0.03431339151850544 -0.03394097472792801 0.07616266721109854
-0.034206626282185314 -0.035736409319174545 0.07608041365384435
-0.034093313055162854 -0.037593759628143375 0.07605055749593423
-0.034001477261481214 -0.039229249924719656 0.07587121432509683
-0.034005148023389394 -0.039897233918260666 0.07500440293727054
-0.03407915879218035 -0.039857070937140804 0.07362601297595053
-0.03416469199382108 -0.03970418925521191 0.07215990827335075
-0.034234985845329344 -0.03970767758226401 0.0708011250503029
-0.03431069688459211 -0.039659868803306186 0.06939908125055194
-0.03439241914574631 -0.03955516744976978 0.06794899772101703
-0.03447339093464125 -0.039461334318627694 0.06650042422381564
-0.03454469783016849 -0.039466978773457784 0.06511954915415064
-0.03461329253667172 -0.03950249746694262 0.06375533767745128
-0.03469761987383928 -0.03938504845953317 0.06227024404616904
-0.03477137584217257 -0.03937557371365563 0.06086019149748939
-0.03485190184445948 -0.03930238954407422 0.0593956002314982
-0.034936946658817185 -0.039188072625324644 0.057892947488164315
-0.035016522114924314 -0.03913099615732185 0.05642747769017664
-0.035095551482683895 -0.03908257141313909 0.05496222078267221
-0.035183527446926426 -0.03894993205823838 0.053424917967834995
-0.03525597000921418 -0.038972525695870675 0.052001958320423536
-0.035335992947242836 -0.038924306688285226 0.05051730922923192
-0.035415546516807 -0.0388839671700863 0.04903231488045012
-0.03550104136446792 -0.03878931763636079 0.04749755090729563
-0.03558723050045032 -0.03869149587430615 0.04595318788652497
-0.03567149029753373 -0.03861587605585659 0.0444195457169817
-0.035753601574670404 -0.03856444980282875 0.04289847469242969
-0.03583978999110875 -0.03847723323076463 0.041341486762000834
-0.035926394947040405 -0.0383895951502522 0.03977697407370173
-0.036008057833072184 -0.03835285412078726 0.03824704277904134
-0.03609345893606503 -0.038283794936434246 0.03668358795309806
-0.03617965266858588 -0.038210723164491645 0.035109640457061886
-0.036266356167338296 -0.038136378084647815 0.03352738677499445
-0.03635328108093702 -0.038063527592659796 0.03193908504807452
-0.03644023151911445 -0.03799404021577252 0.030346283434129373
-0.036527401871597864 -0.03792608102596884 0.02874742265009006
-0.036615188240736694 -0.03785592970096824 0.027139303154365024
-0.03670409382887056 -0.0377788913752688 0.02551782290746568
-0.036794331790770546 -0.03769303512915667 0.023881175405457755
-0.03688722455915804 -0.037586059715021825 0.022218536234712982
-0.03696807150021348 -0.037595491843680606 0.02064930189795189
-0.037053936091272284 -0.03756149622191329 0.01903512810299035
-0.03714264488832091 -0.03750460333096112 0.01739343179874192
-0.037232393539336925 -0.037441737578790824 0.01573881474983252
-0.03731702409257301 -0.03742999232478078 0.014121905016813097
-0.03741319833072332 -0.037315090224495806 0.012405475619157835
-0.03750810367949527 -0.03721587502504364 0.010694803941321385
-0.03760182141183486 -0.037131520183234346 0.008989308816264918
-0.03769852676249035 -0.03702363134815506 0.007254286315267755
-0.03779604722840602 -0.03691228864002588 0.005507671973613848
-0.03788792538153779 -0.03685654151086698 0.0038035338496064663
-0.03797332989608314 -0.036863617208561295 0.0021492792417348583
-0.03596629250064879 0.013566029861942996 0.0778229967681448
-0.03579607065298209 0.010922074898169487 0.07806172629086064
-0.035671375122660325 0.00878546692500276 0.07799851085079637
-0.0355436895002149 0.006621423920761482 0.07796214210823393
-0.03543271208777636 0.004645656431372047 0.07781743639597702
-0.03531671510738086 0.002619833257197446 0.07771303262328921
-0.03520450061650543 0.0006402028232482815 0.07758835750455828
-0.035094218438790306 -0.001313601783718532 0.07745598174752064
-0.034970997307791865 -0.0034031361679626726 0.07741950633133962
-0.03485883320661477 -0.005367600244916171 0.0773119023533457
-0.03474664939962438 -0.007327470876789255 0.07721016503828781
-0.03462786521099882 -0.0093537587170206 0.0771607099182123
-0.03451488842720098 -0.011312413217833994 0.07707621269048298
-0.0343997572062477 -0.01328938253922285 0.07701279058610988
-0.034287723400872015 -0.015228193158210057 0.07693316460020949
-0.03417561498041483 -0.017163001623149432 0.0768597940267737
-0.03406264384028031 -0.019102223125651463 0.07679834376568245
-0.033952175964207645 -0.021009912681209164 0.07672462365923563
-0.03384242228424242 -0.02290526865616843 0.07665138016746559
-0.03373450455676094 -0.02477642439140021 0.07657041759336006
-0.0336252887690603 -0.026656712606724253 0.07650441997004101
-0.033519263526257725 -0.02849857517055815 0.07642068209382216
-0.033413393731516 -0.03033425348849389 0.07634121883775888
-0.03330353592602413 -0.03220740417498735 0.07629651206320015
-0.03319935871964662 -0.03401613024772704 0.0762154642858068
-0.033095664104713735 -0.035815329195280854 0.07613616052443273
-0.03300316545692403 -0.0374928674615263 0.07597889807046873
-0.03292995163121214 -0.0389649510846643 0.07568246317618205
-0.03293350944574377 -0.0396334201065251 0.07481496494197182
-0.03298074391366407 -0.03984757272090239 0.07361915519499876
-0.03304518398843846 -0.03988508852726069 0.07229123320878547
-0.033104524439086534 -0.03997821036113153 0.07099859269970055
-0.03317305935658906 -0.03997879486521044 0.06963314204052218
-0.033237832452737946 -0.04002113675087032 0.06829283701238881
-0.033299982322543886 -0.04009326876449476 0.06696926648994189
-0.033368905011968604 -0.04009846150325669 0.06559060214375961
-0.033430352739157954 -0.040183265885340436 0.06426591123052594
-0.0334980188123622 -0.040207065560499244 0.06289009533003376
-0.033566217240224364 -0.04022832824121336 0.0615067019822641
-0.03364531339507096 -0.04014145420412146 0.06003517164218497
-0.033721659663567126 -0.040085934922033106 0.05858103337198567
-0.033804803672778834 -0.03996470250904827 0.05706984375582741
-0.03388038745234495 -0.03992359367888182 0.055613715419416065
-0.03397250388786238 -0.039718655746484643 0.054023611861819976
-0.034052378599025074 -0.039641109686849196 0.052525461269385676
-0.03414196519879966 -0.0394692607319056 0.05094630108901688
-0.034221210103993586 -0.03940509234221318 0.04944474910109936
-0.03429696437430754 -0.03937929467107537 0.04796697860439092
-0.03438153011315181 -0.039268644386545315 0.046414866414974054
-0.03445980846320241 -0.039224345845648434 0.044908881728523364
-0.034546819059447204 -0.039096469134278 0.0433286141026078
-0.03463362956809839 -0.03897430870008767 0.04174551847896518
-0.03471903806594473 -0.038869765746156915 0.04016934577026704
-0.03480255850429319 -0.03878755769670439 0.03860415278521234
-0.03488295365608998 -0.038739774185166775 0.037060168888694234
-0.03496502686493689 -0.038678909928990035 0.03549835842268517
-0.0350485180635583 -0.03860762841952592 0.03392072595008966
-0.03513598767913769 -0.03850091486936302 0.03230609647116356
-0.035215850827317305 -0.03847237085462529 0.030749777760193442
-0.0353028274866133 -0.03837780340397573 0.02913048949032615
-0.035391190416276454 -0.03827345933558984 0.027495247371003007
-0.03548018888184268 -0.03816672464414195 0.0258501986901159
-0.03557147017553445 -0.0380416643490285 0.024181531053062477
-0.03566040858373896 -0.0379431873475109 0.022527837176717302
-0.03573877802798915 -0.03795056900072191 0.020958448437286004
-0.03582297458275384 -0.03790517083529982 0.019335923445138847
-0.03590688022069825 -0.03786617715037832 0.017711558992906273
-0.035991871639894424 -0.0378203651879957 0.016073698797651303
-0.03607875593650981 -0.03776008108834883 0.014415392455161491
-0.036166060725181075 -0.03769950523305843 0.01274906044322699
-0.036252084471637455 -0.037654874875184596 0.011089235058449609
-0.03634063417375463 -0.03758992062661615 0.009403330720357539
-0.03643893490016905 -0.03743628247861136 0.007628941015078772
-0.036534306230817375 -0.03731457631434171 0.00587483008394768
-0.036622809095105006 -0.037261803085934686 0.004175341662452481
-0.036712564402479504 -0.03720102479253501 0.0024604530750044207
-0.034600411464645216 0.0108941045143357 0.07807900307318524
-0.03447820068501505 0.008738555435671203 0.07802765278212154
-0.03435768865118876 0.006607688439237314 0.07797072341135228
-0.034248288714251854 0.004607933086711979 0.07784113841879195
-0.03413581221577164 0.002578274397936009 0.07773929296531545
-0.034027361549012876 0.0005989886557536406 0.07761454780953461
-0.03391932538980845 -0.0013708255183990103 0.0774925516044031
-0.03380665036429198 -0.003387942926658505 0.07740974191338573
-0.0336932878196369 -0.005407770740081919 0.07733786493329431
-0.033581751031749006 -0.007402151636321852 0.07725870395143328
-0.03347130393969675 -0.009379423726205594 0.0771774847964562
-0.03335929722979849 -0.011369175246177643 0.0771135212524568
-0.0332502189175198 -0.013321401370353592 0.0770339539547045
-0.03313994456775131 -0.01528206396470233 0.07696897075075798
-0.033032982650966124 -0.017201154806888885 0.07688529495187985
-0.03292397105776823 -0.019138157553088064 0.07682249576487865
-0.03281729149649086 -0.02104460527697649 0.0767480709468854
-0.032713327972885994 -0.02291642594155291 0.07665896287171667
-0.032606664264246306 -0.02481330146645333 0.07659561919540908
-0.032506447203564125 -0.026634770141929665 0.0764893414196913
-0.03239590700108122 -0.028564746096412463 0.0764664056842457
-0.032290230063849686 -0.030436718509823713 0.07641241296400045
-0.03218851092471294 -0.03226087773095948 0.07633387143240933
-0.032087430634645635 -0.03407358028396751 0.07625582318244525
-0.03200168688980279 -0.03571535795939679 0.07606554354143238
-0.03194883285659815 -0.03699711918548182 0.07562678910276566
-0.0319585029718363 -0.03760074899762361 0.07470820724972016
-0.03198552971739022 -0.03801759413523392 0.07365468136644843
-0.03203575114198745 -0.03818596734563767 0.07241946407343333
-0.03209003117921405 -0.038312969495817195 0.07114994376100753
-0.032143109183723935 -0.03845526341299321 0.06988696121731586
-0.03219120966745586 -0.038653157876426925 0.06866025309267071
-0.03228554017297481 -0.03835965847049949 0.06706683024927579
-0.032345211484965546 -0.03843957493036165 0.06574236460202498
-0.03242591935332115 -0.03829849453023787 0.06424792120598011
-0.032496942783414605 -0.03826373366726532 0.0628262698512585
-0.03256216804374772 -0.03829350527461428 0.0614471535730261
-0.03261816420545526 -0.038423670268395105 0.06013851188399427
-0.03269323850345073 -0.03835518715000963 0.058673601558185406
-0.03274545484180546 -0.03853050449658563 0.057389013478801376
-0.03281295712058462 -0.03854766286104516 0.055978022658778104
-0.03288372503079167 -0.038533602983300275 0.05453696451735113
-0.03293689458404992 -0.0387066499045261 0.05323544606503028
-0.03294357428400047 -0.03936701886322519 0.05231084746410952
-0.0329629435925008 -0.03989559187916342 0.05128191212610789
-0.03302316788492101 -0.040000650507953484 0.04991609184383411
-0.03308620437536964 -0.04007923007415831 0.048523897001297
-0.0331788222021225 -0.03985464514848702 0.04688362612535368
-0.03324036186182 -0.0399549177247272 0.04549641316467773
-0.0333236763478109 -0.03983366724463 0.04392464124227474
-0.03340335817662529 -0.0397534410243543 0.04237881098713214
-0.03347749454919665 -0.03973361194570596 0.04087523822136552
-0.03355595934452258 -0.039672780292618726 0.039331365221923265
-0.03363854327370046 -0.03957337072035011 0.037748613733501635
-0.03370745018366729 -0.03961696105803253 0.03627718720252632
-0.03379799326177494 -0.039443660326674734 0.03461853786951513
-0.033865111601994964 -0.03951198187367366 0.033154482237862826
-0.03392313958739589 -0.039675285181706266 0.031764492407957756
-0.03399312740791568 -0.03972037664843492 0.030269010218056613
-0.0341111830047499 -0.03928419217693824 0.02835689760996163
-0.03420566545635567 -0.03909026498299123 0.02664167912145171
-0.03431581512255138 -0.038743342375115675 0.024786049968639534
-0.034410221253121945 -0.03855890330464301 0.023061096180566232
-0.034490120037186364 -0.03852355343640124 0.021457315097305973
-0.0345761453865648 -0.03843068713581038 0.01979587262165522
-0.0346553008096503 -0.038409948898688984 0.01818999125560372
-0.03474520182895851 -0.03828610360698648 0.016485629579201855
-0.034825708402079755 -0.03825924555543925 0.014859207928240192
-0.034909281787695104 -0.038205663920319044 0.01320145808546197
-0.03499064804023393 -0.03817753915329458 0.011558836711005438
-0.035076083987723 -0.03811300334683515 0.009875772898260582
-0.035172382182118336 -0.0379456853269734 0.008091438648430427
-0.03525645246841103 -0.037902333308424685 0.006411261501216403
-0.035345657825240295 -0.03781255555481128 0.004680630304333633
-0.035419664569447555 -0.037874835381951855 0.003081874269919793
-0.03341121712308474 0.010940365373619032 0.07805042860668035
-0.033286761015267806 0.008708708518117392 0.0780461940144298
-0.03317231110583123 0.006600292811793862 0.07797534386246138
-0.03306391710010914 0.004568121964598659 0.07786615221682924
-0.03295649551235689 0.0025523046591524046 0.07775570280511637
-0.032850916428525515 0.0005629335221274956 0.07763745971102462
-0.03274653757379967 -0.0014076031457402882 0.07751605500864359
-0.032638117125885754 -0.0034203537049164456 0.07743057172703682
-0.03253145030860988 -0.005407770740140705 0.0773378649333323
-0.03241980703783401 -0.0074479411479494995 0.07728846493862432
-0.03231071943113536 -0.0094534376573841 0.07722586096008516
-0.032204482790984326 -0.011421028839889158 0.07714760359713341
-0.032096331768211306 -0.013405788075921632 0.07708973072391673
-0.03199258558130449 -0.015334957433983942 0.07700412729745645
-0.03189083801396169 -0.017236439417857907 0.07690887857278722
-0.03178610123833784 -0.019167467225117474 0.07684219517922283
-0.031684019477907756 -0.021063355263063188 0.07676074328539109
-0.03158071609883681 -0.022968484133188805 0.07669434261306221
-0.03147767917989846 -0.024865838182584976 0.07663152251504621
-0.031374990551825875 -0.02675450656208822 0.07657162258805414
-0.031272729909941406 -0.028633610135677612 0.07651399019489924
-0.031172404542330744 -0.030486132100331298 0.0764467462160214
-0.031078325413773592 -0.03226355098088102 0.07633573910193292
-0.031014112333203683 -0.03370025940044302 0.07599356366204951
-0.03099698127555808 -0.034604800358266685 0.07528107562377201
-0.03102174095738072 -0.03503864915458349 0.0742357709304804
-0.031059861579590727 -0.035324066323357495 0.07308229595025253
-0.031107723410086684 -0.03550240986009806 0.07184859144358202
-0.031177488951620945 -0.03543875649053696 0.07043595792871626
-0.03123472328412338 -0.03551772330759895 0.06912071765614597
-0.03132084959288548 -0.03527854111393225 0.06756820380902506
-0.03137659997140237 -0.03537986856104486 0.06625797628159741
-0.03144450652514194 -0.035349348350333876 0.06484551889661283
-0.0315105160859557 -0.0353428769186232 0.06344487484999839
-0.03158854448082248 -0.035207099230400773 0.061941902483163724
-0.03165139338699052 -0.03524169393575943 0.06055975230792243
-0.03171654845315449 -0.03525388746457758 0.05915509541536129
-0.03179750264723082 -0.03509619953141513 0.05761581086075879
-0.03184559404884161 -0.03530105643476994 0.056345610900281284
-0.03191588112719273 -0.03526627691450923 0.05488743954141584
-0.031983385004892194 -0.035264986420094846 0.053448738881809066
-0.03203195687513018 -0.03547220949342306 0.05216546792224491
-0.03210062702226654 -0.03546405567682115 0.050710063545302386
-0.032164094555810284 -0.03551526476472611 0.049294914303206205
-0.032221107805693934 -0.03563897299949531 0.04793107021391069
