# .PCD v0.7 - Point Cloud Data file format
VERSION 0.7
FIELDS x y z
SIZE 4 4 4
TYPE F F F
COUNT 1 1 1
WIDTH 771
HEIGHT 1
VIEWPOINT 0 0 0 1 0 0 0
POINTS 771
DATA ascii
-0.06851816581374948 0.04153554496464323 0.04322493812590589
-0.0692874740065923 0.04152671437471664 0.042446938067207673
-0.07001418752812372 0.0415234947417389 0.04163149051870885
-0.07070876565729506 0.041524533280068845 0.04078739773737111
-0.07134881068924792 0.04153284344881107 0.039893977684236026
-0.07195875797842816 0.04154521097973857 0.0389726409418783
-0.07251388563503447 0.04156497273259454 0.03800039114634851
-0.07301285835161686 0.041592358201382976 0.0369752117803781
-0.07346360052060691 0.04162635381612259 0.035903593252375465
-0.07386000041601987 0.04166782850397909 0.03477915883164018
-0.07419357175321212 0.04171797990037059 0.033593194054551634
-0.07445885880652559 0.041777606292964356 0.03233965092307933
-0.0746456424379166 0.04184815971691833 0.03100788069011068
-0.07470539212729599 0.04193631656830501 0.029550760168913337
-0.07463972018397974 0.042041978825553515 0.027967908881048942
-0.07441389322642145 0.042170014044756766 0.026224197619869494
-0.07400954908165402 0.04232309265152315 0.024299527815776545
-0.07321466114438263 0.04253049620104423 0.021986247670785053
-0.0716560859073665 0.04284394853700626 0.0189159018642977
-0.02571137482167063 0.04342483238361782 0.04608774321255815
-0.03028903358625329 0.04295920006637689 0.048150350060027935
-0.03352997155634602 0.04265473694131601 0.049203778705758094
-0.03630470092269056 0.0424060005760677 0.04991305500853199
-0.038695239160105976 0.04220329427488764 0.050336996128808265
-0.040879014575626205 0.04202511935592235 0.05061126659153309
-0.042883292702482645 0.041868277034212247 0.0507550198289321
-0.04477054902210559 0.04172519776455347 0.050816017503989064
-0.046524635652398394 0.04159796642772654 0.05077984165803928
-0.0481881719992317 0.04148140538174433 0.05067929809777566
-0.049755428394128054 0.041376295029482354 0.050508614877449676
-0.051263095604599795 0.04127814448442822 0.050296575001605226
-0.05269378432235461 0.04118916727597989 0.050028162839296064
-0.05406395497435745 0.04110736621592892 0.049716007998201306
-0.05538129873207703 0.04103182494542452 0.049365739926091334
-0.05663923390971459 0.0409634104597052 0.04897120396116311
-0.05783786464757118 0.04090215637925191 0.04853173316129106
-0.059001809000358785 0.04084500647114254 0.04806733447113337
-0.060122584280770774 0.040793059406299674 0.04757037814420778
-0.06119752559213304 0.04074668692324815 0.04703803803148998
-0.06223529699127173 0.040704826501335584 0.04647714405344788
-0.06322750026098106 0.040668576054646154 0.04587997801588922
-0.06418588214183646 0.0406364756967652 0.04525611186362627
-0.06509963079345238 0.040609934109637355 0.04459568622295762
-0.06597398157046003 0.04058831815511013 0.04390268442000955
-0.06680931335107754 0.040571612158897756 0.04317690800061558
-0.06760835022634204 0.040559498732542 0.04242023503856296
-0.06836429136837763 0.0405528852097207 0.04162612073542099
-0.0690758899835357 0.04055196966217777 0.04079285291748935
-0.06974816467786138 0.0405561408312657 0.03992431995772178
-0.07037429547571633 0.04056631801238865 0.03901380674439392
-0.07096157643450496 0.04058159336409145 0.03806727846643165
-0.07148201605372118 0.04060564988530739 0.03705862880054639
-0.07196085590141404 0.040635249949733145 0.03601005037460131
-0.0723778802260775 0.040673078261128065 0.03490228845229393
-0.07272457073336114 0.04072030895032867 0.03372653735456138
-0.07305096134157107 0.040770425525034154 0.03252838354553722
-0.07326865242944708 0.04083510161798369 0.031224696404748176
-0.07334992539664764 0.04091810005078137 0.02978775557118779
-0.07331605879731268 0.041016729211127034 0.02823566072692313
-0.07313542975758952 0.04113529495130113 0.02653657672954035
-0.07276848134326447 0.041279198559386575 0.024650437095946276
-0.07210337355452295 0.041463530906547405 0.022466872006510596
-0.07078874554246428 0.041735539245581696 0.01964176808307272
-0.0669249923618101 0.04235034267612821 0.014319861501271514
-0.024076070680671358 0.042444559231259706 0.0448277502092701
-0.029193614531839607 0.04192794545921354 0.047301787709411125
-0.03253582104431785 0.04161996073833142 0.048429518708226815
-0.03532421080174297 0.041376572212824446 0.04914532856848841
-0.037808420470245074 0.041168422135844006 0.049638885700450885
-0.03999439771458113 0.04099502528816651 0.04991115386885625
-0.042020430291505095 0.040840042603235684 0.0500684649315416
-0.043921556203086465 0.04069938715094769 0.05013688232226149
-0.045665221983082926 0.040577066747786064 0.05008869449492265
-0.047333682194776794 0.040463284962456596 0.0499884400473527
-0.04890366932567819 0.040360907718014274 0.04981628988580589
-0.05041890919142217 0.040264715552996426 0.04960674737425269
-0.051844903319757774 0.04017893406911685 0.04933080492216113
-0.05322195980939598 0.04009873021277896 0.04902062676835839
-0.05453000999187674 0.04002658574448126 0.048658946527247615
-0.05578099201722636 0.03996109555367532 0.04825485381344746
-0.05698322952128598 0.039901284599537123 0.04781460910852947
-0.058142372761910976 0.039846497189794564 0.047342359508523446
-0.05925246779478899 0.039797498254371386 0.04683250710504355
-0.06032150731162422 0.03975334137406682 0.046291231825233925
-0.06135406936395932 0.03971349335956714 0.04572192570938316
-0.062338457253428736 0.039679430046809606 0.04511403774760686
-0.06328408559527171 0.03965002237528205 0.04447508410510592
-0.06418253355955444 0.03962634790485289 0.0437972188911151
-0.06505028689378389 0.039606391433297555 0.043094236201763614
-0.06586767706633723 0.03959263318398594 0.04234841829468
-0.06665504441094222 0.03958256979731996 0.04157706622122037
-0.06738801193829108 0.03957928286956796 0.040758094145978696
-0.06808599098259505 0.039580378453031924 0.03990809463544259
-0.06873892776933233 0.039587152491465646 0.039017543919801334
-0.06935102883752503 0.03959911233411758 0.038089604078145045
-0.06991697731866475 0.039616965867681875 0.037118864562133314
-0.07039993234502728 0.03964542512952418 0.03607103723829025
-0.07084342271198713 0.03967902966356958 0.034984859427792225
-0.07123649696597206 0.03971920971518203 0.03384964852022787
-0.07159021875612637 0.03976459761630196 0.032674914984598236
-0.07182029928756944 0.039826015912065 0.03138151679656004
-0.0719256519678591 0.03990371411832666 0.029966608344050794
-0.07193573404881604 0.03999401725285277 0.028456067917560113
-0.0717904001382158 0.040104762544679456 0.026791519995576885
-0.07147139960362842 0.04023844858495783 0.024953252247339353
-0.07088025647117435 0.04040798254635815 0.022844437154895758
-0.06973935527287367 0.04064963524013207 0.02019403208415771
-0.06701546258322522 0.041098286343768456 0.015995151164659105
-0.021747010007437007 0.041533299613787676 0.0430332215470266
-0.027950851217810713 0.04090645445656122 0.04633908566879602
-0.031497752857298666 0.04058369627076333 0.04762105493720381
-0.03431148152150826 0.04034439157819764 0.04835235877875599
-0.036845256756132594 0.040136526195440975 0.04888067588741374
-0.03905575913493736 0.03996533465213741 0.049168286712980847
-0.04111312760951025 0.03981124156675992 0.049346550183820226
-0.04300743099212362 0.03967551571245636 0.04940564575893419
-0.04477078731972961 0.039554519600310756 0.04936938317577394
-0.04643749165197336 0.03944432930142421 0.04926386680144529
-0.048027723507973685 0.03934264479980706 0.049104305472154386
-0.049537036361174125 0.03925004459298615 0.048886124259949315
-0.05096443467680223 0.03916670514153502 0.04860749767759348
-0.05233169182356662 0.03909011298233847 0.048285378310127525
-0.05363898936490785 0.03902029064571768 0.04791916521964207
-0.05488478965298693 0.038957464968440145 0.047506819137413614
-0.05609165977564379 0.0388989967296208 0.04706649322883988
-0.05723781677027401 0.03884751202283733 0.04657932390811648
-0.05834222862445676 0.038800790065380966 0.046060611464262546
-0.059407901186257994 0.038758502282184776 0.0455123819545431
-0.060422247484536507 0.03872218883185345 0.044923347731423924
-0.061400521561921995 0.038690054299357665 0.044305974797804015
-0.06233501695042454 0.03866305555936304 0.04365311493790236
-0.06322780980420395 0.038640975939246355 0.04296599216683272
-0.06407930978619503 0.03862379864994189 0.04224440483171332
-0.06488748460959015 0.038611803130524716 0.041486005308465634
-0.06565109660488067 0.03860517465947813 0.040689106166182154
-0.06637688168747236 0.03860312809234452 0.03985908110109432
-0.06704915021413538 0.03860761133546547 0.03898138043915922
-0.06768096675428265 0.03861706854347064 0.038066990398231026
-0.06827254577954889 0.03863150702835015 0.037115530576200706
-0.06882248259816276 0.03865113334879899 0.03612514936999439
-0.06925872044278003 0.038684866846092125 0.03502948080753493
-0.06967033166008413 0.0387217966404468 0.03390860508205329
-0.07004227229550991 0.03876380779641616 0.03274827563355098
-0.07027057412719717 0.038823841301062624 0.0314515135712497
-0.07042963674949426 0.03889276390225366 0.030085543934814107
-0.07048335559585539 0.03897513909245555 0.028615502445353325
-0.07040555464723403 0.03907433128523251 0.027015158934453554
-0.07011333078143644 0.03920084255944102 0.025204058637181503
-0.0695749499113753 0.039358846692056026 0.023148780603685915
-0.06856331708886793 0.03957714376146604 0.020628391571706706
-0.06628081637213845 0.03995677168187229 0.016868886357654544
-0.026502171136093988 0.03989982718319783 0.045216870959749134
-0.030308932977156422 0.03955749058555636 0.0466951833852331
-0.03322526958529587 0.03931377433107313 0.047501851868890055
-0.03581730278829326 0.03910554633506716 0.04807146269307688
-0.03805230214574129 0.03893672806122965 0.048374120293899425
-0.04013653977305481 0.038784240629514674 0.048569507223876096
-0.0420484461167307 0.038650634019801705 0.04863852458542833
-0.04382761198021823 0.03853153247667535 0.0486108742254287
-0.04549110883221058 0.038425086211515525 0.0484987129208414
-0.04710298034982374 0.03832407055097113 0.04835265770818764
-0.04859969618624649 0.038235784373842126 0.04812017595895901
-0.05004677756850007 0.03815280288874664 0.0478536400135251
-0.051410254965234436 0.03807906137131987 0.047524388315845434
-0.052708470582798095 0.03801250930900984 0.04714659006195748
-0.05394835781969587 0.03795239409399519 0.046725206065417246
-0.0551533851348589 0.03789604536921514 0.0462791872870309
-0.05629491622144134 0.03784680499693612 0.045783942866970906
-0.05739039990833067 0.03780269414056397 0.04525344730269415
-0.05844868264666814 0.0377627174022956 0.04469464746833407
-0.059452964002309594 0.03772886108841009 0.0440926648934275
-0.06041942704552483 0.0376992746151576 0.043460729077725135
-0.06134277351248513 0.03767460686978838 0.04279375295521076
-0.06222751189688519 0.03765436139807139 0.042095086474848775
-0.06306347480191238 0.0376397637926221 0.04135531236012907
-0.0638575618622717 0.03763003834229458 0.04057983760030687
-0.0646052742788853 0.037625749300600454 0.03976410942377773
-0.06530453748149923 0.037627178873987706 0.03890564169109206
-0.06596289410877898 0.03763347028392412 0.038010499485925886
-0.06656453991783101 0.037646536443102965 0.037063906687329895
-0.06713537163184446 0.037663335486358585 0.03608844795660571
-0.06765071648398019 0.037686841105212164 0.03506127782499263
-0.06804996650177891 0.03772435789931135 0.03392628039578727
-0.0684116240719162 0.037766557660460935 0.032753801702057495
-0.06869648962167468 0.037818188652242804 0.03150712848177761
-0.06888763754784633 0.03788135643019329 0.0301694361629386
-0.068963103862618 0.037958794759770625 0.028718866707080515
-0.06890777875205345 0.03805243212256184 0.027139542851449205
-0.06868266762611758 0.03816711479754268 0.025392784863127182
-0.06818357687875698 0.03831566834476026 0.02337741399703419
-0.06724476656926526 0.03851854405606921 0.02093161144674638
-0.06526137618455802 0.038850070060917806 0.017470237494467467
-0.024720801658093317 0.03891980067950734 0.04383693963074886
-0.028986231429201648 0.03853801552044449 0.04566504269238697
-0.03206145868383781 0.03828444078573954 0.04659058475750211
-0.034701374085104264 0.03807737313222118 0.047192995116889735
-0.03700476969421784 0.03790628758728944 0.047545071211721524
-0.03909672431383138 0.03775768327441286 0.04774215585611463
-0.04104031340360742 0.03762476517955128 0.047832088561477526
-0.04283137906453233 0.03750809279991416 0.047809695959288134
-0.04450777755081364 0.037403588165656504 0.04770368607740333
-0.04611995160565224 0.03730574440150848 0.04755363437834775
-0.047616381803394336 0.037220321862954174 0.047316659795850924
-0.04907156957353198 0.037139115863844246 0.04705250414870554
-0.05042638683411643 0.03706874385709328 0.046711838007374995
-0.051728471520238295 0.037003955621925044 0.04633293326658233
-0.05296851149535642 0.036945830072543234 0.0459073561499998
-0.05417100792332563 0.03689166226095424 0.04545487489264394
-0.055309698281193864 0.036844430861181256 0.04495286511222846
-0.05639379284480617 0.036803143768343725 0.04440831047165078
-0.057442255062698955 0.03676569878424057 0.04383666723826518
-0.05844889895562161 0.0367328214014151 0.04323217400731494
-0.059396904534547934 0.036706449661576206 0.04257979175553789
-0.06031071025591056 0.03668384876621693 0.041899903832585295
-0.06118083684012454 0.0366661237560363 0.04118380268836769
-0.06199953169221173 0.036654192350436605 0.04042411406152274
-0.06278025600245207 0.03664655287392778 0.039631980312446746
-0.0635103148074706 0.03664469007082353 0.038795652431659666
-0.06418357746715087 0.036649347437455765 0.037908977141814626
-0.06482141797242058 0.03665810649149025 0.03699026361899177
-0.06541998610395017 0.036671439467039574 0.03603555153724897
-0.06593992612442556 0.03669393168550785 0.03500873531468407
-0.06639035435349538 0.03672458786723405 0.03391696805976613
-0.06675446121264672 0.03676541754554104 0.032743904132171264
-0.0670637247945744 0.036812822423255585 0.03151716925779474
-0.0672914547602031 0.036869964175638995 0.030211336040425918
-0.06739540264767285 0.036941854276653266 0.0287860316872946
-0.06735307697707582 0.037031232308600746 0.027218465931755087
-0.06715765851070155 0.03713902022548307 0.025500075521835586
-0.06669714673505872 0.037278543938425994 0.023523098939297216
-0.06583143856150814 0.03746657147490709 0.021150953491307467
-0.06397452119947267 0.037772817850196524 0.017819973388702948
-0.02233736866606617 0.03799146326615374 0.04199062201001441
-0.027510498559832286 0.037525967552077585 0.04451571880835692
-0.03078289700571374 0.037259551294073476 0.045589467474878465
-0.0334541424491982 0.037055725278342735 0.0462111648718147
-0.035868463177781695 0.0368783226335209 0.04664576363117445
-0.03799167320230651 0.03673115223417036 0.04686289834897084
-0.03996065543872479 0.03659980497788147 0.04696843731289413
-0.041765169324876616 0.036485477679704385 0.046952241786564486
-0.04347982954694274 0.03638028563833307 0.046872586454929255
-0.0451101071684229 0.03628370050292042 0.046732814773998044
-0.046603750079011796 0.03620140084381433 0.04648918694280735
-0.048050825069673286 0.036123766573400294 0.046213959925239245
-0.04939708938775589 0.03605669038690568 0.04586176884556803
-0.05070072348241916 0.03599393963713363 0.045479632271864245
-0.05194707465700693 0.03593713312021179 0.045054791813024186
-0.05314124239250845 0.035885755061682977 0.044590798975166046
-0.054267118839090245 0.03584159723843642 0.04407340022787354
-0.05535666949984008 0.035801214592877134 0.043528815263111975
-0.056388627262455415 0.03576696082308696 0.04293844879030223
-0.05738615427725463 0.03573633457313851 0.0423213942595127
-0.05833139254553377 0.03571132400898023 0.04166181756104925
-0.05922406677164743 0.0356919967787286 0.040958783878136895
-0.060077871859189 0.03567687779046893 0.04022351028654658
-0.060880831007994574 0.035667321186896986 0.039444990117493584
-0.061639918184423215 0.03566259028861234 0.03862866495721212
-0.062350550956225104 0.03566322706838371 0.03776987801692866
-0.06300243382639048 0.03567041514905646 0.036858802310168526
-0.06360322792979012 0.035683342783438814 0.03590146190457444
-0.06415316765019158 0.03570202245439138 0.03489734443388609
-0.06464348947349219 0.035727476473599945 0.033837808632726396
-0.06504262549888568 0.03576330121035206 0.03269333617500436
-0.06535959745746128 0.035808550137051344 0.031470845805860403
-0.06559841294762564 0.035862834635012546 0.03017281645535619
-0.06573198907655114 0.03592928317202155 0.02877311987879483
-0.06572391730410693 0.036012111169439316 0.027236449711297683
-0.06555024470370008 0.036114155684411224 0.02553838781315665
-0.06518127796638934 0.036238934259476045 0.02364865339852995
-0.06426753983181877 0.036426540899102376 0.021235234909317058
-0.0625183346807075 0.03671070571511318 0.018014873062754955
-0.025674714596742254 0.03654100137615367 0.04308598149038256
-0.029357821945053486 0.03624122272173353 0.04447362981395614
-0.03214381470584027 0.036032293623761445 0.04517966489029357
-0.03464169279658952 0.03585212298784285 0.04567486019320338
-0.036799195755209846 0.03570628497506757 0.04591407821158133
-0.03880093844775828 0.03557592001553492 0.04604074441400413
-0.040639373679723645 0.035461909491606394 0.046046868164783206
-0.042375380982851985 0.035358039900562584 0.04597963585703774
-0.043976813962063876 0.035267720749291256 0.04581165380408864
-0.04552888817944167 0.03518215656944772 0.045610862650520945
-0.04696024129671755 0.035108833578645575 0.04531804256339106
-0.04832590172564166 0.0350420701305334 0.04497710367779645
-0.049627834802527804 0.03498170282419936 0.044588852679897595
-0.05086791083402137 0.03492757682643362 0.04415404440046916
-0.05205558162066243 0.03487873697912498 0.043679821379364936
-0.05317971232085056 0.0348363940202615 0.043156121592606345
-0.05425719913830884 0.03479880231387174 0.04259644890612019
-0.05529703657253504 0.03476503907697785 0.042007866951929596
-0.05627620721113269 0.03473757669450593 0.04137016172969221
-0.05720206288899321 0.03471567360023274 0.04068886231280827
-0.0580834702762551 0.03469841989915879 0.039970936311448046
-0.05892084774743023 0.03468580176862447 0.03921615150140784
-0.0597046441664269 0.03467887458751405 0.038415552381843354
-0.060427843423481675 0.034678430632756614 0.037562232536820284
-0.06110404346244935 0.03468304832947175 0.03666738159620264
-0.06173434464155142 0.03469264285975636 0.035731322721535896
-0.06230172137690282 0.034709090274417834 0.03473819302490999
-0.06280888364280718 0.034732142871688985 0.03368953632089067
-0.06325764170270476 0.03476164852409508 0.03258612685500256
-0.06358900645692311 0.03480407816827326 0.03137356432181715
-0.0638464541921529 0.034854771879920025 0.030089836638735046
-0.06398954545731961 0.03491821203277212 0.028696758288045854
-0.06400297311655634 0.034996164787842426 0.027178536090609606
-0.06385528914313088 0.0350921870921636 0.025504102772549497
-0.06347018124971698 0.03521481247001446 0.023599955078208057
-0.06259748059364212 0.03539185558964957 0.02122821891701765
-0.060835970284166485 0.03566810851366992 0.018003862573331475
-0.023254969493807565 0.035601711618448634 0.041201446085776416
-0.02763377447777421 0.035243121165760526 0.043123695942882234
-0.030666494208794304 0.035016776275104425 0.04401670694093457
-0.03326778598492253 0.03483243179425513 0.04458750850347393
-0.03550835381563355 0.03468330061928646 0.04488699226589832
-0.0375532298207758 0.03455310296192777 0.045042664328818205
-0.03943301717056208 0.034438893367598526 0.04507670686902637
-0.0412073238591017 0.03433478753393231 0.045035257512100635
-0.042830560658249084 0.034245440084553116 0.0448799586353722
-0.044361531868639115 0.03416501438359246 0.04465695647341866
-0.04580728387783395 0.03409285601180987 0.044370885091709666
-0.04718156439026089 0.03402762588475855 0.0440320261562781
-0.048489919212415855 0.03396880609492461 0.043644083661405375
-0.04972563874379027 0.033917121359719825 0.043200622308480374
-0.05091899092038166 0.03386953157877237 0.04272610849740177
-0.052043236641054647 0.03382879661307299 0.0421974508074936
-0.05311375494139814 0.03379338628156799 0.04162679211718029
-0.05413883530584218 0.0337624847388034 0.04102049954955361
-0.055102969787577005 0.03373771732568451 0.040364688913417934
-0.056006813294524616 0.03371905716993882 0.03965911483459322
-0.05686437376129555 0.03370509726174467 0.038915101464745805
-0.05766937456208554 0.03369651895687256 0.03812656097791722
-0.058435590678418636 0.03369192832579881 0.03730483467701584
-0.059143329652392884 0.033693400657406954 0.03643206534410948
-0.05979712125757475 0.03370050429616337 0.03551145027590458
-0.06038564136613034 0.033714460401187425 0.03453216777854007
-0.060908338777080795 0.033735372831164845 0.03349280658237297
-0.061372042371801605 0.0337625717158978 0.03239856764561505
-0.061754501847046506 0.03379844037299762 0.031228508214371564
-0.06200933545224235 0.033847928102287546 0.029939347192644905
-0.06217613241208331 0.03390694363712166 0.028565374452495795
-0.06221215984300621 0.033980078097031595 0.027066092886280535
-0.0620573837469503 0.034073801069511585 0.02538421762333032
-0.06166719420136885 0.03419299997848768 0.02347558813640499
-0.060806959790518644 0.034362871894464984 0.021118071341900857
-0.058879133861033495 0.03464763670840453 0.017744967969883563
-0.02553834513213976 0.03426922311781195 0.04148296904771259
-0.028994319617885955 0.03401019021329102 0.042700358364507474
-0.03173866722093588 0.03381856114656753 0.043377317348077815
-0.03409942189462711 0.03366312051050144 0.043765945505545245
-0.03621202615827018 0.03353100583350471 0.04396979472066076
-0.03814265283781054 0.03341595580557808 0.04403898582756516
-0.03993744092880741 0.03331360050242184 0.044008552639889564
-0.04157627707686162 0.03322597929004247 0.04386045452655962
-0.04314695689640119 0.03314462588755208 0.043664465527980645
-0.044594273465310696 0.03307497646726925 0.04337439393199177
-0.045970548244945175 0.033011982713348736 0.04303188039353162
-0.047281347425808584 0.032955141709276506 0.04264065142923251
-0.048529450662750495 0.032904220265220656 0.042202198069290375
-0.04969418766068373 0.032861294977063575 0.04169837648590824
-0.05082835571379496 0.03282120193422193 0.04117264150179539
-0.051880082920925275 0.03278909604682075 0.0405806208626418
-0.052875981970591734 0.0327623890833702 0.03994391618441151
-0.05382773410818842 0.03273995499308125 0.03927180286646392
-0.05472901603841185 0.03272245236718355 0.038558249786622034
-0.05557101472478104 0.0327107943430023 0.03779494934939459
-0.05636520460504124 0.03270387104523341 0.0369910902040666
-0.05709934255147814 0.032702942533925805 0.036135305995474765
-0.05777719575403539 0.03270767005551033 0.03523008546072909
-0.058388193945999534 0.03271915687040847 0.03426529866764616
-0.0589318081586831 0.03273750181321646 0.033239540031004156
-0.05941579746832548 0.03276196552268364 0.0321587934325836
-0.0598160402495439 0.0327950368524635 0.031000535699406195
-0.060111675419768196 0.032838895510817374 0.0297447262678025
-0.060268218785857364 0.03289712945725833 0.02835855009032595
-0.06030444704775961 0.032967918169029095 0.02685713260562833
-0.0601657223911754 0.03305694143283528 0.025188585426614007
-0.05974208566195033 0.03317560789154645 0.02324893554579044
-0.05883236864623653 0.0333448116083795 0.02084750970171345
-0.056616486823828416 0.03364944222381386 0.01721292606472441
-0.022776078318961945 0.03334319205503276 0.039320106595939874
-0.027083484231402777 0.03301466223396538 0.04119613419170909
-0.030030515690344373 0.032811179456957176 0.04202543420918503
-0.03257711895070453 0.03264412648933717 0.04255469267060252
-0.034751187793042704 0.032511133652410866 0.04280122567458838
-0.036740806490238476 0.03239482499832609 0.04291161008193439
-0.03855263502724904 0.032294683865556444 0.04288893213607897
-0.04024865467414673 0.032204991471949135 0.04278133931321837
-0.04182331389528937 0.03212633829070365 0.04258284955233166
-0.043295962573785374 0.03205697018416293 0.042307828210367604
-0.044685298603779566 0.03199517943827955 0.04197042717702798
-0.04600154908408921 0.03194004626976105 0.04157808243581945
-0.04723450416129166 0.03189258394263756 0.04112134297969022
-0.04840805381939367 0.03185056875191724 0.04061918200361653
-0.049518682054516094 0.03181437189142167 0.040067870060133015
-0.05057151919976233 0.03178354119124165 0.039470940390770703
-0.05156209509913118 0.03175854036498613 0.03882382669340767
-0.05248680848586762 0.031739753779819684 0.038122620071217694
-0.05337452845701829 0.03172444433548018 0.03739131345995994
-0.05418979668669566 0.03171605510271686 0.036598704328915155
-0.05495021336445677 0.031712930837134445 0.0357591332875159
-0.05565871924772514 0.031714821767941354 0.03487442469725871
-0.05630462784439044 0.031722799041636975 0.033934460627443874
-0.056873033824543284 0.031738353921515715 0.032925187501789965
-0.05736423040083921 0.03176150870863767 0.03184578007571531
-0.057775019749004675 0.03179262715002088 0.03069228859240547
-0.0580834902095656 0.03183390964000652 0.029443879529310102
-0.058254831379992156 0.03188884293761757 0.028067646073531127
-0.05830297118030858 0.03195614889357732 0.026574259709233272
-0.058148062989561045 0.03204378718332536 0.024889053164314945
-0.057665859246189666 0.032164179140830994 0.022895081807113082
-0.056669280198235195 0.03233608472825698 0.020415042805608907
-0.05359245015629982 0.032715361917930605 0.01598974455351493
-0.024620941703122623 0.03205581977179132 0.03925760195403655
-0.028094263459276847 0.031812901775197605 0.040493025229685786
-0.030831926725056413 0.031635024398641666 0.041166093220489586
-0.033126715483544455 0.031496250499652365 0.04150176085885865
-0.03518324060805744 0.03137837417461977 0.04165900347434576
-0.03705298262938844 0.031276876325913944 0.04167645783094781
-0.03881333255717223 0.03118485141363217 0.04161468384754902
-0.040393571715025 0.031108781729908865 0.04141453454448274
-0.04188445460215534 0.031040513107327732 0.041148270797604025
-0.043297451181575075 0.03097905042172714 0.040824241204177436
-0.04461616992615536 0.030925936068638322 0.04042785361511053
-0.04585625280471822 0.030879792065492934 0.03997095569201281
-0.04702765246111412 0.03083975058827593 0.03946088767889128
-0.04812781669503213 0.03080608649993134 0.038894609593704
-0.04917507122051801 0.030777152355017493 0.038286732829847236
-0.050143138465602255 0.030755407205965868 0.03761416515562316
-0.051064001617698807 0.03073793708668805 0.03690326446592479
-0.05192949898613036 0.03072552773950815 0.0361463722690325
-0.052709158877598916 0.030721046826618432 0.03531635385460419
-0.053440533253988176 0.030721046827517733 0.03444473585484881
-0.05411366200736306 0.030726488108087265 0.03352213935384468
-0.05469893005005538 0.030740179848868236 0.03252170273460531
-0.055205239971221454 0.03076134195201402 0.031450076631636625
-0.05562254279870715 0.030790969671406158 0.030297216106669522
-0.05595092456410061 0.030829111888331182 0.02906193709134125
-0.05616722671489749 0.030878013841295644 0.027722161065962092
-0.05616141462510221 0.030948166701537157 0.02617689612212143
-0.05596121774419249 0.031037083060133745 0.02444813162280024
-0.055410634996864994 0.03115972792017724 0.022390669013301667
-0.0542156645845665 0.031344357419883534 0.019729694949721543
-0.02555020007093467 0.030854230101821676 0.03847957599091517
-0.02872933370191383 0.030645224537182696 0.03949312019617823
-0.03125489216536459 0.030491976523806315 0.04000443244703206
-0.033453747493254415 0.030366450451252375 0.04026813164788545
-0.035409695968298904 0.030261530397036707 0.04034785471239971
-0.03722548948280019 0.030168385299495608 0.04032405662218019
-0.038845157487819415 0.030091985114879382 0.0401492465750975
-0.04036972444729797 0.030023586788593754 0.03990391609702593
-0.041800995676110064 0.029963083907847608 0.039588358727532746
-0.043116455051469105 0.029912509477701334 0.03918269609860603
-0.044371396204347546 0.02986705186211859 0.038731588033172115
-0.04553481686615013 0.029829484800414422 0.03820824982322463
-0.04662561779311958 0.0297981858933084 0.03762743403834973
-0.047672830783822506 0.029770619115902133 0.03701281177449761
-0.048619168738609886 0.029751905940148628 0.0363149798810839
-0.049516306636584184 0.02973749724922335 0.03557687885960931
-0.05034380909421443 0.029729247746491622 0.03478024742365454
-0.05110659022863412 0.029726758230537394 0.03392840154480231
-0.051804242634852504 0.02973010361594819 0.03302010544872802
-0.052419845142122834 0.02974084505491193 0.03203965465265968
-0.052933879518205496 0.02976079177007493 0.030968739855209537
-0.05334488928978515 0.02979013706351218 0.02980465534229798
-0.05365901186167743 0.0298283882379243 0.02855140746827256
-0.05389779315322202 0.029873649588327774 0.02722687612231406
-0.053908460501243316 0.029939866322452494 0.02569271182515781
-0.05356933759601873 0.03003827413585754 0.02383576194263154
-0.05287148991791235 0.030169907663670434 0.021642901571858886
-0.05117516362526231 0.03039358711254503 0.018525056995335687
-0.021150807853148323 0.030032645901658963 0.03499776301701457
-0.02611329921829425 0.02968413781125963 0.037411616513062906
-0.029054391325418927 0.029502616197082557 0.038244184887394395
-0.03146896609511496 0.029364293477514566 0.03867195499663051
-0.03353931369402757 0.029254189599509914 0.038835643981725065
-0.03543095920397693 0.02915860165248329 0.03886543034356388
-0.03711423748954834 0.02908011768320475 0.03873482386359017
-0.03868516489401003 0.029010759366659932 0.03852004611080051
-0.04013959354912017 0.0289509363570683 0.03821625125897893
-0.04147782088960156 0.02890068572259304 0.03782219906154266
-0.04274579971121567 0.02885617318174869 0.03737474878054026
-0.043901641414826276 0.028820996356038638 0.03683785284034524
-0.04499943731173739 0.02879060942898381 0.03625567417886766
-0.04601328331630167 0.028767255124434715 0.03560549214071279
-0.046960042625913356 0.028749537231391453 0.03490057369174776
-0.0478262819062657 0.028738644756775615 0.03412851564595004
-0.048607429473385255 0.028735015766404352 0.03328429833984181
-0.04931727952185744 0.028737510600244345 0.03237871571385326
-0.04994399528732257 0.02874719162947442 0.03140048794117517
-0.05047044820748525 0.028765588414570917 0.03033347779762685
-0.05089867535591214 0.028792582638807063 0.02917808488018131
-0.051210392396662696 0.02882982057529336 0.027916760406672625
-0.05140197090328502 0.028877686995733037 0.026544634094822217
-0.05130957144453985 0.028950552701034207 0.024913558712806816
-0.05093344776835729 0.02904856416876754 0.023019731639939367
-0.04996018137099739 0.029199368673844293 0.020576013523617986
-0.021302384220028114 0.028880891444277506 0.03358370929289883
-0.02611511714763659 0.028557695711011064 0.035892970061829954
-0.029045201022741107 0.02838407426508265 0.03672274425721267
-0.03136556330144269 0.028258701958281486 0.03707815904685757
-0.03341037157151738 0.028154979771994132 0.03722306060830072
-0.03516849291825136 0.028073946594013955 0.03714485707414672
-0.03678249504622838 0.02800421885252647 0.036956997959192106
-0.03828012731661706 0.027943620908468383 0.036680567956488164
-0.03964711339556293 0.027893372060178646 0.03630223067608529
-0.04091835256475318 0.027850698850004473 0.03584943051680972
-0.04209619972714734 0.027815458808055617 0.03532290731532256
-0.0431927426641584 0.027786712391729532 0.03473164211461388
-0.044183870159022476 0.02776647817658985 0.03405412400877911
-0.04509844511784733 0.02775244192753283 0.03331356049406986
-0.04592470642760166 0.027745612659770047 0.03249885193636959
-0.04666158201775583 0.027746126574578554 0.03160788571464751
-0.04733186465617156 0.02775214812880327 0.03065918803525819
-0.047867580696189016 0.027769345966917356 0.02959266521845849
-0.04828864945225697 0.027796140566402776 0.028423895160880785
-0.04858896070691382 0.027833104621524784 0.02714590447108467
-0.048645670286898035 0.027890552794854414 0.025648344885473073
-0.04851984515871549 0.02796351763895578 0.02398208724265638
-0.047832324349125876 0.028083871598551698 0.021805642487548293
-0.04571894983835967 0.028324500697127913 0.01833462576167816
-0.025636066981687855 0.027463379800072598 0.03398109212240907
-0.028546507817974076 0.027298352924994728 0.03479894264756339
-0.030926830468402056 0.02717352688673004 0.035204394019178964
-0.03285189170509173 0.027083372693110053 0.03525184447236779
-0.0346023045411924 0.0270063650783256 0.0351659658770766
-0.03616711161986891 0.02694344082219042 0.03493548495004439
-0.0375693980467216 0.02689289471108265 0.03457718084999234
-0.03886898773136965 0.02685014037192443 0.034138883858615965
-0.04004459218207629 0.02681689339785814 0.03360140410050322
-0.04110884294746231 0.02679222644633933 0.03297377451302996
-0.042084862284033964 0.026774380180878018 0.032274135757913935
-0.04296451052911787 0.02676404023662226 0.0314943797417207
-0.043734180404321976 0.026762329568512582 0.030621555554982416
-0.044395539328408895 0.02676917355729539 0.02965561419271484
-0.044923905983800416 0.026786584459577642 0.02857370370771689
-0.04534667816926463 0.026812457154522715 0.02739785071012857
-0.04549712858966004 0.02686011619376907 0.025980663512427615
-0.045470054643290236 0.02692214650637235 0.024401764712064122
-0.04505806035427151 0.02701522264005847 0.022475217463911512
-0.043444064042241215 0.027205012925831447 0.019469124216386136
-0.023441679300106766 0.02648750101940472 0.03067167060849313
-0.027463610762151924 0.02624772788734731 0.032389427154718486
-0.029867034810394433 0.02612665645711663 0.032812766186441134
-0.03180366211034158 0.026039669235298126 0.032866873954400355
-0.033515104775057925 0.025969035970125193 0.03274526360669405
-0.035038204079768764 0.02591212007130941 0.032475624582944174
-0.036387739803380226 0.025867908312284024 0.03206785663972639
-0.03758418879582748 0.025834952532209778 0.031536880430098724
-0.03864909904765501 0.02581171159976935 0.030898864633719603
-0.03957940831907503 0.02579847950689827 0.030149475496344003
-0.04039663073747163 0.025793702662386217 0.029305260395709853
-0.04106767483903717 0.0257999336820873 0.028336341320840064
-0.041528171298987115 0.025822112818926865 0.027185280790322675
-0.04180780737018858 0.025858096233620585 0.02587491369262035
-0.0418363819709795 0.02591330764756442 0.024341624242724735
-0.04133520097741877 0.02600908944559877 0.02233800642286554
-0.02724379376885 0.025178753821977685 0.029120930436634496
-0.029690970756100055 0.025059850124154143 0.029587013859133315
-0.031447083490352745 0.024989549079489463 0.029494050638416258
-0.032919517911915885 0.02493914895405827 0.029173030267340583
-0.03419014902573014 0.024902935194785935 0.02868894277775158
-0.0352478486798084 0.02488179717616818 0.02802974968610006
-0.0360847220047153 0.024876400245001373 0.02718593226520971
-0.036729738776761056 0.024884766488452965 0.026179232395085683
-0.03709174828047529 0.024913551505528132 0.024928943982608864
-0.0369701175543094 0.024977371928870406 0.02325836513113999
0.08541838738104257 -0.022396236099941357 0.04344303410600636
0.08455758447799955 -0.02239810182104382 0.042347508108961984
0.08400341949944584 -0.022414691690263888 0.04106765799055051
0.08398790677428092 -0.0224572479816389 0.039460230713052546
0.08397834741003646 -0.022500255852748195 0.037843037575381266
0.08396875136124893 -0.022543428768664713 0.036219638379991814
0.08395911841633741 -0.022586767681265826 0.03458999733413537
0.08394944836210322 -0.0226302735497634 0.03295407836928471
0.08423375681128886 -0.022688223662967587 0.031129199230377824
0.08543563167029411 -0.022791041021638758 0.028722608203272826
0.08532674010137203 -0.02365503995886681 0.048287327460347196
0.08446954019878222 -0.023656923521868954 0.047199566081325195
0.08386502400352985 -0.02367162561004923 0.04596248492849542
0.0834323093205428 -0.023695111405977538 0.04462148009397049
0.08307613298362654 -0.023722583098083803 0.0432316215143404
0.08286810278210421 -0.023757715326152326 0.04174911731352515
0.08274450067195321 -0.02379729695832039 0.04021087384295641
0.082761000643438 -0.023844203874009828 0.038582179345598544
0.08277756578964446 -0.02389129607160185 0.03694705151934058
0.0827941964974932 -0.02393857465106155 0.03530545217136527
0.08281089315698131 -0.023986040721078582 0.03365734280593152
0.0828623286277827 -0.024035484188943874 0.03198114569880156
0.08316340728346522 -0.024098025466828255 0.030142190901241095
0.08346605686379138 -0.024160893063548794 0.028293641071219122
0.08397742826276139 -0.024234838947860365 0.026304533513012873
0.08463122141723328 -0.024316481070323675 0.024214703671272986
-0.05309285605311914 -0.019235231579313505 0.03864200714667748
-0.05405529480962534 -0.019221492689606722 0.03797781642812231
-0.05469966220241995 -0.019226318975915584 0.03704028854478941
-0.0549969820601639 -0.019251534620081858 0.035799852280328004
-0.05501500891895006 -0.019293290359550977 0.03431102806685116
-0.05503226032364211 -0.01933527795907022 0.03281498019727175
-0.055049586979917686 -0.019377448710712678 0.03131240648793948
-0.05506698938122895 -0.01941980381547665 0.029803264146436304
-0.05494348230423485 -0.01947071166025234 0.028161498882743052
0.08520831398068307 -0.02494490344608875 0.05151848563496009
0.08397387001425088 -0.024926560604539752 0.050656109091537393
0.08329656659721335 -0.024937942640608238 0.049471174567331966
0.08291279639099652 -0.02496509593021456 0.04811263073954386
0.08270283305438314 -0.025001683864633282 0.046648097583053605
0.08249373547753558 -0.025038458916848794 0.04517838598890883
0.08236266657264285 -0.025079580474661627 0.04365741015516583
0.08232481175896439 -0.02512589359990972 0.04207522079385961
0.0822927744009046 -0.025172700380811076 0.04048358058078322
0.0823292631019949 -0.025223402672485462 0.0388443193203431
0.08236290781476441 -0.025274147173022326 0.03720026786652758
0.0823981869296056 -0.025325177813605642 0.03554866758035652
0.08243360879568135 -0.02537641494146088 0.03389038435948255
0.08247669973940364 -0.02542827089690534 0.03222070266104565
0.08259388745715768 -0.025484385069723874 0.03049800104757283
0.08271008099838034 -0.025540664504746003 0.028768629771134868
0.08282830513550465 -0.025597276378190915 0.027030645241473028
0.0830869383199152 -0.02566184113629036 0.025196047211182626
0.08345675066573588 -0.025732793344688674 0.02328195570509073
-0.053785187786852595 -0.02023476579613116 0.04219617662992797
-0.05450947032311482 -0.0202346616708697 0.04133646616499259
-0.0551384160669986 -0.020240442277649782 0.04039506662698289
-0.05554262201396254 -0.020260152384457365 0.03925919853026627
-0.05594677252994884 -0.02027995321186688 0.03812038558823877
-0.056243747183183423 -0.020306501987351597 0.03688534374668051
-0.056337944471386237 -0.020345797766551387 0.03546890514163292
-0.05633258350277681 -0.02039148300456207 0.0339590571468974
-0.05632804739137781 -0.02043732076020077 0.032443164252905055
-0.05632434174770584 -0.020483311706147728 0.030921197447871696
-0.05632061938853994 -0.020529510109587455 0.029392365304160673
-0.05610732692425108 -0.020589115052455143 0.02766834248840555
-0.055679640481561266 -0.02066252168692329 0.025741763253158467
-0.05492880635003489 -0.0207567038173423 0.0235107832119818
0.08458920357674338 -0.026245983909188933 0.05344528926165609
0.08355228711256707 -0.026237605496318973 0.05247297443792259
0.0828472289253896 -0.02624789261422127 0.05130927136418578
0.08244933894311068 -0.026275558463374375 0.04996521510387347
0.08217295159676763 -0.026310202049550126 0.04854656606711605
0.08213498166624472 -0.026358488568302557 0.046983090811061445
0.08209687210874705 -0.0264069526512454 0.045413866181767404
0.08180382779586243 -0.02644110159209657 0.043990918782261246
0.08103789651549137 -0.026448430716830323 0.04284767519107513
0.08027301699869505 -0.026455848218924428 0.041702906282340246
0.07950623387044298 -0.026463185522215934 0.040558390348284235
0.07930660604412854 -0.026503063540653144 0.039066638748422144
0.07922461672276204 -0.02654985328279116 0.037497764870952355
0.07914233739385756 -0.02659680852669061 0.03592334167050504
0.07905976651599361 -0.026643930152010983 0.034343339651836835
0.07897690253680839 -0.02669121904465698 0.03275772911030428
0.08024118256086255 -0.02681667454027765 0.030319868259976124
0.08181159955439438 -0.026960378327520667 0.02767308453220202
0.08261289002971384 -0.027059950102911543 0.025497290051955945
0.08275568595503019 -0.02712157099493783 0.02372998384757491
0.08309908700627178 -0.027195139144500967 0.02182610390002354
0.08391064202715776 -0.027296366038791233 0.019610501988612583
-0.05392933854101989 -0.021256263567837705 0.04525209019361015
-0.05488120275140873 -0.021241197530531185 0.0445914089427219
-0.055476609091723306 -0.021249190204787674 0.04363052572685522
-0.05587895111989133 -0.021269770441371762 0.04250394951680936
-0.05626028402934624 -0.021291810367417913 0.04135651544965252
-0.05651079035541928 -0.021322491173533947 0.040093307918561805
-0.056762019666254826 -0.021353260527329398 0.03882645465219198
-0.0569652597056195 -0.021387314240175925 0.03751352596922619
-0.057086723732104494 -0.021426895355244644 0.036124261586216455
-0.05706703132010588 -0.02147595318555425 0.034605254055475376
-0.057047248527916705 -0.021525236171535417 0.033079274892251764
-0.05702737473189595 -0.021574745866813894 0.03154627599067977
-0.057007409302647694 -0.021624483839342484 0.030006208801280743
-0.05694307973746332 -0.02167739481829252 0.02841924707606075
-0.05672981345101458 -0.021740467805328345 0.026690267408543356
-0.05646469679657801 -0.021807288314296222 0.02490525103498864
-0.05607129932002752 -0.021882997332551342 0.022993641321078617
-0.05567169706128716 -0.02195946621989377 0.021065534378439055
0.08550736261428943 -0.027576869110928832 0.05604741167044369
0.08397259395134937 -0.02753862919631857 0.055360567956445894
0.08314628494358278 -0.027542101170125684 0.05427210380411418
0.08255165352897531 -0.027559300337990488 0.05304971239416911
0.08217061854616337 -0.027589232854802775 0.051701531487983954
0.08198276316666603 -0.027630758497380076 0.05023728760506696
0.08185322858864558 -0.027675915122363965 0.048734090679499686
0.08098578609578394 -0.02767723002346313 0.04766103708679914
0.08022390996215728 -0.027684858910818955 0.046525194467978925
0.07946307938172648 -0.02769257976612741 0.04538785081777941
0.07870036064828873 -0.027700217118934962 0.044250751165524516
0.07793868274965665 -0.027707946544125384 0.0431121417394123
0.07717512001469806 -0.027715592376483016 0.04197378296211418
0.07641259338477169 -0.027723330385831645 0.040833905649600655
0.0758739147632082 -0.02774463220646154 0.03955565037065778
0.07578634998592515 -0.02779334419194281 0.03799627285839646
0.07569847718822997 -0.027842227528113796 0.03643141003465289
0.07561029474200909 -0.027891283120689843 0.03486103290549508
0.07552180100764594 -0.02794051188178021 0.03328511227229647
0.07631431988385295 -0.028043722007684267 0.031146723821783517
0.07785352104393467 -0.0281930145399247 0.02852171997439179
0.07940919798370288 -0.02834390511596861 0.02586861779497518
0.08264143197358753 -0.0285983557444235 0.022120230493431092
0.08284293720449609 -0.028667314973177895 0.020300570151464414
0.08338592789485871 -0.02875760267695446 0.018250796999194907
0.08467658953696916 -0.02889444004975577 0.015701629611110823
-0.05296269271357079 -0.02234309024928111 0.047357661247778515
-0.05426920655239953 -0.022303170771530857 0.046993009395781715
-0.055156730762737693 -0.022291563924524825 0.04628199460228116
-0.05584562465946552 -0.022293440684356094 0.04540494426443048
-0.056434641116249185 -0.022302146153702667 0.04444295038134488
-0.056774220010057 -0.022327961080962428 0.04326716688146914
-0.057024518609845365 -0.022360013511436603 0.042011469920521516
-0.05717700736625658 -0.022398931116449482 0.04066727614246124
-0.057308282306377134 -0.022439482551210886 0.03929956168171361
-0.05743919583016155 -0.022480238915657726 0.037926156712008496
-0.05747073899491356 -0.022528052962649956 0.03646036448129253
-0.05745110674317899 -0.022579629379061966 0.03494317915402517
-0.05741704834476491 -0.02263243898070957 0.0334063511244414
-0.05738283026025903 -0.02268549618534913 0.031862317525997275
-0.057348451363965436 -0.022738802738438934 0.03031102756358922
-0.057306264281556274 -0.02279289546902111 0.028745559995399517
-0.057215319663108166 -0.02285065169938199 0.02712877103892697
-0.05710767862901445 -0.022909842554352754 0.025489028008228276
-0.056894035204894444 -0.022976769669734783 0.023744532413266572
-0.05667913987950596 -0.023044088962615925 0.021989814475395386
-0.056033147940447 -0.02314222480777389 0.019828370265342843
0.08461972232820136 -0.02884628762388193 0.05810243136171017
0.08344345794203095 -0.028828160683292293 0.05721628063550582
0.08274105970314044 -0.02883930605486064 0.0560621369013895
0.08227367486601644 -0.02886507303306009 0.05477212278331811
0.08191525460327614 -0.02889771063398877 0.05341651540956244
0.08181398449017963 -0.028946486023588368 0.051908287581661994
0.08129857772505461 -0.02896960915737339 0.050636253976184264
0.08018077080302949 -0.028955164295167073 0.04971502414380602
0.07906407805003018 -0.028940733830814486 0.048794712543059116
0.07794704450937834 -0.028926226547468414 0.0478761801171968
0.07714433667776516 -0.028931425600039078 0.04677165009570522
0.0763862557478523 -0.02893945587803816 0.045639763002182865
0.07562630683796012 -0.028947399286201356 0.04450812096825851
0.07486738565763007 -0.02895543843527497 0.04337498014329255
0.07410659979587786 -0.028963390620971426 0.04224209097000886
0.07334683697047262 -0.028971438655827426 0.041107694333108735
0.07258521277037999 -0.02897939963361394 0.03997355595401797
0.07238573627252765 -0.029023217428097416 0.038489321602956705
0.07229239722961273 -0.029073983885166632 0.036933904726399736
0.0721987310833539 -0.029124928251460576 0.03537303694726007
0.07210473611125223 -0.029176051463835704 0.03380668956150196
0.07243696453113235 -0.029254752596680325 0.031963771986503686
0.07394707883862695 -0.029409570025495074 0.0293592842872773
0.07547178390597425 -0.029565939499610366 0.026728033339364132
0.08033321690812051 -0.029938521589852992 0.02192262714458959
0.0827283603889935 -0.030152911581172243 0.018678184473813586
0.08302456856677959 -0.03023199707551159 0.016781405518017378
-0.05332870521910704 -0.023383355090222775 0.04910878494001297
-0.05454505632590517 -0.023347772208471004 0.048671438939123735
-0.05542976477792755 -0.02333565832707559 0.04796169440587761
-0.056066708817033406 -0.023341179273383843 0.04704555688769424
-0.05661674558569346 -0.023352942251382194 0.0460554210998842
-0.057037837078775855 -0.023374002604036204 0.04495446905598188
-0.05735090517011959 -0.023402918224891333 0.0437587913899673
-0.05751761052126997 -0.023442502222107735 0.04243405319557558
-0.057616589406018104 -0.023487149490138904 0.04104599076324661
-0.05763416104254876 -0.02353788330084313 0.0395817986672411
-0.05765180875526843 -0.02358883676284103 0.03811126737285275
-0.05764941304545801 -0.02364147321734323 0.03661674593661196
-0.05760919025090533 -0.023697098953299182 0.035082267420855906
-0.05756793518013448 -0.023753048561782238 0.03353980575408483
-0.057526484839292236 -0.02380926299314679 0.03199004324719257
-0.05748568460269732 -0.023865682054232187 0.030433684768440217
-0.05744384166205102 -0.023922431507704876 0.028869170092234275
-0.05740265026851005 -0.0239793888191616 0.02729796588855915
-0.05733907878142758 -0.02403825533327416 0.02569912116135986
-0.057247814937798014 -0.02409943699833769 0.024067418596937618
-0.05715522723563854 -0.024160994517964312 0.022426601615795017
-0.056906330775802205 -0.024234447753631046 0.020633662538864284
-0.05638418511593846 -0.0243285879995848 0.01857787503989272
-0.054881411479614284 -0.024496364299781206 0.015595991332090886
