# .PCD v0.7 - Point Cloud Data file format
VERSION 0.7
FIELDS x y z
SIZE 4 4 4
TYPE F F F
COUNT 1 1 1
WIDTH 777
HEIGHT 1
VIEWPOINT 0 0 0 1 0 0 0
POINTS 777
DATA ascii
0.041071439032774874 -0.06362720273939537 0.03889902376210608
0.04101829030326483 -0.0647531135277144 0.03841534888582626
0.040985427898077555 -0.0657201244197918 0.03779350277543381
0.04093913565357185 -0.06678973169011582 0.037266223768570694
0.04086121543460118 -0.06810148993267423 0.03696102226130238
0.04082685120311157 -0.06907560790907069 0.03635495458073257
0.04082530462549524 -0.0697967437830232 0.035520509006698675
0.0408059307812453 -0.07065429301576825 0.0348113294049901
0.04076775225135304 -0.0716547916150545 0.034235407764743264
0.040763537444352925 -0.07239515267319763 0.03342113144630782
0.04076991139337859 -0.07305486259795957 0.032532006517677514
0.04078657531722679 -0.07363673965020723 0.03156949839459211
0.0407968684914642 -0.07426741017421701 0.03065170189747385
0.04082922285306977 -0.07473186029476558 0.029575801662291568
0.040897810276950726 -0.07492447801371593 0.02823884363583451
0.04093571460146488 -0.07535009249044211 0.0271196168281988
0.04100164453227626 -0.07556687084682912 0.0257967728646028
0.04105485437009102 -0.07588110200277604 0.024563166396935343
0.0410967068459674 -0.07628195177217828 0.02340970659999947
0.04116158463486287 -0.07651279788554155 0.022087085102425852
0.041189062344395 -0.07702374788560168 0.02103450635352222
0.04122193689932818 -0.07749565254961815 0.019941323152373458
0.04125360062356045 -0.07797765278530949 0.018855658456284397
0.04128605110668215 -0.07845494926344487 0.017762896557493357
0.041333660099590344 -0.07882181222210188 0.01655699657214299
0.041393988420212316 -0.07909694079312429 0.015255056507652798
0.04146852994427271 -0.07927005541406862 0.013845207116361835
0.04163042512768424 -0.0788074220960503 0.011782610048447217
0.041919739129033365 -0.07742151294356192 0.008763040065687788
0.04389617317092204 -0.04173336849868503 0.038034361170572906
0.04360930683438034 -0.04470140052788346 0.039007023225484716
0.04336883261915385 -0.047300602435433325 0.039689909463404505
0.04301221741585656 -0.05078876109664149 0.04113923052902224
0.04285589243035662 -0.0527211683393895 0.041293861843950674
0.04265999413829853 -0.05495261893320391 0.041714239042175305
0.04254346508401762 -0.05656840867738788 0.04162056864935931
0.04248391695755631 -0.057743981451659876 0.04115573136492884
0.04238251502015272 -0.05923728553966312 0.04097022032153441
0.042329674889686794 -0.060356988342933404 0.04046650988576672
0.04228418041390462 -0.061419034249027726 0.03991603124265919
0.04223749414625609 -0.06248858535505869 0.03937534440842699
0.04214742586983964 -0.06388504239878834 0.03912707471963417
0.04209783837174132 -0.06497261962695144 0.038610515428517844
0.042078739886983615 -0.06582869017095272 0.03789053734401643
0.04201601840948043 -0.06701221097662763 0.03746611621383816
0.04193832924224655 -0.06830593136032037 0.03714567136095204
0.041896737487390666 -0.06932674952020379 0.03658297136775818
0.041877081588134524 -0.07018229023936007 0.035872387817291795
0.04185818283426318 -0.07103152258444217 0.03515741921339616
0.0418329758788553 -0.07192702715586857 0.03448647674128985
0.0418404609676715 -0.0725791142092354 0.03359167640970073
0.04185132438023065 -0.0732064455303787 0.03267326819009592
0.04185712754245393 -0.07387151865272024 0.031789433228602504
0.04186578251854467 -0.07451577325365338 0.03088557545464332
0.04189462306735939 -0.07501191581702066 0.029840893385042977
0.04198255134716692 -0.0750756190798465 0.028382654304123733
0.04203090979870455 -0.07543187673619944 0.027197839664413193
0.04209420939831075 -0.07568068091266467 0.025906193335878014
0.04214689090533031 -0.07600897261962125 0.024686744469287092
0.04218201378113425 -0.07646665303151678 0.023589135354911528
0.042236527096179276 -0.07678493067017006 0.022352822939027794
0.04225200532977469 -0.07738741738007071 0.0213914737795714
0.0422791195534681 -0.07790645426321835 0.02034664687335397
0.04232417155119243 -0.07829726030670259 0.01917263982039169
0.04235818571054649 -0.0787688738676261 0.018075855953253117
0.04239377002960149 -0.07923038646464359 0.016966425468257773
0.042473917933918845 -0.07937451606425888 0.015534653273254262
0.04259629421938392 -0.07922017907349793 0.013794707410991425
0.042745884668703146 -0.07887634772317442 0.011852758314316703
0.04312573036927643 -0.07690315780568191 0.008232760783127346
0.04500433523136552 -0.0420894225587502 0.038329979544212134
0.04479009690849166 -0.04445061513995385 0.03879769983552961
0.044445798348560876 -0.047785736954822244 0.04009698557154501
0.044099332801222996 -0.051125818482672114 0.041423554241062754
0.04385914541060031 -0.053656369854821806 0.04208692569675637
0.043692027296053114 -0.05563148502480009 0.04229297271552113
0.0436283732758613 -0.05682752504851929 0.04184263316409914
0.043562565557183366 -0.058037533800363084 0.04140863645943882
0.0434610104381601 -0.05951146627448267 0.04120768265108887
0.04340808789257618 -0.06062084633624376 0.0406962368166322
0.04336632818382929 -0.061645757029678006 0.04011446648844752
0.0433046094284276 -0.06281687348230741 0.03966418551137929
0.043225953025683314 -0.06411091761260368 0.03932685414423365
0.04317316349000938 -0.06521195537570562 0.03882331284412144
0.04312923421598426 -0.0662461760659594 0.03826368046952433
0.043058828352650125 -0.06747297785886586 0.0378801045011658
0.04301350255817359 -0.0685140771917277 0.037333666234631524
0.04297390714611007 -0.06951187719371382 0.03675105270287754
0.0429548406025728 -0.07035894474020266 0.03603361605482519
0.0429333027779079 -0.0712233312251842 0.035333394325735235
0.0429154611542118 -0.07206022537020684 0.034609318671670164
0.042919460713705594 -0.0727386318951802 0.033739560247246
0.04293492548048238 -0.0733344722109538 0.03279257755246007
0.0429415257307123 -0.0739946155741682 0.03190474720768949
0.042960797082059084 -0.07456399807880226 0.030930986839568353
0.04297520775708825 -0.07516883534668434 0.02998942846164826
0.04306046056093574 -0.07526783680640592 0.028565549399554968
0.04311461098865536 -0.07559142549411457 0.027350440648172714
0.04315774528084286 -0.07599516869074885 0.02620855148527046
0.04320556667691846 -0.07636706662473652 0.025032817460601542
0.043230997786736405 -0.07689908884680702 0.024009226805261186
0.04327117848031891 -0.07732774913912349 0.02288288551786849
0.043299327430465204 -0.0778425353361199 0.02183820436267081
0.043329275845824536 -0.07834559619587422 0.020779932899896436
0.04336919798031255 -0.07877967686056436 0.01965109244454938
0.04341715750473524 -0.07915882225936965 0.018464605390003552
0.043480085293286556 -0.07943503696348958 0.01717150405400164
0.04360414632871827 -0.07928748822306847 0.015446991635332974
0.043724316715675636 -0.07917106605059254 0.013744980563388132
0.04386908215955409 -0.07888809329415991 0.011864712234370245
0.044265447197058806 -0.07686975777099186 0.008198592420283701
0.046257865157297594 -0.04061061322479931 0.03860524427941209
0.04612515628698989 -0.042334172471851894 0.03853318624615576
0.045920454961612886 -0.04458405788990688 0.03890908068198046
0.04552854990598749 -0.04820406561304125 0.04044800491835615
0.045232426209182504 -0.05110863823448891 0.041409061896021004
0.04496996450365787 -0.05375722430936902 0.042172451672683464
0.04477984091316739 -0.05586888593396855 0.04249535710607982
0.04469383722076475 -0.05721542926524814 0.042175069749550376
0.044613629256700114 -0.058517052226850885 0.04182175750413808
0.04454222139301487 -0.0597522296683724 0.04141620290478981
0.04448768282833042 -0.06086295241679007 0.04090702552964404
0.04442446773302746 -0.06203461433668811 0.040454807212356336
0.04436886521705422 -0.06314936243527408 0.03995672266981737
0.04432666432717115 -0.0641659211837119 0.03937550304909265
0.04424575122359658 -0.06545897125965194 0.039042938796326365
0.04417741357365933 -0.0666593656173376 0.038632983582449876
0.04414572124068071 -0.06759572842149891 0.03799039301614349
0.044105390534372305 -0.06859265606066256 0.0374046377474378
0.04406213379626138 -0.0696091003065682 0.036839323625874554
0.04404547647892778 -0.07043538056084137 0.036103377156790906
0.04401641188845314 -0.07134897940329427 0.03544867042681488
0.04400200476045976 -0.07215809248906618 0.03469957653181627
0.044004885431961044 -0.07284488597661415 0.03383806506960618
0.0440188509524435 -0.07345381637024939 0.032903795585166096
0.044030939389047126 -0.07407636628523895 0.03198132913740692
0.044076802663927175 -0.0744628641684702 0.030835753089795692
0.04409348368908637 -0.07505465727785843 0.029881351103552334
0.04416825830339773 -0.07524216978494253 0.028541127238165376
0.044222911231913346 -0.07557197719085301 0.027331839248519396
0.044259197545738684 -0.07603093589731075 0.026242939169430546
0.04428061646440451 -0.07659394535915176 0.025252080003853206
0.044285329164828 -0.07727298420691969 0.02437244890332746
0.04431216577970695 -0.07779978486236577 0.02334382870067714
0.04435794155904397 -0.07819729929785418 0.022186430376128885
0.04439760775881819 -0.07863817140094903 0.02106860664896204
0.04441859640013671 -0.07920806905809874 0.020075964620759446
0.0444889285896639 -0.07944193436251135 0.018746847022393598
0.04458790517693228 -0.07948305884867846 0.01721962639113167
0.0447148781412656 -0.07933722452556624 0.015497090151870507
0.0448370540854579 -0.07922797333148984 0.013802599083228617
0.04510820550529613 -0.0781156567407344 0.011078573798234626
0.04543397884229924 -0.0766437185085393 0.007967353392897836
0.047377819538275225 -0.04087414906103265 0.03882289140271372
0.0472539655231845 -0.04250942040835787 0.038678688055527266
0.046926545205516236 -0.04560451881134714 0.03976083022431243
0.04649042169849544 -0.04946925926282386 0.0415096282133679
0.04625501273730369 -0.05188341288790527 0.04206262065065475
0.04611652281234862 -0.053597862918372485 0.042037311003376765
0.045887108988778486 -0.05595604218326805 0.04256965785100808
0.04577185238735105 -0.05749514767073749 0.04241479034963275
0.045679643794546906 -0.05886708429934917 0.04212332175585598
0.045633678675619446 -0.05990869841992308 0.04155171729193363
0.04558096201106498 -0.060996570386019855 0.041023359492449285
0.0454793569306463 -0.06242741549802561 0.040798599727481566
0.04542665041162976 -0.06351114373122574 0.04027503241018454
0.04539763908257161 -0.06442692925501137 0.03960635636592741
0.045293641842728355 -0.0658668718528867 0.03940561003334525
0.04524742124650556 -0.06689989545640668 0.03884796582975841
0.04522548807554592 -0.06776216579784533 0.038139933113396696
0.04518236922587814 -0.06877109845379165 0.03756580482404248
0.045145816930743723 -0.0697331105295333 0.03695191513339591
0.045117617622310854 -0.07063614194277934 0.03628660715444304
0.045086162433111865 -0.07156078122913995 0.03564298831548057
0.04509229104991548 -0.07222538930391853 0.03476164095727402
0.045096150663642656 -0.0729057929869345 0.033894530046302884
0.045100578681254125 -0.0735824178109768 0.03302364057234669
0.04513705773000201 -0.07403977845776577 0.031947054616789705
0.04518738412560878 -0.07440370900482263 0.030780049043209523
0.045211790642042074 -0.07494583749187789 0.02977834572696586
0.045268689307640386 -0.07526783680647398 0.028565549399619694
0.04529616152261397 -0.0757912114885389 0.027541526681614192
0.0453308928526249 -0.07626632486011764 0.026469249303373688
0.04534202272079218 -0.07690186924669562 0.025549667060149217
0.045363839337917045 -0.07746578005603133 0.024559741178876604
0.04538165266023467 -0.07805727710060684 0.02359527003445616
0.04541686070906819 -0.07853271273662793 0.022515662477590126
0.045469429085762174 -0.07889313517489893 0.021320170510921
0.04550130594741898 -0.0793932798336866 0.020259653552851253
0.04559372359811361 -0.07949138612221823 0.018796146735225894
0.04569374279319342 -0.0795419036639094 0.017278594297655103
0.04581458095187105 -0.07945761216536912 0.015618354537453916
0.04597413957672667 -0.07912115719385138 0.013694447935453435
0.046224337669533315 -0.07819197568478081 0.011156246527540492
0.046680140573471474 -0.07591798450124165 0.007224924736179084
0.04855726331663322 -0.04070575027659101 0.03868381539876281
0.04839526694404934 -0.04258844762999864 0.0387443014029229
0.048063162871590986 -0.045660196150172805 0.03980730250646125
0.0475605192832041 -0.04991620998372587 0.04188466431721921
0.04733136385374905 -0.05224555803259945 0.04236810706366445
0.047177552225520794 -0.0540425025055839 0.04241437153880667
0.04702630367182755 -0.0558169052971188 0.04245104358787749
0.046871711366258915 -0.05760989292208357 0.04251312782035149
0.04673907498784174 -0.059246053065359294 0.04244981592974867
0.04669744570274152 -0.060249111557173496 0.041846542151293686
0.04663146686428155 -0.06141882748173899 0.041390995982891476
0.04653981040817624 -0.06276322180929444 0.04109250847243778
0.046493115866351256 -0.06379609785553664 0.040525746513818184
0.046442988362547726 -0.06485106313531264 0.039981489259565794
0.04637057720436664 -0.0660568136752055 0.0395744904831522
0.046335099713145096 -0.06700845347063267 0.03894499348317543
0.046299092379334654 -0.06796261285176308 0.03832003011200946
0.04625964218777385 -0.06893904561990327 0.037717492734698765
0.046249382160062164 -0.06971652886053781 0.03693686028497467
0.04621164579620536 -0.07067940961291475 0.03632609649756663
0.046179897186425845 -0.07160075592216542 0.03567966315488652
0.04618582493187329 -0.07226763055384716 0.034800597911079256
0.04617536523229321 -0.07304469637127547 0.03402330301215112
0.04618210538537186 -0.0737062417858867 0.03313903339066809
0.046222005515416956 -0.07414640390532168 0.03204693854958812
0.04626220790929816 -0.074585772090624 0.030951490553768335
0.04629570496484141 -0.07507097361567616 0.029896795634216378
0.04633521671606147 -0.07551728375322325 0.028802898076806638
0.046361204938079555 -0.07605434561355218 0.027793202262561545
0.04638264959192139 -0.07662221738938146 0.02681141524440428
0.04641819996445742 -0.07709778020688446 0.025739001399890604
0.04643816959325257 -0.07767687940618606 0.024764814461520568
0.046452511332018366 -0.07829350884521202 0.023825950482729952
0.04647674782793075 -0.07884581904002036 0.022822998542070705
0.04652836394140709 -0.07922009870105767 0.021642774016846333
0.04658340573942473 -0.0795736430506977 0.02043853475787971
0.046672622426492706 -0.0797067768168373 0.019010875178751607
0.04678912822050562 -0.07966571293855629 0.01740266255592826
0.04693044939527039 -0.07946770485501387 0.015628520729021933
0.047153548845348794 -0.07874631751685679 0.013314923434803227
0.04746223159313637 -0.07748081054424866 0.01043246636859696
0.04788556496165004 -0.07548843529007299 0.006785494255264923
0.049539565493282 -0.04264320634027635 0.03878976551270419
0.04906679869584075 -0.046624994566929645 0.04061259214827856
0.04861001234062876 -0.050483326949234186 0.04236053185076516
0.04845380187019504 -0.05227626972621391 0.042394013817509346
0.048246745919784284 -0.054410853787997204 0.042726738533936715
0.048113056590859876 -0.056040639873288556 0.04264177742290631
0.04794679966557284 -0.05788727515430625 0.042750846303853784
0.04782498949365977 -0.059428203655036704 0.04260674471025727
0.0477531467572749 -0.060628147035801716 0.042174817030993295
0.04766627654438195 -0.061927172350110415 0.041833584456210215
0.04762120950937575 -0.06294262600011175 0.0412495289297477
0.04757719148035373 -0.06394969720372279 0.040660889400387534
0.047508373250668715 -0.06512140219084761 0.04022059553443885
0.04746648221108348 -0.06611126975495135 0.03962290829408993
0.04744921917781654 -0.06693582364313533 0.03888007794671877
0.04739810323062659 -0.06798486901354689 0.038340026753813705
0.04736034588855117 -0.06894379622945807 0.03772178342953092
0.047343756480956165 -0.06976153216481729 0.03697771973793845
0.047315616893507044 -0.07065502385475997 0.03630384021318406
0.04728167932189772 -0.0715858645888649 0.035666001079808385
0.04728846294142079 -0.07224807584715653 0.03478256360086096
0.04727418390239252 -0.07304859635505939 0.0340269185646519
0.04728298829103437 -0.07369767853824671 0.0331310532133246
0.04731752360712165 -0.0741790772619571 0.03207754609622243
0.04738304087700227 -0.07445975130426968 0.03083282183034597
0.047416286446469745 -0.07495205783705139 0.029784233709480412
0.047432687220838626 -0.07555454948109741 0.028838356403038334
0.04744766133273357 -0.07616675803158007 0.027900719524381667
0.04745988721495573 -0.07679714664780507 0.026979597573058678
0.047500085211684646 -0.07724783464383639 0.025884018594018843
0.04751341957172284 -0.07787225335574144 0.024954611242747282
0.047524597368436255 -0.07851088879242368 0.024038222138905163
0.04755804194651833 -0.07900751803739436 0.02298171758715195
0.04760805588106411 -0.07939947527293129 0.021819758623194185
0.047725609690441984 -0.07936319845034018 0.020229819342799438
0.04778314614272973 -0.07971140551720979 0.01901548964748845
0.04792185017611094 -0.07954732243372092 0.017284024402422438
0.04809642829636215 -0.07916074246432359 0.015319322826602533
0.04830716124460756 -0.07855150494813407 0.013117676058384375
0.048677520703923935 -0.07694485872937867 0.009887007560727967
0.05069539138920506 -0.0426180733819197 0.03876889855707172
0.04984261642645533 -0.049072339752567085 0.0426553211719955
0.04972902619580103 -0.05055988603411199 0.042424772536738375
0.04961646475298475 -0.05203725056992192 0.04219238994993574
0.04940086005423996 -0.05419720917932541 0.04254556494333778
0.04921646184045993 -0.056143605700945454 0.042729555841075406
0.04905307832398717 -0.057945349226751985 0.04280061618392861
0.04894604500814183 -0.0593697070364107 0.04255634793119051
0.0488618221030012 -0.06064043846242756 0.042185462384329464
0.048738686356273396 -0.06216488079179977 0.04204054438213478
0.04869424285951064 -0.06316882679929026 0.04144750732015806
0.04864692571526674 -0.06419030815879662 0.04087258859958898
0.04857452655047281 -0.06537442816306832 0.04044438893914726
0.04854288133077234 -0.06629052222220938 0.03978228465959999
0.04851960306238648 -0.06715122137995783 0.03907259746823216
0.048483749250235464 -0.06809292565856712 0.03843711312683812
0.0484580845606802 -0.06896754712167319 0.03774323495681625
0.04843439940889208 -0.06982861834579251 0.037038628702290355
0.04840598339419763 -0.07071951983489211 0.03636270411506648
0.04841122504274058 -0.0713929323447815 0.035488995115973476
0.048418175024390345 -0.07205552619870659 0.034604984865086175
0.048391970609647436 -0.07293077355942995 0.033917688750636
0.048388316434892546 -0.07366108477487165 0.03309695111401861
0.04845063467399598 -0.0739704713772329 0.03188212955496739
0.04850430058774511 -0.07433674290638193 0.030716989752401724
0.04851911323809925 -0.07495128030768577 0.02978349772471084
0.04854337164507362 -0.07550641288101811 0.028792554445940866
0.048546558894715694 -0.07619542939611351 0.027928142354184282
0.04854459746145997 -0.07691700482766572 0.027094832885772524
0.04856667273310324 -0.07748730704870593 0.026115452045310017
0.04858447019707649 -0.07808510362737947 0.025161385464858632
0.048616292628994785 -0.07859559832968138 0.024120941055705836
0.04867759744673866 -0.07892284000952898 0.02289860009143202
0.04872744437785491 -0.07932328536312622 0.021744584696891056
0.048815170507618896 -0.0794896543733572 0.020355236200333582
0.048897366863298736 -0.07969288986828627 0.018997030927712988
0.04908940339373262 -0.07921875031156478 0.01695476497473164
0.04923284747789693 -0.07905023966678615 0.015208015271519881
0.049436812286949676 -0.07851313895942341 0.013078830563627464
0.049823110681320566 -0.0768615662720889 0.009802237618361409
0.052356757055743844 -0.034039836944247615 0.04223218539906376
0.05182446297581118 -0.042769712358267375 0.038894798729534386
0.05097831095478616 -0.04905329023845317 0.04263942108744817
0.05087686690250046 -0.050444603876909855 0.04232803934209578
0.05077962889533109 -0.05180558495728277 0.04199696914129125
0.05061465334201586 -0.053604647396551186 0.04204306433494742
0.05038635836541617 -0.05581019691496325 0.042445324688826336
0.050188923575571504 -0.057809257323201746 0.042683984485244575
0.05003501479050653 -0.059521260312195345 0.04268691610993253
0.04992371880081083 -0.06095396238382694 0.04245699904351724
0.04982831867312325 -0.06228116446390447 0.04214178630688087
0.04978365435436661 -0.06327978331022172 0.041544620113391106
0.04972259155435773 -0.06438221346631567 0.04104143461041104
0.049665692781100126 -0.06545627407650917 0.04051677903993273
0.04965139438789028 -0.0662569278323153 0.03975241532589008
0.04960604524622382 -0.0672548267344033 0.03916519850275696
0.04957352512169179 -0.06816995019385136 0.03850631787369324
0.04957765031379139 -0.06885192563598957 0.03763880698701849
0.04954104760794275 -0.06979152718585058 0.037004952852721484
0.04951172952361641 -0.0706841289973793 0.036330403764213315
0.0495233278501804 -0.0713183619945022 0.0354205804412393
0.049524700055012714 -0.07201714431365536 0.03456958720698128
0.04950524680702133 -0.07284644799382661 0.033839513166714186
0.04952232993237103 -0.07344679867204212 0.03289725572101737
0.04956102873525223 -0.07391282158746487 0.03182812473849039
0.04959165608830064 -0.07443017596069218 0.030804971914719703
0.04961493316431093 -0.07499403859731602 0.029823971372824276
0.049624701023399186 -0.07564224356500349 0.02892179729130523
0.049620943699983766 -0.07637431062426064 0.02809923394867908
0.049631215067003145 -0.0770197761084187 0.027193640332117353
0.04965415309268811 -0.0775876193667091 0.026212396935369975
0.0496776144090558 -0.07815290651419732 0.025227252842291492
0.04972372332291135 -0.07858020010134986 0.024105904675984446
0.04978970584957262 -0.07888741520865228 0.022863828134532693
0.049827939835466434 -0.07936561781090201 0.021786352646445906
0.04990116437129409 -0.07963217646658871 0.020496587215262874
0.05002915814926776 -0.07956862225181754 0.018873145390725543
0.0501564026979562 -0.07951325838064605 0.01724988909433034
0.05035590259339449 -0.07902532653034816 0.015182920700448799
0.05061830204130549 -0.0781642700048365 0.012725601372834294
0.05113542686812094 -0.07578021816762898 0.008701707996881913
0.053771255317841625 -0.03165169759382103 0.04181835266370393
0.053490896885363674 -0.034231174302051526 0.04238524193116072
0.05323811466226947 -0.03662338852268249 0.0428171721581177
0.05295448237051227 -0.042908670798045834 0.039010170726593574
0.05214794012695606 -0.04881758930794078 0.04244268826263037
0.0520418045018968 -0.05022500267462726 0.04214377209415643
0.05200194675106188 -0.05120654183138884 0.041491648171374684
0.05179222299472235 -0.053268479937903734 0.04175798966863914
0.05150671521394452 -0.05580600403642655 0.04244175025783403
0.051341191747822736 -0.057574979018598704 0.042483206364593296
0.05112335533677753 -0.05967020419429758 0.04281523620938382
0.051024713160635365 -0.06100711088526589 0.04250302987413823
0.050940391417538346 -0.06225108516376898 0.042115597881751066
0.05086059498178896 -0.06346427029602436 0.0417060892002975
0.05079478078016505 -0.06458757010392324 0.04122211564265621
0.05076770766534599 -0.06546670238820829 0.04052600254912436
0.05075937342015967 -0.06622812696840819 0.03972680799627687
0.050720303091941026 -0.06718071597856717 0.039098959333009664
0.05068359344033982 -0.06811754584432589 0.038459233788996905
0.05069446009777288 -0.06875841590652415 0.037554350096098366
0.050665961022018854 -0.06964307465111208 0.03687016965274059
0.05062920242004514 -0.0705779083416026 0.03623345877249878
0.05063634574864178 -0.07124139938538693 0.03534997098520759
0.050627161840176314 -0.07200539286279095 0.034558749442255066
0.05062677925003356 -0.07271518369418356 0.033717822156410615
0.050653702227475735 -0.07325798118888893 0.0327212947930528
0.05068998503072069 -0.0737444234449332 0.03167037375936138
0.050730161076431864 -0.07420818003735452 0.03059592725161625
0.05071479965790614 -0.07501036135880718 0.029839421983934966
0.05071915111577545 -0.07569266440530065 0.028969772702121588
0.050720431098745224 -0.0763936575572356 0.028117738392356928
0.05072990497825543 -0.07704526506501125 0.02721814619301982
0.050761552888628145 -0.07756370471833235 0.026189285088252356
0.050781818017643095 -0.07815136587439336 0.025225756181777192
0.050810062251044855 -0.07869180197800746 0.02421488397924698
0.05087153768800251 -0.079034451157739 0.02300815435677689
0.050931484112552765 -0.07938793380469755 0.021808371059084286
0.0510238063947615 -0.07955053153736469 0.020415613147678147
0.051138314699382154 -0.07958406476116836 0.018888540419758293
0.051276614244551974 -0.07947996112130684 0.017216522183949312
0.051530486352884125 -0.07869718238788104 0.014852386786134819
0.05187965865974107 -0.07736001327425618 0.01191129287562448
0.0523290679470783 -0.07544343152823374 0.008358947260312166
0.0552445257473054 -0.028949809153217154 0.04117012180546947
0.054937843902200065 -0.031666738224917335 0.04183032005972609
0.05465170608069153 -0.03424417019808407 0.04239563774095484
0.05438538053578836 -0.036687607852979864 0.042868817829733286
0.054128200468970385 -0.039065646032148904 0.04330369352136959
0.05418032800642879 -0.042439342873347385 0.03862050529832278
0.05336342192092263 -0.048304311179685144 0.04201426969054656
0.05320828153566063 -0.050005111275139014 0.04195926134190159
0.05319394699170579 -0.05082232553117638 0.04116754370361808
0.05302239604895519 -0.05261882497354631 0.04120707325059908
0.052648284505055 -0.05567009660592431 0.04232588910721358
0.05245784063743958 -0.05757165349419846 0.04248035636727748
0.052285671571808856 -0.059354873547092124 0.042543568387662434
0.05217262327356736 -0.06076821376213787 0.042296125959393194
0.05209492965754768 -0.06196057047357151 0.0418626624019004
0.05195968552412126 -0.06350469950925036 0.04174147417943602
0.05188092029523054 -0.06469859393818633 0.041319798879059844
0.051871222456439166 -0.06546750453768008 0.04052671202475566
0.051847517338429266 -0.06632171063313819 0.03981001479718693
0.051798604065238917 -0.06732890271896569 0.03923140659442015
0.05179337816211189 -0.06806909600669231 0.03841570274091943
0.05179207185142051 -0.06878536509620714 0.037578690288145256
0.05176334966892997 -0.06966756321429346 0.036892403337832835
0.051775879067023786 -0.07029981924893008 0.03597965366662842
0.05179181059843271 -0.07091191589436674 0.03504768588417223
0.0517640020933598 -0.07178743844569535 0.03435774118201701
0.05175278270728689 -0.07256268395965981 0.03357644444125368
0.05178227662055069 -0.07309394455071105 0.03256842738590415
0.05184948103204102 -0.07340082200159914 0.031348496906676404
0.05185943267745034 -0.07405064204216244 0.030447580035884603
0.051836785138171367 -0.07489451005875752 0.029729760797946314
0.05183194401259974 -0.07563215741166102 0.028912200320145853
0.05184398307893767 -0.07626979498446318 0.02799926958881971
0.051846731911059915 -0.07696260361310903 0.02713867294997202
0.05185759919487323 -0.07760767392668905 0.02623177827508144
0.05187567777814371 -0.07821066927043024 0.02528336669591802
0.05190137628220548 -0.07876949012415646 0.024290746503181526
0.05199678786904656 -0.07892129997253566 0.02289708843579441
0.05209532615123756 -0.07905747600180874 0.02148231987219873
0.0521575164484364 -0.07940793270799479 0.02027418602713743
0.052244566891255485 -0.07961571699222858 0.018920095331272424
0.05239747270511036 -0.07944433270812651 0.017180819243431122
0.052640861527159764 -0.07875413225046768 0.014909751396878335
0.0529670063778846 -0.07759338488851059 0.012147581216485237
0.05368499273789718 -0.07418740313512223 0.0070806387800574355
0.056781674286605195 -0.02591930827345862 0.04027967814494354
0.05641842337212948 -0.02895933445611376 0.041177660418238005
0.05611168810662052 -0.03163571551222022 0.0418056361826899
0.055822085194222756 -0.0341968233427854 0.042357763561229056
0.05553545632179838 -0.03673163020490677 0.04290422093843649
0.05527199690187293 -0.03911459779009041 0.04334327118150988
0.05501304564391434 -0.0414625193465476 0.04376798001992055
0.05543519294520899 -0.041810952447432825 0.03809877622244773
0.05473635846966383 -0.04684537234074243 0.04079653517249576
0.05439139106049851 -0.049692452194253445 0.04169690927925718
0.05439308392010259 -0.050410477652019836 0.04082013070318857
0.054216607990970174 -0.052215658316705105 0.040865182335196204
0.05380639750521629 -0.05543913088041452 0.04212899071385451
0.05358765430156497 -0.05748849329057204 0.0424090874999985
0.053408875836038205 -0.05928975492821126 0.04248746653552199
0.05329703268249079 -0.0606814031164829 0.042220941033796866
0.05320643695132138 -0.06194183579653184 0.04184635112854046
0.0530584979964455 -0.063545118493882 0.04177685020617178
0.05299293670165692 -0.06464952773401922 0.041276628458465914
0.05299025870718662 -0.06537523077882779 0.0404450988271951
0.05296014990461677 -0.06626492714300736 0.03975952764676466
0.05290790880828138 -0.06728589508894312 0.03919296696884417
0.05292419803439212 -0.06789741599909582 0.03826145226187455
0.05290977755526868 -0.06869181573445682 0.037494197601810164
0.05288362711767139 -0.06955535839814359 0.036790530209155126
0.05290777533328462 -0.07012072975218597 0.03581620306795663
0.052916052169793906 -0.0707804001399191 0.034927026566772545
0.05288802818903513 -0.07165400638637126 0.03423468358831405
0.05288602761231541 -0.072374002702572 0.033401523972681535
0.0529075083834921 -0.07295633234881782 0.032440185178985614
0.05292713650686891 -0.07355006999466474 0.03148830852624168
0.052917387388143916 -0.07431571267164949 0.030697186423275125
0.05291204692848914 -0.07505543428581474 0.029882086594772372
0.05293207921449645 -0.07564767429665531 0.02892696463045491
0.052928739447400654 -0.07637585846886091 0.02810071439021805
0.05294771493106392 -0.07697496704393514 0.02715055952975426
0.05297018237710731 -0.07755444642973847 0.026180337595185232
0.05298624223040364 -0.0781713929780532 0.025245211589320415
0.05301182425851084 -0.07873411232337263 0.024256200058302202
0.05311978125785235 -0.07882578719716321 0.02280333586622768
0.05321480751403205 -0.07899422967185621 0.021419916924630578
0.05327915958737099 -0.07934005486860074 0.020206865927691664
0.05339690905097418 -0.07938396257234348 0.01868905347521571
0.05354332604046884 -0.07926839168843774 0.017004510191190425
0.05377204524164056 -0.07869094001098381 0.014846098947945918
0.05408949941260862 -0.07761859290910134 0.012173104292120651
0.05791538815888651 -0.02622264704945615 0.04051846867633507
0.057587300463922034 -0.028999335132460613 0.04120931816316564
0.05728849890707163 -0.031587760542986565 0.04176747979786971
0.05699278211037679 -0.03414946363100535 0.042319879097215574
0.05670010254959529 -0.03668485608431721 0.0428666048365417
0.056417251842259944 -0.03915266174756693 0.04337404601853201
0.05667713609265599 -0.04128612285527139 0.03766302983482295
0.05607060594445709 -0.04567875118007336 0.0398227898591797
0.05559346540072621 -0.04927870347296959 0.041349732955006935
0.055552352138543974 -0.050254260208632384 0.04068835396358805
0.05534254383653455 -0.052237037158024635 0.04088331188907912
0.05497390881613538 -0.05516154143197782 0.04189234557401833
0.05473021542477755 -0.057332869612033044 0.042275716935622765
0.054528781931503525 -0.05924687773807796 0.04245052641267544
0.05439204393545336 -0.06077230744913753 0.04229967141801938
0.05427937526787235 -0.06215186478634538 0.04202921204784521
0.054177453202987676 -0.06346507898059561 0.041706796987672046
0.05412430928628032 -0.06448854878187898 0.041134992699421113
0.05409476916544294 -0.06537202029173889 0.04044225925373118
0.054055295973777194 -0.06631291452381594 0.039802194029328886
0.05403469447714767 -0.06714245165329297 0.039064759207690425
0.05404738095899781 -0.06777728775938402 0.038153519842824835
0.05403046697434556 -0.06858472058421067 0.037397470518178044
0.054006614436224155 -0.06943199846902182 0.036678529117185
0.05402215027008156 -0.07005045805725152 0.03575206781259249
0.05401642550265474 -0.07079221746262876 0.03493786838642854
0.05399122369938428 -0.07164615387871676 0.03422744162036884
0.05399735170369043 -0.07231915602934585 0.03335067734420122
0.05402787625339097 -0.07285226021693131 0.03234319930354557
0.05404369717702867 -0.07347038478493895 0.03141366150420588
0.05400920312445754 -0.07437645886684541 0.030754388680499567
0.05400647820020914 -0.07510049402321978 0.02992473872074808
0.05401860622676575 -0.07573996738115407 0.02901478146607772
0.05401506264519481 -0.07646870055089794 0.028189513533741717
0.054049154818691825 -0.07698423896158774 0.027159473834404924
0.054090668928717736 -0.07745874457342689 0.026087848396217916
0.054115553303618204 -0.07802806421596575 0.025105974307362833
0.05415895058207568 -0.07849394122785192 0.024021672831363583
0.054222048478449865 -0.07885044139872527 0.022827535715285008
0.054322622290215776 -0.07899885834459042 0.02142448387455731
0.05441665318136413 -0.07918644641531314 0.020054519647324798
0.05459789641415427 -0.07889069478144378 0.018197302310344887
0.054701967136265586 -0.07902856687848203 0.01676418371688737
0.055014735540235477 -0.07801211744277697 0.014162332725860816
0.05556359816086422 -0.07569802843355944 0.01022853620532993
0.07199589072361527 0.07941909824062171 0.01230599657598247
0.0718951898052409 0.07784801320848933 0.011636820484337895
0.07194894086879934 0.07726761642335594 0.010302914834698695
0.05942803203907478 -0.023462073982713272 0.039857235561374826
0.05908838337302007 -0.026276691543543396 0.040561012902405214
0.058770613961887166 -0.028950761706506845 0.041170875684949204
0.05846578743146962 -0.031538851801699186 0.04172856452415663
0.05816395182016891 -0.034101162054917644 0.042281241207492104
0.05786215137337707 -0.036655501164479465 0.04284299738776859
0.05796301809609282 -0.04052265468788946 0.03702915076060165
0.05737057048794254 -0.044760929679324934 0.03905671050544851
0.05687364645320454 -0.04842198560686656 0.04063086146520456
0.05663816207540302 -0.05053551844778342 0.04092560847843241
0.05635107682169891 -0.052945249281741213 0.04148388559022281
0.05600967490710178 -0.055665060829257484 0.042321596105155235
0.05578298560145742 -0.05770711359340408 0.042596446605286664
0.05559983769964022 -0.05948997289655045 0.04265996096259472
0.05548728335446114 -0.06085825085656338 0.04237410524631374
0.055439124861261894 -0.06185057480953948 0.041766895106812696
0.05535862535017939 -0.06302860376472491 0.041324779501412445
0.0553147513175111 -0.06399332478440234 0.04069927470121526
0.055278918791590054 -0.06491064156700149 0.040034184482739155
0.0552032075972893 -0.06605601271101696 0.03957377833250103
0.055168912598001746 -0.06696216579024067 0.03890362219389221
0.05515400896206836 -0.06775659418339997 0.03813492714788397
0.055122139437368614 -0.06864739993510083 0.03745408177276449
0.05512436493275933 -0.06934337247212935 0.03659806369782581
0.055145516101123046 -0.06993195116229994 0.035643909471211654
0.05512172217849124 -0.07077567296043624 0.03492268960918127
0.05509683707629224 -0.07162495012949444 0.03420788648219586
0.055105036946204174 -0.07228702255461344 0.03332088740881606
0.05514217536589063 -0.07278649444610646 0.032281911514568606
0.055128120865780124 -0.07357427992036059 0.03151098775194899
0.055092390712001456 -0.07448309625593363 0.030854804835629912
0.0551074000752932 -0.07510748486972357 0.029931356035515777
0.0551186624659835 -0.07575314758330648 0.029027322423530566
0.05512798175000316 -0.07640990709456152 0.028133280320817966
0.055155122980237156 -0.07696801273711723 0.027143873446903666
0.05519609416280403 -0.0774502519968554 0.026079640910652457
0.055269688252814725 -0.07775335986939053 0.024839111704197836
0.05531839316667248 -0.07819550939221692 0.02373025395479178
0.05537027136635315 -0.07862146589700314 0.022602780005165857
0.05548164647377157 -0.07872243397683043 0.02115174559328714
0.05556900586101168 -0.07895767579729818 0.01982762879616462
0.05574213447285389 -0.07872695112254441 0.01803406210595787
0.05586229640851189 -0.07878914103918494 0.016524257047807744
0.056182385672986994 -0.07776816128168662 0.013916599907837668
0.07330510836090522 0.07951996453489463 0.013957185225585922
0.07302834095636276 0.0768531857641756 0.01402100789293037
0.07286094650899233 0.0748807504973813 0.013631156605039496
0.07276648530004583 0.07336997290074787 0.012937170554386812
0.07275365559281638 0.07237254126937115 0.011898760738963898
0.07283570113922298 0.07196810015445965 0.010455710705226273
0.060979887362068864 -0.020538543736963344 0.03908584407656396
0.06060884338541132 -0.023508040566147415 0.03989322751198415
0.06026884690732566 -0.026284410849052753 0.04056708959688149
0.05995441353172568 -0.028901222134971427 0.041131668569902136
0.059642126534112765 -0.031497456848139205 0.04169562775445601
0.059330864140821796 -0.03407979362982366 0.04226414795879885
0.059027680748047456 -0.03660687113092681 0.042803888746618224
0.058674846831657114 -0.043854176955559376 0.03829986994325868
0.05824479197161532 -0.04707419382632283 0.03949993012414349
0.057796699065869296 -0.05038718380589208 0.04080048125157221
0.05731989040620576 -0.05385378327216572 0.04225433501204384
0.05703131462415347 -0.05622977924252853 0.04280301882719739
0.056842617962260276 -0.0580274471485519 0.04287097466836576
0.05668182779310523 -0.05966115627061508 0.04280744112273521
0.05660738130091283 -0.06079932317494602 0.04232306918587975
0.05662219739786171 -0.06142863423884071 0.041399534197642696
0.056562261595292616 -0.06248194039791666 0.04084632171589592
0.056498297866447805 -0.0635565113659684 0.04031494868058766
0.056466513314648456 -0.06444792061142868 0.03962492255137018
0.05639420092372814 -0.06556666893028273 0.03913869459585084
0.05635939706524369 -0.06647292326586435 0.03846634398435117
0.056321361705457124 -0.06739640967482396 0.0378113097752486
0.05625893564007402 -0.0684553158165257 0.03728059364973446
0.05624714854232825 -0.06923014322760934 0.03649526046893714
0.05627001717673964 -0.0698117725920237 0.03553422543269297
0.056224582227553714 -0.07077330931701853 0.03492052108114024
0.05619197115206238 -0.0716626436874816 0.0342426493313005
0.056198915558009446 -0.07233247771627532 0.03336302746183262
0.05620713768560138 -0.07299543914994783 0.032476629203668284
0.05618290349389652 -0.07383722103818635 0.03175730411961608
0.05617525493258773 -0.07458732725987172 0.030952954994315607
0.056186161848128864 -0.07523559415587333 0.03005262024445704
0.05620104174196588 -0.07586242216599315 0.02913129714837215
0.0562355083113691 -0.0763828235757773 0.028107376191797206
0.056295891083097 -0.07676310528438374 0.026946869167174148
0.05633674061692489 -0.07725092700128722 0.025887007142774088
0.05639148925213313 -0.07766451533039498 0.02475280333212826
0.05644991940060749 -0.07805959487635705 0.02359753334394471
0.05658984217769265 -0.07801692207296174 0.022009377324753943
0.05668514428830099 -0.07821770838242159 0.020653750455421227
0.05674071700105405 -0.07863402721281332 0.019506639573651285
0.05692699131282528 -0.07835223938386515 0.01766050247488976
0.057068999779619226 -0.07831149740155524 0.01604561427758716
0.05772318482083112 -0.07554610589044536 0.011678361977495444
0.07493919903188152 0.0816638046237021 0.014251933046995235
0.07444880131263074 0.0777026425198159 0.015165099305660734
0.07416010045133035 0.07499930798517745 0.015260107589590233
0.07398718116581311 0.07301676038892452 0.01488396876353476
0.07389140948215235 0.0715130532363526 0.014192185595798656
0.07382034291505182 0.07016337937010703 0.013400149360625058
0.07530233434519282 0.07833054118532384 0.006107651465457886
0.07381578587956632 0.06831048565868258 0.011244309311321476
0.07388275894544816 0.06780669303825809 0.009874497612378297
0.06214648863501822 -0.020708096477805416 0.0392178943726621
0.06178750439545708 -0.02356474908796563 0.039937630427404947
0.061459066855122646 -0.026235194552026442 0.040528346163301754
0.061135912110030985 -0.028866917387055158 0.04110451875498594
0.060815161161554304 -0.03147675571475478 0.04167915646015119
0.060498563787458534 -0.03405470561703966 0.042244079299557424
0.059996114245001654 -0.04288597177870562 0.03749173677623385
0.05957996161942424 -0.045981753669690484 0.038583264190128974
0.05915937357484444 -0.049092283275627535 0.03970817192756104
0.05864142393217064 -0.052740776911030074 0.04131049018459887
0.05825678329231687 -0.05562728756503338 0.042289394379027956
0.05804513462426471 -0.057534236661080485 0.04244828988358462
0.05789691946663872 -0.059081034051053805 0.04230764657020092
0.05781058900066276 -0.060278678804930375 0.04187214974015463
0.05782986578132996 -0.060885913084159304 0.04092701614497157
0.057791766083627655 -0.06181252546744148 0.04026042771846777
0.05769783505536865 -0.06304781929740777 0.03986738093155734
0.05761940244390325 -0.06419503304103885 0.03940125155866819
0.05754322313036276 -0.06532786733765927 0.038926372107393525
0.057500260622085846 -0.06627583991701125 0.03829019360979674
0.057454310874329666 -0.06723916895741111 0.037670032661356045
0.057392337089175065 -0.06828923598918041 0.037130592297550835
0.05736900461937795 -0.06912634397078155 0.03640101892556752
0.05734786237855609 -0.06995091829607847 0.03566122030980107
0.05730721463237088 -0.07088121255077101 0.03501951705758788
0.057285540127637063 -0.07170739293703088 0.034283919285443776
0.057292763141271436 -0.07237635284170596 0.03340370271287474
0.05730244483555691 -0.07303219054944982 0.03251087820568005
0.057277308115343595 -0.07387619501113735 0.03179381391895908
0.05727485341184766 -0.07459743547566006 0.030962473495972198
0.05730663643564092 -0.07513466847765682 0.029957087181252895
0.05732919487181072 -0.07572213354326357 0.028997812575948412
0.05736799059937741 -0.07622332071704524 0.02795481910847658
0.05742381525285055 -0.07663460833546687 0.026823328278196612
0.05746302986782129 -0.07713569445442764 0.025775642887525874
0.05753608254744315 -0.07745804193775369 0.0245522239538567
0.057648058292055646 -0.07757596293048769 0.02312526644239382
0.05775063366398744 -0.07774634361009969 0.021743785354843947
0.057847829779078784 -0.0779476290403911 0.02038727258970735
0.057961910663662845 -0.07806248018436429 0.018939788843920002
0.058183231241016084 -0.07761724830872041 0.016927771240375478
0.058588646666062436 -0.07621344598924246 0.013943174171741513
0.07614349631721855 0.08022289998212229 0.015204322467926079
0.07564675273629948 0.07628334071942422 0.016108462459985484
0.07536804114013654 0.07367701449163139 0.016143905586043727
0.07520697570902343 0.07178890917625436 0.015709223640734682
0.07506897981556163 0.0700439429966832 0.015185096319740854
0.0749855994886888 0.06863128474162389 0.014441390133100307
0.07491306614136296 0.06728585098431039 0.013655535531641949
0.07489949689976183 0.06629589917874301 0.012628704544768166
0.07490943104209016 0.06544698702561552 0.011505035946987374
0.07498171455122518 0.06497035213076713 0.010122249322075227
0.07512889456421631 0.06493853906103059 0.008425372870232095
0.06370651921926389 -0.017848197681063882 0.0385130955162406
0.06333191209616933 -0.02076358804879208 0.03926111206612637
0.06297949376595158 -0.02354324106504546 0.039920789591284145
0.06264554753959801 -0.02620913336718017 0.0405078306055473
0.06231529180122604 -0.02884595010232044 0.04108792461177191
0.061988333956072644 -0.03145605214306435 0.04166268322575656
0.061664624976789914 -0.03403983694410645 0.04223218539895085
0.06093185858010092 -0.04483769758713646 0.03762328736108944
0.06053491435338621 -0.04777499247387218 0.03859697535951451
0.060075702328991294 -0.05104674794519409 0.03987393013177509
0.05957999043429245 -0.05450861859957745 0.04133572854175804
0.059294091505047566 -0.05680413788913774 0.04182259020742862
0.059126643158798835 -0.05844247976469219 0.041757510852140856
0.05907264440303117 -0.059455346595392644 0.041159078544241834
0.05908545640641546 -0.06010176194420758 0.04024429801899876
0.059045531436876755 -0.06103607250547394 0.039580850510084975
0.058956535170522156 -0.06223641433613941 0.039153474199937754
0.0588347519323707 -0.06361259558249455 0.038886104197575766
0.05872508492010756 -0.06492019166254298 0.03856390084883404
0.05863571498495415 -0.06611542859608993 0.038146820187194175
0.05857964481792194 -0.0671289272905749 0.03757098309723811
0.058532557663514964 -0.06809273359396356 0.03695311363887799
0.05850697284626686 -0.06893996700599464 0.036231803332442414
0.05845808383119746 -0.06991140084055286 0.035625153695727774
0.05839498882090404 -0.07095756610821785 0.03508956773829347
0.058385860182112 -0.07171445743223326 0.03429043450963154
0.05839660871735243 -0.0723653852221785 0.03339353497721048
0.05837320260109545 -0.07319785458726946 0.032665262203063594
0.058368494204491514 -0.07393074206908917 0.031844912177355245
0.05840441492953486 -0.07444885578497662 0.0308225619565351
0.05844436234562691 -0.07494661504920958 0.029779081738207258
0.05847063061780342 -0.07551728375366334 0.02880289807722536
0.05849322840448544 -0.07610784868922482 0.02784437547185814
0.05853951232390831 -0.07657496771382477 0.026765987964057325
0.058592836877098174 -0.07700643792865747 0.025650725430430232
0.05876248984244302 -0.07683305807207158 0.023945080952985476
0.05882832476935415 -0.07720349090404377 0.022761547272588223
0.05893027851447132 -0.07738819518883533 0.021392237254091173
0.05907234302361749 -0.07736782979910123 0.019815204903227357
0.05920056096665703 -0.07742238785474642 0.018304956037381193
0.059419920329461744 -0.07701067923486249 0.016323067154385584
0.060219747881825644 -0.07362193017141322 0.011346237433984774
0.07745409555323923 0.07947011027848494 0.01570189109893827
0.07689995719497247 0.07524587377603864 0.016798032562658438
0.0766361801071429 0.07276171645879942 0.01675567488803531
0.07642888404767802 0.07061908030333425 0.016495480943659158
0.07628579941712958 0.06886173988852679 0.01598409840431586
0.07615848846588993 0.06720105455487818 0.01541340188536322
0.07608112801118609 0.06583809601398982 0.014644923778242003
0.07601641353416147 0.0645514368829403 0.01382747427308939
0.0760044142468112 0.0635760703503368 0.012797824685735815
0.07601616861413144 0.06274028207692439 0.011671733105715232
0.07608947046399632 0.06226439878719042 0.01029366443961216
0.07625473278373009 0.06232384179972533 0.008536221095418683
0.07659860979398857 0.06342037729765254 0.00603873563548335
0.06528751887604699 -0.014938860323337244 0.037787572784588386
0.06490138686630163 -0.01788837926774911 0.038544222026545505
0.06452138343413898 -0.02079429928835902 0.03928503045434123
0.06417162578957626 -0.02352173046812156 0.039903946739711926
0.06383133807819283 -0.026187895512553516 0.040491112009069685
0.06349481114783086 -0.028824980334757444 0.041071328503572535
0.06316367409728575 -0.031424050917095825 0.04163722077395471
0.06191436324499841 -0.04648524757833211 0.03750901505517634
0.06148628797480766 -0.04954396128123517 0.0385995462027528
0.06096846525436757 -0.0530781716178535 0.0401162717939435
0.0606144653177381 -0.055715441700673496 0.040889570075451576
0.06046068606469 -0.05726551310121486 0.04074351499560358
0.06038949827228601 -0.05836791125518359 0.04021727302571837
0.06039660950757546 -0.059048610590878015 0.039327375908351725
0.06032233342850602 -0.06016508037407453 0.0388185295065307
0.06021932959950354 -0.06143319656222629 0.038446770885162906
0.060093096415492715 -0.06282263566829827 0.03818740984130253
0.059962971480305736 -0.06422976000088759 0.03795002651532586
0.05985223057530944 -0.06553096220689492 0.03762443220276879
0.05972390148261772 -0.0669226166987203 0.03738561784667033
0.05966726076603931 -0.06793264561319129 0.03680852405224344
0.059621121480263384 -0.06888599535602796 0.03618280132851187
0.059563322060619664 -0.06989954365848589 0.03561433193597835
0.0595030833100173 -0.07092451039091396 0.035059240723079255
0.0595256022395361 -0.0715149584386584 0.03410644674672181
0.0595231994089022 -0.07223606561747997 0.03327364683252371
