# .PCD v0.7 - Point Cloud Data file format
VERSION 0.7
FIELDS x y z
SIZE 4 4 4
TYPE F F F
COUNT 1 1 1
WIDTH 755
HEIGHT 1
VIEWPOINT 0 0 0 1 0 0 0
POINTS 755
DATA ascii
-0.02752023947800592 -0.01228830129091324 0.04520953395628302
-0.027529776819385565 -0.011620943730598132 0.04415522843471237
-0.02753876846775666 -0.010945222205172245 0.04310577314151637
-0.0275468186145992 -0.010255533698256991 0.04206523863814543
-0.027554715487044277 -0.009563191004492322 0.041025703086431164
-0.02756269592453619 -0.008871575009861798 0.03998476441629101
-0.027570601903970163 -0.00817843618897196 0.0389440327837447
-0.027577562927186446 -0.007471454944197153 0.03791246419290084
-0.027583815029805458 -0.006754049436616172 0.03688772282371705
-0.027590149161562025 -0.006037435316123996 0.03586169713483672
-0.027596565433534573 -0.0053216069557355805 0.03483437740401918
-0.02760274688963648 -0.004602106147596929 0.033809057325135394
-0.02760758305106894 -0.003863391487998191 0.032797369853477365
-0.02761234158582052 -0.0031233086558160594 0.031786159770352596
-0.027617101761227385 -0.0023829706568682107 0.030774601040807037
-0.02762186357813781 -0.0016423773591613955 0.029762693484503333
-0.027625753626831995 -0.0008893909385691567 0.028759688796172467
-0.027629009419410943 -0.00012738154862751427 0.02776315384969924
-0.027632186543818438 0.000635906736701719 0.026767230969079736
-0.027635443852917673 0.0013982733848219575 0.02577022907942933
-0.027638622457374473 0.0021619149225121093 0.024773845019920526
-0.027640291551869926 0.0029464991734514667 0.02379349237063455
-0.02764188135655323 0.003732268936365024 0.022813879957318928
-0.0276435508446781 0.004517040540990114 0.021833293340242588
-0.02764514102431353 0.005302993302450876 0.020853452656550808
-0.027646254280666797 0.006095541322348241 0.019878702655471203
-0.027646254353181222 0.006903298940300007 0.01891605449338568
-0.026590747403417662 0.022040089077503044 0.029538478093157128
-0.026593763796636624 0.022776147299943872 0.028579371242808904
-0.026596780874264113 0.02351237253128191 0.027620046774651297
-0.02659987224734393 0.024247771977227883 0.02665968898500537
-0.026602964339119642 0.024983342392077112 0.02569910792715291
-0.026606057149841825 0.02571908383545901 0.024738303523226313
-0.02660907701758884 0.026455983454208576 0.023778099588825985
-0.026612171249823766 0.027192065210493777 0.022816851016153994
-0.026615192505716555 0.027929301407934592 0.02185620826932194
-0.026618214447673108 0.028666705016357763 0.0208953473805481
-0.026621310805439828 0.029403296720064254 0.019933433359721475
-0.02662433413697231 0.030141037253804293 0.01897213320658936
-0.026627431918697455 0.03087796985783614 0.01800977425054534
-0.02663045664076424 0.03161604754884689 0.01704803453059961
-0.026633555847429997 0.0323533212889186 0.016085230331754075
-0.026636581960990353 0.033091736369366964 0.01512305074226128
-0.025758592365100568 0.04537869465697936 0.02432137866899675
-0.026408328066809733 0.03763353908405698 0.015908460889407672
-0.02664573829380119 0.035307024814759 0.012234342651748109
-0.02664884105851993 0.036045151460517344 0.011270425384460436
-0.02665194454590985 0.03678345002516614 0.010306283608871258
-0.026654974839715285 0.037522878669064175 0.009342782591552634
-0.026658079755983704 0.03826151931478322 0.008378194339989764
-0.026661111445128567 0.039001286278922964 0.007414252239404673
-0.03142027968736722 -0.06624903287552636 0.040709530647003944
-0.03117242020750224 -0.0618337581964159 0.04188547929918274
-0.029024865542394477 -0.030375191286239445 0.06017489443595958
-0.02857984707004733 -0.0232381127101714 0.06322810239924054
-0.028594811000695133 -0.02265167570515514 0.06214054477644043
-0.028609627703807743 -0.02206231769801198 0.061053330107307624
-0.028624378233200385 -0.021471196412083615 0.059965732832746754
-0.028639225601150935 -0.020880616382367934 0.05887626533339835
-0.028653598154368277 -0.020282523352955883 0.057790176960319295
-0.02866684019795654 -0.019667746418723986 0.05671356917812892
-0.028680012632828683 -0.019051253462113338 0.055636724328384124
-0.028693197178705034 -0.018434193689463585 0.054558889405739
-0.028706475856697396 -0.017817711380168966 0.05347929770486409
-0.02871869982256562 -0.01718578896058065 0.05240870013771498
-0.028730194922508712 -0.016543046572477293 0.05134413929299214
-0.028741781434509353 -0.015900930433350446 0.05027795046069161
-0.028753295023031533 -0.015257156564759733 0.049211680128552704
-0.02876473550153288 -0.014611728502062549 0.04814533735506177
-0.02877470190301238 -0.01394532501162532 0.04709228450290981
-0.028784757665418784 -0.013279594757912017 0.046037712936600084
-0.028794737948608342 -0.012612265372197617 0.04498319608635948
-0.028804642588219995 -0.011943340929118751 0.04392874307722677
-0.028813810453661118 -0.011263780898641051 0.04288075193434704
-0.02882215746413706 -0.010572498846616374 0.04184011179804237
-0.028830426597464456 -0.00987968893144342 0.04079967359601733
-0.028838783239034056 -0.009187606940215975 0.03975782997471383
-0.02884706191635009 -0.008493999718237388 0.03871619368730378
-0.028853936841398937 -0.007780917058300751 0.037687808333377426
-0.028860483492744272 -0.007063013098638049 0.03666220371205858
-0.028867116040219777 -0.0063459018133920075 0.03563531271064019
-0.028873834600231078 -0.005629577567719368 0.03460712559029028
-0.02887997528441583 -0.004905115526139037 0.03358424988512537
-0.028884956149013444 -0.004164763492620183 0.03257256220932747
-0.028889938731963084 -0.0034241560446744423 0.03156052551085459
-0.02889492303415419 -0.0026832930501066166 0.030548139609060665
-0.028899909056476696 -0.0019421743766282473 0.029535404323176084
-0.028903649720738535 -0.0011842228708308644 0.028534955196549083
-0.028907058731108718 -0.00042166298603768526 0.027537628347520215
-0.028910385371693784 0.000342177751440631 0.026540914498788648
-0.02891379597117171 0.0011050954272840419 0.02554311997656833
-0.028916791316285825 0.0018736771552378961 0.024549361055961394
-0.028918455697361352 0.0026599323953298004 0.023569109927842613
-0.028920203500068298 0.0034451857531261343 0.022587886015602243
-0.028921868273958037 0.004231624232186537 0.021607406309298083
-0.028923533239514954 0.005018153254415292 0.020626813719716364
-0.028924282576515078 0.005816716186743065 0.019655662075658165
-0.028924365903159825 0.006623987928225106 0.018691430531667996
-0.028924365975814482 0.007432345397768048 0.017728067494204303
-0.027824588160112757 0.02249086598575134 0.028347489619985178
-0.027827747372598487 0.023227641914542907 0.02738737904299171
-0.027830984381269037 0.023963590741864438 0.026426233500941088
-0.027834222143089643 0.024699710801351138 0.02546486433053008
-0.02783738354372482 0.025436992729938934 0.024504093892960155
-0.02784062279468655 0.02617345350798428 0.02354227999203895
-0.027843785649508786 0.0269110724172274 0.022581070186501073
-0.02784702639063891 0.027647874149444918 0.021618811247594738
-0.027850190700651478 0.028385830271412227 0.020657161771461596
-0.027853355729863433 0.029123954119728623 0.019695293726858076
-0.027856598699185164 0.02986126676060802 0.01873236803717976
-0.027859765185088172 0.030599728169240337 0.017770059868758625
-0.02786300964714442 0.03133738235335448 0.016806688372427048
-0.027866177590743918 0.032076181554906213 0.0158439397768676
-0.02786942354656526 0.032814177518628196 0.014880122165416787
-0.027872592948867743 0.033553314745915164 0.013916932839118101
-0.027271094095043066 0.04185712122813212 0.019644085036491343
-0.027879011261498617 0.035031128211887586 0.011989038442879296
-0.027882182844945393 0.03577077194356748 0.01102518883660103
-0.027885432530677372 0.036509622422876864 0.010060255974956245
-0.02788868297398701 0.03724864514583964 0.009095098164506876
-0.027891856758446753 0.037988797849368816 0.008130584821589015
-0.03275851900064928 -0.06586726666606885 0.04094804088081544
-0.030539356237347895 -0.03464014910991292 0.058971546682670184
-0.03001898412597936 -0.026719433385766156 0.06248490647155075
-0.02984791597352753 -0.023585037720126767 0.06300764253303759
-0.02986338709331329 -0.022995968799692845 0.0619205181300404
-0.029878959398004345 -0.022407444147354183 0.06083152370708167
-0.029894377497684383 -0.021815997065578185 0.059742884881001546
-0.02990989683227802 -0.021225092347813168 0.05865237252097899
-0.02992457827703628 -0.020622054253591204 0.05756825659418913
-0.0299383338625351 -0.02000576586590591 0.05649139571117118
-0.029952102100003448 -0.01938891063500281 0.0554135443643724
-0.029965883006904278 -0.018771487778468987 0.054334701186670054
-0.02997976231446241 -0.018154643499733447 0.053254098181980736
-0.029992196067508876 -0.017517750645639985 0.05218558439495852
-0.03000421086299863 -0.01687460788913131 0.05112005079337595
-0.030016321211397114 -0.016232092528535358 0.05005288642883232
-0.030028355347389787 -0.015587916792179246 0.04898564035626951
-0.03003996883755248 -0.014937523856155543 0.04792145546648602
-0.030050385609881523 -0.014270687142350968 0.04686746187892665
-0.030060809608995483 -0.01360338780115078 0.0458127370683718
-0.030071327080521182 -0.012936760877568232 0.04475648693640005
-0.030081679317680545 -0.012267399309492999 0.04370109073238898
-0.030090829732876155 -0.01158172279538644 0.04265616641590192
-0.030099467308689405 -0.010888844610531745 0.04161542488059722
-0.030108196294425668 -0.01019669758404207 0.04057327936685473
-0.03011693034448984 -0.009504148992187766 0.0395305292278576
-0.030125409814575458 -0.008807821326785814 0.03848961227048481
-0.03013233538494205 -0.008090870052135768 0.03746279611679776
-0.030139177512070042 -0.007372466961012181 0.03643632679279496
-0.030146196082757586 -0.0066559781316972155 0.03540774683399461
-0.030153217923035634 -0.005939155527275586 0.03437868771293279
-0.030159202082053575 -0.005208599005337877 0.03335909070235582
-0.030164407639086944 -0.004467720060940261 0.032346572563804965
-0.030169614993394735 -0.0037265853203116706 0.03133370484270992
-0.030174824145907983 -0.0029851946509557026 0.030320487357993198
-0.030180035097557872 -0.0022435479202780884 0.029306919928456687
-0.03018351008954947 -0.0014795079940647105 0.02830987615524405
-0.03018707278509991 -0.0007163968216363226 0.027311756145496524
-0.03019054939801261 4.799716527137399e-05 0.026314250072631273
-0.030194113755587917 0.0008114666628135092 0.025315661657965116
-0.030196896294010706 0.0015850027769764852 0.024324537052714423
-0.03019863566825643 0.0023718369180093513 0.023343530509752353
-0.03020037524288617 0.0031587617056841877 0.022362410950643563
-0.030202115017934638 0.003945777155665409 0.02138117835585629
-0.03020385499343657 0.004732883283620537 0.020399832705853937
-0.030204203070828398 0.005537478233595738 0.019432291270724766
-0.030204290146024965 0.006345346779877192 0.018467345279608915
-0.030204377221723845 0.007153219980367498 0.017502393729329324
-0.02905736346403597 0.022205132481245227 0.028115240448995826
-0.029060665258380202 0.022942459929101655 0.027154342475225468
-0.029064048360703528 0.023678958956260987 0.026192407888904534
-0.02906735167449175 0.024416623555154615 0.025231070293516455
-0.0290707363338553 0.025153463707240753 0.02426869041385904
-0.029074041168136267 0.025891465689461657 0.023306912893916287
-0.029077427385614897 0.026628647202528666 0.02234408741284999
-0.02908073374143833 0.027366986800580362 0.021381869665136666
-0.029084121518107863 0.028104509910899966 0.020418598274305366
-0.02908742939652447 0.028843187357499578 0.019455939995326688
-0.029090738027453492 0.02958203284670191 0.018493062720100373
-0.029094128135523156 0.03032006782964053 0.017529123272072122
-0.029097438290616857 0.031059251515955677 0.01656580501106042
-0.029100829960564845 0.03179762868685615 0.015601418882394247
-0.029104222421272006 0.0325361780087427 0.014636807909286231
-0.029107534873781947 0.03327587039943275 0.013672826212750011
-0.029110848080365286 0.03401573117994494 0.012708625067311519
-0.029114162041279344 0.034755760407788605 0.011744204398028868
-0.02911755761121909 0.035494993116115425 0.010778701604390262
-0.02912095397328184 0.03623439827398073 0.009812973576561523
-0.03153228228141727 -0.03096992644601726 0.06127759120802223
-0.03110069751143355 -0.02450393108350518 0.06388484520360493
-0.03111806380291691 -0.023931396367982027 0.06278754257225844
-0.031134207024923578 -0.023342005084204698 0.06169937746674459
-0.031150367004917735 -0.022752001964068846 0.06061008275678642
-0.03116654376900692 -0.022161386054372068 0.05951965668253956
-0.031182737343353455 -0.02157015639993759 0.05842809748049799
-0.03119761109998936 -0.02096100345922214 0.05734671642924294
-0.03121205310125622 -0.020345505887404636 0.05626809134465477
-0.03122632993745187 -0.019727135406395313 0.055189989236959336
-0.03124079854607911 -0.019110499274201054 0.05410937146393613
-0.031255012262545324 -0.018489844693165003 0.0530300555802814
-0.031267717218980064 -0.017849115949862326 0.05196286948773071
-0.03128034292859279 -0.017206719925142833 0.05089559008545824
-0.03129288918683227 -0.016562660119732453 0.049828226433399014
-0.031305535237218046 -0.015919226850818258 0.048759224832268466
-0.031317203781333215 -0.01526271157401643 0.0476979911370658
-0.03132816218038078 -0.014596583056319001 0.04664227041500213
-0.031339038334681185 -0.013928849285655354 0.045586601943894134
-0.03134992204328329 -0.013260651724102401 0.04453020023228482
-0.03136072327314649 -0.012590854027896892 0.04347386246283713
-0.03136991018305687 -0.011900177865764694 0.04243121840554376
-0.03137892218558278 -0.011206831836477915 0.04138957210233157
-0.031388029564794626 -0.010514218199510483 0.04034651951537144
-0.03139714223213606 -0.009821202401888496 0.03930286128810234
-0.031405537790196156 -0.0091187639082414 0.03826510953240414
-0.03141276337894732 -0.008401315094605843 0.037237426694589404
-0.03141999229327211 -0.007683536075662356 0.03620927086644099
-0.03142722453546667 -0.00696542662339017 0.03518064172134572
-0.03143455057265789 -0.006248106783679208 0.034150712280733686
-0.031440431976393804 -0.005512557698757803 0.03313357895065594
-0.03144586292376786 -0.004771151100355697 0.03212022898783212
-0.03145120518646907 -0.004028373840509303 0.031107364738718113
-0.03145663985663871 -0.0032864566956077312 0.030093317371675588
-0.031461713915118435 -0.002539840799625992 0.029082287407912577
-0.031465339265726776 -0.0017752473539853764 0.028084450875168532
-0.031469056115460456 -0.0010115840994319725 0.027085536443541836
-0.03147268315842622 -0.0002466360640946963 0.02608723688753023
-0.03147640174343307 0.0005173860508314587 0.0250878533175396
-0.03147885107250484 0.001296990909651241 0.024100229023402697
-0.03148066565500676 0.002084402598014179 0.02311846877968865
-0.03148248044671508 0.0028719050680555136 0.022136595347586385
-0.03148429544766606 0.003659498335474687 0.021154608707519562
-0.03148601989605967 0.004448273697305605 0.020173377141038062
-0.03148611073082781 0.005256737597727934 0.019207718424518905
-0.031486110803760965 0.006066292779576321 0.018242928008985804
-0.03148620163905449 0.006874763674828421 0.017277260943812656
-0.031486201711989154 0.007684321190522425 0.016312467746879167
-0.030295455147713618 0.02265782501168062 0.02692175294460253
-0.03029898478380231 0.023394873130888172 0.025959030784653003
-0.030302431175998616 0.02413308865795788 0.02499690655374892
-0.030305962437852912 0.02487047842647422 0.024033738383531844
-0.0303094945228116 0.02560804007377593 0.023070345707664752
-0.030312943306397687 0.02634676351021309 0.02210755903051209
-0.030316477018813907 0.027084667162733833 0.021143719879790746
-0.03031992739165778 0.027823728851972096 0.02018049211255213
-0.030323462732656254 0.028561974746644403 0.019216206177735617
-0.030326914695856355 0.02930137492205198 0.018252537016045622
-0.030330367445059833 0.0300409434572117 0.017288648429081788
-0.03033390522121865 0.030779702191186697 0.016323693126820804
-0.030337443822759998 0.0315186332818338 0.015358512694949034
-0.03034089896997196 0.03225871113054407 0.014393959830139191
-0.030344439203475997 0.03299798517545244 0.013428331684736006
-0.030347895944345615 0.03373840221172664 0.012463336510695922
-0.030351353472850565 0.034478987955943785 0.011498121457427901
-0.03035481178925999 0.03521974246577292 0.010532686449773343
-0.033011138277311516 -0.0345326274019126 0.060524498060924914
-0.03250790959473989 -0.027363646302370426 0.06354345988785753
-0.032372654640620585 -0.024855823767655605 0.06366249020046721
-0.03239037736627967 -0.024278345593323813 0.06256706731817452
-0.032407194961585895 -0.023688631702890373 0.06147785953985929
-0.03242403002983352 -0.02309830511875416 0.06038752010975096
-0.0324408825982677 -0.022507364885568426 0.05929604726330584
-0.03245765995381467 -0.021914653029777187 0.05820419123745324
-0.0324728765345257 -0.021301678189424134 0.057124048446104525
-0.0324878286491872 -0.020684664598463354 0.05604516906218515
-0.032502794539525856 -0.020067082540854486 0.0549652956856031
-0.03251777422458826 -0.019448931230627686 0.05388442694204698
-0.032532301881068 -0.018824455678837282 0.052806407463352634
-0.032545443827490646 -0.01818217942783984 0.05173901321570146
-0.03255859639596127 -0.01753938405376393 0.05067075624111511
-0.03257166620634996 -0.016894922239924115 0.049602414803711636
-0.032584839982024924 -0.016251088112815115 0.048532432618837495
-0.03259662131936361 -0.015589574985592713 0.04747337529472617
-0.03260794316784673 -0.01492187176765053 0.04641749852349658
-0.03261927288390281 -0.014253704561640768 0.04536088802171595
-0.03263061047573577 -0.01358507288375943 0.044303543024310166
-0.03264158077082074 -0.012911425402486798 0.043248659754981045
-0.03265105679847836 -0.012219147353207727 0.04220590702494603
-0.032660444426768645 -0.01152533287143881 0.041163354387414475
-0.032669931411558 -0.010832252019064181 0.04011939315514351
-0.032679329897902086 -0.010137637371367914 0.039075637434724364
-0.03268779316748999 -0.009431329679752909 0.038039434839361064
-0.03269522565986545 -0.008712253358328037 0.03701169921548403
-0.03270275567868713 -0.007993975631799266 0.03598267446845177
-0.03271028916674864 -0.007275366979567044 0.034953175627977784
-0.03271782612644831 -0.006556427172884849 0.03392320236634694
-0.03272357540980761 -0.005815872603690153 0.032908544836095344
-0.03272923241528716 -0.005073939550609807 0.03189436474983515
-0.03273489137696489 -0.004331749936532514 0.03087983395931837
-0.032740552295855214 -0.0035893036283515256 0.029864952282606827
-0.03274536562747979 -0.002836589764134423 0.028857309109368567
-0.03274914179568767 -0.0020714419995269684 0.02785867855677987
-0.032753013270228226 -0.0013072258666481096 0.026858968439106068
-0.03275679120255427 -0.000541722982156212 0.025859874137935057
-0.03276066448594898 0.00022285254755360917 0.024859694146728506
-0.032762743244625234 0.0010085437755219528 0.023875582001674
-0.03276463326081089 0.001796533858991034 0.022893066898532433
-0.03276652349506466 0.0025846148594768636 0.021910438434367074
-0.032768413947423865 0.0033727867927204613 0.02092769658956184
-0.0327698319481157 0.004166514269198729 0.019949189365167708
-0.032769832021187766 0.004976669639090547 0.01898368367332609
-0.03276992662713237 0.00578573677694838 0.018017302816747016
-0.0327699267002062 0.006595894484145048 0.017051794339378035
-0.03277002130669822 0.007404968627259478 0.016085405121695096
-0.03153228625470964 0.022371738650590778 0.026687977365931703
-0.031535875357070406 0.023110337771146683 0.02572528438697025
-0.03153955284406154 0.02384810782252117 0.024761548652711574
-0.031543231188821644 0.024586049957833866 0.02379758812830901
-0.03154691039165078 0.02532416423730005 0.02283340273510598
-0.03155050282404192 0.026063442144590887 0.021869824297332197
-0.031554096074693935 0.026802888439899364 0.02090602638180533
-0.03155777781262211 0.027541515640395753 0.019941171465533702
-0.03156137272060905 0.0282813008272777 0.01897693159508279
-0.0315649684477026 0.029021254575783972 0.018012472020549952
-0.03156865272335012 0.029760395229126324 0.017046946887211534
-0.031572337859142284 0.030499708445189122 0.016081196338553427
-0.03157602385538029 0.03123919428441102 0.015115220295627896
-0.03157962292172762 0.03197982869828553 0.014149872811493991
-0.03158322280860285 0.0327206319648784 0.013184305243709837
-0.03399284574835755 -0.031025247048440507 0.06271574980494538
-0.03362743566813764 -0.02577382308948023 0.06454236474761332
-0.033646810298959065 -0.0252083246848398 0.06343975086521847
-0.033664862207544506 -0.02462588690793477 0.06234621581009575
-0.0336823564559263 -0.02403585016769283 0.061255963383150536
-0.033699868895795966 -0.023445199874693012 0.06016457725150692
-0.03371730318380297 -0.022852774986918456 0.05907280541983351
-0.03373456257859394 -0.022257418855411937 0.057981409934386274
-0.033750198059047234 -0.021641770227480595 0.05690176131589064
-0.03376584803980915 -0.02102555064852374 0.05582111143386359
-0.03378131906444418 -0.020406448754095252 0.05474098610375777
-0.03379699792676512 -0.01978908735283552 0.0536583364239725
-0.03381162529073873 -0.019158472102722923 0.05258315674135061
-0.033825295395972045 -0.018515796816623742 0.051514784653053924
-0.03383897655933185 -0.01787260165280985 0.05044554832913839
-0.03385257164769419 -0.017227737383789854 0.04937622732866154
-0.03386627488893406 -0.01658350195487751 0.04830526277514202
-0.03387804326648529 -0.015915829643353252 0.04724917777952997
-0.03388991718620317 -0.015248837318491637 0.04619156794906809
-0.03390170200345308 -0.014580234628765898 0.04513401043130816
-0.03391339752361213 -0.013910025660040737 0.04407651440178306
-0.03392441818887232 -0.013231377184611925 0.043023892313651
-0.03393427458956374 -0.012538632505168068 0.04198023139294221
-0.03394403904702037 -0.011844348961750684 0.04093677085062625
-0.03395390685388821 -0.01115080028793608 0.03989189939687815
-0.03396368261439063 -0.010455715390048581 0.03884723374948179
-0.03397199644872864 -0.009743263030791649 0.03781421675864949
-0.03397972707952723 -0.009023686019648758 0.03678561282550591
-0.03398755915172007 -0.008304908906351494 0.035755717694948785
-0.033995492803178595 -0.007586926030006214 0.034724521570075495
-0.0340028420853475 -0.006861864890013725 0.03369781957936924
-0.03400882185877676 -0.006120783322832224 0.032682326761487634
-0.03401470565644777 -0.005378321127571639 0.031667312122910685
-0.034020591490337766 -0.00463560198693691 0.03065194621616074
-0.034026479361503846 -0.0038926257675212517 0.02963622885886119
-0.0340309947934814 -0.0031337958676958544 0.02863198423382307
-0.03403492223985847 -0.0023680929828559516 0.02763255839807144
-0.03403894881145675 -0.0016033231737352382 0.026632051327166006
-0.034042878094038824 -0.0008372646376363369 0.025632161015810617
-0.03404661175647987 -6.881790420154577e-05 0.024633752828001343
-0.03404857720561196 0.0007196603871249541 0.02365059521847651
-0.03405054288167408 0.0015082297153425905 0.022667324094558516
-0.03405250878470501 0.0022968900962245242 0.021683939436591082
-0.034054474914744386 0.003085641545538531 0.020700441224906496
-0.034055458101509936 0.003885429650067662 0.01972553851549802
-0.034055556489199654 0.004695093910608628 0.01875844281151734
-0.03405555656241262 0.005505852699912384 0.017792217992334436
-0.03405565495067224 0.006315523976087867 0.016825113914849643
-0.03405565502388683 0.007126285106181629 0.015858886305990194
-0.03405378720828477 0.007957618976565273 0.014909469725672808
-0.03277481578134519 0.022824351064248738 0.025490345704233863
-0.0327786407794222 0.023562674041739673 0.024525816676465084
-0.03278246667038405 0.024301169369010445 0.02356106249471024
-0.03278620233193052 0.025040832044318784 0.02259691352640103
-0.03279002998832242 0.02577967031470718 0.021631711579947754
-0.032793767373861554 0.02651967217147644 0.02066712024673878
-0.032797505611451894 0.027259842734399187 0.01970230900532044
-0.032801335907630555 0.027999194895498458 0.018736436221191977
-0.03280498464395137 0.02874069020953446 0.01777202649698384
-0.03280890793565497 0.02947940068910687 0.016804860832905166
-0.03281274089567291 0.030219269217321765 0.015838313727659037
-0.03543194429354178 -0.03395404864054419 0.06236351662352779
-0.034958198290647786 -0.027576298516596764 0.06487049600404454
-0.03490304321998465 -0.026127219175280048 0.06432032186162756
-0.03492326988734599 -0.025562601806328022 0.06321588917644716
-0.03494142408947543 -0.024972856507267993 0.06212572760921681
-0.03495969707954922 -0.024383661995729167 0.06103368802707737
-0.03497778917522073 -0.023791524592513102 0.059942000746477375
-0.034996000117857695 -0.023199936059481896 0.05884843190672584
-0.03501352853414122 -0.02259960451885412 0.05775900570908443
-0.03502967019804182 -0.021982434875381096 0.05667909992287512
-0.03504592714915267 -0.021365854392860872 0.055597436543768974
-0.03506209870598888 -0.020747544111793803 0.05451553361569883
-0.03507838577748218 -0.020129818939985333 0.05343186341339423
-0.03509307722537587 -0.019493044259670134 0.05235953457711273
-0.03510727722979968 -0.018849969499159736 0.0512901828702923
-0.035121387899783835 -0.018205222210647964 0.05022074393273024
-0.03513561082917225 -0.01756110693317464 0.0491496630691205
-0.03514944131158565 -0.01691187332649885 0.04808085553518293
-0.035161665621860745 -0.01624376637316899 0.047023824368310374
-0.035173898437822024 -0.01557519455052514 0.04596605771832413
-0.035186240971267796 -0.014907301902121306 0.04490675958260848
-0.03519838962233787 -0.014236654355210154 0.04384831489637103
-0.0352093305904449 -0.013551846487260544 0.04279876131202709
-0.03521946718822826 -0.012857494858152463 0.041754995689492036
-0.03522971107734401 -0.012163881357790618 0.040709820603877345
-0.03523996092720855 -0.011469864255388817 0.0396640373484044
-0.03525001360107975 -0.01077317379676307 0.03861927499201684
-0.03525824279627642 -0.010055692643241132 0.0375886403736973
-0.03526627250520476 -0.009335614258658198 0.03655916666796161
-0.03527440758303115 -0.008616337078059477 0.03552839968554444
-0.03528264817307703 -0.007897855432622836 0.03449632961276178
-0.0352898745825594 -0.007167781921708027 0.03347208310570993
-0.035295983726955756 -0.006425048981543002 0.032456587267694736
-0.03530209498684491 -0.005682058845803917 0.03144073978099349
-0.03530820836332542 -0.004938811380868602 0.030424540462923366
-0.03531432385749715 -0.00419530645302868 0.029407989130670775
-0.03531860598601927 -0.003431460167452216 0.028406311979810583
-0.0353226851727285 -0.002665201359383307 0.02740608959456342
-0.03532686731526931 -0.0018998770743836046 0.0264047843002157
-0.03533094841059764 -0.0011332620824864303 0.025404096710634427
-0.03533431603698017 -0.00035871849767504793 0.02440918252337765
-0.03533635736401013 0.0004303397540070808 0.023425267902430158
-0.03533839892690911 0.001219489178494182 0.022441239593710804
-0.035340440725718084 0.0020087297915881153 0.021457097577512907
-0.03534258486474238 0.002796963142188469 0.02047197247412258
-0.03534299336105272 0.0036039276309191015 0.019501555552784045
-0.03534309554161975 0.004414192240317416 0.018533741149393657
-0.03534319772277807 0.005224461531604219 0.017565921153738617
-0.03534319779613201 0.006035824639868237 0.016598976135177357
-0.03534278944180311 0.006851534849335816 0.015635564517297473
-0.03534074751832248 0.007684575702618768 0.014686352318226625
-0.03533880791322244 0.008516438472672971 0.013736361073741876
-0.03401969967355334 0.02327678623489876 0.024289709732476572
-0.034023578949841815 0.02401683404213739 0.02332498957190049
-0.034027553758334696 0.024756054125601445 0.022359217611815252
-0.0340314348261089 0.025496441520920343 0.0213940545240332
-0.03403541147041732 0.026236005196231205 0.020427833919441085
-0.034039294330918145 0.026976732414424165 0.01946222759816202
-0.034043178077441054 0.027717628657807858 0.018496400936956647
-0.035386340820544586 0.014511538582187122 0.005577544616179375
-0.03539565788214853 0.015227079472635352 0.004526011982777078
-0.03540487738619329 0.01594405961744172 0.003474845568446183
-0.03638982587525191 -0.030459544014570406 0.06453434147663661
-0.0361600003415963 -0.02704664339555468 0.06520140049473888
-0.0361808581541834 -0.02648122679736853 0.06409789474025301
-0.036201429740694194 -0.025911652337021085 0.06299533008265812
-0.03622026445309713 -0.02532158456350664 0.06190412196438627
-0.0362391187741235 -0.024730902476664596 0.06081177780079938
-0.03625799273441065 -0.024139605116661522 0.0597182958168867
-0.03627688636465979 -0.02354769152166325 0.05862367423393772
-0.03629455206035477 -0.022941205608751458 0.05753698142871533
-0.03631140244983379 -0.022324835237248486 0.05645530405178856
-0.03632816433372986 -0.021706731852598526 0.055373384561940076
-0.03634494169979439 -0.021088057554855044 0.054290465753767336
-0.036361838921065336 -0.020469969499831653 0.053205776592684384
-0.03637666300152886 -0.019828173537768168 0.05213554004286486
-0.03639139465202486 -0.019184698863001393 0.051065206934824026
-0.03640603363322702 -0.018539548981909404 0.0499947863773994
-0.03642078908682454 -0.017895032274529377 0.04892272108283052
-0.03643461355171495 -0.01723963383021143 0.047856865759349554
-0.03644740004982393 -0.016572242690183203 0.046798100160517
-0.036460090608856834 -0.015903235012945327 0.045739384388612025
-0.03647279000833773 -0.015233761294306258 0.044679931098390135
-0.03648539319496689 -0.014562676169210309 0.04362053938943944
-0.036496323014027464 -0.013872834567077441 0.04257326586731136
-0.0365068386354691 -0.013178013251422649 0.041528590203896765
-0.03651746556504295 -0.012483931313979846 0.040482502756205796
-0.03652799337523577 -0.01178830695843569 0.03943661898108525
-0.03653810578837717 -0.011087735315350511 0.03839339641662615
-0.03654653708955126 -0.010368619702313564 0.037362704828772964
-0.03655486681967287 -0.00964803925920521 0.03633235988342898
-0.03656341137052745 -0.008929392392740487 0.03529989398977762
-0.036571959916795675 -0.008210409488681292 0.03426694531745472
-0.03657892836855463 -0.00747417939712014 0.03324599211216639
-0.03658526563615093 -0.006730916206166004 0.03222965954657547
-0.03659160509995884 -0.005987395433841636 0.031212974766099855
-0.036597946761120104 -0.0052436169462234394 0.030195937587615795
-0.036603867633274265 -0.00449510252658597 0.029181924577038054
-0.036608203792100114 -0.0037295837238076057 0.0281802915433928
-0.03661243518290437 -0.0029627681877767986 0.027179271339293765
-0.036616773371913186 -0.0021968886255356312 0.026177166548256803
-0.036621006744079566 -0.0014297163719114159 0.025175680409377343
-0.036623970709099514 -0.0006490581824057373 0.024184272078514202
-0.03662608814171963 0.00014058088272139724 0.023199599279823457
-0.036628205819188034 0.0009303112568673222 0.022214812619581026
-0.036630323741546685 0.0017201329558759748 0.02122991207804026
-0.036632441908838374 0.002510045995586352 0.020244897635443626
-0.036632547893449746 0.003320909497161295 0.019276366261464395
-0.036632547966941854 0.004132873130534509 0.018308705564913708
-0.03663265395216821 0.004943743668585354 0.017340165792532336
-0.03663265402566227 0.005755709649708118 0.01637250229800674
-0.03663170091559969 0.006577471007382485 0.015412800658926029
-0.036629688875577646 0.0074100487167318985 0.01446202249468781
-0.036627571173623655 0.008243618377913653 0.013512238798314535
-0.03662545371652946 0.00907709165766274 0.012562564920599817
-0.03662344236272632 0.009909390105152793 0.011612105431145325
-0.03663148947123677 0.010639348484969835 0.01057640629733514
-0.03664112946364827 0.01135350618349329 0.009526724359438354
-0.03665077453110819 0.012068039855961998 0.008476489808248944
-0.036660424677625196 0.012782949799356735 0.007425702207261464
-0.03667007990721215 0.013498236310971135 0.00637436111951073
-0.036679846408676685 0.014212832018008714 0.005321551106605316
-0.036689405631668566 0.014929940229600036 0.004270016733556092
-0.03669907613458493 0.01564635823276994 0.003217012559117216
-0.03778812218706184 -0.0328451028869195 0.06452028726906084
-0.037417575473827604 -0.02796542455155876 0.06608371604091251
-0.03743927178377978 -0.027401548887147964 0.06497967175848912
-0.03746088620536146 -0.026835847544470603 0.06387508238527534
-0.037481775302575876 -0.02626129975921121 0.06277439382328381
-0.03750129282769974 -0.025670909270320008 0.06168213716699539
-0.03752083068970796 -0.02507990360603979 0.06058874240048051
-0.03754038892040298 -0.02448828180436674 0.059494207743979344
-0.03755985992136114 -0.023894876851993707 0.05839928504304043
-0.03757784280719282 -0.02328454740447733 0.05731382577302857
-0.03759519591419506 -0.022666651411813232 0.05623189001087486
-0.037612565055568196 -0.022048184479796396 0.05514895453396684
-0.03763005828591078 -0.021430306963083456 0.05406425047736385
-0.03764702713722313 -0.020806054958572573 0.0529823917111471
-0.037662387953467866 -0.020163861329732524 0.05191117220774005
-0.03767765300344828 -0.019519986300326753 0.05083985591094814
-0.037692822038979244 -0.01887443337985034 0.049768451945395475
-0.037708111774499356 -0.018229514798938085 0.04869540042438436
-0.03772200257026637 -0.017569084868752416 0.04763172068078947
-0.037735143130266484 -0.016900108573809247 0.04657279543404569
-0.03774829284851605 -0.01623066603922163 0.04551313217465536
-0.03776145173459214 -0.015560756777399376 0.04445273013082157
-0.03777429320796444 -0.014886940041786312 0.04339399207080019
-0.03778540051443484 -0.014194342684778927 0.042347405093845325
-0.037796296375026656 -0.013499051071369172 0.0413018178094085
-0.03780730757378465 -0.012804500088808735 0.04025481641375961
-0.03781821607410726 -0.01210840424066556 0.03920801898271509
-0.037828148287941184 -0.011401661452957512 0.03816797409234096
-0.03783688422352134 -0.010682045396997908 0.03713640926541806
-0.03784551492127111 -0.009960962208914459 0.03610519160974496
-0.037854368204920164 -0.009241815713868118 0.03507184959976373
-0.03786322563164642 -0.008522332679501143 0.03403802401620187
-0.03786989879423652 -0.0077799293341615505 0.03302037893811255
-0.03787646485698434 -0.0070361370959425296 0.0320032113517803
-0.03788303319701594 -0.006292086891113546 0.03098569098508608
-0.03788960381551636 -0.005547778585447749 0.02996781765446699
-0.037895300205302615 -0.004794241942840227 0.028956355183436977
-0.0378997928128959 -0.004028167600440669 0.027953922118148677
-0.03790417687316452 -0.003260794529974409 0.026952102822807522
-0.03790867158581421 -0.002494358887398518 0.025949197258789025
-0.037913057700518414 -0.0017266285643739443 0.02494691129650012
-0.03791558020737007 -0.0009398379567411297 0.023959020720045132
-0.03791777397404711 -0.00014961722319972726 0.022973588574592196
-0.03791996799459115 0.0006406949558861452 0.02198804239341401
-0.03792227198575395 0.0014299945728027952 0.021001513061093935
-0.03792380815995111 0.0022271026199068844 0.020020967759645125
-0.03792391795981376 0.003038568250731677 0.019051715550030768
-0.037924027760312624 0.0038500385773587165 0.018082457731515844
-0.03792402783394606 0.00466260832781773 0.01711407469266324
-0.03792413763508231 0.005474085701440645 0.01614480846318489
-0.03792260158146567 0.006301917591617745 0.015188826048691428
-0.037920407403449104 0.007136207318819643 0.014238252899961779
-0.03791832317319194 0.007969315514427977 0.01328689842493358
-0.03791612949024338 0.008803414652791941 0.01233654255239991
-0.0379153618090307 0.009623376190115884 0.011374638842901685
-0.03792534512134568 0.01033765692455385 0.010324593052334019
-0.037935333692327565 0.011052313903404276 0.009273994154532506
-0.037945327526132284 0.0117673474240243 0.008222841712362872
-0.037955436535611745 0.012481684797756298 0.007170225380869311
-0.037965440965495215 0.013197474085702154 0.0061179612490030455
-0.037975450670741574 0.0139136408114085 0.005065142255256672
-0.03798535557285234 0.01463125288231848 0.004012687741171916
-0.03873349360787672 -0.02949844840489818 0.06658745334197685
-0.03869830114037985 -0.028321226857552673 0.06586268779520937
-0.03872075950529707 -0.027757069236308274 0.06475755888732304
-0.03874313312802845 -0.02719108301082579 0.06365188379501507
-0.03876420123924451 -0.0266103732157838 0.06255382024325246
-0.038784514833403574 -0.02602083216026352 0.061459772243153854
-0.038804738551337835 -0.025429502676076687 0.060365324875510384
-0.038824872078464835 -0.02483638704929203 0.05927048692703696
-0.03884513791678463 -0.024243823681411647 0.05817375737824182
-0.03886319455327699 -0.02362730362727783 0.05709105071182413
-0.038881267984293325 -0.02301021014635868 0.05600733701727523
-0.03889913479514279 -0.02239021373141603 0.054924145502217414
-0.038917241677514515 -0.02177197346314297 0.05383842048377907
-0.03893447003212498 -0.02114386258129497 0.05275786216395556
-0.03895025743325746 -0.020500109032922764 0.05168643013776786
-0.03896594553985738 -0.019854674152683216 0.0506149078761407
-0.03898175848218871 -0.01920987680073888 0.04954173969303888
-0.03899758426392602 -0.018564555902124635 0.048467700145221726
-0.03901140024010967 -0.017897923917429115 0.04740699383309399
-0.03902511356556653 -0.017229666169834734 0.04634632818684431
-0.0390387240134298 -0.016559786722666003 0.045285712420875535
-0.03905223135829366 -0.015888289672987554 0.04422515576164604
-0.039065184674022715 -0.015210584662377125 0.04316787739352762
-0.03907645542327409 -0.014515225167617996 0.04212198383171578
-0.03908784548252905 -0.013820609581681409 0.041074677613391286
-0.03909924218366667 -0.013125588944848832 0.040026760679788
-0.03911053259617985 -0.01242902098912918 0.038979048003437544
-0.03912036057003868 -0.011717228239394972 0.03794137365983696
-0.039129289108767173 -0.010995970920075704 0.036909752822435804
-0.03913833482025099 -0.010275520795041904 0.03587683593579927
-0.03914749786420607 -0.0095558721771839 0.03484261314443288
-0.03915621239456895 -0.008831355090144988 0.03381123160650579
-0.03916300564393322 -0.00808728932189512 0.03279357770579605
-0.0391698012508204 -0.0073429653339532885 0.03177557063966224
-0.03917659921645784 -0.006598382991876539 0.030757210224229947
-0.039183399542073935 -0.005853542161130987 0.029738496275495296
-0.039188728128950835 -0.0050938435499515156 0.02873043726969554
-0.039193377663798525 -0.004327212864317531 0.02772720289516467
-0.03919791486051391 -0.0035592814511959947 0.026724583233148302
-0.03920256657563155 -0.002792288923456898 0.025720875616800365
-0.03920687891268094 -0.002021770514411325 0.0247195061457266
-0.0392091489797777 -0.0012310588220572627 0.02373342767225861
-0.03921141930975526 -0.0004402555632385674 0.022747235008324374
-0.03921368990265959 0.0003506392779480949 0.021760928134084756
-0.03921607430454508 0.001140520018183877 0.020773636615000923
-0.039217209874572896 0.0019426347373104336 0.01979583134299684
-0.039217209948344364 0.002755806801049976 0.01882673049510064
-0.03921732357535989 0.0035678801588344133 0.017856750758827034
-0.03921743720303464 0.00437995821944509 0.016886765405247084
-0.03921743727680945 0.005193134992579451 0.015917658944855695
-0.03921527993890339 0.006027052011382927 0.014965410523497424
-0.039213122838342315 0.006860877285136735 0.014013266865632923
-0.039210852458658504 0.007695697409948743 0.013062120582860992
-0.039208582341871454 0.008530420867633615 0.01211108443707265
-0.039210966122617125 0.009320696000857165 0.01112333486928474
-0.039221298943454705 0.010035476128120613 0.010072371456138374
-0.03923163721147558 0.01075063306821028 0.009020854003423007
-0.03924198093098817 0.011466167119174142 0.00796878207291224
-0.03925233010630526 0.01218207857937631 0.006916155225918819
-0.03926279855848215 0.012897294811984983 0.005862058345171506
-0.03927315871843867 0.013613963781956395 0.004808317050497057
-0.03928352434721374 0.01433101106018636 0.003754019517138274
-0.03994948620970175 -0.03798024896489849 0.07732059094492688
-0.03998719160853899 -0.03757437479065051 0.07613297932121968
-0.040024968249283144 -0.03716773374350563 0.07494312378238852
-0.04006281633403503 -0.036760323647967996 0.07375101796282496
-0.04010062104917348 -0.03635093947431617 0.07255736918532366
-0.04013849717940906 -0.03594078195243844 0.07136146554247813
-0.040176560379149184 -0.03553105164981074 0.07016257869722853
-0.04009498648715932 -0.03145965352855434 0.06683335903012133
-0.039958164356581075 -0.029242608765230493 0.06674548077932602
-0.03998124624014289 -0.028677645751076175 0.06564127651865542
-0.040004469270545816 -0.02811320604224188 0.06453506088212962
-0.04002760469666162 -0.027546934796205125 0.06342829796431748
-0.04004893129612704 -0.02696121701421139 0.0623321280140815
-0.040069821269719905 -0.026370181453855612 0.06123777182187584
-0.040090848007295156 -0.025779701224762697 0.06014152424301067
-0.04011166666369592 -0.02518625866137686 0.059045630898281465
-0.04013204616173429 -0.024587519315801443 0.057951623612071235
-0.04015083205262395 -0.023971807424482183 0.0568671398110579
-0.04016940471567639 -0.02335318369611994 0.055783166505811554
-0.04018799456903108 -0.0227339873882062 0.05469818990736125
-0.04020671726180066 -0.022115382788683746 0.053611438541286305
-0.04022395292998536 -0.021481072073463114 0.05253373017459939
-0.04024027681083173 -0.020836918049370323 0.05146131289585504
-0.040256498033891926 -0.020191079995672823 0.0503888051573505
-0.04027284834593085 -0.019545880645510938 0.04931464867349539
-0.04028897974507563 -0.018897840574180202 0.04824119357043716
-0.040303032720296665 -0.01822845995647998 0.047181107270985845
-0.040317095502380045 -0.017558612211962976 0.046120281190963175
-0.040331168101594365 -0.016888296851476525 0.045058714555719304
-0.04034525052822346 -0.016217513385193838 0.043996406589516535
-0.0403580612775249 -0.01553360571602519 0.04294219837227231
-0.040369714481721504 -0.014837775297681433 0.04189539104028506
-0.04038149105008145 -0.01414269005014479 0.04084716872031596
-0.04039327449128415 -0.013447199148778122 0.0397983346546234
-0.04040494804249883 -0.012750158469372497 0.03874970513945308
-0.040414525403727135 -0.012032158416483862 0.037715230360498564
-0.040423756671543784 -0.011310397468135558 0.036682734635880954
-0.04043310908840769 -0.010589445036095102 0.035648940768717496
-0.040442582819584336 -0.009869295425270874 0.03461383888658209
-0.04045112468512997 -0.009139731041027166 0.033584913635730185
-0.04045803103587879 -0.008394000491991738 0.032567255236941484
-0.04046517397768121 -0.007650276667073075 0.031547571511658656
-0.04047208512699294 -0.0069040326873742175 0.030529211647963683
-0.040479115834679745 -0.0061586605385657855 0.029509658792765736
-0.040484156032226305 -0.005393908419922544 0.028504170027458142
-0.04048896297447479 -0.00462672058570418 0.027500133063025678
-0.040493653776239064 -0.003858230019956499 0.02649671175584789
-0.04049846297431272 -0.003090679800485052 0.02549220080475767
-0.04050233463648875 -0.0023140167220483954 0.024494332148545128
-0.040504681487812444 -0.0015227217827643025 0.023507492157092413
-0.04050714597072605 -0.00073244697680247 0.022519671884409564
-0.04050949337965747 5.903361437653576e-05 0.021532600232128052
-0.040511841060664994 0.0008506059415297473 0.020545414174008514
-0.04051242807886713 0.0016588465805008057 0.019571232882068246
-0.04051254554367859 0.0024715215082269926 0.01860053296219616
-0.040512545617591725 0.0032853014952152204 0.01763070761949581
-0.04051266308308627 0.004097983490918611 0.01665999926359496
-0.040512310984300616 0.004915052717104129 0.015692828564848216
-0.040509963396668035 0.0057506919098123666 0.014740780225005912
-0.040507616081102656 0.006586234258686041 0.01378884221986415
-0.04050526903755752 0.007421679780556412 0.012837014530240998
-0.04050303960180001 0.008255942807164407 0.011884400498919367
-0.040508672594432193 0.009017524703594348 0.010871623147168441
-0.04051935604543421 0.009732804904657222 0.00981974051464396
-0.04053004513303372 0.01044846248824216 0.008767302907859376
-0.04054073986169257 0.011164497753090141 0.007714309887492554
-0.04055144023587738 0.011880910998257221 0.006660761013757177
-0.04056226393926527 0.012596627843730335 0.005605739681628252
-0.040572857938714776 0.013314872627353203 0.004551993944713617
-0.04058357527632415 0.014032421610975232 0.003496774867508712
-0.04110394810680046 -0.037020072163370166 0.07787724666408741
-0.041114731723838414 -0.03632941989366273 0.07685894490025286
-0.04112528639237077 -0.03563601681693063 0.07584150950388857
-0.04113596384527884 -0.03494345012867228 0.07482284811359846
-0.041146646844023624 -0.03425052372376891 0.07380365763413818
-0.04115733539292692 -0.03355723732189353 0.07278393765319013
-0.04116802949631499 -0.03286359064242733 0.07176368775800837
-0.041200145031141326 -0.03238551290989605 0.07061255111596304
-0.04123903294745257 -0.031974335934922105 0.06941854338559489
-0.041277876168134046 -0.031561195099607475 0.0682230043441161
-0.04121875512237671 -0.030164522755407652 0.06762878356130736
-0.041242572065084145 -0.029599929216115872 0.06652477067410256
-0.04126641654736962 -0.029034682836294123 0.06541948121472607
-0.04129040686393153 -0.02846996090970605 0.06431217674032985
-0.041314306705791996 -0.027903404505929374 0.06320432388454089
-0.04133586394035568 -0.027312662311863467 0.06211005570778083
-0.04135744368314586 -0.026721303315266454 0.06101464498960635
-0.04137904596943235 -0.026129326549611642 0.05991808993966857
-0.04140067083455943 -0.02553673104635873 0.05882038876387141
-0.04142124730578078 -0.024932967535481354 0.05772835713307273
-0.04144053400365055 -0.02431572464927767 0.05664361015439068
-0.04145971945118378 -0.02369673715157311 0.05555861696291625
-0.04147892267121376 -0.023077176253052556 0.05447261868487646
-0.04149826312885759 -0.022458208212450426 0.05338484253835207
-0.04151558934251322 -0.021818844725954467 0.052309223871214394
-0.04153245147406765 -0.021174289785784894 0.0512358195417813
-0.04154920757418401 -0.02052804811178599 0.0501623245275204
-0.041566097031283084 -0.019882446319787028 0.049087177936764426
-0.041582160738521744 -0.019228198564605337 0.04801667602469312
-0.041596796713148046 -0.018559541461660112 0.04695484794024091
-0.0416113229016174 -0.0178892564348353 0.0458930672293979
-0.041625859239091595 -0.01721850310041484 0.044830544684886064
-0.041640285476171456 -0.016546126985265752 0.04376808133197363
-0.04165303698091007 -0.015857151223026833 0.0427161529410936
-0.041665073867775036 -0.015160849267846277 0.04166843024903105
-0.041677238186333794 -0.014465293748665564 0.04061929023174243
-0.041689409609795613 -0.013769331971385024 0.039569537435679036
-0.04170110569379347 -0.013068381104045512 0.03852244393626125
-0.041710756900967594 -0.012347591508436173 0.03748872593086916
-0.0417202918538434 -0.011625326241588907 0.036455353839047744
-0.04172995194483528 -0.01090387081632016 0.035420681506295404
-0.04173973734478444 -0.010183219529540266 0.03438469904321034
-0.04174795580450028 -0.009447456325990422 0.033359073190786404
-0.04175521008340871 -0.008702327534610976 0.032339740413889484
-0.04176246688379492 -0.007956939747916225 0.0313200533325515
-0.04176972620697388 -0.0072112928308493696 0.030300011762013412
-0.04177674595447038 -0.006463129545602575 0.029281308335373568
-0.041781588557459684 -0.005694437628073978 0.028277552645867343
-0.041786553388921614 -0.004926691838179287 0.02727271180780494
-0.041791398265963356 -0.00415764130807883 0.0262684875739167
-0.04179624426658464 -0.0033884124270505134 0.025264030449812236
-0.041799879523141216 -0.0026078248823044325 0.02426795467566195
-0.04180230340351438 -0.0018159436046844002 0.023280349076159612
-0.041804727565007666 -0.0010239704855683485 0.0222926289352538
-0.04180715200767031 -0.0002319055089809452 0.02130479423301418
-0.041809576731550654 0.0005602513410652987 0.020316844949512358
-0.04180969804547615 0.0013735287306358979 0.019345423775823878
