# .PCD v0.7 - Point Cloud Data file format
VERSION 0.7
FIELDS x y z
SIZE 4 4 4
TYPE F F F
COUNT 1 1 1
WIDTH 751
HEIGHT 1
VIEWPOINT 0 0 0 1 0 0 0
POINTS 751
DATA ascii
-0.02638179639229199 -0.04645943093868127 0.00611050582566619
-0.026304905482476867 -0.04820892470969218 0.006113470595672299
-0.026267668685578695 -0.04945035962802202 0.005645130659904907
-0.028351230464924177 0.05056007674891572 0.03159486512027093
-0.028224595415896 0.04775949121671347 0.03185971008628852
-0.028129151655714876 0.045441764582488 0.031812689076354816
-0.028036321497627928 0.0431696112704707 0.031745629741240344
-0.0279447829061747 0.04092273493358367 0.03167195246617782
-0.027854601164712497 0.03870200537454799 0.03159083669206014
-0.027768528900506455 0.036548889072663904 0.031473394826070034
-0.02767922884431536 0.03435237011029996 0.03139605036108095
-0.027588178413977066 0.03213497762138445 0.031343623600333936
-0.027499867871150028 0.029964306031783017 0.031268933636459384
-0.027412448489100665 0.02781239659023288 0.03119125221743818
-0.02732306054253295 0.025636395847938975 0.031140860683615712
-0.027235223760383433 0.023489019828687063 0.03108045598720366
-0.027149395878633888 0.02137694422222941 0.031004972452009782
-0.027065703973023405 0.019301873503026923 0.030912826401946036
-0.026980542834909714 0.017210131464342138 0.030842608269016858
-0.02689560056171145 0.015126842775519789 0.030776238283439783
-0.026809154598248022 0.013026540214457871 0.030732368214426042
-0.026725753456138788 0.010976417313421138 0.03066168232098443
-0.026643411185775207 0.008946977829522362 0.03058552369050732
-0.026560267609114837 0.006910815131807357 0.030524147823853043
-0.02647741210883631 0.004883962756733973 0.030465672510334996
-0.026407226894513004 0.003047420285105462 0.03027356149783511
-0.02633930297281516 0.0012481649429423314 0.030061559390009984
-0.026273683586571832 -0.0005133813605978643 0.02982893884732285
-0.026215654087027633 -0.0021606445434607102 0.029516602172471262
-0.026162057218949594 -0.003740093594434002 0.029158985861999165
-0.026105113401510636 -0.005364681221403045 0.028842787900794198
-0.026053520623931462 -0.00690853421279819 0.028470581919505855
-0.025998815770302386 -0.008494060085453836 0.02813724297846376
-0.025942139481775896 -0.010104576376474328 0.02783020405091602
-0.025909173991591365 -0.011371506635017403 0.02725812160436314
-0.02581237578964425 -0.013550104912752436 0.02741543786187356
-0.025738950707584213 -0.015388935616960864 0.02731276605303834
-0.025652738442080852 -0.017405521261669 0.027362017812559536
-0.025559623309425614 -0.019515001289477807 0.02749693180971169
-0.025448533588342193 -0.021873864215724792 0.02784597530641575
-0.025339664968538095 -0.02419447408483516 0.028177422200072688
-0.025228601805872622 -0.026539428373631102 0.028542285847684312
-0.025134540732593386 -0.028637862702154016 0.028717273267551358
-0.025046852234841172 -0.030640883760250426 0.028824685826905838
-0.024963848116304956 -0.03257277609241771 0.02888360733078915
-0.02489016704927355 -0.03436899285770206 0.02883900298590547
-0.02480765986832113 -0.036284062162528274 0.028903836753663814
-0.024738497902035937 -0.038007962151574315 0.028816858979985982
-0.024668393953367833 -0.03974073667264644 0.02874610201465616
-0.02460026909285866 -0.04144173947657065 0.028656908958377136
-0.024532585062130692 -0.04313246429076972 0.028567424220278415
-0.024466968710234807 -0.04479046200660014 0.02845812178521323
-0.02439852286222108 -0.04648347122391483 0.028387586416076305
-0.024335879709138763 -0.048092429009254256 0.028252147363440283
-0.024266046262437904 -0.049796290393175124 0.02820815262933557
-0.024233679636526947 -0.050982522039691724 0.027715206858246355
-0.02420740135137741 -0.05208353873360555 0.027150618117369907
-0.02575274932659586 -0.0317453936684115 0.0074273577811057034
-0.025729134530698913 -0.032855049324556074 0.006776703850643495
-0.025654388169505857 -0.03465758229185234 0.006754877128458403
-0.025588707079165728 -0.036332718294425415 0.006626991722728293
-0.025517327803473887 -0.03808086109784076 0.006574199443363238
-0.025453546124490602 -0.039722163007535005 0.006432602398586951
-0.0253932446508993 -0.04131272822590404 0.006252467775920978
-0.02531093478074655 -0.04319508886626633 0.006350669216624361
-0.025259022672364604 -0.0446652177041319 0.006075408449114417
-0.025182347361021037 -0.04646312590091717 0.006113967169727341
-0.025116376401780518 -0.04811360543603205 0.0060237122561948575
-0.025056017772111736 -0.049685381817730245 0.005867595250686364
-0.02501182518963754 -0.05103889032234288 0.00551171581864357
-0.026928696064276128 0.04853079544434197 0.031341306415642534
-0.02680100723704249 0.04562311623715842 0.03169012100905477
-0.02671039985130373 0.04331551974986464 0.03164646755179695
-0.026622430628505406 0.04105577161355839 0.031581035888281705
-0.026536972959836688 0.03884160473455184 0.031494905993375344
-0.026452622707485267 0.03665050020679883 0.03140318232987671
-0.026367852162148566 0.034458163137694564 0.031322543889798715
-0.026280540283873083 0.032231119938519126 0.03127645364581788
-0.02619726001573025 0.030073262100352216 0.03119239153140113
-0.026114505893110877 0.027929037110227595 0.031108860502013447
-0.026029481320656397 0.025754475457181514 0.031056993746853112
-0.025946549382886184 0.023618175340441916 0.030988218536493306
-0.025865292596902897 0.021513405519578976 0.030906983061554094
-0.02578431491434908 0.01941821501765645 0.030828826985328628
-0.025701347838146132 0.017297243228559855 0.030779368949798325
-0.025621917737982357 0.015236582075066507 0.030696137226485676
-0.02553693060904939 0.013094828524661317 0.030682251219482093
-0.02545665779404208 0.011031512586738623 0.030621027454471372
-0.02538042603781602 0.009035779769017316 0.030519640112200208
-0.025307214494875066 0.007091503984173186 0.030389363418707016
-0.025239890727012455 0.005242505676901266 0.030196766774210515
-0.02517662315478592 0.003460100873380778 0.029962375036911293
-0.02511237285427623 0.0016667087086659205 0.029744243064933007
-0.025060590129178897 6.803284596779147e-05 0.02938575976710084
-0.02500637247142954 -0.0015644579811689985 0.029059708549539598
-0.02496336664390511 -0.0030227941020008475 0.028606310628215226
-0.024917097556765876 -0.0045279352471544465 0.028194605876673218
-0.0248683099932248 -0.006068277351456597 0.02781617688430804
-0.024823308974616817 -0.007548208681600277 0.027396638946840746
-0.02478212473576251 -0.00896763797304817 0.026935197718076564
-0.024771165341896453 -0.00992918585946212 0.02611662532513992
-0.024734073813539856 -0.011282780837402695 0.025611393540428073
-0.02461839854761061 -0.013812536157040645 0.026051756507886326
-0.02454509796935725 -0.01570071165628706 0.025990997021172357
-0.024440951290819714 -0.018044801212498796 0.02630827012662429
-0.024344465100263356 -0.020268048260229543 0.026540739748299957
-0.02422601476268328 -0.022811672724371956 0.027047465221354483
-0.02408824202778694 -0.02563436224914567 0.027798771905756747
-0.023986413816135733 -0.027916056225363806 0.028121152810086203
-0.023899815237433793 -0.029966227607067908 0.028264544047500062
-0.023803071397806377 -0.03216037564716334 0.02853938847524773
-0.023725710172824748 -0.03406322457296568 0.028582432986516304
-0.023637079573859188 -0.036126489185185184 0.02877091655760139
-0.02357178708093582 -0.03784229875573669 0.028676374123188964
-0.023505020600356735 -0.039575448777111444 0.02860519400330208
-0.023436368189101223 -0.04133180305196804 0.028562692685298707
-0.023369803049281414 -0.04305338015273891 0.028499290609727224
-0.023307033574914836 -0.04471558361923056 0.028393271144595555
-0.023242436427563087 -0.0464002226731669 0.028315106390656652
-0.02318250078482997 -0.04801334638468541 0.028182931645465648
-0.02312067093168237 -0.04964992974812449 0.02807937864503246
-0.023050593280594178 -0.05140119703171464 0.028085511539258923
-0.023014834539098777 -0.05265532831077757 0.02765900579002073
-0.022994424808483887 -0.05368732667470355 0.02703875438055714
-0.024483615009402035 -0.03314546475266039 0.007037635333197956
-0.024419982243447783 -0.03483963536661783 0.006919305330369108
-0.024372984164391712 -0.036293071301028434 0.006590995377842135
-0.0243093833825098 -0.03797914209761938 0.006481363002451113
-0.024247661117089776 -0.03963452175784987 0.006352195808460359
-0.02418511348646276 -0.041297596022853544 0.0062385121156077195
-0.024109642769217794 -0.04313883180001371 0.006298515057057641
-0.02405892765976069 -0.044627022195537436 0.006039813667189975
-0.02398378040240765 -0.046454812121738964 0.006106179038659454
-0.023931167651337217 -0.04796226633218392 0.005881202287981724
-0.02385128011894537 -0.04984733594228424 0.006020895915993751
-0.023798987184247597 -0.05134269260666885 0.005800783579346991
-0.02375376567159787 -0.0527363628670926 0.0054906337380896675
-0.023746535847844027 -0.05360008929528881 0.004677238558715269
-0.02551220965909615 0.04648597729816789 0.031106948979063853
-0.02538714092498205 0.04352152488765143 0.03150646252546552
-0.02530140721981467 0.04122509428017723 0.03146532165509308
-0.02521709322041485 0.03895822179631314 0.031414768403826066
-0.025136078991534958 0.036752160568933934 0.03133293581752161
-0.02505596176794749 0.03456653062298565 0.031247248649255488
-0.024968615904041865 0.032266091822365284 0.03125202049382725
-0.024893815355461854 0.030179797454512325 0.03111754998858829
-0.02481441666931031 0.028022397223427475 0.031042913437655917
-0.024734417334179103 0.025860439973270588 0.03098173164675877
-0.024656469988638564 0.023737747481911764 0.030902825126987943
-0.02457959459568427 0.021637976884470334 0.030817531529500508
-0.024499075155530937 0.01948353820743648 0.030781663168950812
-0.024420805600656945 0.017371435836305904 0.0307255083714133
-0.024350317942313127 0.015391954897467974 0.03058272728722311
-0.02426880774837747 0.013237268038281347 0.030577714434743275
-0.02419397448416367 0.011196890897294698 0.030498994606007857
-0.02412598026001852 0.009272781772972083 0.03034380453726465
-0.024061574900314842 0.007411507764976233 0.030150657385239643
-0.024002577734521826 0.005642164324572152 0.02989702440919506
-0.023943869174287286 0.0038814762550477 0.02964463216877844
-0.023892940574749975 0.0022502119885007277 0.029301863721144517
-0.023843666277007614 0.0006490132112928482 0.028942911379455316
-0.023794185580197184 -0.0009521657852835652 0.028590472210841267
-0.02376428267150735 -0.00223629298531669 0.02800031593127167
-0.023721975210269038 -0.003716741053315875 0.02756621744015919
-0.023680088314532544 -0.005187616063580314 0.027130304257014237
-0.023645755638300715 -0.006535378918304635 0.026603590691069823
-0.023613134288042265 -0.007853628986057182 0.026058241591700337
-0.02360165419135499 -0.008834492011202122 0.025250251508818655
-0.023607225007865017 -0.009544824790227335 0.024228552079026078
-0.023563935898431598 -0.011026868577104276 0.023823416866043112
-0.023490322097908637 -0.012983682421307596 0.023805941540370468
-0.02337885020194949 -0.01553060600671663 0.02427553488758366
-0.023278283819209253 -0.017898932614283658 0.024615080726296257
-0.023151364516823456 -0.020672912604079663 0.025299776078989977
-0.02299546059955074 -0.02389097180818245 0.02636657257356284
-0.022852206136057207 -0.02690135754501749 0.027283140599102584
-0.022748689362016968 -0.02928413634949889 0.027698229178911737
-0.022646229745750326 -0.031643508165630996 0.028107973972652134
-0.022566200069926965 -0.033648683403470214 0.028234591719407953
-0.022478209525719887 -0.035771425816380875 0.028471403954667684
-0.022403652976802357 -0.03768113630425374 0.028539706129615816
-0.022338121735203893 -0.039446986891884694 0.028495680183651062
-0.022271658096743033 -0.04122271285876872 0.028469201638361363
-0.02220677682995701 -0.04296971090415935 0.028427206774210123
-0.022146230252765027 -0.04464608847613405 0.028333082821797195
-0.022085425344457458 -0.0463223077021756 0.028247270025611393
-0.0220277002677782 -0.047947563852127784 0.02812535660611931
-0.021969171428589434 -0.04958111347009597 0.02801883131481553
-0.021909622715239108 -0.051226147743044126 0.027930686024867868
-0.021843898823937766 -0.05296045991409837 0.02793030339994168
-0.021795894134361123 -0.054423187016929275 0.02769645618873684
-0.02177011517876082 -0.055548338541757114 0.02716609444925272
-0.023187902107646284 -0.035005945232195024 0.007069514450385839
-0.02314665213329376 -0.03640811925477472 0.006695449851351065
-0.023094685195323948 -0.03796762295880374 0.006470849766500142
-0.023038090907435187 -0.03959259055735037 0.006313725968468464
-0.022979737528687563 -0.041239892201701545 0.006185294819746445
-0.022913264315316335 -0.04300373881561098 0.006173274593339884
-0.022860576041353626 -0.044558994208355907 0.005976417695841785
-0.02278690547994506 -0.0464206289361066 0.006074157123677593
-0.02273498285145653 -0.04795676051474146 0.005876017680376933
-0.02267759539629379 -0.04956973400162479 0.005758126676180253
-0.02261501235862875 -0.05125504488517929 0.005717386804902191
-0.022553815440464076 -0.052915833500858045 0.005662289071709459
-0.022503924486932975 -0.05440738541550999 0.005453397690903861
-0.02246476612668267 -0.05573920139352989 0.00509741803189967
-0.024085742771824143 0.04413812004378043 0.031087412680412596
-0.023976331139120493 0.04134150120803903 0.031385769763640214
-0.023896774010323217 0.03908003368951041 0.031331060999850835
-0.023818969429736096 0.03685514187707334 0.03126177654184492
-0.023743318445566413 0.03467369331695258 0.031172790514531534
-0.023662591851089883 0.03240853818418815 0.031152500158455942
-0.023589344429799913 0.030280189155585502 0.031047024388395295
-0.023514369351183693 0.028126863403896307 0.030969121347110662
-0.02343903103455858 0.025972554184118313 0.030902101679386174
-0.023365215161279068 0.023850136901134078 0.03082256131652389
-0.023292828564740752 0.021757829415215313 0.030731468472352585
-0.023216296260400438 0.01959879625521105 0.03069844602325389
-0.023143193385412 0.017504580389847035 0.030628851266609913
-0.02307474626081943 0.01549599390788009 0.030506786992972157
-0.0230020597498685 0.013419229972416014 0.030444172027472516
-0.022939728594870583 0.011525762574747689 0.030256319811207855
-0.022875006035156905 0.009595701754304742 0.030104225041613475
-0.022819781701179393 0.007832948241105087 0.029836284898305643
-0.022763769070939813 0.006060665177894997 0.029583150466351626
-0.02271688590240105 0.004448099160019647 0.02921736376438483
-0.02266986870876769 0.0028366003655448946 0.02885729705904211
-0.022622980658179966 0.0012306530819344852 0.028499560288304693
-0.022591137329731673 -0.00011694701807440921 0.027950393831644216
-0.02256126034023771 -0.0014290148744732223 0.027378312676918815
-0.022549163558285276 -0.002438855644023019 0.026576308463382936
-0.022532172371882247 -0.003530265126808152 0.025839533722416208
-0.02248450156458551 -0.0051360786717431495 0.025507935073461885
-0.022447855386681734 -0.0065535955945846824 0.02503484567617459
-0.022433511904639467 -0.007595257444623582 0.024269483796941604
-0.022426666797948868 -0.008510676604621292 0.023405710217971
-0.022434215844480777 -0.009185747377570552 0.02235064840511547
-0.02243383187222665 -0.009993267272084272 0.02140102703758895
-0.022398626341054963 -0.011378527929459037 0.020918565864860683
-0.02229120520235967 -0.01395691510684871 0.021410939302858867
-0.022199839235615998 -0.016262385342831975 0.02169571102585438
-0.021989598539693865 -0.020520994770920342 0.023598128541250152
-0.0217710008541945 -0.024902056208985224 0.025631971670353026
-0.021621662115253903 -0.028130709442132584 0.026740581942969466
-0.021514305823516613 -0.030661108570908202 0.027287993131042576
-0.021417630161386408 -0.033009294361425856 0.027698080726228258
-0.021331188350820023 -0.03518369646111352 0.027975626680854626
-0.02125192899050903 -0.03723506016271694 0.028161427376198367
-0.02118260933210583 -0.03911939053458269 0.028216404129679518
-0.021108583382486643 -0.04107500932282354 0.028342618690738952
-0.021043684777347173 -0.04287780918385703 0.028348030390981105
-0.020984837937220176 -0.04457837094749756 0.028274434054544162
-0.02092715457306434 -0.046256006805595495 0.028189545409070926
-0.02087111671938467 -0.0479031015681462 0.028086441750607705
-0.02081532308214008 -0.049542281496138374 0.027984665381731944
-0.02075944335575806 -0.05117885274613648 0.02788885510810174
-0.020704189885508407 -0.05280144456755703 0.027788920196799405
-0.020644622272806074 -0.05448874435509238 0.02775505043193105
-0.020586635825298304 -0.05614668395919259 0.027703693838755594
-0.02056085501743573 -0.05729026954971145 0.02719645481128563
-0.020558382596717193 -0.05806358689857927 0.026356907510231287
-0.021864272694303855 -0.038202653030277645 0.006685355958022776
-0.021820170313034248 -0.03967739535053272 0.00639153024751149
-0.021766903363330564 -0.04129286693452183 0.006234150718253451
-0.021713476186696515 -0.042907043908528286 0.006083631781348353
-0.021654108057648273 -0.0446102507115147 0.006024184151094902
-0.021590083765137633 -0.04638181798564506 0.006037800039542407
-0.021547787938328046 -0.0478107903917267 0.005738563466218316
-0.02147300963272549 -0.04974090068051479 0.005920147654803365
-0.021432864609616253 -0.051129365822665473 0.005597803223597764
-0.02137356669001915 -0.052810866863190975 0.005561893353314473
-0.021314364911893258 -0.0544866508902776 0.005529605937874438
-0.021259282449236434 -0.05609485942824066 0.0054411368269624005
-0.021236778550602645 -0.057199300882030346 0.004871791363776579
-0.02123540230870597 -0.05797874080763171 0.003988566623423728
-0.022680407035109047 0.04201792312185526 0.030923506531952416
-0.022576447141561908 0.03921603315662919 0.031237604096458815
-0.02250107713676707 0.03695562912036954 0.031192340645400274
-0.02242912071498603 0.03476450945795678 0.031109690192845985
-0.022356479020211747 0.032566092633747545 0.031042424537999602
-0.022285309260833212 0.030400475522966708 0.0309625226998701
-0.022215189171172406 0.028259673524460516 0.03087530786222953
-0.022141151956192838 0.02605180238317817 0.030845815045802805
-0.022072656212886857 0.02395170332081753 0.03075002683849737
-0.022004452578433847 0.021862158883545924 0.030656552131918702
-0.021932847270038722 0.019715309582520435 0.030614322556636653
-0.0218653104840145 0.017648428822638618 0.0305244236150512
-0.021795821591293025 0.015550957783940944 0.030466667686716742
-0.021737773527537457 0.013667523822891381 0.03026194842856056
-0.021683324983885248 0.011854030643845881 0.030014090419717587
-0.021627196165336027 0.010014118925941118 0.029793794654064343
-0.021575304782091777 0.008255299519627557 0.02952123300056564
-0.021530524933443956 0.006629106129183715 0.029156822058086562
-0.021487733188204763 0.005042203859837557 0.028769372402040416
-0.021447650127344033 0.0035073535068473327 0.028348769781222083
-0.02141413525381239 0.0020936578554588414 0.027841740686652905
-0.02138657347059097 0.0007893330908280705 0.027255856872012485
-0.02135687158537824 -0.0005512335598115148 0.026701987099653657
-0.021355520669006516 -0.0013829007813264682 0.025758317123899477
-0.02134251149908951 -0.002422366864334946 0.02497668542589443
-0.021331110839547182 -0.0034322255058660267 0.02417381375292349
-0.021292830195390557 -0.004918538634071767 0.023747716725474766
-0.02127721504480431 -0.0060003353666974735 0.02300721423218216
-0.021274899122970037 -0.0068457982347439605 0.022081014555040135
-0.021266492907749606 -0.007798542447396362 0.021240981279170013
-0.02127593513139395 -0.008436409903037567 0.02014899055477648
-0.02131458315200875 -0.00856189607108454 0.018641309579925103
-0.021362276963035602 -0.008531728024042229 0.017001251464301204
-0.021492023366330618 -0.00706984956869211 0.014184024787256388
-0.020550521043041715 -0.025870327414587502 0.024863871258462567
-0.020400659701204443 -0.029246169843153536 0.026106984247241505
-0.020288152306184415 -0.031964321961878206 0.026821244961051316
-0.02019937651588946 -0.03426422133058654 0.02720000628778413
-0.02009896607360647 -0.03675784873543797 0.027756745468742516
-0.020032614563464064 -0.03865840441167834 0.02782341323563947
-0.019960046236269534 -0.04066057546391416 0.02798744601921449
-0.019889599474824448 -0.042620949132738006 0.028126736929044716
-0.019829860706359347 -0.04439313800321609 0.028114007588081247
-0.019775059155390094 -0.04607668447261365 0.028033419120552183
-0.019716528800450054 -0.04781948052207824 0.02801325385664316
-0.01966292358646267 -0.04947430377369272 0.02792485584645593
-0.019610903453723794 -0.05109824502357824 0.027817560147672282
-0.019558900316200736 -0.05271796539419715 0.027714697468100624
-0.019504969493027192 -0.05436623441461563 0.027645552739572976
-0.019450825880595327 -0.05601400249857108 0.02758448264376695
-0.019396728755223535 -0.05765689634594273 0.027527587833643175
-0.019364111769121138 -0.05893619846634879 0.02714917003138989
-0.019338852310207138 -0.06009017349929274 0.02666155997412445
-0.02059742328915532 -0.039852589380095615 0.006552262261013075
-0.020547621616701556 -0.0414592520954698 0.006387599279550127
-0.020499870579255616 -0.04302813854835058 0.006195894819374603
-0.02045143992465504 -0.04460465984739648 0.00601897396810791
-0.020402845239259254 -0.04618022679698269 0.005848954682241059
-0.02035375582470807 -0.04776026797135652 0.005690988527964236
-0.020281338308185147 -0.04971996951085966 0.005900334869901325
-0.02023961259221485 -0.051170967995049 0.005637387675169581
-0.020183842413195752 -0.05284855487422485 0.005597940187115402
-0.020136618797903027 -0.05438244005262055 0.005429414457580439
-0.020081468292178398 -0.05604182522317319 0.005389882950249836
-0.020022516089526536 -0.057758797924326866 0.005415316936021097
-0.019992443089201974 -0.05900326519963878 0.004989015341315517
-0.019969007985052946 -0.060138128410849034 0.004460072113586178
-0.021312814160062938 0.040495625904155064 0.030358286123233436
-0.021188268021647975 0.03716948349372323 0.031044568951846596
-0.021114223843168873 0.034852840796957774 0.031048316346256044
-0.021046713408209006 0.03267119534290852 0.0309689943939771
-0.02098032592348759 0.03051710851321271 0.030880587524437453
-0.02091379280535846 0.02836549111164166 0.030800561174454566
-0.02084444783542101 0.026164021574800855 0.030766110515039746
-0.020779513554581047 0.024054530494156456 0.03067659198307643
-0.020714061860699177 0.021940141294726045 0.03060055494380587
-0.0206488382141796 0.019835460228391777 0.03052757291966035
-0.02059057203726649 0.017871480122473693 0.030362498156658146
-0.020537580225088236 0.01601466039470245 0.030128201254109477
-0.02048239962436231 0.014119659129614104 0.029930124975710404
-0.02042805199329313 0.012245208876707825 0.02972543954492901
-0.02038545877403542 0.01060209218380559 0.029357567895985703
-0.020341385348102294 0.008933875834880145 0.029015050666680753
-0.020301510445919792 0.007349932979759721 0.028616204843327442
-0.020268606269541186 0.00590295214383646 0.02812031543194332
-0.020249055679358367 0.00471431461738836 0.027433719802050616
-0.02020241623254077 0.003009628569552447 0.027143548151970787
-0.02017419786204795 0.0016599435482666514 0.026588655711804632
-0.020148903488485678 0.00036816321834148846 0.025993597041294225
-0.020144258553325536 -0.0005294998055410116 0.0250972333674247
-0.020153782976922184 -0.0011583155995549266 0.023992222756825055
-0.02014884541409867 -0.00206133424824001 0.02310040244520839
-0.020151691478733674 -0.0028171012422265607 0.022093449644602747
-0.02012546844600534 -0.004120380338215102 0.0215193609706264
-0.020107638716061253 -0.005263869073281413 0.020822319182952465
-0.020135729066379865 -0.005545078216950661 0.01943836717246733
-0.020177691727585167 -0.005569042531903212 0.01784303200670173
-0.020227259934794992 -0.005454411177297447 0.016128897642355533
-0.019374258754924368 -0.026046850327436533 0.02343660375933454
-0.019200726370509846 -0.030015600638329754 0.025186073971281753
-0.019075817280489845 -0.03307841875203771 0.02619972620239347
-0.018966663781933422 -0.0358427989417488 0.026980770555403377
-0.01888187837278345 -0.03815333675939775 0.027392842816361063
-0.018810898026845452 -0.040205473614925546 0.027597420600088685
-0.01874301191258317 -0.04219564119427327 0.027760320019595885
-0.018680005608472574 -0.04409181484720848 0.027853037762388122
-0.018625903911841143 -0.045821718383012244 0.027811433890906234
-0.01856663943430969 -0.04764053372107446 0.027856633721964286
-0.018513289533645325 -0.049347985878202494 0.027813716279631584
-0.01846214673894149 -0.0510114603498521 0.027740801870886567
-0.018413031546546717 -0.05263444400342021 0.027640437203190482
-0.01836152403001804 -0.05429631105124816 0.02758305620336654
-0.01831102330420726 -0.05593605544671437 0.027514449037307098
-0.018260608804807493 -0.05757020540638541 0.027449289593793502
-0.018210328834980128 -0.05919791237374811 0.027386785630078847
-0.018172457691244332 -0.0606014185586799 0.027128160821991154
-0.018151789893108755 -0.061697346415044596 0.026593765909517564
-0.018174536510517293 -0.06202483121588287 0.025354185664300644
-0.01928191533148133 -0.043241018324035096 0.0063932489746680865
-0.019239778902124957 -0.044756479358932955 0.0061604561110056855
-0.01919951348043152 -0.046235734687259444 0.0059009530232494445
-0.019151805151442006 -0.0478420148180696 0.005767966256987278
-0.019097757181852016 -0.04955515850605419 0.0057443299718707985
-0.018924252960708217 -0.05334499327697256 0.007705971923482935
-0.018916315639285496 -0.054243216672521744 0.0069318694837953165
-0.018923638220841817 -0.05487618739428812 0.00590411822318776
-0.018906390562521334 -0.05593482055389082 0.00528647036736879
-0.018853361038513698 -0.05760966966369868 0.005270445708707605
-0.018802499174115334 -0.059242930802994365 0.005223048954834608
-0.01875286676854962 -0.06085098336384753 0.0051597898561749345
-0.01874175566515985 -0.06179480576333235 0.004449845314586698
-0.01992602724576501 0.038481545536103556 0.030137944378266446
-0.019819487634402624 0.03537855285901692 0.03068304427167662
-0.019747405863190404 0.033010639411031606 0.030731841355688738
-0.019679864226809875 0.030744359480934458 0.03072094274581827
-0.019616305314113895 0.02856743378928106 0.03065791431700804
-0.019554614176502078 0.026435065067069607 0.030573599821857145
-0.019494179602363736 0.024334241128320222 0.030476834377061057
-0.0194327920401986 0.022218723636166726 0.030400512042560668
-0.019376887412034402 0.020222570558498854 0.03024807645617439
-0.019323468331271222 0.018282828029248133 0.03006387762222179
-0.019274140102642317 0.016432446298445036 0.029823250405976165
-0.019226247476276465 0.014615983442911928 0.02956587107887204
-0.01918111818415791 0.012860658229274735 0.02927129874903961
-0.019138994477230283 0.011171104894451667 0.028935408270950647
-0.019105294818515743 0.009658305392780009 0.028474664219186763
-0.01907077016891933 0.008131473028576586 0.028030052976098174
-0.01904599622491027 0.00680717497986022 0.027438475984624733
-0.019037918450724688 0.005826018383213893 0.026590888580001137
-0.019020789711352883 0.004661076563482303 0.025884742992551946
-0.01897848711171746 0.0029855858018081327 0.02557273631636625
-0.01895017057619095 0.001597587036245962 0.0250463328885272
-0.018939491547602168 0.0005692368457939079 0.024246101281276633
-0.018939546281313578 -0.0002412615325987355 0.023278006870498802
-0.01895104733930952 -0.0008209171820247607 0.0221291527580057
-0.018953787745658736 -0.0015778663685633854 0.02111791477265046
-0.018937849688947756 -0.0027101534845136444 0.02040326479171567
-0.018967501673761912 -0.0029274837717843116 0.018963324837283413
-0.01900589622664489 -0.0029725353977338997 0.01738051246442973
-0.019084320519601048 -0.002222141866628835 0.015151429153038465
-0.017984429332273136 -0.031104985081669645 0.024535042353650005
-0.017852643965282616 -0.034448776570923934 0.025798620255109428
-0.017748934633749058 -0.03723429098940906 0.026609355850341243
-0.017670689157433 -0.03951591675202193 0.027006465619214215
-0.01760225031668819 -0.04160062231406292 0.027247691499334925
-0.017535559386528333 -0.04364563392166648 0.02746660958372088
-0.01747761800076419 -0.045515969334479156 0.027545234676498054
-0.017416447322981105 -0.0474435606162259 0.027684236372380766
-0.017362738395917388 -0.0492224566146085 0.02770327058287997
-0.01731466450329199 -0.05088865705543183 0.02763218627254893
-0.017266264703713164 -0.05255697497401901 0.027571558193967227
-0.01721763714858054 -0.05422549412354588 0.02751976101170195
-0.017170227360197295 -0.055866642739584804 0.027452083340354816
-0.017123480600276006 -0.057491123395778554 0.02737786364933026
-0.01707752167971238 -0.05909665392245417 0.02729485093785855
-0.01703043677245925 -0.06071955494876957 0.027235981012656285
-0.016979694582741896 -0.062407478270257444 0.027245277397807355
-0.016961940326980198 -0.06346958006305692 0.026686603956717958
-0.01696229153621615 -0.06418984011183243 0.02581424382976577
-0.018027171222370898 -0.04494629478671902 0.006337347033696983
-0.017992674979259816 -0.046364257710523105 0.006021350032715589
-0.017955948773024682 -0.047820893048570734 0.005748076733239904
-0.017909529389147406 -0.049454917470555804 0.005649444969865913
-0.017682751722624002 -0.05443643135938969 0.00874447485354074
-0.01771578136836329 -0.05458183082476514 0.007255738208456375
-0.017737405698425027 -0.05494102035584736 0.005966450611416263
-0.017726658860386862 -0.055899431705054625 0.0052522695022301225
-0.0176767422233902 -0.057578072014605186 0.005239750049916225
-0.017635833833951346 -0.05908697058332757 0.005070753701519937
-0.01758765376830091 -0.06072561775397789 0.005036734610269322
-0.017538515827932904 -0.06237764781547983 0.005024915236398753
-0.01751503263111878 -0.06355753787921492 0.004554031030263306
-0.01847215621304588 0.03394162378795851 0.030081407913713998
-0.018393280362480127 0.03131669591116154 0.030318873951061143
-0.018329399643613194 0.029036112520266555 0.0303268523101623
-0.018271253618612444 0.02689005191982513 0.030250441963759367
-0.018213638039010122 0.024761206775014033 0.030171913415834972
-0.018164040807683957 0.02281680619132076 0.02997104415562124
-0.018114981194224722 0.020888947271002656 0.029766947640927632
-0.018065598943458053 0.018958414280739966 0.029573431641688464
-0.018021474813850635 0.017149173818949703 0.02930009569132347
-0.017979573742142648 0.015393246631057234 0.028995435302172468
-0.01794181324769941 0.013732729437241409 0.028627796386405835
-0.017904787524730657 0.012091894247889645 0.02825225993188757
-0.017872926403295512 0.010568191802181715 0.027795936689314737
-0.01784378078449079 0.009107090096385662 0.02729834413166632
-0.01781805129264883 0.0077235796295642145 0.026747450703044795
-0.017817428468711434 0.006891862626524692 0.02578282546667976
-0.017806691602811967 0.00583933290638694 0.024986624996091833
-0.01779120562157096 0.004684296238590291 0.024270912332293393
-0.017755571336655212 0.0030925341715196675 0.02389448450971482
-0.017735030486616767 0.001831574939879732 0.023268235971934337
-0.017740431364466985 0.0011342516876683972 0.02220673590713318
-0.017745320708263547 0.0004253790681283398 0.021153299654971147
-0.01776382164156664 9.55691599408004e-06 0.01986828340450042
-0.017783136667893565 -0.0003904476417994629 0.01856737943720349
-0.017833948033669972 -0.00011597928588813478 0.016726291870693855
-0.017942865859005466 0.0013987382077302324 0.01388379866750894
-0.016809038275184863 -0.03138256723726357 0.0231984322234024
-0.016643697522487712 -0.0356056113184825 0.025220905638543678
-0.016540586584257288 -0.03851735932352812 0.02615069502536821
-0.01646618208500186 -0.040823063529825676 0.02657779879132799
-0.016395256011044662 -0.04304980669523628 0.026950575802962395
-0.01633531444613008 -0.045042766226687125 0.027133242239713307
-0.01627091729313426 -0.04712220356120855 0.027402974092448906
-0.016218800626051487 -0.04894277056282503 0.027457191541415626
-0.016164197032385415 -0.05080966409766885 0.02756231952009419
-0.016124228808144157 -0.052371423967880915 0.02740658169223542
-0.016073257309331238 -0.05415464667730385 0.027456438542988182
-0.016028359092532925 -0.05580920502364323 0.02740047689343489
-0.015983919847952662 -0.05745029183523004 0.027340985062737577
-0.015942883818589063 -0.05901813505562542 0.027223561995916967
-0.015900115145625792 -0.06061734269513053 0.027142694391427136
-0.01585482139932419 -0.06226370772761408 0.027113374907414556
-0.015808395749551785 -0.06392876112539869 0.027110083268151675
-0.015784490410527506 -0.06513601146408898 0.026691409579245706
-0.01576784842136284 -0.06619512243706666 0.026139345074737697
-0.016783072480831725 -0.04656655191505399 0.0062108539569104
-0.016745396922623924 -0.04809068405707523 0.0060021281123518455
-0.016702050575449223 -0.04972451998873034 0.005904642208704569
-0.016531109656468063 -0.053894730425313064 0.008229046615955526
-0.016539021250872334 -0.05449657647175887 0.0071741963756741245
-0.01655760076019845 -0.05488773486533993 0.0059152203143362225
-0.01655495679110074 -0.055700226658821794 0.005059751657055522
-0.016498248242266426 -0.0575789498099224 0.005240602787582427
-0.016462149352616848 -0.059046867150897464 0.005031592674343999
-0.01642245945310332 -0.06058197590703729 0.004895739940231958
-0.01637370708807858 -0.062290957366766264 0.00493938079464068
-0.016330473526561036 -0.06388761206672672 0.0048813930577840114
-0.016309616280709708 -0.0650440399819126 0.004393221134044889
-0.016280661482008844 -0.06635605369148107 0.0040651622296883905
-0.01715753523339826 0.03321040470113795 0.02898853541135865
-0.017066542071563377 0.03015910065040095 0.029533603802288977
-0.017006091778608762 0.027854728260928996 0.02956527328633335
-0.016950822120803365 0.025681244797339298 0.02951486083958138
-0.016901390722624535 0.023653705340692166 0.02937008814016051
-0.016853696941998647 0.021672778265014736 0.02920101598331354
-0.016806321305425483 0.01970419126663986 0.029032030267250764
-0.01676678061249563 0.01792764901503674 0.028731870030354933
-0.01673062825501712 0.01623587587346398 0.02837702718289825
-0.016699736319672247 0.014672951964414538 0.027934005085752667
-0.016685705474637224 0.013513787029776292 0.027197334949702723
-0.016648583825909308 0.011808398051053492 0.026870807887377668
-0.01661293883939897 0.010141626918149849 0.026522445710705667
-0.01659037467669705 0.00878730635017766 0.025945335549140414
-0.016583060567633843 0.007794618742372139 0.02509840659204604
-0.01658364158559165 0.006988330358883299 0.02411080939264698
-0.016585433313656743 0.006210397879018392 0.023101368851177473
-0.016585384883631336 0.005389193739224141 0.02212492120053472
-0.016560384301699958 0.003984876243879776 0.021600189467112563
-0.01655121539596983 0.0029522258806494173 0.020790869497132214
-0.01656729181294056 0.002507955100286785 0.01952263737620924
-0.01660244979433552 0.0025051897676096613 0.017903702737766702
-0.016658398373396482 0.002980700566021066 0.01589935079811272
-0.015433444829653196 -0.03685016664179541 0.024721899414229198
-0.015346624769018402 -0.039556356954843 0.025486489021613545
-0.015267503523093062 -0.042082038565918356 0.026112411609523933
-0.015198379456173453 -0.04437714211393323 0.026553719206832693
-0.015130563668079203 -0.04663632402178697 0.02697771631485768
-0.015077265507151516 -0.04856675843753472 0.027126360944822125
-0.015026050638250629 -0.050445812001542356 0.02724050394247668
-0.014979131848118523 -0.05222492682745106 0.02727632863543522
-0.01493191630558692 -0.05400594060687125 0.027323527111567658
-0.014886753080050726 -0.05573716505905829 0.027335750666990843
-0.014844267163084936 -0.057405195086372596 0.027300254208088737
-0.014805225477047806 -0.0589936428915554 0.02720132504150169
-0.014766311839656973 -0.06057543369553897 0.027104445073641792
-0.01472710579686578 -0.062159747011819866 0.027017995999717936
-0.014686132516896764 -0.0637785990080787 0.026971596393885133
-0.014644102767554784 -0.06541631218300936 0.026951267573894544
-0.014616442007741873 -0.06673894030366362 0.026646134461250526
-0.014596008718118274 -0.06790279610699845 0.02619808993002687
-0.015535942212314786 -0.04837834899787541 0.006273010657094624
-0.015494323817722916 -0.05004092826740242 0.0062041443038983735
-0.015370587859263998 -0.0534600820038284 0.00781547880434208
-0.015367552000088335 -0.054285025719999436 0.006971857897735467
-0.015368134126869706 -0.05503245343824836 0.006054357167774138
-0.015361940898377193 -0.055924204703198976 0.005276210884797794
-0.015321330965636397 -0.05754646822862197 0.005209048429419549
-0.015289779266283271 -0.058972736849920326 0.0049592043884739145
-0.015245619965590287 -0.06066246572218592 0.0049747464078453985
-0.015212504545017855 -0.06211485729749072 0.004765628999113536
-0.015171342419998388 -0.06373332122816766 0.004728369999182247
-0.015132256728861138 -0.06530411764046135 0.004652499144707112
-0.015099149743384036 -0.06674581506653054 0.004455738905648043
-0.015077025376838901 -0.06795473261744556 0.004031703091317451
-0.015809643485524643 0.030778689455571162 0.027488507702670695
-0.015720948244217277 0.027615081529466456 0.028133795735677702
-0.01565415401266893 0.025031865453819968 0.028380466378835567
-0.015612015159293207 0.023097171908362135 0.028172593451118777
-0.015583477117871208 0.021520065682362255 0.027713785104064304
-0.015527678567267531 0.019239802492383273 0.02777410120136059
-0.015496469992118463 0.017601230981242166 0.027374988988815463
-0.015469584717493729 0.016077539706351063 0.02689755815090894
-0.015460643678077948 0.015018710782468359 0.02608080796312373
-0.015443247442547017 0.013743609949645685 0.02542724132990576
-0.015419266735164193 0.012301558123882839 0.02490250606558614
-0.015369049764060195 0.010190827508150091 0.024886994560032016
-0.015356130540227303 0.009037731828580586 0.024155948219768464
-0.01535253323299634 0.008123520305567788 0.0232455184679195
-0.015362654958721673 0.0075584873931192065 0.022068246769783806
-0.015363960507850313 0.006768699555444957 0.021062019710252122
-0.015369139870433228 0.006076844829833283 0.01997965411448238
-0.015367788395904332 0.00521944446146666 0.019025124611917077
-0.01541006669030094 0.005462085593764654 0.01720954575896727
-0.015484433235001992 0.00650741618485895 0.014753120456351021
-0.014267346377990339 -0.03710194611409379 0.023371932594495104
-0.014149561003889751 -0.040715652695838545 0.024929012739457523
-0.014072502236694323 -0.04333366305677433 0.025645218243052603
-0.01400177288265844 -0.045790974744044366 0.026237838781489775
-0.013939529507429362 -0.048036779728382384 0.026660064352935997
-0.013887762373245212 -0.050024719636062254 0.026868061171719082
-0.013839701968541566 -0.05191843312359651 0.027003819959157183
-0.013791320029229712 -0.0538146730752439 0.027152574834105714
-0.013747599568687081 -0.05559470704281444 0.027207755465004146
-0.013712614261615264 -0.05716247932468077 0.02708103617883123
-0.01366946189041141 -0.05892014417734437 0.027134594002430568
-0.013632036507968098 -0.060537706279253534 0.02707001218455396
-0.013595485301992035 -0.06213062593415036 0.026991278825275244
-0.013560076434266483 -0.06369272861276287 0.026892402500967527
-0.013521816851850218 -0.06531801736453302 0.026860141534289617
-0.013484431465713256 -0.06691871431339658 0.026813667684595366
-0.013452876453761616 -0.06837904214988261 0.026644224777132852
-0.013431095875934707 -0.06960790323951299 0.026264030976546004
-0.013428894179850335 -0.07037860690159536 0.02545514932779558
-0.014185778048462657 -0.05351715047025235 0.00786977942894912
-0.014191307267362098 -0.054148884877286974 0.006841645498721849
-0.014195264839676197 -0.054817549232218044 0.005847741704280429
-0.014179102655295185 -0.055950743037867456 0.005301858342537991
-0.014142843345606594 -0.05754471228274588 0.0052073426089861985
-0.01411607437259234 -0.058916898702413345 0.004904678402056606
-0.01407526012565368 -0.06060794475490183 0.004921230207963145
-0.014038815031830859 -0.062194770555864975 0.004844476623569738
-0.014011389519335884 -0.06357205159907736 0.004568425493510664
-0.013968832433371683 -0.06529057361354645 0.004638996760940484
-0.013937454380391286 -0.0667508596726119 0.0044607940640113974
-0.013900575942939492 -0.06833230530982826 0.0044120255283203735
-0.013881217438095686 -0.06951411137375929 0.0039673312736625
-0.013871631793347496 -0.07047364638845816 0.003301005478055674
-0.014400980687939062 0.02565025876008209 0.026329246243538995
-0.01437199800686529 0.02398795427026007 0.025922206255818203
-0.014361046907898004 0.022838631727447767 0.02514723893126347
-0.014293223273977992 0.020086624491352567 0.025550951263927313
-0.014232356517901206 0.01753834072061372 0.025819631376778174
-0.014218209162432768 0.01630932812506497 0.02512327832763339
-0.014223553218562552 0.015628264304996253 0.024021388047504533
-0.014211902455675052 0.014471246877868882 0.023275248298846585
-0.014212532874717996 0.013658366492192098 0.022272257605553403
-0.0141479338328432 0.011028629380970767 0.02264656175492158
-0.014141148368469064 0.010013298127012793 0.021805047995622384
-0.01414905843444673 0.009406345057996757 0.02065212229370933
-0.014156185063742182 0.008776784453022601 0.01951480156506402
-0.014187192143639072 0.008805931858176241 0.01786557743114714
-0.014272170170711362 0.010318895262981909 0.015053593482820538
-0.012970921000971377 -0.041460677562862425 0.02401451074136307
-0.012882884674309106 -0.044531740986350876 0.025135715918069623
-0.012809780069733233 -0.04720106555078457 0.025924769394713942
-0.012753386723305622 -0.049424720543698786 0.026337381105465407
-0.01270369690438069 -0.05146682859353713 0.02660229082123383
-0.012659292631449196 -0.0533654900885851 0.026751101285965473
-0.012612218204353882 -0.05532833867089437 0.026968429701065222
-0.012579174253754195 -0.05692196205425104 0.026863803801096542
-0.012535176990866325 -0.05879503524555818 0.027021004953903804
-0.012499608461579747 -0.060445446528673674 0.026985808969179792
-0.012463691702183555 -0.06210066731049341 0.02696379324306597
-0.012431838486725222 -0.06364729770693328 0.02685050388994814
-0.012398836055923233 -0.06521966168533894 0.026768959072624332
-0.012365181168771508 -0.06680485405885223 0.026707560158357235
-0.012330949134171503 -0.06840083895838439 0.026664643457715353
-0.012297346617435005 -0.06997679792286637 0.026611404314050735
-0.01227288361463871 -0.0713167052305525 0.026343123612790953
-0.012275171906194001 -0.07197588989650872 0.025433263137422835
-0.013015744401259183 -0.05397075285979086 0.006671270489450876
-0.013016555189144087 -0.05471088068393859 0.005745187305974009
-0.012991537885141896 -0.05610104563145363 0.005447115362822275
-0.012964482897443234 -0.05753944433146818 0.005202225037281072
-0.012940118081322024 -0.058907299582782346 0.004895304855655314
-0.012904400383308265 -0.060556002875445825 0.0048702455658758415
-0.012869430679454893 -0.0621818840127531 0.004831761920997268
-0.012845730499687513 -0.06352338274714303 0.0045201565447436365
-0.012805035997281318 -0.06528380116704563 0.004632245137345281
-0.012776848976272362 -0.06672983941881439 0.004439729840151285
-0.012748616686463436 -0.06817370142974699 0.004252266585453024
-0.012712299086012558 -0.06981347180842234 0.004270433176830513
-0.012688001106967205 -0.0711535576893445 0.00399297740043475
-0.012672577946386382 -0.0722731810805613 0.003496276939039533
-0.013134897637564086 0.024462686863064576 0.022339346011078787
-0.013125900639834024 0.0233398558046235 0.02153868662214037
-0.01307886788913677 0.02104308508116709 0.021611228378299208
-0.012996699624987215 0.01766912444617802 0.022499013443239957
-0.012978477216363226 0.016273082893541735 0.021923878594086843
-0.012994844161952792 0.01594133535118525 0.02055075913963711
-0.01300041214188722 0.015276631440585497 0.01942596569575905
-0.013032054375211224 0.015408383141483128 0.017692680620639223
-0.011802066565801225 -0.0419203631037674 0.022850151977426347
-0.011700673039604982 -0.04560293106488833 0.02451866637344169
-0.011629755863169848 -0.048395558354346946 0.025427119963770006
-0.01157595630863941 -0.050687638190284046 0.025909499606638964
-0.011525023023304373 -0.0528906980886063 0.026326738755501067
-0.011483795018129375 -0.05480982852621685 0.026502560440422374
-0.011444059824647516 -0.056681089469711954 0.026646250507825542
-0.011401295236631949 -0.05863343426665152 0.026874284003025772
-0.01136706457521346 -0.06033802325247073 0.02688776637524848
-0.011333773810361632 -0.06201159059260608 0.0268820696805801
-0.011305853399686785 -0.0635291168316004 0.02674151168662131
-0.011273675968286248 -0.06516307958933437 0.026716503588181006
-0.011243387995432836 -0.06673975422122919 0.02664689295928646
-0.01121133449015484 -0.06836208698846541 0.026628341625011098
-0.011181923837104988 -0.06990629395434256 0.026545013552788488
-0.011153179542419884 -0.07142810344231898 0.026448569645887543
-0.01112551746243565 -0.0729160526130575 0.026327827613040866
-0.011124979217545275 -0.07364615511503314 0.025489879792638337
-0.011827722138513025 -0.05486375074716521 0.0058921612510229315
-0.011802767977135524 -0.05631476766033522 0.005653662863725151
-0.011784908041448286 -0.05756666024428925 0.005228664041372122
-0.011764820712885524 -0.0588776259814866 0.004866328565189981
-0.011731493573126382 -0.060549941899315396 0.004864296287529657
-0.011704309022597661 -0.062049522273230184 0.004701165209730684
-0.011677499848532374 -0.06353533787405347 0.0045320134385352095
-0.011641034863900317 -0.06528126142516583 0.004629713204283903
-0.011613341304554927 -0.06678364569012474 0.004493648663152994
-0.011585809918893058 -0.0682780640729409 0.004357389269355583
-0.011561191989599207 -0.06968998238311308 0.004145400355193618
-0.011528763585662594 -0.07130991387816232 0.004152107116930259
-0.011504781047462597 -0.07269786177035514 0.003930726904023352
-0.011491043770615973 -0.07380703436661606 0.0034295283633318796
-0.010518774441889847 -0.046733286394322504 0.023956893416588854
-0.010449562925806094 -0.049692319707040467 0.02502454530274073
-0.010398579038295159 -0.05206132662373608 0.025585457997731265
-0.010357603062185314 -0.054105238747814366 0.025869502972810043
-0.010314973118265217 -0.05619570322347417 0.026207855343097608
-0.010275806678694923 -0.05817058573193512 0.026454054016886275
-0.010239388976054713 -0.060053173445382524 0.02662779093086698
-0.010207651771746047 -0.06178326199168477 0.02667258927843591
-0.010179719831004559 -0.06338933571305655 0.02661259867890603
-0.010149005696181752 -0.06507857896463753 0.02663816571247074
-0.01011990859458864 -0.0667128927287039 0.026621860461912117
-0.010091910196679064 -0.0683087874400819 0.026578412000977047
-0.010066127354364244 -0.06983174955466315 0.02647481807945301
-0.010039886292188717 -0.07136525281320827 0.02638907722305367
-0.010011945938115947 -0.07294763561344447 0.02635787882617907
-0.009984921239628219 -0.0744977344852108 0.026304375946268777
-0.009975245235640464 -0.07550915409867826 0.025741282221162953
-0.009968771281368164 -0.07642070868872608 0.025084658790755
-0.010600784267997251 -0.05773950667296923 0.005396576375051476
-0.010580048290634149 -0.059131421480136725 0.00511416003041637
-0.010556501774545118 -0.060606213628478345 0.004919530984484222
-0.010533878120338257 -0.06204952227321914 0.004701165209719749
-0.010508542139503151 -0.06357205159903973 0.00456842549347336
-0.01047737803143138 -0.06526771544946308 0.004616208877721351
-0.010447897051714509 -0.06690800260451862 0.004618265706723246
-0.010414028741583353 -0.06867650949182907 0.0047587364424467316
-0.01040091695700542 -0.06981512872253065 0.004272110799393325
-0.010379228520414716 -0.07120953476657876 0.004049947428278744
-0.010350814193080206 -0.07280242159423994 0.004037692002548332
-0.010324913089351911 -0.07431610641816155 0.003953004231278534
