# .PCD v0.7 - Point Cloud Data file format
VERSION 0.7
FIELDS x y z
SIZE 4 4 4
TYPE F F F
COUNT 1 1 1
WIDTH 769
HEIGHT 1
VIEWPOINT 0 0 0 1 0 0 0
POINTS 769
DATA ascii
-0.046050952550136866 0.04782274551320842 0.01546538437108258
-0.04605929274706329 0.04852117550396945 0.01450527452722672
-0.04605929281655454 0.04928031235215369 0.01360057034990858
-0.04605281968887372 0.0500862468117006 0.012739250771779065
-0.04600681295076312 0.05117712229984084 0.012143923795032707
-0.04525005941761754 0.05738135611805617 0.016341885657945476
-0.04516921255155793 0.058707636208574165 0.01599969215717234
-0.045117426101063896 0.059823076543538856 0.015463623000750881
-0.04507756103989447 0.060851607233406046 0.014848518013609702
-0.04503252918090756 0.06191566595295939 0.014270216886342113
-0.04331738621516696 0.07485952912886074 0.025116719490084594
-0.04321960066940003 0.07626751666566572 0.024936615885542246
-0.043177218063422736 0.07727996667800896 0.024379238573281614
-0.043234734132529457 0.0775852728649753 0.023134364039277766
-0.04331364271797642 0.07774169744731468 0.021739231162314798
-0.04339217685134268 0.0779033561517189 0.020343596326226343
-0.04347021998703774 0.07807104805163989 0.01894829246660762
-0.04354987998072225 0.07822999662298169 0.017538641626520968
-0.043628827061079886 0.07839654878035829 0.01613084952729721
-0.04370817300688018 0.07856292491712058 0.014717157421632376
-0.04378837071626208 0.07872599745133113 0.01329435516596117
-0.04386841150473296 0.07889280147789762 0.011869509593769645
-0.043948745442237015 0.07906021642360772 0.010439445530821101
-0.04402891906773133 0.07923138557747472 0.009007363024241544
-0.0441063029982452 0.0794243999140058 0.007591978728108406
-0.05523164562711096 -0.07818124155009765 0.046152845225878925
-0.05450150484452535 -0.07120848486999976 0.04874766107526213
-0.05413347961488402 -0.06727134921633166 0.04955200826220857
-0.0538856165210813 -0.06434364509287571 0.04976473253041552
-0.05368318220057884 -0.06180033335970492 0.04975708094095743
-0.05022185609489105 -0.032312476329998896 0.06630958534222253
-0.050088855889964305 -0.0304076509986273 0.06602585647957737
-0.049988995172104506 -0.028780098859927494 0.06557763206137696
-0.04990320773867113 -0.02727146386144863 0.0650609436455929
-0.049819844463781376 -0.02578547800516645 0.06453504271515526
-0.04972345735130184 -0.024195510643180207 0.06407973192544347
-0.049611382140696124 -0.022480413078833417 0.06370959786159203
-0.049482992516046535 -0.02063583243900674 0.0634288069728603
-0.0493618176267717 -0.018854116558012612 0.06311518360658375
-0.049222789129510974 -0.01693122786381629 0.06289995992539127
-0.04908440372748439 -0.015018022524921515 0.06268667181148468
-0.048946931347951396 -0.013116654123847882 0.06247385445215642
-0.04882686391022651 -0.011360286655315188 0.06217390038440096
-0.04870670535070214 -0.009607043545415916 0.061879030677856106
-0.04855595341181235 -0.00761153763881478 0.06175235426127712
-0.048389780167516744 -0.00549705978076348 0.06171420914507908
-0.0482488384922079 -0.0035901004145659776 0.061546542494341216
-0.0481077884474428 -0.0016868042236902192 0.06138485993374876
-0.0479825742136159 8.557704655320908e-05 0.06114268851573479
-0.04786849685403069 0.0017652323563666084 0.06084469483508714
-0.04768837224420464 0.003966205168795922 0.06091183208084394
-0.04754165005040621 0.005896422841097093 0.06080277903593023
-0.04741756057504691 0.007642753677345238 0.060574855074336686
-0.04730653504835327 0.009281885905791654 0.06027957590420596
-0.04720762950205726 0.0108218918872664 0.05992141938806689
-0.04712196577587833 0.012254528986456126 0.05949345408740303
-0.04704281638481537 0.01363326108740509 0.05903243893522403
-0.046949045003226136 0.015124029083879498 0.05865628341777329
-0.046859918295995694 0.016575461720124474 0.05825763793571631
-0.046782272177373956 0.017934435550690575 0.05779771845226933
-0.04670525740203242 0.01928599703079731 0.0573372035755339
-0.046616306950535064 0.02072784551102924 0.056947347663787284
-0.04654355556439686 0.022041198879136636 0.05646869389594206
-0.04653252620879715 0.02287450377797301 0.05564032366786531
-0.04657704776621554 0.023278399231290214 0.054494053126718456
-0.046490934248205336 0.024690603929577115 0.054097155806200725
-0.046361559889050774 0.026432781547878204 0.053953110920447966
-0.04624269015363741 0.028090173688074316 0.05375322331223542
-0.04617939546578446 0.029318076348722022 0.053235170323544856
-0.04615878278406908 0.03021771396113193 0.05247087441099907
-0.04615488191803346 0.030989224454497644 0.051609684185981886
-0.046194775738884405 0.03142728178108706 0.05049181615974002
-0.04624929877723052 0.031755511234541234 0.04928634914844332
-0.04632678087478505 0.031911486144501344 0.04794327452557967
-0.046393682542829925 0.03214997041152601 0.046659887353085794
-0.04646287756835679 0.03237329719110765 0.04536031297577636
-0.046872488850109556 0.04434655012288857 0.02497363692229554
-0.046950687378466145 0.04453601207020352 0.02357995418599229
-0.04703826102172756 0.0446605489341928 0.022123629211231288
-0.04710647308586686 0.044926863540054485 0.020787504467978224
-0.047161261717374434 0.045291498258143215 0.01953468477601006
-0.047207632700142756 0.04571803900352145 0.01833380558159653
-0.047250645449059214 0.046170011118879195 0.017152773542116584
-0.047281325511796916 0.04671108785904776 0.016049738890545673
-0.04605417624025043 0.05617985993418617 0.023092718775622578
-0.04592758004813697 0.05781634480442016 0.023033141690599
-0.045871886073138024 0.058947852611974993 0.022516451239815882
-0.045920460209300844 0.05934261507965283 0.021320539900195168
-0.045979296409969006 0.05966676931211351 0.020055512685048293
-0.0460410731545046 0.05997218197893739 0.018768903903286005
-0.0460903711068876 0.06036693787030811 0.0175621902428591
-0.046115181411073125 0.06093431038702912 0.016515482080263988
-0.046117128509533895 0.06166179930351606 0.015619415623932265
-0.046109828060419675 0.062453642417548916 0.01478476654900901
-0.046072995798674486 0.063450090018565 0.014147335699174757
-0.04430239979179041 0.0764432578829044 0.02510645767612746
-0.044182669717377526 0.07798180996652437 0.025061047105881862
-0.04410695592207158 0.07921332942618653 0.02472416252143167
-0.04412599937976574 0.07979124930932613 0.023751012066568156
-0.0441988722517145 0.08000073374267691 0.02241300589045636
-0.044283204195769095 0.0801341824951361 0.02099447476292715
-0.0443629030653475 0.08030195647942284 0.019604231188751375
-0.04444356745270341 0.0804657190187989 0.018204348305055296
-0.04452429884817543 0.08063161897075233 0.0168009173920749
-0.044605893313419354 0.08079426583244304 0.015388473454335583
-0.04468698752387818 0.08096291653894794 0.013976345699873272
-0.0447676890604805 0.08113682151405455 0.012563820722263142
-0.04484971846082093 0.081304387232641 0.011139018991793037
-0.044931471428609385 0.08147644453229919 0.009712992914924112
-0.045009697293953425 0.08167474388511359 0.008308369903162527
-0.045090173625645824 0.08186052627137391 0.006885053416438636
-0.05643533020535371 -0.0767384086767417 0.04701391137478056
-0.05574894935022229 -0.07027266062269832 0.04930937755525028
-0.05545246384123467 -0.06699256409950799 0.04972031062042198
-0.05520739392849394 -0.06413821252772683 0.04988946596751792
-0.05149367993366641 -0.03325111249326307 0.0671910347982953
-0.05131886762379858 -0.031033369356261054 0.06709516860927472
-0.051203276733623654 -0.02929799512425152 0.06671127026614909
-0.05110671618902913 -0.027719191090522677 0.06623667972509839
-0.05103100886449107 -0.02631068395271874 0.06566119528726944
-0.05094320809933056 -0.024807735577363543 0.06514936995152809
-0.050863939846244634 -0.023375714235779887 0.06459774756123865
-0.050771819390578204 -0.021843691964740175 0.06411421417582086
-0.05067702115693925 -0.020293246943934584 0.0636477424845796
-0.05057001019717748 -0.018648770213939625 0.06324715602289066
-0.050448385782880266 -0.016891805131226678 0.0629254392910093
-0.05032253806050109 -0.015105240863833136 0.0626299841374085
-0.0501880345259684 -0.01325427769605908 0.06238390252320858
-0.050048094843510985 -0.011364694222202931 0.06217100344747467
-0.049906847678626416 -0.009469215956151855 0.06197013014923902
-0.04978119370730105 -0.007700554565772955 0.061693187707395625
-0.04965782271186237 -0.00595371597394273 0.06140898812320256
-0.04951698730663343 -0.004074218542127805 0.061221160403683916
-0.04937967072725901 -0.0022265901707390623 0.061020041022047
-0.04922876887773209 -0.00027749119639014497 0.06089594045259927
-0.04904680461358069 0.0019082441713886844 0.06094242844874581
-0.04890153140939729 0.003803744243181695 0.060800191300546924
-0.04876269063828455 0.005644908180719388 0.06062898443613024
-0.048638630816491515 0.00736755970436237 0.06038364651809913
-0.04851953706711086 0.009048044224018892 0.06011620216800867
-0.04840442555131101 0.010694163029298265 0.05983168938267297
-0.04830261967171717 0.012234533685642368 0.05947933001806299
-0.048223559828845165 0.013597462156137274 0.05900701254398344
-0.04813014106008237 0.015067685616876492 0.05861604534605347
-0.048049839888110575 0.016434901537201785 0.05815670530452105
-0.047971861626550275 0.017781913760697488 0.05768759667902601
-0.04789259947261037 0.01913623590082769 0.05722848363000527
-0.04780607029667171 0.020543173375827506 0.05681255159361509
-0.04770041147377419 0.02209214423726119 0.05650608292436532
-0.04764433535824066 0.023263406499377803 0.05592729553951992
-0.04761989100528222 0.024194557117598825 0.05517376543941377
-0.04763230013164167 0.02484781874425729 0.054214429896359884
-0.047545193777130255 0.02624822346487371 0.05381469317095944
-0.04741381217612206 0.027977439706624474 0.05366821504867936
-0.04731025310452169 0.02949463137841657 0.05336902449725356
-0.047234904080351865 0.030798217396182215 0.05291335937566144
-0.04718749766539532 0.03189151462922046 0.05230116355408243
-0.0471674936618082 0.03277984855455096 0.05153396143331557
-0.04716351978549857 0.03354877470384959 0.05067549393451937
-0.04721050487446332 0.03394077783813976 0.04952371848220899
-0.04724624132409176 0.034417252024904754 0.04843517479337267
-0.04733413091429897 0.03451085370900325 0.04704301351899215
-0.047472618119911464 0.03423546445496656 0.04535335633334936
-0.04815123159939434 0.042837866938158886 0.02521356151102494
-0.048094736779599585 0.043991015792414656 0.02466246163002145
-0.04819372249686558 0.04404881077623568 0.023151294941381684
-0.04827684765496583 0.04422101712121668 0.02173487739721708
-0.04834016264293575 0.04453454485578523 0.020438687430657132
-0.04839383656324368 0.04491741548688538 0.01920033482860295
-0.048437018773762885 0.04537510526525029 0.01802568769174595
-0.04847988450255175 0.04583635022874849 0.016851415009018156
-0.04733113113579578 0.054568177933541184 0.02318335800971677
-0.047237771248476224 0.05595663084026209 0.02288898312320342
-0.04707898619753263 0.05779412276622142 0.023012754140296188
-0.04690836379422129 0.05970822443764867 0.023217703602559703
-0.04682535150421354 0.0610145000435412 0.022870492165062817
-0.04688282808791807 0.0613542632128144 0.021628105586280533
-0.046965428929040993 0.06152384220069351 0.020222458857033387
-0.04704745637554603 0.06169992732373314 0.018817413176037634
-0.04712171238510427 0.06193153962196507 0.017459427984618803
-0.047170725698944385 0.06233709015683053 0.016261954766080444
-0.0471914785027723 0.06293586067252599 0.015245986066925954
-0.047187376283049774 0.06370347691132383 0.01439094970813154
-0.04713696408494617 0.06478362009312066 0.013838226568174128
-0.047044985613679466 0.0661421599919702 0.013559372407066339
-0.045153676016251906 0.0795893382645525 0.025091335512980595
-0.04505509819634951 0.08095814482674585 0.02489640303948143
-0.045016036393461065 0.081925778378931 0.024312380525187527
-0.045078568002917284 0.08221425669388804 0.02305745762358763
-0.04516506089303302 0.08234517832008181 0.021641171091008826
-0.04524914298284838 0.08249482359586269 0.020237697607843663
-0.04533170317933704 0.08265718928640775 0.018841239563050283
-0.04541421979321849 0.08282243178609822 0.01744198810234404
-0.04549703736239342 0.0829882769597664 0.016037633279693986
-0.0455789977891964 0.08316235798229371 0.014635952513043338
-0.04566125404335392 0.0833370673317031 0.013229212530104506
-0.04574392454166434 0.08351164358131447 0.011816595349477266
-0.04582619152628086 0.08369144770757775 0.010403627303881335
-0.0459074607673402 0.08388033285174146 0.0089943747371648
-0.045986303373853545 0.08408754062235685 0.007598643855899645
-0.05775266890739735 -0.07626814131423154 0.0472945616038547
-0.057072268470886936 -0.06998364762140236 0.049482853944959604
-0.05677842291281378 -0.06678230995944984 0.04984724089873932
-0.053010044956414676 -0.03611752007195629 0.06690290922341557
-0.052609583245935114 -0.0321459856617925 0.0678658949672103
-0.05250030833407477 -0.030480152980202735 0.06743493501315467
-0.05238550383962669 -0.028774197650437483 0.06703481025501667
-0.05226777596691409 -0.02704882075494902 0.06665312123154427
-0.052151909975104806 -0.02534162644260879 0.06626661839735465
-0.05205323639590361 -0.02377233698132608 0.06579992324213602
-0.051971268672491196 -0.02233636802406358 0.06525449302691777
-0.05188618413270589 -0.020878645570951038 0.06472747088032793
-0.05180240136816865 -0.019433641045049355 0.06419708921481915
-0.051712184383119086 -0.01794131162985274 0.0637018268102102
-0.051621554990045886 -0.016448552265282135 0.06321191800542686
-0.0515202470953625 -0.014876095304466874 0.06277891784795386
-0.05140738001626619 -0.013217642867249968 0.06240784744522959
-0.051284397990149444 -0.011484835531333781 0.062092036996988065
-0.051144178735316195 -0.009623458266752205 0.0618681812398455
-0.05099990449529375 -0.007735303950128003 0.06167009100475451
-0.0508565828873621 -0.005858850144795202 0.061472394871565805
-0.05071728836889052 -0.004017515289963469 0.06125927147628091
-0.050573597172543776 -0.0021469589183110704 0.06107386056119918
-0.0504174162683876 -0.00018587008871184807 0.06095820798418855
-0.050270320889993864 0.0017015207661780773 0.060801154803562685
-0.05012367059131179 0.0035810398803770016 0.060647152081743816
-0.049984135605910356 0.005402315403329194 0.060461354788087784
-0.04985986697049011 0.007104219312752735 0.06020067399638668
-0.049739854682072863 0.008770293913720584 0.059922151608980845
-0.04962028456760525 0.010429374825514981 0.05964567459121445
-0.04941118358327744 0.01275570280605215 0.05984746992402612
-0.04942329397514557 0.013421350174570468 0.058881927737487905
-0.04931424932493618 0.014991545139406814 0.058561669078397105
-0.049228125416231415 0.016387696253140016 0.05812280846007484
-0.049142959830069284 0.01777408859776758 0.05768194692805595
-0.04906202332058731 0.019126506792210063 0.05722142079749737
-0.048978868977903434 0.020492863461356536 0.05677582938453357
-0.04886787004227001 0.02206234759297593 0.05648421515086277
-0.048751803054463035 0.02366579151664966 0.05622421601371791
-0.04867201971707292 0.02499878593099586 0.055770435776461735
-0.04860987448930196 0.02619986504406885 0.05522298567002237
-0.048572046365532716 0.027220913489149845 0.05454420688193745
-0.0485451907476727 0.028160595813141787 0.05380632606829111
-0.048459298267601286 0.029530107854730314 0.053395920843499034
-0.04836134297956445 0.030984799853565892 0.05305558069128452
-0.048287913651505525 0.03225833658534849 0.052582281383665774
-0.04825946738361585 0.03320355651326612 0.05186042614244446
-0.04825159983322377 0.03399905149779331 0.05102429921359025
-0.04826403699127059 0.03464774420432443 0.050074314942789244
-0.048320210636093014 0.034981792535326295 0.048877211550300004
-0.04842336555539476 0.03497988269473751 0.04741223672061612
-0.04856060726312993 0.03473665344145077 0.04575001256643846
-0.04902558516155822 0.03215205506535551 0.042216479611777435
-0.049309746405672684 0.0429475616320345 0.02530906686458717
-0.04933148640614887 0.04355261964543672 0.024278762940950716
-0.04943448078419532 0.04360044250003259 0.02275680255120005
-0.04951264382429424 0.043821532296637045 0.02138154587057639
-0.049575781051657136 0.04414772337352296 0.020094758048144534
-0.04962833959255827 0.04454799561766265 0.018870152519150363
-0.049670117183273986 0.04502323970560296 0.017709544768455043
-0.04862249944474848 0.05289629550909386 0.023227875377508866
-0.04859352904108264 0.053836690657405095 0.022519225260973108
-0.04868338557323704 0.0539730516460285 0.021078618910661262
-0.04881275663978912 0.05384569034208769 0.019390258962713347
-0.0489520870362608 0.053655279008001155 0.017635379916087657
-0.04791607974961292 0.06135923788472997 0.023190087909859602
-0.04786783288842604 0.06241571363489301 0.02261728217255571
-0.047954772573576054 0.06256733591787178 0.02119997667135154
-0.04805020551399968 0.06266499360540367 0.019726177577494175
-0.04814147189360634 0.06279328767465919 0.018275131665182076
-0.04823232497284266 0.06292711819257657 0.016823366362273273
-0.048291601739588 0.06327280356653353 0.015568256431889915
-0.048308764626861955 0.0638985043721268 0.01457845517331574
-0.04828956857165573 0.06476435842317235 0.013819611597314985
-0.0482107831147417 0.0660214439130909 0.013442102392302757
-0.04807550901600645 0.06764668387326789 0.013429325125156544
-0.04614030889414186 0.08104776767998723 0.02498437433344669
-0.04600969755186548 0.082606734494166 0.024984256317198972
-0.045933225749789634 0.08380903327603095 0.02463913043202809
-0.045965787386977715 0.08430040576330322 0.023590387139765967
-0.046043638667688645 0.08449914011863502 0.0222462070015898
-0.046129754167567615 0.08464680294263888 0.020845343209315637
-0.04621293348008129 0.08481604852969626 0.019460521733116076
-0.04629653010836412 0.08498515364673737 0.018069931862764954
-0.04638054695510363 0.08515411881231827 0.016673531693138344
-0.04646428103356198 0.08532746733113328 0.015275929679996303
-0.04654796377264521 0.08550370700543514 0.013875612364255996
-0.0466317114807289 0.08568209385449926 0.012471812044254182
-0.04671421507175436 0.08587095802442729 0.011073221374941211
-0.046796533757319944 0.08606352090521091 0.009672852808981836
-0.046877107220840535 0.08626965150086369 0.00828113850655332
-0.046957477970316394 0.08647952853204321 0.006887842736534755
-0.05921607059214022 -0.07695433058379464 0.04688505180586039
-0.05839571625770947 -0.06970907462557058 0.049647662907946255
-0.05424476610386803 -0.036716616624806575 0.0679978689415226
-0.05393130711700308 -0.033484915390931846 0.06850135908698801
-0.05372065247421283 -0.03105499911354853 0.06853212018754018
-0.053576034631254016 -0.029139403728820623 0.06825837683133829
-0.053472342299868726 -0.027542361315507358 0.0677956926305826
-0.053393773843372114 -0.026140946537642318 0.06721710276593412
-0.053318008189520746 -0.024763317077994673 0.06662791984414967
-0.05321500981175242 -0.023180079062234515 0.06617204598751208
-0.05309529682797229 -0.02147258377776773 0.06580030383796692
-0.05299240890601317 -0.019896594171240345 0.06535153373101571
-0.052899896902736304 -0.01840241711328855 0.0648561115454741
-0.05281572398767917 -0.016974161477267324 0.06432339662789616
-0.05273211453158313 -0.015552681271538638 0.0637909282244678
-0.05264862183063478 -0.014134581498462306 0.06326086638355971
-0.052554364815349495 -0.012637937775288932 0.0627867479528651
-0.05245663628212498 -0.011118028316460304 0.062333132238344635
-0.052337828562150426 -0.009442974246122282 0.061987475177658624
-0.05222144476017323 -0.00778961217878632 0.06163399418143145
-0.05207784570410277 -0.005936464392514218 0.06142051892305517
-0.051940777597463135 -0.004136290529067055 0.06117944114672946
-0.05179643090664256 -0.0022860699377262317 0.060979841251433964
-0.05164507476920024 -0.00038812709637264797 0.0608207503178711
-0.051496576709594385 0.0014841151158209165 0.0606525809668213
-0.05134864948147398 0.003347696899414332 0.060486802154992914
-0.05120394200395278 0.005183097194545683 0.06030987678500166
-0.0510743453251214 0.006902892823760165 0.06006078960318306
-0.050322733059870756 0.01319013735170721 0.06301008129789848
-0.050206541062832295 0.014794572149220142 0.06271224475458897
-0.050172082838384334 0.015797298044031738 0.06199597097158738
-0.05024991588962989 0.0159787772949625 0.06069835994833955
-0.05034390470722418 0.016044817423892688 0.05931387211574146
-0.050313703909222914 0.01701708088827031 0.0585747536875908
-0.050274792956985025 0.01805167296426985 0.057882364943111164
-0.05022036489971824 0.019197516473935805 0.057272970789750355
-0.05013954554037382 0.020532531875483095 0.05680478428353741
-0.05003578790399861 0.022030623184588427 0.0564609325854169
-0.049922905506875025 0.023591308202192296 0.05616925475925022
-0.049801420629332745 0.025210425254710844 0.05592745446191533
-0.049677766863872125 0.02684146080829658 0.05570158256845281
-0.049583236770799545 0.02826042311148297 0.05532383502426591
-0.04949467202545786 0.029633967065425593 0.054917338479313904
-0.04944491195114957 0.030728380603521288 0.0543043839479771
-0.04943307291608087 0.031551686599995354 0.05348768642507101
-0.04942644036107732 0.03233769822350685 0.0526431010626085
-0.049381489589305536 0.03339480974748921 0.05200778577577658
-0.04938590316899555 0.03410180896083087 0.05110389996821624
-0.04941850976479338 0.03461017261974608 0.05004505368764117
-0.04946717481204834 0.03500653524816272 0.0488965852371166
-0.04956204707380136 0.03507996237066835 0.04749102026863011
-0.04964416226581505 0.03524559419262918 0.04615280378080017
-0.04972720810692451 0.03540717537023541 0.044806485173201405
-0.049871222945536225 0.03514595036092666 0.043117006086957566
-0.05051215613227478 0.042756464042173814 0.025142688570893246
-0.05057742897753527 0.043072824833843504 0.023858830774325768
-0.0506781156661999 0.04315363691125368 0.022363685076636053
-0.05075355139397559 0.043406425367079615 0.021014397089320735
-0.05081340218515882 0.0437655223515262 0.019754936794634248
-0.050863339889117946 0.04419244548916451 0.0185523667935249
-0.05090482279981746 0.04467705748338435 0.01739850819176264
-0.04980855296696745 0.052708121016182496 0.023057918460637483
-0.0498782419747343 0.05299157352574535 0.021751925552474405
-0.050005692087457664 0.052895783301816934 0.020095422485576275
-0.05013673858419345 0.05278011468552746 0.018412645066491262
-0.05026161505565265 0.052708912678316955 0.01676259446699707
-0.05038643946411512 0.052641785491063464 0.015108411000730404
-0.04892968504658931 0.06292505975290646 0.023091947116598455
-0.048979179257162615 0.06333343717637135 0.02191764045877853
-0.04908667539046708 0.06336558054651348 0.020385892364767955
-0.049183439869050355 0.0634706628275557 0.018916313760986958
-0.0492789061821346 0.0635870530470336 0.017451294275300733
-0.049369294414248574 0.06373913862755665 0.0160142844100718
-0.04943190531390018 0.0640731541404646 0.014746368901316309
-0.04945480702766502 0.06466466338422416 0.013723263354304627
-0.04940278855901452 0.06573802465545864 0.013166773731236203
-0.04925281006024599 0.06743750479774768 0.013225061707360597
-0.047965658083323176 0.0764018850419173 0.02042411045185777
-0.047934940041337616 0.07731480824879389 0.019762896979684752
-0.04697114320831373 0.08416362497666585 0.024990808638564288
-0.046864870022449795 0.0855403613338151 0.024826530470734243
-0.04683064194866768 0.08645767976814017 0.02420884376141913
-0.04690957044360471 0.08665907889951274 0.022872274199181752
-0.04699993286428747 0.08679077189294332 0.02145992584739942
-0.047084979135231214 0.08695859367906206 0.020078378056434254
-0.04716986001532318 0.0871299955852195 0.018694861419662923
-0.04725492862107143 0.08730276040352664 0.01730711246102662
-0.047340066038849014 0.08747763893240951 0.015915888478766738
-0.04742455305740471 0.08765911355439687 0.014525839566811527
-0.047509222038156676 0.08784198354092793 0.013131599729379995
-0.047593349897254146 0.08803073884951185 0.011737863834829998
-0.04767729224877717 0.08822315637223244 0.010342340739767086
-0.0477580102726219 0.08843797206427606 0.00896492007693489
-0.04783632228274127 0.08867000597653268 0.007600406247681379
-0.047926259045721765 0.08883302407942278 0.006156639771651651
-0.06037055597547425 -0.07526427471209718 0.04789365779794397
-0.05972795084586735 -0.06951355649931107 0.049765020207242994
-0.05530427516950057 -0.03518911142745368 0.06892002231571681
-0.055054979943481346 -0.032499649620023496 0.06909958716782555
-0.05489149083515549 -0.030463831507145878 0.06889312445710666
-0.054904973370865605 -0.029763295882742624 0.06787520394696434
-0.054644652301557184 -0.02700785988064236 0.06812584425591
-0.05450181443095287 -0.02513985779562311 0.06783899018980416
-0.05440402656298188 -0.023612749011476586 0.06734674249086586
-0.054324697613746746 -0.022226196291378897 0.0667713819174236
-0.05424973281233506 -0.02087445307835789 0.0661782526388443
-0.054148728237134916 -0.019331410766398827 0.06571069007990188
-0.054017876944902246 -0.017569978585003032 0.06538809647669064
-0.053916372117368015 -0.0160295720109489 0.06493046710401584
-0.0538276040604288 -0.01458621395737636 0.06441556553272337
-0.053744235873055726 -0.013185257865807043 0.06387788135504813
-0.05365827972947871 -0.011767696740350775 0.06335554535348775
-0.05357050807569928 -0.01033931598028287 0.06284496461799755
-0.05348287430501753 -0.008914510148764654 0.06233677224250883
-0.05337714295314677 -0.0073599051749333455 0.06191960636819621
-0.053268876558026375 -0.005789886008881084 0.061518489447372815
-0.053148702666363234 -0.004136290635283035 0.061179441146315516
-0.0530170776094822 -0.002402958371611863 0.06090084126759354
-0.05287373902023403 -0.000588487548897898 0.060684581586836484
-0.05271931558544047 0.001302056388745032 0.060528163036534854
-0.05254711272567325 0.0033165627251239838 0.06046540726221672
-0.05240958678860031 0.005075968517508245 0.060235851775450655
-0.052288845182061075 0.006710562792109964 0.059927156074664645
-0.05146945434566259 0.013359455810528276 0.06312837594040033
-0.05133585927451207 0.015068916222267026 0.06290497272984324
-0.05119504723485265 0.01682609602235169 0.06272268623282568
-0.05109517205685374 0.018286939715079942 0.06233775000176517
-0.051080102287188435 0.01914073296643426 0.061524845439689446
-0.05137962752661058 0.017757586346367094 0.05910649196130602
-0.05139707324161408 0.018384412772597336 0.058122605590116616
-0.05138347293110535 0.01923155233042051 0.05729767940461877
-0.051323113849585655 0.020408659835250975 0.05671436750427472
-0.051212777507816075 0.021936378627918918 0.056391766292442747
-0.05109666642930993 0.023501505243775034 0.05610298912069667
-0.05098391998903641 0.025039614605062488 0.05580072737521968
-0.05084556734892125 0.026753849269697483 0.055636229026525374
-0.05071251159858723 0.028427004319485527 0.055448770340760845
-0.05058001732805916 0.03009235397593124 0.055262990413650626
-0.050485972131529874 0.03148610961595011 0.054878851559679864
-0.05041037934006267 0.032748902014364145 0.05440025599880227
-0.05039082308906213 0.03362093776338393 0.05362652486631847
-0.05035848284907607 0.034580857406163346 0.05292162899392483
-0.05036679503053678 0.03525914281528897 0.05200042430201007
-0.05036956641266534 0.03597584722752023 0.05110866235295902
-0.05040932219265937 0.03643835017378361 0.050017700100807416
-0.050454437012417246 0.036865247449278105 0.048896410100736476
-0.050525646837472175 0.03711481177204967 0.04763215930083281
-0.05062170629719288 0.03719669463219444 0.04623035419242044
-0.05081546238188226 0.036615389921147434 0.04429245535390963
-0.05172649354985241 0.04249553008078977 0.02491550750852861
-0.0518238247795764 0.042611861788494076 0.0234553807913781
-0.051919700027584906 0.04274057979314361 0.022000260866996968
-0.05199342154471818 0.04301697103191432 0.020669937211874156
-0.05205466388444353 0.04337694019665239 0.01940944196896166
-0.05210037271697307 0.0438398245961773 0.018237199178531005
-0.05214573755081788 0.0443062789652936 0.017065372415882796
-0.05103047848692156 0.052296014954454406 0.02268570916154572
-0.05112343815191276 0.05244040002019057 0.02125150350802868
-0.05124486152459357 0.05240386066037844 0.019646456793352418
-0.05136796109920648 0.05236007906984119 0.01802728285250682
-0.05150061988278509 0.05225849990922882 0.016347201767963226
-0.05163341090023554 0.05215994938110541 0.014661715933933228
-0.050054157293264054 0.06301090435196594 0.023171946668186616
-0.05003722058888482 0.06385017038222185 0.02240170275278519
-0.05014712256524602 0.06388172895309868 0.020871928762809744
-0.050251990690606284 0.06394846093480044 0.019368582506250565
-0.050353473228601585 0.06403970417388927 0.017881991782908058
-0.05045457194339672 0.06413633835552446 0.01639418764474787
-0.05055461499366566 0.06424258305657798 0.014909263142133033
-0.05062117562513778 0.06456239016556303 0.0136244234794895
-0.05061877647178132 0.06531696367249412 0.01275773247203521
-0.0504671552932244 0.06700586956628407 0.012803569695805705
-0.04908226615778247 0.0763948392741135 0.020417194625763746
-0.049123529527720165 0.07685469452585264 0.01930891888058378
-0.04924256476376985 0.07683216990034802 0.017719594342469336
-0.047940160896793316 0.08563086654997643 0.02491675751688649
-0.04780414040083029 0.08717301673944539 0.024925677221296016
-0.047728182329672436 0.08834035687128555 0.024565796621655034
-0.04777099782495951 0.08877388417088683 0.023467823722125747
-0.04786329381453259 0.08890460696305486 0.022058910988365155
-0.04794853124376548 0.0890812978525467 0.020691051330051946
-0.04803443286700124 0.08925641714053278 0.019316046719577817
-0.048120642834697996 0.08943216502052764 0.01793610652054145
-0.0482075254716538 0.08960633753564573 0.016548910783880988
-0.04829253864606736 0.08979439976757592 0.015170544058304314
-0.04837785218880569 0.08998312646062767 0.013787307290866246
-0.04846371204611268 0.09017104460085851 0.01239761668183098
-0.04854877373346073 0.09036628279922865 0.011010039309306385
-0.04863179694624996 0.0905762646177638 0.00963256802078638
-0.04871522804876754 0.0907862253007859 0.008249583909490543
-0.048789409590200145 0.09105397541363258 0.006923312483761435
-0.061658385402307996 -0.07463908344119136 0.048266764834516696
-0.06105903524311637 -0.06931820717455622 0.04988227618555702
-0.05650624587043054 -0.03478285210674342 0.06916528071367356
-0.05622314591410364 -0.03188651878725418 0.06947186449313536
-0.056176719741008546 -0.03074147006357547 0.06872358092111808
-0.05613085092275391 -0.02960184484165751 0.06797436165121407
-0.05601714420529381 -0.02796581483057159 0.06753413343378079
-0.05593904872085868 -0.02659379815138463 0.06693578648894977
-0.05556751517003684 -0.02307949013819316 0.0676798984399295
-0.05544043948737 -0.021358866608447602 0.06731633551500893
-0.05532468350674239 -0.01972427739384175 0.06690502938405857
-0.05524633211340219 -0.01836475479900107 0.06632496961690176
-0.055166035211277546 -0.016993363449205323 0.06575659285247698
-0.055033854091604606 -0.015248788194374696 0.06543226267891761
-0.05493620769848447 -0.013757418182849424 0.06495122438361856
-0.054839060157770445 -0.012272433636196012 0.06447117346204184
-0.05474057903716708 -0.010780630679630587 0.06400070063644508
-0.054654450874262545 -0.009380331759476668 0.06347528616307152
-0.05456556440739517 -0.00796272897472683 0.06296586765735468
-0.054477570378401424 -0.006554047478530389 0.06245523355180488
-0.05439181578730219 -0.005163862367692507 0.06193691287989106
-0.05428923598078982 -0.0036562883867398144 0.06150205704204326
-0.05418405566877618 -0.002133159814585339 0.06108318701776644
-0.05405578988449713 -0.0004492677426609637 0.060779198105943566
-0.05390964635671819 0.00135752931968941 0.06056607302506134
-0.05373079081126863 0.003391275810032235 0.0605167491098878
-0.05355355572881337 0.005408486563862225 0.06046561922762822
-0.05346036042781647 0.006829257578023384 0.060009626947075734
-0.05335677145737283 0.00832035651409968 0.059607802451253133
-0.0525653286976854 0.01462917802621927 0.06259605480786651
-0.05237293667929314 0.016725622226584524 0.0626517143208496
-0.05223143753687787 0.018461351760911848 0.0624616275609603
-0.05217211661925446 0.019620631237403707 0.06186756876329408
-0.05231051051911692 0.01940386911744507 0.060288645964738874
-0.05257559030047956 0.018312256737197108 0.058070508479002025
-0.05255479089591916 0.019207241478515213 0.05728003086527844
-0.052506790212192275 0.02028954675192335 0.0566274243895728
-0.052418736740299905 0.021646605486547288 0.05617910097477674
-0.052343795684683524 0.022910938701534433 0.05566720941798148
-0.05216436544240099 0.024890496536568107 0.05569009436263017
-0.052025090854617324 0.026589815185430188 0.055513868269847444
-0.05189436426974561 0.028226713277495485 0.05529855293458613
-0.05175094031844402 0.029946505775886034 0.05515301199696415
-0.05162958404438274 0.031511957165358095 0.05489844779445996
-0.051538905937587295 0.03286551315970815 0.05448914214607403
-0.051465649427679186 0.03409836459749399 0.053992405873069804
-0.05142661060187697 0.035097624725735854 0.05331979542359877
-0.05141665850354139 0.0358993998673246 0.05249639706265813
-0.051442488379806944 0.03645983128586966 0.05148559672944236
-0.05147696858899302 0.036962847798345744 0.050428383173849956
-0.0515425543800733 0.03725818294881217 0.04920573194064476
-0.05163378786941132 0.03738370499566712 0.04784496962636842
-0.05176061419965365 0.03727408185949077 0.046291929060446435
-0.05195731189668548 0.03670235615859396 0.04436202236055514
-0.053001495874808985 0.041098614944638234 0.025260695059985405
-0.0529596652452998 0.042124958311984595 0.02459287071018884
-0.05305241003443982 0.04228577678144324 0.023169980519867184
-0.053157406436545006 0.04237073208502895 0.02167485403798486
-0.05322633837238709 0.04268928584945941 0.020380110184966937
-0.05329024894208666 0.04304184414839002 0.019111502538813108
-0.05334258790708441 0.0434698873876761 0.017906554478938463
-0.05339401473670267 0.043905219038187504 0.01670502949899555
-0.05220467405414491 0.05220468646668075 0.02260322242771179
-0.05230773012773914 0.052298799294968945 0.021122941293262143
-0.052426567017236844 0.05229630504791144 0.019548293504679515
-0.052548894384079475 0.05227523641284182 0.017949443922868513
-0.05268167332465642 0.05219202866480965 0.01628589881371134
-0.05281980731136592 0.05207906206033064 0.014586727928148302
-0.05121415399247934 0.06287086200835629 0.023041439870173597
-0.05113942271390967 0.06406850905525951 0.022606236824659454
-0.05124418799451409 0.0641470743064011 0.021121793959643698
-0.05135407772104444 0.06419681802018495 0.019603669601187035
-0.051462015047952704 0.06426179445290053 0.018093310712315014
-0.051566755082665165 0.06434961314107279 0.016598175192532205
-0.05168007169160744 0.0643875449737395 0.01504863406141288
-0.05178570213405233 0.06447599355638112 0.013540927246564138
-0.05184592448351684 0.06484612744350587 0.0123003368535477
-0.05172303427299236 0.06633912049177548 0.012152488850279919
-0.0502349668922241 0.07616763857151948 0.020194181085675444
-0.05031544471689472 0.07639476312025734 0.01885512066795153
-0.050428625422425835 0.07642535907519327 0.0173161262746635
-0.049127965266808515 0.08503489438269657 0.02432261780536482
-0.04915437259999716 0.08557684927892745 0.02332617087894223
-0.048745383608771176 0.0887480331299258 0.0249764419866213
-0.04864335518276199 0.09005880579391773 0.024768804755928797
-0.04862699333939193 0.0908519444369133 0.02404079159815442
-0.04871144746679581 0.09104031287882752 0.02269513142156554
-0.04880237265290752 0.0911923981834038 0.02130680516064193
-0.048890476774839924 0.091363910267038 0.01993277805260557
-0.04897780147755038 0.09154257786998365 0.01856057052409804
-0.04906580602626648 0.09171970396263357 0.017181174791923215
-0.04915191549400077 0.09191056818922183 0.015810564770576796
-0.04923697135366166 0.09211011757177495 0.01444359137726653
-0.04932355944503549 0.09230306568940422 0.013064143900621439
-0.049408714241225775 0.09250691503758024 0.011690732579579532
-0.049494661964044354 0.09270854615880114 0.010309438330715182
-0.04957778360793678 0.0929291688309048 0.008943028492332639
-0.049662815655709555 0.09314101513967854 0.007561716321225209
-0.06303865428049615 -0.07471229357939146 0.0482230739369604
-0.062398462260903315 -0.06919181197112678 0.0499581433438015
-0.05766548421128281 -0.034085163303192445 0.06958647478874996
-0.057472713569233884 -0.031887705385776455 0.06947114408737681
-0.05740458883182567 -0.030593743749752378 0.06881379198640242
-0.057257728081971784 -0.02873547109977087 0.06850645846170378
-0.057122005450349754 -0.02696124481518447 0.06815463764573865
-0.05706523903547002 -0.025756403478473244 0.06745598535332425
-0.05694881639048498 -0.024126643133033254 0.06702568496029598
-0.05690350803952408 -0.023007566377361177 0.06628043795800881
-0.05647625007711033 -0.019169724727145676 0.06725544195825378
-0.05634894189758144 -0.017475706702918425 0.06688993179191782
-0.05630063949251714 -0.01634567346573218 0.06617051089196263
-0.05615952297697314 -0.014559910916499608 0.06587499159885657
-0.05604629409576981 -0.012975133535903127 0.06545682263944713
-0.055942550954560806 -0.011460409974271502 0.06499895002669048
-0.0558416735361252 -0.009968753561550414 0.06453135085792433
-0.055749508759003516 -0.008541110721938527 0.06402688972195675
-0.0556473226454805 -0.007045797577369284 0.063571928541589
-0.055560866053252105 -0.005663378909959327 0.06304723173314225
-0.05547008440293814 -0.004253180202828888 0.0625455971403126
-0.05538173538051417 -0.0028624684944636436 0.06203559390355806
-0.05529549290009449 -0.0014888742850835412 0.06151863301418148
-0.0551616349749323 0.00021275049049446215 0.06122911845242912
-0.054567355791307656 0.0050994237622293825 0.06312326459656248
-0.05456646694939275 0.005868072480632258 0.06221876884519262
-0.05455639470526188 0.00670004219013165 0.06135807417778161
-0.05450165463142708 0.007839218721313268 0.06071136217146067
-0.054499733396777605 0.008614004536528275 0.059812960112913816
-0.05445012207945654 0.009715697011843216 0.0591443131161522
-0.05436910767648459 0.01103086184353691 0.05862908900460473
-0.05426239055268624 0.012519260533053689 0.058241211975102014
-0.0534127111308905 0.01906723614881678 0.061472357234934605
-0.05402086150704417 0.01567815644108328 0.05761330619996835
-0.05388197110897753 0.01737554531827995 0.05739419606337315
-0.05378463946692875 0.018787612600449755 0.05697539875742397
-0.05369067073452065 0.02017423276002983 0.056543254313076274
-0.053603748439807815 0.021510704504322964 0.05607936290415094
-0.05354961831327942 0.02262404989665323 0.05545551389122272
-0.05338263497131314 0.024493827668752854 0.055395799439971694
-0.05319809606023401 0.026476600163618358 0.05542941587107436
-0.05306550050564694 0.02810680480786426 0.05520862213678668
-0.05295002043912506 0.029619070155318783 0.054906105522619375
-0.05283698652252001 0.03111181602855778 0.05459508335785568
-0.05271765755486 0.03264324192534185 0.054319717450527716
-0.05264391910427064 0.033868960098218215 0.05381659946893941
-0.05260451102042806 0.03486540579000774 0.05314087209905671
-0.052596664066162695 0.0356523073529037 0.052304987866318875
-0.05261112099098273 0.036291997220546435 0.05135488503160046
-0.052650539118408286 0.036767934592822404 0.050275765708884035
-0.052718072807540865 0.037060465407037 0.049050087293412425
-0.05282032345422423 0.037127538924201675 0.04764223211364521
-0.05296732504965276 0.036905042935547194 0.04599829549712714
-0.053237553678486274 0.03588314445360008 0.0437067102003767
-0.05417740816901407 0.04111059713105769 0.025271072676690376
-0.054141796797631994 0.04209189783098394 0.024564086818916864
-0.054207948821223886 0.04243282182081287 0.023298679282175494
-0.05431650689517399 0.04250974907706134 0.02179716688127764
-0.05440060394864768 0.04274271570409943 0.020427367282919717
-0.05449766761238923 0.042897106714940014 0.01898281414896702
-0.05456854456984241 0.043217278301003914 0.0176807760421136
-0.054621934746607155 0.04364807873071602 0.01647399501085245
-0.05336038559959325 0.052231914526164214 0.022627814585193973
-0.05345732403574124 0.052377969770274924 0.02119482194215161
-0.05357674391397329 0.052387996010813676 0.019631977700876657
-0.05369755933781994 0.05239276698116485 0.01805727261318102
-0.05381459767176242 0.05242411815099274 0.01649994323923848
-0.053928818835010967 0.052476007538623526 0.014954723739797393
-0.05403858534602516 0.05255833079581762 0.01343108677531496
-0.052267561198553115 0.06411910759753142 0.022653636313456738
-0.05236506825372048 0.06425591276139614 0.021224282871911526
-0.05248116013574112 0.0642825696115667 0.019684839453120884
-0.05260341225585578 0.0642751433129422 0.018106012243785552
-0.05271351238794711 0.06434459808595588 0.016593378620466837
-0.05283671177515894 0.06433812177690174 0.015001117184263557
-0.05163057154597908 0.07233441721691253 0.021135548732819476
-0.05162911265354956 0.07306464319804173 0.020284246572056186
-0.05148204949980955 0.07466693581357609 0.020284606505223457
-0.05139897111211477 0.07588277105655056 0.019914563471258806
-0.05150817401092514 0.07594997534945547 0.01841626415294567
-0.05163150034996028 0.07593623025503882 0.016831016598014725
-0.05174182782034725 0.07600306290959624 0.015318555468599837
-0.051838049909677546 0.07615647861505687 0.013886094110089842
-0.051857578190978686 0.07676551650116914 0.012906659592151926
-0.04969112440977394 0.09025437698147398 0.024966820343242102
-0.04957028025387617 0.09165903910950812 0.024862203095620483
-0.04950093265007255 0.092758357944915 0.024452698305012177
-0.04955182569173649 0.09315235054509324 0.023322213171796002
-0.049646934814948744 0.09328972646619155 0.021923321260029938
-0.04973637795809645 0.09346274713996511 0.020555533207907428
-0.049825032239770584 0.09364284914869148 0.019189550831361424
-0.049913135406500574 0.09382862193287628 0.017823967575008814
-0.050001177508961506 0.09401720991175788 0.016455822339509207
-0.050089156248638064 0.09420862377868144 0.015085132231657472
-0.050175065017027926 0.09441440293208314 0.01372420479198655
-0.05026315446447355 0.09461007016293244 0.012347007974820745
-0.05035319371827268 0.09479703841981196 0.01095485621855291
-0.050431151631138364 0.09505550869803758 0.009634391057618152
-0.050514556313282034 0.09528513220146267 0.00827756740081903
-0.06446527162204366 -0.07511177223888044 0.047984669735913754
-0.05929935191637191 -0.03758821963873432 0.06892779119188719
-0.058834676748467506 -0.03348763245272407 0.06994720361097845
-0.058796268365175236 -0.032411609039851685 0.06915304334105377
-0.05877842894716326 -0.0314816880871866 0.06827155727222162
-0.058478304200735125 -0.02856544587059434 0.06861088213507283
-0.058310257909624484 -0.026585214502857835 0.06838690461675323
-0.05816820904830537 -0.024791846302830878 0.0680551789651197
-0.058032426140083304 -0.023046208104402888 0.06770069167523463
-0.057962808788771386 -0.021766357455541174 0.06706030431679894
-0.057848671230131016 -0.02017810876249515 0.06661826110847163
-0.05750056587913962 -0.01696544515052323 0.06721418703003357
-0.057439607818128464 -0.01575584244938516 0.06654745311427485
-0.05729409012887103 -0.01396200270274317 0.06625925636167956
-0.05717667740828332 -0.012366495139384204 0.06585019163205125
-0.05706402612517744 -0.010807060373623667 0.06542359604957365
-0.05694976457111849 -0.009239615602542772 0.06500792202411454
-0.05684886200030339 -0.007767128320042838 0.06453561320792273
-0.0567395355208662 -0.006239608696785748 0.0641047923465699
-0.05664671932751487 -0.004828122613110497 0.06360239919919397
-0.056549066892939044 -0.003386128512704256 0.06312511954659228
-0.056457337954829025 -0.001987200636115849 0.06262387301404004
-0.055488449208490796 0.005378995487054339 0.06616034203226873
-0.055415973688607637 0.006630137285832005 0.06559049754178031
-0.05539504503386679 0.007529888793125217 0.06478423202277034
-0.05540401262118893 0.008226826509179108 0.06383967134444724
-0.055447546371118414 0.00869064995646418 0.06273356871141317
-0.055441857747487444 0.00948729605755505 0.06185646946640172
-0.05544095970937613 0.01025157588028014 0.060957051625844305
-0.05545668087281637 0.010904315147360621 0.05997932259379479
-0.055483202407024104 0.011485160904746328 0.05894999370113968
-0.05543407539056225 0.012572269903041666 0.05827886235805729
-0.055330714148370395 0.014019725364812774 0.05786763645373405
-0.05522536121196749 0.015477609065604359 0.05746929828664732
-0.055118485344216386 0.01694272591175988 0.05708169736310781
-0.05499228117093962 0.01853302763430914 0.05679058129936354
-0.05487207824850757 0.020080183049651867 0.05647460549085814
-0.05477532927136141 0.021469239111308158 0.0560489314005187
-0.05474218252670372 0.022436702069753123 0.05531726977458129
-0.05456182207386349 0.024370939063890207 0.05530462648749129
-0.054369831238776305 0.02637653370743903 0.05535477161336544
-0.05422668668644399 0.028057131416847347 0.055171367367525315
-0.0540909897004041 0.029685164172779666 0.05495594454334307
-0.053974122967755826 0.031186738355369725 0.054651885329774386
-0.05389210712037792 0.032458413561436694 0.05417883333434925
-0.0538367213609362 0.033554982919545284 0.053575979928395745
-0.05381189133624594 0.034452110380063294 0.05282243035596973
-0.0537939884568482 0.035303782332257616 0.05203500436609759
-0.053813583705476224 0.03591309347294808 0.05105978898849617
-0.05386411773011794 0.03632380185981576 0.04992800871045605
-0.0539242325786196 0.036674356140962205 0.04874613927344629
-0.05402851315519681 0.03674348820602896 0.04733828281610003
-0.054180474115495314 0.03651053210626487 0.045684394672506456
-0.054432235908737386 0.035644819924679716 0.0435160672764377
-0.055382199731163005 0.04094369110260465 0.02512651885529238
-0.055315811994623966 0.04211026539659307 0.024580078558974705
-0.05538503795400704 0.04244108923698947 0.023305915287869183
-0.055523710650630186 0.04234770485041711 0.021654593930629296
-0.05565176550383488 0.042323115823955704 0.02005624463055644
-0.055742255268428936 0.04253148863983369 0.018657737072675262
-0.05581027804091577 0.04287926467443143 0.017378664201608718
-0.05584852844947446 0.04340994578145485 0.016260038191802606
-0.05448350690957529 0.052455718048901034 0.02282995140919941
-0.05456370940503887 0.0527153386842768 0.02150112643923302
-0.054682709379561815 0.052742819088746395 0.019955816154065387
-0.05479433301868321 0.05281800611500409 0.01844740898950742
-0.054908175077652076 0.05288290792982492 0.01692306181655623
-0.05502647209312933 0.05292419879519067 0.015370227906697731
-0.055133731344916996 0.05303478887425017 0.013875103021569357
-0.05340492350496933 0.06411247252575836 0.022647420844195076
-0.053514175367124016 0.06419194785817062 0.02116404977546521
-0.05359770206875611 0.06442732685737618 0.01982186220035198
-0.052845017664894474 0.06962415497623697 0.023195595337327124
-0.0526932784116534 0.07124469826104718 0.023193004865648015
-0.05253810634297474 0.07288135554193242 0.02321484362344245
-0.05239988599259601 0.07441393150124948 0.023145255142790366
-0.05234485468802287 0.07545392357215519 0.022605322531807526
-0.052432532109714526 0.07565583248386759 0.021250264899017768
-0.05250828273945685 0.07592989296387548 0.019960817067911474
-0.05259691311406809 0.07613087491057369 0.018594751549748767
-0.05269638896541454 0.0762711484590296 0.01716318296204572
-0.052788505634425 0.07645688087572428 0.01577097823534629
-0.05285902933536396 0.07677023727160598 0.014501136769131118
-0.05284569837298105 0.07757020913305035 0.013717212710943505
-0.05273847910498789 0.0789112139908077 0.013481887389194536
-0.050659140152869535 0.09159434798470428 0.024796364536797455
-0.05049135596619745 0.09325010098392361 0.024955753443114403
-0.05039940531758927 0.09446708940660409 0.024674151793681542
-0.05038419522773659 0.0952432440033506 0.02394249684939892
