# .PCD v0.7 - Point Cloud Data file format
VERSION 0.7
FIELDS x y z
SIZE 4 4 4
TYPE F F F
COUNT 1 1 1
WIDTH 785
HEIGHT 1
VIEWPOINT 0 0 0 1 0 0 0
POINTS 785
DATA ascii
-0.11632045423707521 0.13219535052754056 0.058082589425250186
-0.11663749981723065 0.13252441285359282 0.056323678073207595
-0.1169561277237865 0.13285511747981904 0.05455598826128849
-0.1188945306854482 0.13361826234292404 0.05191063966879028
-0.11759817813666684 0.1335215030582939 0.05099400906751722
-0.11792329296519055 0.133857654797064 0.04919867948530959
-0.11824837541992905 0.13419505537288262 0.047395202053865215
-0.11884553829877653 0.13460669558365346 0.04543390566497135
-0.11890348164141595 0.13487498507425374 0.043760834007991856
-0.08969391765313456 0.12726487112837456 0.05836616903590591
-0.08691513420603891 0.1267551916421515 0.0583641251177372
-0.084159986675019 0.12624997480757588 0.05836127135610775
-0.08142671471298435 0.125748769339224 0.058358440252961497
-0.07897706700246943 0.12532260037430998 0.05820637315923266
-0.07889066412741064 0.12553708746025063 0.05671063990527414
-0.07880252017656342 0.12575191657154364 0.05521061079176676
-0.07871552104535401 0.12596787697264253 0.05370460004119221
-0.07862677335367318 0.12618418428691053 0.05219425277235118
-0.07853917179211473 0.12640163323580997 0.050677858254554786
-0.07844981411627577 0.12661943406261286 0.049157085977932224
-0.07836014796705726 0.1268379867638674 0.047631063813866115
-0.07827162987491487 0.12705769686370746 0.04609889433476566
-0.0781813442072371 0.12727776643356842 0.04456228413877261
-0.07809220786523641 0.12749900408545514 0.04301945876716218
-0.0780012962167611 0.1277206063706787 0.041472149937523684
-0.07791153514493121 0.12794338756081536 0.03991855714517739
-0.07781999096306047 0.12816653862966473 0.038360437534261216
-0.07772812689165964 0.12839046947156443 0.03679687327235803
-0.07763741523090623 0.12861559571422687 0.035226920118361926
-0.0775449086175426 0.12884109985844616 0.03365237393639142
-0.07745355561921824 0.12906781058520223 0.03207136768931551
-0.0773603996785786 0.12929490467083485 0.030485723455644542
-0.07726839853777723 0.12952321666862737 0.028893547000453657
-0.07717458638860064 0.12975191757022803 0.02729668694014664
-0.07708193020386789 0.12998184786397182 0.025693221501483676
-0.076987454867252 0.13021217269573876 0.02408502616712649
-0.07689264412004443 0.13044331523702388 0.02247112134574092
-0.07679899103652105 0.13067570467259404 0.020850499521697208
-0.07670350643935386 0.13090849726599169 0.019225077097472953
-0.07660918061723093 0.13114254862082403 0.01759286193625087
-0.07651301493930956 0.13137700899839486 0.015955798149518086
-0.07641650479004453 0.13161230922733003 0.014312870300483505
-0.07632115503204884 0.13184888631292013 0.012663034140087903
-0.0762239527530294 0.13208588139532423 0.01100827598759585
-0.07612640040741003 0.13232372999739317 0.009347558350136065
-0.07603001001645121 0.1325628739195219 0.007679814373196647
-0.07593175425172555 0.1328024450333445 0.006007073380316363
-0.07583314270318703 0.13304288363334527 0.004328275398029102
-0.07573417343488897 0.1332841944398158 0.002643387468160119
-0.1342241841535443 0.1369042112222523 0.05840158518600502
-0.13107982213726588 0.13632134845061933 0.0583983774208342
-0.12795870643098806 0.1357425206952363 0.05839695406248452
-0.1248656730457598 0.13516903727667423 0.05839466784888869
-0.12179866453385313 0.13460037916437234 0.058392400871485006
-0.11875735381024877 0.13403648571306337 0.05839015288851135
-0.11816986071737634 0.13412718789722297 0.0571073683636526
-0.1184927041258309 0.13446229861887632 0.05533948974145825
-0.11881716479426263 0.1347990880527175 0.05356275506302427
-0.11914158479378756 0.13513711940133744 0.05177799431216251
-0.11947098676506096 0.13547775376729823 0.049982450014772806
-0.1198003728026441 0.13581965572314245 0.04817874419577939
-0.1218316874952291 0.1366234121137439 0.04543653430241468
-0.1204658492668449 0.13650912160908735 0.04454295209063597
-0.12079858217728401 0.1368557947777127 0.04271258639786274
-0.08969391765421197 0.12864818494528055 0.05836616903530645
-0.0869151342070974 0.1281329654646374 0.05836412511714478
-0.08415998667605878 0.12762225714272488 0.058361271355522326
-0.08142671471400542 0.12711560378884287 0.05835844025238318
-0.07871362003221771 0.12661256277092253 0.05835645117227767
-0.07773370461299012 0.12658376879418112 0.057373595479881134
-0.07764380690015954 0.1267998455724158 0.05587846157937487
-0.07755504150456094 0.12701705834370308 0.054377379919114455
-0.07746452952831895 0.1272346181635773 0.05287198745238619
-0.07737515108632442 0.12745332433587 0.05136058213151923
-0.0772840185103677 0.12767238251821839 0.04984482513183436
-0.07719402066834741 0.12789259754598112 0.048322989304586395
-0.07710226106887003 0.12811316962340338 0.046796760340627186
-0.07701018441314789 0.12833450384180178 0.04526525780962981
-0.07691924424931118 0.12855701089560545 0.04372757583227321
-0.07682653076024615 0.1287798827057898 0.04218543742712272
-0.07673495491704074 0.12900393818817674 0.04063705133925394
-0.07664159794526987 0.12922836366827795 0.03908416585553165
-0.0765493797541203 0.1294539837989659 0.03752496352033319
-0.07645537255731827 0.12967997925206443 0.03596121819783904
-0.07636250525610777 0.1299071804780968 0.03439108590675938
-0.07626784099736422 0.13013476243617278 0.03281636640220337
-0.07617284447542794 0.13036314318677816 0.031236119771538118
-0.07607898947493558 0.13059274666387732 0.029649379206450555
-0.07598332544770575 0.13082273914768902 0.028057983890931504
-0.0758888040047544 0.1310539658509071 0.026460022081370826
-0.0757924653914 0.1312855871898598 0.024857359657362854
-0.07569727040326174 0.13151845439381155 0.023248057172837677
-0.07560025002238441 0.13175172195322707 0.02163400753342476
-0.07550288486979856 0.1319858184523748 0.020014222206259535
-0.07540666485293263 0.13222117857143892 0.018387684567647167
-0.07530860696101543 0.13245694779673592 0.016756328686576116
-0.07521169518809862 0.13269399268068832 0.01511814433344133
-0.07511293711600309 0.13293145262498796 0.013475093451316866
-0.07501382494905912 0.1331697639765154 0.011826151447602795
-0.07491586032184672 0.133409369343869 0.010170264745253288
-0.0748160366048331 0.13364939888227842 0.008509437746793802
-0.07471585303558415 0.13389029369761915 0.006842623671469428
-0.07461681836975698 0.1341325012598484 0.00516874620121649
-0.0745159116329781 0.13437514232818987 0.003489852999543297
-0.0744146391609582 0.13461866284606472 0.0018048746703138163
-0.13422592692369262 0.13837676574939875 0.05840069908025497
-0.13107809735047726 0.1377867071325982 0.058399259757461075
-0.12795870643233376 0.13720211769232057 0.058396954061791906
-0.12486567304708462 0.13662246778538198 0.058394667848202575
-0.12179866453515753 0.13604769506971712 0.058392400870805494
-0.11970427739503053 0.13573340243269624 0.057893830625544596
-0.1200313506159677 0.1360729374439302 0.056125775525953714
-0.12036006427764412 0.13641417539822312 0.054348852718857366
-0.12190773401903154 0.13708762490947723 0.051913322064471135
-0.12102414518413773 0.13710226932642028 0.050767232353861935
-0.12135786027212037 0.13744869600882054 0.048963294107163435
-0.12169326607849607 0.1377968778110539 0.047150216472645834
-0.1220320743465304 0.13814729279409368 0.045327001206996065
-0.1223692015027773 0.1384985603990329 0.043496363805274496
-0.12270975727850941 0.1388520883389859 0.041655447373056265
-0.12456954198721149 0.13962484527831612 0.03896075264995136
-0.08691513420816493 0.129510739287132 0.05836412511654726
-0.08415998667710733 0.12899453947788242 0.058361271354931965
-0.08142671471503515 0.1284824382384701 0.05835844025180004
-0.07871362003322885 0.12797398817734174 0.058356451171701684
-0.0765825263229008 0.12762521995410414 0.05803323832413698
-0.07649232385774596 0.12784292720113244 0.05654214505694749
-0.07640038057663529 0.1280609791479119 0.05504678649701983
-0.07630955782724785 0.1282801768740064 0.05354548156713135
-0.07621698674446975 0.12849972421921424 0.052039871121568715
-0.0761240982536599 0.1287200243490486 0.05052909823416851
-0.07603233195423664 0.1289414859629355 0.04901228114645012
-0.07593880591543406 0.12916330471786158 0.04749109714585931
-0.0758464031561476 0.12938629559893305 0.0459638026080742
-0.07575223296380013 0.12960964873606878 0.04443209948094218
-0.0756577370865687 0.1298337743335188 0.04289509900317029
-0.07556436607663136 0.1300590882745623 0.041351886813748406
-0.07546921595858419 0.13028477229384475 0.0398042024089581
-0.07537519174638108 0.1305116556478419 0.0382502376783761
-0.0752793805498152 0.13073891440001015 0.036691757536126024
-0.07518469627683733 0.13096738362175783 0.03512692751561447
-0.075088217068363 0.13119623364628574 0.03355753825974833
-0.0749928657798079 0.13142630542141595 0.03198172861875387
-0.07489571152867719 0.13165676349021296 0.03040131527989126
-0.07479821595603414 0.1318880312023354 0.028815349646311716
-0.07470184974813743 0.13212053786076142 0.027222856065696688
-0.07460366839348215 0.1323534392119376 0.02562569088800376
-0.07450661734358882 0.13258759116666677 0.024021924798262817
-0.07440774292509822 0.13282214352789115 0.02241344100049325
-0.07430999972776303 0.1330579583049346 0.02079828231233455
-0.07421042486009144 0.13329417929436235 0.019178359124372324
-0.07411049580829365 0.13353124051305484 0.017552673929906504
-0.07401169929807683 0.13376958215689053 0.015920200964074094
-0.07391105851377544 0.1340083388958364 0.014282892025517746
-0.07381155112534432 0.1342483882713668 0.012638718726363685
-0.07371019095611903 0.13448885878600164 0.010989660905207421
-0.07360846701534635 0.1347301923252825 0.009334684780291869
-0.07350787769427325 0.13497283712197264 0.007672727412414038
-0.07340542267547101 0.13521591230615462 0.006005811352485069
-0.07330259796441857 0.13545986458747922 0.004332880497886216
-0.07320090903561494 0.13570514712668436 0.00265284903216384
-0.13739731101669572 0.14044937380107464 0.0584039305989848
-0.13422418415633097 0.1398483878084305 0.0584015851845881
-0.13107809735185538 0.139252523166297 0.05839925975675608
-0.1279587064336909 0.13866171468941568 0.05839695406109341
-0.12486567304842078 0.13807589829410033 0.05839466784751074
-0.12179699226733909 0.13749455550924197 0.05839327208834
-0.12157540716097381 0.13768794400724943 0.056913093241174384
-0.12190839886005733 0.13803365342736773 0.055135978528501384
-0.12494766685451775 0.13912183396874514 0.05191512350319555
-0.12257942406635158 0.13873030663406405 0.05155484191137499
-0.12291917840602884 0.1390817429441065 0.04974977363103872
-0.12325895769687178 0.13943449590778956 0.04793645544303071
-0.12484394888560513 0.14013214908927143 0.04543825275274033
-0.12394371333345111 0.14014539732742579 0.04428208366774333
-0.12428871624389337 0.1405035733623946 0.04244088831119358
-0.12463548715245698 0.14086358490235784 0.04059025758501417
-0.12498576817439244 0.14122592661207817 0.03872915701181695
-0.08691513420924135 0.13088851310963534 0.05836412511594474
-0.0841599866781646 0.13036682181304854 0.05836127135433672
-0.08142526173655462 0.12984886646834715 0.05835926312965656
-0.07871362003424831 0.12933541358376924 0.05835645117112093
-0.07602333880280021 0.12882600533215233 0.05835366136321546
-0.07534515970398775 0.12888040706503 0.057203339244676965
-0.07525149460945679 0.1290996788508366 0.05571284508191893
-0.07515893778599303 0.1293201009436826 0.054216438115568144
-0.07506463468107932 0.12954087271701126 0.05271575108180687
-0.07497144087289592 0.12976280524950207 0.051209086739673504
-0.07487649319778122 0.12998509245476703 0.04969810189658502
-0.07478121966857143 0.13020814253487834 0.04818193145438726
-0.07468705693012417 0.13043236930004584 0.046659685335960877
-0.07459112881475655 0.1306569583715357 0.04513305699671344
-0.07449631246595262 0.130882734920204 0.043600286278982214
-0.07439972297586339 0.13110887896619902 0.04206309144411463
-0.07430424620721915 0.1313362214214835 0.040519686623271434
-0.07420698845959012 0.13156393664720403 0.038971815185270875
-0.07410939286856971 0.13179244288527264 0.037418566920039975
-0.07401291138286908 0.13202216419327292 0.03585900554930699
-0.07391463702309886 0.13225226633619905 0.03429491267267881
-0.07381747766855346 0.1324835948413908 0.03272443675231307
-0.07371851741422825 0.13271530966662723 0.031149385268768537
-0.07362067304199027 0.13294826229483547 0.029567879842766043
-0.07352101966715247 0.13318160681583624 0.02798175415335935
-0.07342101586342664 0.13341577188762285 0.026390050888432548
-0.07332212920431808 0.13365119220176808 0.024791785519851617
-0.07322142124261516 0.13388701293313698 0.023188831624281148
-0.0731218312418564 0.13412410072950212 0.021579242252455333
-0.0730204116379281 0.1343615947421984 0.019964917994299614
-0.07292011078591232 0.1346003677999016 0.018343883867441513
-0.07281797194899886 0.13483955296663352 0.01671806780966656
-0.07271695262889355 0.13508002931844476 0.015085466453138574
-0.07261408685981924 0.1353209237673668 0.013448035423157978
-0.07251085354471376 0.1355626789476348 0.011804753746852026
-0.07240874083489612 0.13580574382354627 0.01015457166718109
-0.0723047688242075 0.136049235958726 0.00849948698245745
-0.07220042331177501 0.13629360279786812 0.006838456688281203
-0.0720971994301488 0.1365392982188497 0.005170408448970876
-0.07199210320346472 0.13678543028621404 0.0034973830292319152
-0.07188662738983254 0.13703245133423247 0.001818314970444046
-0.1373973110181278 0.14192778826252914 0.058403930598261045
-0.13422418415774173 0.14132047610153628 0.05840158518387084
-0.13107809735324472 0.1407183392000067 0.058399259756045374
-0.12795870643505902 0.14012131168652153 0.05839695406038925
-0.12486398351298245 0.13952886464540926 0.05839554273819203
-0.12312154680561582 0.1393064250120608 0.05770320610337987
-0.12345883111111189 0.13965662439441492 0.05592591196057123
-0.12379781547363744 0.14000858893131993 0.054139659495707815
-0.12494596424586846 0.14058580311056892 0.051916026739328824
-0.12448263869351095 0.14071833922383584 0.05053909860292333
-0.12482680654831346 0.14107568244563354 0.04872555259319661
-0.12787921076926467 0.14218808198317734 0.04544092079496742
-0.12552213215759866 0.14179632071670323 0.04506975321528123
-0.1258698784734824 0.142158685047845 0.043229226014134814
-0.1262228674991781 0.14252387477341552 0.041377364698651775
-0.1275761372480717 0.1431709127778839 0.03896367927077077
-0.12693083084514745 0.14325893346656426 0.0376468896189463
-0.12728581058228017 0.14362882159518708 0.03576816307312136
-0.08415998667923058 0.13173910414822332 0.05836127135373653
-0.08142526173760145 0.13121569664199392 0.0583592631290637
-0.07871362003527627 0.13069683899020512 0.05835645117053534
-0.07602333880380924 0.13018206854646114 0.058353661362637255
-0.07420370900797163 0.12991271975444155 0.05786124035090762
-0.07410834038647324 0.13013319652426364 0.0563755807283049
-0.07401406791669174 0.13035482803956094 0.054884041588803334
-0.07391805125205203 0.13057680926163978 0.053388247610463735
-0.07382313167589105 0.13079995569305783 0.051886510116090356
-0.07372646032169583 0.13102345681884103 0.0503804777083941
-0.0736294580325319 0.13124772305580937 0.048869289701411134
-0.07353355419087848 0.13147317044522697 0.04735206058572938
-0.0734358870646099 0.13169898015505854 0.045830475387617475
-0.07333931927041376 0.13192598182066745 0.04430278290701323
-0.07324098042944927 0.13215335099238992 0.04277069282334289
-0.07314374178325683 0.13238192306297983 0.04123242838760732
-0.07304472425474778 0.13261086790722892 0.039689724231381396
-0.07294680776123774 0.13284102673552037 0.03814077774255731
-0.07284710447543119 0.13307156368839523 0.03658734880825798
-0.07274705453087921 0.1333029021960543 0.03502851875112456
-0.07264810683028494 0.13353547158193343 0.03346334267148382
-0.07254736033180958 0.1337684272760141 0.03189361891287623
-0.07244771685854257 0.13400262529911633 0.03031747880568697
-0.07234626648656883 0.1342372151966481 0.028736746727292484
-0.07224591989636109 0.13447305902460494 0.02714952700763379
-0.07214375822833913 0.13470930038221227 0.025557670377444996
-0.07204123697472564 0.13494637325504086 0.02396021077816135
-0.07193982058183124 0.13518471774292096 0.022356154773890302
-0.07183657669447713 0.1354234684111707 0.02074739322899366
-0.07173443835961107 0.1356635026835581 0.01913196149670654
-0.07163046415039526 0.13590394902142575 0.017511777614606705
-0.07152759615832277 0.13614569111226443 0.015884848736310075
-0.07142288382960282 0.13638785124874542 0.01425312040930865
-0.07131927835482776 0.13663131944951168 0.012614571233008298
-0.07121381999749099 0.1368752117729594 0.010971174606604794
-0.07110798447216587 0.1371199763683767 0.00932190043226816
-0.0710032566937358 0.1373660678000534 0.007665689656789765
-0.07089666305565967 0.13761259265282597 0.0060045581026683115
-0.07078968613184211 0.13786000395112114 0.004337453509231259
-0.07068381778069993 0.13810876123896912 0.0026632941098501117
-0.1405978280471435 0.14402513792837432 0.058406296257261625
-0.13739731101957176 0.14340620272399504 0.058403930597531406
-0.13422418415916393 0.14279256439465324 0.05840158518314775
-0.13107809735464537 0.1421841552337275 0.058399259755328836
-0.12795699939853689 0.1415804357032094 0.058397832655321225
-0.12486398351434047 0.1409822903191759 0.058395542737488815
-0.12501474048003725 0.14128402684814 0.05671689068947505
-0.12535636759581414 0.14164005614438552 0.05493133371024028
-0.12801125448680095 0.14264309512685885 0.051917846978469906
-0.1260499432872263 0.14235895963977538 0.051330364402321915
-0.1264002358389119 0.14272139529786323 0.04951567936215473
-0.126750595474573 0.1430851980486827 0.04769265469922712
-0.12787921077053743 0.14366920783752665 0.04544092079427997
-0.12745670069119774 0.14381839615157044 0.04401858070889003
-0.12781247394174156 0.1441878202348925 0.04216738740844361
-0.1306088523730693 0.14524880321184125 0.03896566165066678
-0.12853128138347458 0.14493288704763985 0.03843535502711454
-0.1288908452881482 0.14530756812364692 0.03655630279461958
-0.12925227310345 0.14568419147483766 0.03466750991397183
-0.08415998668030517 0.1331113864834068 0.058361271353131516
-0.08142526173865683 0.13258252681564928 0.05835926312846601
-0.07871362003631255 0.13205826439664947 0.05835645116994498
-0.07602333880482648 0.13153813176077828 0.05835366136205439
-0.07335416663948802 0.13102208030204154 0.05835089344408623
-0.07297228636311853 0.1311619767798247 0.057034200083733944
-0.07287490522244794 0.13138439702200605 0.05554831705944807
-0.07277719324916809 0.131607572891673 0.05405738605011551
-0.07268056629715208 0.13183191833208793 0.05256054503513585
-0.07258218969039443 0.1320566184537131 0.05105943447319672
-0.07248489893305277 0.13228249875475478 0.0495523495565201
-0.07238585086981847 0.1325087387973931 0.04804095480898768
-0.07228788946225112 0.13273616976425096 0.046523520493109205
-0.07218816302577347 0.13296396561246512 0.04500173548799191
-0.07208809370878766 0.13319254467077546 0.043474718265542
-0.07198911220682264 0.13342233102565396 0.04194156202335192
-0.07188835395574217 0.13365249012115288 0.040403992721154025
-0.07178868426849588 0.13388386760822069 0.038860216960378724
-0.07168722992489951 0.13411562318056194 0.03731198579978606
-0.07158686486991789 0.13434860838367157 0.03575747982505528
-0.07148470717580946 0.13458197710136974 0.034198475499258196
-0.07138219396041207 0.13481615797073887 0.0326340456477649
-0.07128077106645803 0.13505158560006156 0.03106323671879191
-0.07117754341650234 0.13528740504760442 0.029487863858506547
-0.07107540674975682 0.13552448286537216 0.02790604120474821
-0.07097145715053349 0.1357619581493033 0.026319610091112722
-0.07086859916993271 0.1360007035665809 0.02472665749523778
-0.07076392000090292 0.1362398521883306 0.023129051259668576
-0.07066033305883912 0.1364802828619816 0.02152485086356065
-0.07055491659176205 0.13672112257049482 0.01991595098474136
-0.0704491274209777 0.13696281377639205 0.018301362782954356
-0.07034443132923834 0.13720580520366774 0.016680069534989406
-0.07023789305514677 0.13744921458513046 0.015054006788071672
-0.07013244839754884 0.1376939365067129 0.013421163767542765
-0.07002515301414625 0.13793908245076963 0.011783503693361008
-0.06991895175502988 0.13818555341860506 0.010138987067107086
-0.06981089114175248 0.1384324545755839 0.008489605125406863
-0.0697024436855988 0.13868023960636736 0.006834318612339629
-0.06959509104975736 0.13892936869600686 0.005172059144576635
-0.06948586595656758 0.13917893741049542 0.00350486063352895
-0.06937773611380949 0.13942986309225905 0.0018306101807698538
-0.14059782804862075 0.14550993316515984 0.05840629625651966
-0.13739731102102715 0.14488461718547235 0.05840393059679588
-0.13422244140357698 0.14426416661724567 0.05840247128149412
-0.13107637257947513 0.14364948933018257 0.05840014208601213
-0.1279569993999271 0.1430400278242502 0.05839783265460574
-0.12657276081390367 0.14291493932440577 0.057510688059721926
-0.12692044364695731 0.1432759989435342 0.055724058084308525
-0.1272698876980105 0.14363888754196943 0.05392837777734605
-0.12800953446665708 0.14411315744620537 0.05191875397208573
-0.1279758362263057 0.14437069433429217 0.050308675658902346
-0.12833065057464832 0.14473915652328923 0.04848541938917028
-0.13093947585198074 0.1457481770757126 0.04544361081460152
-0.129047480356978 0.1454822464841885 0.044809904011095136
-0.12940778970755873 0.14585641166371122 0.04295843158731566
-0.12976995719326 0.14623250643364413 0.04109741101839315
-0.13060709203012055 0.14674571061802538 0.038966629603037095
-0.13049992436307978 0.14699054476026235 0.03734642847176256
-0.13086598457085596 0.14737201147587578 0.03545730024102939
-0.13314518755220817 0.14830459784897634 0.032488598014966785
-0.13160561520470226 0.1481414282889042 0.03164847208156518
-0.08142526173972053 0.1339493569893133 0.05835926312786355
-0.07871362003735682 0.13341968980310226 0.058356451169350065
-0.07602333880585177 0.13289419497510374 0.05835366136146686
-0.07335416664049416 0.1323728233982307 0.0583508934435063
-0.07184046069706901 0.1321852482103694 0.05769036807865929
-0.07174140713397065 0.1324088463649058 0.05620928935076597
-0.07164342629226583 0.13263361311004357 0.05472236543453718
-0.07154370174851155 0.13285873199342094 0.05323121685686949
-0.07144363810447824 0.1330846163641144 0.05173499782349905
-0.07134464829522758 0.1333116851980482 0.050232838170708005
-0.07124390334037556 0.13353911372063795 0.04872639419202507
-0.07114423293910999 0.13376773746083662 0.04721394489303654
-0.07104279967264243 0.1339967260234139 0.04569717077365071
-0.07094244165517677 0.13422692069610528 0.04417432576313446
-0.07084031297999521 0.13445748540548141 0.042647114859592716
-0.07073783284347224 0.13468884357053718 0.04111464827674843
-0.07063642894624289 0.1349214244433712 0.039576010805307704
-0.07053324256486665 0.13515438332625937 0.038032944741813346
-0.07043113305693222 0.13538857616478905 0.03648363997965609
-0.07032723308541744 0.13562315243570178 0.03492986406196935
-0.0702244105958813 0.13585897405644695 0.03336978071303259
-0.07011978958667248 0.13609518461786155 0.031805183029744166
-0.07001480414618166 0.13633221798257913 0.030235135310094752
-0.06991089704314701 0.13657051406280354 0.028658675319353122
-0.06980517919147666 0.1368092075082335 0.02707763506524663
-0.06970054021871547 0.13704917543992162 0.025490111432039886
-0.06959408224464253 0.13728954646708103 0.023897962769203307
-0.06948870366289883 0.13753120390636545 0.022299258640281927
-0.06938149774649727 0.1377732702631393 0.020695884060014047
-0.0692753717070731 0.13801663511564602 0.01908588093081498
-0.06916740991779946 0.138260414801158 0.017471161261060575
-0.06905906606643092 0.13850505718976655 0.015850727318334146
-0.06895180275533608 0.1387510164955002 0.01422355332225439
-0.06884269091683981 0.1389973996839288 0.012591592391951623
-0.06873466002795375 0.1392451122792222 0.010952815759958379
-0.06862477198646943 0.13949325491428843 0.009309204381721559
-0.06851596527246362 0.139742739613335 0.007658700595648771
-0.06847614982800948 0.14001463418937052 0.0059538090975910785
-0.06886851019065393 0.14042193276309073 0.003938555825044154
-0.06926315994319726 0.14083160788996477 0.0019115437179478278
-0.14382609142662672 0.14763190154669042 0.05840868242410463
-0.1405978280501099 0.14699472840195704 0.05840629625577176
-0.1373955500390064 0.14636253638714264 0.058404820495110865
-0.13422244140502193 0.14573624995048184 0.05840247128075948
-0.13107637258089821 0.14511530044619833 0.05840014208528421
-0.12813630067651083 0.144550324485114 0.058305548048587064
-0.12848836598728164 0.14491596476251062 0.05651873188213735
-0.12884049765475036 0.14528297152539707 0.054723748982813736
-0.13109876302533396 0.14619335391004382 0.05192150404686169
-0.1295570606749169 0.14602456208471196 0.0511027191156363
-0.12991635636008858 0.1463977081933335 0.04927922716940697
-0.13027749301308456 0.14677276623692653 0.047446391971436075
-0.13093947585329535 0.14723540337278015 0.04544361081389564
-0.13100709932954813 0.14752918039347176 0.043751456136827904
-0.13137385036606586 0.1479100658467045 0.04189014743287667
-0.13366448159792588 0.14884660569595756 0.038968632056818275
-0.13211306311287074 0.14867776751375347 0.038138547620341245
-0.1324837779798349 0.14906410087862432 0.03624908837119789
-0.13285820691876682 0.14945296361019875 0.03434879236675348
-0.13323280606613885 0.1498433413999701 0.03243955685953176
-0.1336129561588264 0.15023680754065488 0.0305183006064515
-0.08142671472031154 0.13531661048673452 0.058358440248811816
-0.07871362003840948 0.13478111520956362 0.058356451168750434
-0.076023338806885 0.1342502581894376 0.058353661360874776
-0.07335416664150823 0.13372356649442815 0.05835089344292177
-0.07071423973700042 0.13320345248643498 0.0583432867845855
-0.07061353150427951 0.13342821416046619 0.05686698303976023
-0.07051388424425115 0.1336541486085317 0.05538486681649618
-0.07041249546970257 0.1338804351173935 0.0538985506889188
-0.0703121683361081 0.13410790496077563 0.052406359153930826
-0.07021009207988255 0.13433573187451786 0.05090992841831443
-0.07010766841245508 0.13456433418521369 0.04940840465914287
-0.07000630733701918 0.1347941359191979 0.04790090954115278
-0.0699031855939638 0.1350243023824977 0.04638911524714917
-0.06980112705160535 0.13525567917005382 0.044871284539801215
-0.06969730005309865 0.13548742589452162 0.04334911395012048
-0.06959453683911249 0.1357203939843697 0.04182084101717026
-0.06948999730647765 0.13595373730052857 0.04028818691378622
-0.06938509768625711 0.13618788437029408 0.03875025356654155
-0.06928126267062762 0.13642326962982343 0.03720611732959833
-0.0691756394029408 0.13665903820397773 0.03565753689304629
-0.06907108125853628 0.13689605636957738 0.034102685383528175
-0.06896472680993421 0.13713346335038168 0.03254334688596483
-0.06885943797610455 0.1373721314727867 0.030977668203811537
-0.06875234470814107 0.13761119399823674 0.029407459125903923
-0.06864631751852512 0.1378515293663985 0.02783083980760004
-0.0685384776859177 0.1380922648143477 0.02624964605531399
-0.06843026054465434 0.1383338425444146 0.024662920042447634
-0.06832311011536402 0.13857671095198504 0.023069676923430815
-0.0682141345806625 0.1388199881221404 0.021471792123501865
-0.06810622614850936 0.13906456805944534 0.019867317730072553
-0.0679964841996481 0.13930956266568872 0.018258155990698577
-0.0680784719457922 0.13961488191923124 0.016513470430975785
-0.06846460377038605 0.1400157523342304 0.014554663151158997
-0.06885295934846097 0.14041893138306347 0.01258457499700577
-0.06924355794555692 0.14082443906663758 0.010603108236373615
-0.06963641905041223 0.14123229561757009 0.008610164004903276
-0.07003156237818403 0.14164252150354706 0.006605642289590041
-0.07042900787376455 0.14205513743075315 0.004589441912040304
-0.07082877571512969 0.14247016434735296 0.0025614605114530065
-0.14382429323601564 0.1491226239019659 0.058409580020987284
-0.14059604859124109 0.148479019048788 0.058407189986789176
-0.13739555004048454 0.14784094584601856 0.05840482049436385
-0.13422244140647777 0.14720833328372931 0.05840247128001924
-0.13107637258233196 0.1465811115622253 0.05840014208455069
-0.13005842771476772 0.14655947683179069 0.05731624814050529
-0.13041670062288924 0.14693159684313406 0.05552018401808656
-0.1307767974988301 0.14730561131793105 0.053714976130907255
-0.13114047024263065 0.14768203394437007 0.05189964354955923
-0.13150426276931482 0.14805988356411082 0.05007592889192375
-0.1318699216227014 0.14843967162620253 0.048242858221867746
-0.13402682165047997 0.14933823045153125 0.045445379883637727
-0.1326086569329359 0.149205632589872 0.044547413939965974
-0.13298177429362523 0.14959184114556479 0.04268487607848376
-0.13335505565732242 0.14997953939837597 0.04081363424892076
-0.13373027692064732 0.15036925247372185 0.038932667794118636
-0.1341056688381228 0.15076047590300562 0.03704288189435356
-0.1344848095711484 0.1511542633081183 0.03514224652102321
-0.13619687565796412 0.15193958737743812 0.032491097822326676
-0.13524726172292578 0.1519475135399359 0.03131204135453747
-0.13563601797374514 0.15234859714135796 0.02937927798505008
-0.08142671472139174 0.13668344493641338 0.05835844024820003
-0.07871362003947008 0.13614254061603356 0.05835645116814625
-0.07602333880792622 0.13560632140377987 0.05835366136027814
-0.07335416664253008 0.1350743095906339 0.05835089344233285
-0.07070445882024967 0.13454604151700553 0.058348957202499996
-0.06949123660348877 0.13444253812393506 0.0575214224602153
-0.06938994061094539 0.13466962596780044 0.056044084604464195
-0.06928690532306908 0.13489706576265367 0.054562571389600134
-0.0691849199791092 0.13512569299944005 0.053075215695959355
-0.06908118773626193 0.135354677190328 0.051583645693146496
-0.0689785059984187 0.13558485952621271 0.050086169940358305
-0.06887406968673865 0.13581540389720137 0.04858444037794901
-0.0687692776094545 0.13604673362485356 0.047077595126448935
-0.06866553682476023 0.136279277803731 0.04556474765051588
-0.06856002981909415 0.13651219178599788 0.04404758607687337
-0.06845557460388152 0.1367463312679657 0.04252435686876738
-0.06834934530975317 0.1369808458353319 0.0409967726436094
-0.06824416827754848 0.13721659709306397 0.03946305449306731
-0.06813720923344746 0.13745272880123705 0.03792493982066408
-0.06802988142985855 0.1376896746135678 0.03638152223673863
-0.06792360653687618 0.13792787416878022 0.03483186962912821
-0.06781553759085357 0.13816646237853786 0.03327775713843539
-0.06770852195788024 0.13840631588764038 0.031717341065602256
-0.06759970414649763 0.13864656363069436 0.03015242209499397
-0.06749194002179931 0.13888808838019234 0.028581130049562586
-0.06768950837324561 0.1392248894858849 0.026804540106943997
-0.0680710360930395 0.13961996885652117 0.02489903125861831
-0.06845328845439497 0.14001684813333293 0.022983633402795745
-0.06883772016743739 0.1404159901549215 0.02105731520730808
-0.06922434992328913 0.14081741432763129 0.019119983014272868
-0.06961465966882818 0.14122159674569232 0.01717055876217005
-0.07000574791853392 0.14162764696178873 0.01521090410897663
-0.07039909162182567 0.14203603891899147 0.013239947888412984
-0.07079471034634355 0.14244679293354404 0.011257592051471754
-0.07119262388672687 0.1428599295573791 0.009263737411670192
-0.07159285226793471 0.14327546958155254 0.0072582836284936225
-0.07199541574858231 0.14369343403972384 0.005241129190578453
-0.07239883263126023 0.14411336885794748 0.0032132209080330543
-0.14708064635612428 0.15126955097901507 0.05841199086447613
-0.14382429323755042 0.15061385014142428 0.05840958002022123
-0.1405960485927531 0.14996380923970892 0.058407189986029784
-0.1373955500419739 0.1493193553049061 0.05840482049361123
-0.13422244140794493 0.14868041661698833 0.05840247127927328
-0.13163407790610027 0.14820752719672017 0.05811484083026691
-0.13199679912242912 0.14858429668153766 0.05631858741503798
-0.1323596294656758 0.14896248382383195 0.05451407884829801
-0.13421397362483667 0.14977395638143776 0.05192427725039145
-0.1330978642124646 0.14972669525723237 0.050873691487282435
-0.13346807241260195 0.15011123833134427 0.049040381247043574
-0.13384018712064893 0.15049776173549784 0.04719762977746461
-0.13421599168694243 0.15088679673173294 0.0453444200675695
-0.13459196972600063 0.1512773296399698 0.04348255719862776
-0.13497167943387467 0.15167041068629883 0.041610069753799106
-0.13674506992344493 0.1524737958796852 0.0389716267258311
-0.1357316727321196 0.15246115285121084 0.037838688438862345
-0.13573817984822212 0.15274877281583582 0.036145219934240025
-0.13562419975945605 0.15300192876039875 0.03451200922263575
-0.13550804038939102 0.15325539297296184 0.03287437799187848
-0.1353914955196207 0.1535096983606819 0.03123131193189177
-0.13527636924844588 0.1537653849161331 0.029581767118527447
-0.13515905019709562 0.1540213870508389 0.027927742453844773
-0.07871362004053883 0.13750396602251216 0.058356451167537404
-0.07602333880897538 0.1369623846181307 0.05835366135967701
-0.07335416664355976 0.13642505268684804 0.05835089344173938
-0.07070445882126003 0.13589150193247818 0.0583489572019143
-0.06837586668935697 0.13545227137178315 0.05817182374038077
-0.06827155387362394 0.1356800826998129 0.05670004315009103
-0.06816827919748708 0.13590908019350909 0.05522248379726563
-0.0680632636842815 0.13613843198751907 0.05374075416939772
-0.06795789313650685 0.1363685591699508 0.05225401513663136
-0.06785356144880611 0.13659988852822877 0.05076140350245889
-0.06774747744751303 0.1368315797662119 0.049264563085240354
-0.06764243275948428 0.13706448402655708 0.047761786451402666
-0.06753562801560958 0.13729775531956723 0.04625474132877633
-0.0674284591080127 0.13753182197928793 0.04474255775335628
-0.06732233013670774 0.13776711818639925 0.04322434096106681
-0.06721442935955996 0.13800278930458776 0.04170179507741484
-0.06710756890496955 0.13823970116706197 0.04017315020948836
-0.06699892871669427 0.13847699329758054 0.03864013511661191
-0.06731176712390946 0.138845165242117 0.036835286683347124
-0.06768599312609364 0.13923374886528306 0.03498286550939933
-0.0680637469584961 0.13962495542198639 0.033119134431809416
-0.06844219703165161 0.14001792224992593 0.0312458213953154
-0.06882278337138115 0.14041310728832762 0.029361933922772754
-0.06920552411700903 0.14081052937231037 0.02746738222524625
-0.06959188598461646 0.14121065942672062 0.025561128826056434
-0.06997899615177655 0.14161261554183624 0.023644966375650944
-0.0703683164279949 0.14201686652528828 0.02171786407289228
-0.0707598657945619 0.1424234320863096 0.01977972796202493
-0.0711536634507392 0.1428323321604718 0.017830463008306263
-0.07154972881691968 0.14324358691295055 0.01586997308245891
-0.07194808153779886 0.1436572167418338 0.013898160944881721
-0.07234874148564119 0.14407324228150012 0.011914928229560362
-0.07275172876357677 0.14449168440604776 0.009920175427715006
-0.07315706370895558 0.14491256423278312 0.007913801871162418
-0.07356476689678831 0.14533590312577957 0.005895705715367572
-0.07397485914320451 0.14576172269948512 0.003865783922226751
-0.07438736150901926 0.14619004482240847 0.0018239322425143145
-0.14708064635769347 0.1527672693059922 0.058411990863697694
-0.1438242932390963 0.15210507638089463 0.058409580019449514
-0.1405960485942762 0.15144859943064162 0.058407189985264785
-0.13739555004347448 0.15079776476380533 0.058404820492852894
-0.13422244140942308 0.1501524999502589 0.05840247127852177
-0.1335790660024232 0.15024057966049473 0.05711985742272374
-0.13394812474625817 0.1506239646227983 0.05531425928174122
-0.1343190718421462 0.15100931123971642 0.05349942248958017
-0.13469543941662154 0.15139766326636023 0.05167344336153934
-0.1350702185553746 0.15178698392795983 0.049839898067646715
-0.135289408415337 0.15213207708966614 0.04807996218880384
-0.13517627052941406 0.15238072540895117 0.04648883576752483
-0.13506098782702092 0.1526296651118837 0.04489344666567141
-0.13494710472785965 0.15287994396874538 0.04329188233274822
-0.13483106811604362 0.153130518800655 0.04168601806443467
-0.13471465050475195 0.1533819163804624 0.040074881034119825
-0.13459963447571277 0.15363467041063994 0.038457469828715674
-0.13448245174896845 0.15388772743569945 0.036835701860531644
-0.13436667190369922 0.1541421526226694 0.035207592672969246
-0.13424871647183756 0.15439688557807565 0.03357508817131
-0.13413216519880655 0.15465299855081052 0.03193617453725295
-0.1340134293713735 0.15490942414073613 0.030292826503291348
-0.13389429914522266 0.15516670148639344 0.028644019844430935
-0.07871362004161547 0.13886539142899945 0.05835645116692406
-0.07602333881003226 0.13831844783249006 0.058353661359071385
-0.07335275572734706 0.13777536984024566 0.05835170665543343
-0.0707044588222776 0.137236962347959 0.058348957201324325
-0.06807677971727022 0.13670274652241374 0.05834622915248788
-0.06715868292308513 0.13668555594651746 0.057352766564832236
-0.06705378971004916 0.1369156806126755 0.055879955873193
-0.0669471579428722 0.13714615940310593 0.054402999203601754
-0.0668401665703926 0.13737741546088988 0.05292106164095678
-0.0667342025471801 0.13760987764210883 0.0514332843508743
-0.06662648850176434 0.1378427015159049 0.049941303089370226
-0.06657552221951746 0.13809385676570485 0.04840958719874272
-0.06694342753860849 0.13847489201797575 0.046616376340455457
-0.06731196558166941 0.13885760316936194 0.044814104056657866
-0.067682546370603 0.13924243562586033 0.043001842073299434
-0.06805660024224791 0.1396298445573192 0.041178629141389644
-0.06843132292213078 0.1400189753212669 0.039346128763005805
-0.06880814004861091 0.1404102810632992 0.03750338594545588
-0.06918706923071655 0.1408037800695082 0.03565031457560669
-0.06956956226694955 0.14119993820934637 0.03378591631558747
-0.06995277444096176 0.14159788195256512 0.031911917093457365
-0.07033815273320582 0.14199807508468387 0.03002732503468547
-0.0707257155618129 0.14240053673186662 0.02813205007022135
-0.07111548155430536 0.14280528623772568 0.026226001106997077
-0.0715074695505995 0.14321234316642653 0.024309086013320658
-0.0719016986060339 0.14362172730583778 0.022381211604036166
-0.07229818799444765 0.1440334586707349 0.02044228362542938
-0.07269695721134212 0.1444475575060683 0.018492206739854022
-0.07309802597705312 0.14486404429027447 0.016530884510120247
-0.07350141424002526 0.1452829397386592 0.01455821938358176
-0.07390714218009575 0.14570426480682452 0.012574112675977245
-0.0743152302118828 0.14612804069417096 0.010578464554958367
-0.07472569898818676 0.14655428884744554 0.008571174023360995
-0.07513856940349461 0.14698303096436655 0.006552138902152671
-0.14382429324065393 0.15359630262037707 0.058409580018672025
-0.14059604859581076 0.1529333896215863 0.05840718998449412
-0.13739555004498627 0.15227617422271633 0.05840482049208895
-0.13474055696972476 0.15177646316112933 0.058139037125922
-0.134626146672282 0.1520210292412644 0.056584209983627176
-0.13451311817951106 0.15226689996411022 0.05502346271082842
-0.13439796991804376 0.1525130504171441 0.053458566766869775
-0.13428420477388203 0.15276051654864084 0.05188768824960638
-0.13416831136442386 0.15300826682066393 0.05031262535545822
-0.1340520414274886 0.1532568220114992 0.04873244522070003
-0.13393715653000482 0.1535067096783412 0.04714618737794979
-0.13382013048636576 0.15375688822771555 0.04555569070400928
-0.13370449074404245 0.15400841062491666 0.04395905186958371
-0.13358670117275806 0.15426022848859347 0.04235813726942561
-0.13346852577712676 0.15451287119152096 0.040751978810943945
-0.13335173852599946 0.1547668750535828 0.039139579983373196
-0.1332327882811053 0.15502118139031537 0.03752284905347841
-0.13311522738823045 0.15527686060733656 0.03589981121109992
-0.13299549462629678 0.15553284706450538 0.03427240304956819
-0.13287715240115072 0.15579021826674339 0.032638620572019605
-0.13275662935281962 0.15604790154954473 0.031000429029894305
-0.13263570694399018 0.15630643868165883 0.029356809239921844
-0.13251617679531802 0.1565663786239193 0.02770671241068584
-0.07602333881109696 0.13967451104685805 0.05835366135846132
-0.07335275572839195 0.1391261087605666 0.05835170665483119
-0.07070445882330295 0.13858242276344826 0.05834895720072991
-0.06807677971827597 0.13804296952784323 0.05834622915190141
-0.06622172398316678 0.13773833850193207 0.057902313696455876
-0.06658276306400246 0.1381132974293435 0.056157829168799744
-0.06694715794383432 0.13849072959362857 0.05440299920303088
-0.06731216022007669 0.13886980174746927 0.052639381198144986
-0.06767916612438735 0.13925095476399404 0.05086608206298132
-0.06804819220011332 0.13963420582425723 0.04908302186336794
-0.06842065980114981 0.14002000795988415 0.047289266928625395
-0.06879378163421773 0.1404075098267808 0.0454864332705599
-0.0691689744091944 0.14079716244926088 0.043673593326333915
-0.06954767531055528 0.14118942675157503 0.04184978651435206
-0.06992706718699593 0.14158343742905574 0.04001667423405553
-0.0703085824911922 0.14197965335465218 0.038173302162216594
-0.0706922391001722 0.1423780930942325 0.0363195839221902
-0.07107949583525841 0.1427792284228893 0.03445452178350766
-0.07146749479317083 0.14318217488744778 0.03257983964025102
-0.07185768994279745 0.1435874021511693 0.030694546227624186
-0.07225009998372167 0.14399492963403568 0.028798551195423128
-0.072644743828433 0.14440477697712958 0.026891763164795524
-0.07304164060534452 0.14481696404578318 0.024974089713573788
-0.0734408096619048 0.14523151093279482 0.023045437361328136
-0.07384227056772036 0.14564843796168686 0.02110571155419072
-0.07424455891316456 0.1460672915822308 0.019155797658910234
-0.07465065752370464 0.14648903806325242 0.017193646128755014
-0.14382609143435665 0.1550880581927381 0.058408682420246105
-0.14059604859735653 0.154418179812543 0.058407189983717744
-0.13739555004650883 0.15375458368163913 0.058404820491319565
-0.13422244141241169 0.15309666661683483 0.05840247127700221
-0.13340322382980263 0.15313433134429996 0.05720981172343881
-0.13328848958292816 0.15338141660539392 0.05565376702158431
-0.13317163922422603 0.15362878108707875 0.05409359653417245
-0.13305615904173507 0.1538774658285849 0.05252747510869088
-0.13293855426438095 0.15412643419382088 0.05095719249540681
-0.13282056830945288 0.15437620950891276 0.04938182032254579
-0.1327039543224935 0.1546273218958786 0.047800402774978434
-0.13258520288034292 0.15487872463735292 0.04621477005025837
-0.1324678245800075 0.15513147583191364 0.04462302797368706
-0.1323483001554666 0.15538452195714017 0.043027034102223416
-0.13222838516404223 0.15563839495466292 0.04142582504274861
-0.13210984502413137 0.15589363373021553 0.03981840915083873
-0.13198914561609298 0.15614917443249135 0.038206685612894864
-0.13186982217696774 0.15640609264273397 0.03658868919495345
-0.13174833060844282 0.15666331753675822 0.0349663472449811
-0.13162643877244506 0.1569213898867634 0.033338660309266854
-0.13150592452741638 0.15718085760286404 0.031704599845795656
-0.13138322871581953 0.15744063927620466 0.030066136056224158
-0.1312619115523207 0.15770182840816174 0.028421230536745945
-0.07602333881216922 0.14103057426123464 0.058353661357846864
-0.07335275572944433 0.14047684768089605 0.05835170665422462
-0.07070445882433557 0.13992788317894583 0.05834895720013128
-0.06807677971928888 0.13938319253328088 0.05834622915131077
-0.0680413315105568 0.139638912611603 0.05683507365555818
-0.06841020158709904 0.14002102075476383 0.05507976624137628
-0.06877969989337185 0.1404047919894236 0.053315654374467
-0.06915122921671213 0.1407906726950193 0.051541845734097036
-0.06952621242187812 0.1411791189571699 0.04975741617251678
-0.06990185939692967 0.14156927354697346 0.04796396466732117
-0.07027958835887044 0.14196159053073812 0.046160573131129756
-0.07065941666460923 0.14235608793570712 0.04434715869681888
-0.07104278837921996 0.14275323247118776 0.0425227614574874
-0.07142687341622189 0.14315214811688598 0.040689040692643896
-0.07181311107537447 0.14355329950358697 0.03884504275577555
-0.07220151950423004 0.14395670547957606 0.03699068100577235
-0.07259211705491625 0.14436238510560506 0.03512586782487559
-0.07298492228700398 0.14477035765788718 0.0332505146048917
-0.07337995397046726 0.1451806426311567 0.031364531733145073
-0.0737772310886638 0.1455932597417713 0.029467828578209454
-0.07417677284136848 0.14600822893086798 0.027560313475394782
-0.1438260914359366 0.15657928952198402 0.0584086824194574
-0.14059782805928234 0.1559034998229885 0.058406296251164946
-0.13739555004804227 0.15523299314057387 0.05840482049054463
-0.13422244141392203 0.15456874995014036 0.058402471276234214
-0.1321877978085172 0.15424290417783504 0.057831578368983616
-0.13206964290978696 0.15449067120242063 0.05628109543313298
-0.13195110780570807 0.15473923550540986 0.05472562326773989
-0.1318339300736161 0.1549891245642131 0.05316423155197714
-0.1317146314365154 0.1552392967041156 0.05159870164924507
-0.13159494705044927 0.1554902777689666 0.050028109647284935
-0.13147662169997598 0.15574260041502413 0.048451504349428964
-0.1313561626052797 0.15599521286125875 0.04687070733520676
-0.13123706363350707 0.15624917827851004 0.04528383351855103
-0.13111582226269936 0.15650343806399322 0.043692731681161334
-0.13099418566356258 0.15675852669747947 0.042096443095184455
-0.13087391076586852 0.15701498563936017 0.04049398094690382
-0.13075148034670325 0.1572717459329023 0.03888723540693101
-0.1306304126578295 0.1575298882727453 0.037274250747925564
-0.1305071806006589 0.15778833671256262 0.03565694513844864
-0.13038354352229142 0.15804763458309617 0.03403432400427575
-0.13026127066198112 0.15830833236950206 0.032405363855125935
-0.13013682001808735 0.15856934351572047 0.030772025462912855
-0.13001373455872456 0.15883176667761054 0.029132280365667618
-0.1298884622704013 0.15909450813614284 0.027488118157387442
-0.0733527557305041 0.141827586601234 0.05835170665361383
-0.07070445882537546 0.1412733435944518 0.05834895719952837
-0.06950516139452723 0.1411690089638612 0.0575133025514723
-0.06987713665480927 0.14155538220618796 0.05575833335428976
-0.0702511536624188 0.14194387622542604 0.053993731248416554
-0.07062722927413456 0.1423345085308313 0.0522194167040011
-0.0710067930973961 0.14272774087618934 0.050434466310822046
-0.071387042329765 0.14312270551848436 0.048640476846397496
-0.07176940189825637 0.14351986216562887 0.04683653096259671
-0.07215388941990669 0.1439192291164323 0.04502254554343971
-0.07254052270839634 0.1443208248739522 0.04319843654522659
-0.07292931977679334 0.14472466814834983 0.041364118983561626
-0.07332029884034202 0.1451307778597929 0.03951950692016071
-0.07371347831932729 0.14553917314141657 0.03766451344941807
-0.12796928110245698 0.1631460764719641 0.0021495139413926223
-0.14059782806084997 0.1573882950598691 0.058406296250377576
-0.13739731103307418 0.15671193287771 0.058403930590708086
-0.13422244141544315 0.1560408332834577 0.05840247127546089
-0.13107637259116145 0.15537597825862737 0.05840014208003386
-0.13085653730864077 0.15559470093350466 0.05690546897131271
-0.1307363346226701 0.1558444510106672 0.05535466821918661
-0.13061747663962509 0.15609553025551948 0.05379797905940509
-0.13049650146023417 0.1563468920135834 0.05223717452723853
-0.13037513603802386 0.15659906461666 0.05067133513781752
-0.13025511685637248 0.1568525832250088 0.04909951427948184
-0.13013296766084925 0.15710639105348864 0.047523524974377396
-0.13001216570819452 0.15736155628487628 0.04594149115973667
-0.1298892251014382 0.15761701529603395 0.0443552529039562
-0.12976588468478356 0.15787330507451822 0.0427638561105631
-0.12964389296060053 0.15813096960454393 0.04116631876126697
-0.12951974948196587 0.15838893488467018 0.03956452207485084
-0.12939695563764542 0.15864828666142036 0.03795651976169723
-0.1292720012069023 0.15890794392751897 0.03634422087629913
-0.12914663708353757 0.15916845254129242 0.03472663568819073
