# .PCD v0.7 - Point Cloud Data file format
VERSION 0.7
FIELDS x y z
SIZE 4 4 4
TYPE F F F
COUNT 1 1 1
WIDTH 761
HEIGHT 1
VIEWPOINT 0 0 0 1 0 0 0
POINTS 761
DATA ascii
-0.06101159217369468 0.004159058584730979 0.053854513482000044
-0.06096647039197487 0.003088944745580968 0.05311831443982534
-0.060924643450307764 0.002040815488994707 0.052368948991645625
-0.060878123229254844 0.0009641589876406287 0.051641661203691736
-0.060835400880080576 -8.739530352280811e-05 0.05089891225036319
-0.06081270785125456 -0.001012031959421733 0.05006810836065523
-0.06081033791502351 -0.0018086818287860185 0.049147013720685306
-0.0608182948627069 -0.002540665382013696 0.04817960021678591
-0.060832690376336006 -0.0032326563776061135 0.047182920269534134
-0.06086811539858581 -0.00379399679185094 0.04609068392939236
-0.06091920676937911 -0.004258842967717391 0.04492626406479816
-0.060980255254256446 -0.00466322271680103 0.04371493809709659
-0.06105405053327668 -0.004990247029417028 0.042443502583062176
-0.06113811812646769 -0.005255697088127953 0.041122715225160256
-0.06123975168767418 -0.005414996047641452 0.03971855636656063
-0.06136377911794312 -0.005439114375413834 0.0382079384962179
-0.061499215298208315 -0.005396368069734758 0.0366406955225147
-0.06166534973845036 -0.005169001032317544 0.034926693436764245
-0.06189212110600326 -0.004575133484862104 0.03292498216754708
-0.06219289951183199 -0.003535522694099791 0.030570253997363905
-0.06256355571160425 -0.0020781655198948146 0.02787847960649853
-0.06288231302553103 -0.0009456791038899293 0.025419625046982253
-0.06326693685777822 0.0005779735932519015 0.022639973887927767
-0.06375289579054658 0.002704849486663219 0.019368468575739928
-0.06459077054912268 0.0069439191251346455 0.014409502108450711
-0.06317119872277879 0.03930432550078028 0.05453272088000216
-0.062275015921539036 0.03249602819430669 0.05734498410999511
-0.06187204538092649 0.028995638944766866 0.05808631631331579
-0.06157486148509411 0.02620888807786742 0.05838840063051981
-0.06131966035168296 0.02370840404042901 0.05851979927544976
-0.06109200790620024 0.02139698338514512 0.05854064695495054
-0.06091141133838776 0.019402420501776818 0.058365415450242986
-0.06073790989134867 0.017459378195817943 0.058165081528035345
-0.06058304726118561 0.015643540354027763 0.05788910336560865
-0.060446204754246426 0.013950110270361915 0.05753930745676883
-0.060318305212596256 0.01231888483022181 0.057154613364284845
-0.06020499501413921 0.010786445780607334 0.05670977803933219
-0.06010847547750624 0.009366589201603881 0.05619440498614037
-0.0600220235674089 0.008014854447589426 0.055637473932795
-0.059944546687946194 0.006723741500432756 0.05504336740997834
-0.0598774835157135 0.005502232233390469 0.05440524954839421
-0.059816419171683614 0.004321328098991217 0.05374238652121671
-0.059768324732862976 0.0032258430535015425 0.05302319558570456
-0.059738138270571076 0.002247113793741262 0.05222481841356574
-0.059703819486069724 0.0012425801224838495 0.051446069163400165
-0.059672034852570215 0.00025522386803439323 0.05065689531419659
-0.059642111707245996 -0.0007193664337190042 0.04986024045446763
-0.059638456492373954 -0.0015251401615066773 0.04894452015146267
-0.0596434409885715 -0.0022756645580643275 0.04798930985817573
-0.0596607270267875 -0.0029479515935390554 0.04697736135235858
-0.059689836736390126 -0.003545523438210574 0.04591030317520517
-0.05973347126867671 -0.004051708333356552 0.04477507207421094
-0.059787853773318606 -0.004490990040096399 0.043588536020930435
-0.05985756117971194 -0.0048348739394051266 0.04232885259852076
-0.05993816923712891 -0.005111858050728668 0.04101599874421391
-0.060039698164741674 -0.00525932528739137 0.039602434145714016
-0.06016388142210602 -0.005267214986564517 0.038079014651685394
-0.06030318388428846 -0.0051836311466212925 0.03648027884169097
-0.060467374857337934 -0.004948085880560782 0.03475920800310095
-0.06069813052402182 -0.004301523728725998 0.03271642496565064
-0.06098220149934298 -0.0033290588830666157 0.03041202836030049
-0.06131246019033716 -0.002077074529704126 0.02787763900467871
-0.06161012452169125 -0.001035841870485943 0.025489469284482202
-0.06198023749513884 0.0004458166661202023 0.02274289974611493
-0.06242154805077052 0.0023573260896217474 0.019640580270963548
-0.06310453746886491 0.005746169284113145 0.01535237965541475
-0.061669630834686774 0.03785503201080992 0.055448504985230074
-0.0609703997530574 0.03226650398386849 0.0574908395144893
-0.06060111898479003 0.02893968118744339 0.05812207712459816
-0.06031077270918923 0.026158282574813396 0.058420923860599216
-0.06006479790224022 0.023685105825435482 0.05853485713736889
-0.05985120996418351 0.021437379398319856 0.05851439148316395
-0.0596715470591231 0.019424176109498315 0.05835119579156217
-0.05950308752112074 0.017491194216096684 0.05814416948526724
-0.059354216875767224 0.015694314051169778 0.05785554366247203
-0.05922130357151423 0.014008402048178048 0.057500562832210056
-0.05909880854010432 0.01239575636390089 0.05710323376680404
-0.058996396586948684 0.010920494257497748 0.056619682302818275
-0.058906745923342496 0.009533016418748375 0.056081923727623106
-0.058824296419989965 0.00819583186207895 0.055514478225245134
-0.05875211588647118 0.006929013041958476 0.05490308590191206
-0.05868963685992798 0.005728388628583325 0.05424983808374079
-0.058634502838588884 0.004577991342751941 0.05356503423419673
-0.058581599544086295 0.003443786928803816 0.05287176514075387
-0.05854970721145671 0.0024493285191924397 0.052083540833454955
-0.05853091518572744 0.001541796858368527 0.05123586812426556
-0.058506911632127706 0.0006005971337978977 0.050412932960210266
-0.05848260158256185 -0.0003419652611850732 0.04959218841335694
-0.0584751005475746 -0.0011741120522966164 0.04869383059527349
-0.05847836163140018 -0.0019359243740441068 0.04774535106405575
-0.058495814608021716 -0.0026055296849490928 0.04673013025303735
-0.05852356507038745 -0.0032087725381381715 0.045665836795054926
-0.058562459980767465 -0.0037405812485122314 0.04454797377445846
-0.05861500104339365 -0.0041852346684865815 0.0433641412399291
-0.058677649529276926 -0.0045661049372962 0.0421305276380361
-0.058754749508390824 -0.004855638122623462 0.040825905084174996
-0.0588599576458235 -0.004966698496300437 0.03938414991040806
-0.058987104016763235 -0.004939961879537824 0.03783357614852656
-0.059124133748005674 -0.004853414809974643 0.036231275481562575
-0.059298666100230275 -0.004531166333436476 0.03444312306914543
-0.05952369169484314 -0.0038919806100199406 0.032404253469650424
-0.059792338723836456 -0.0029815634447434847 0.030145721704280926
-0.060075465711497716 -0.001986500551840298 0.02780785226299176
-0.06036215544407199 -0.00097647117524996 0.02544347800565222
-0.06071304967166046 0.00043138487178950857 0.022754139450676114
-0.0611282115549745 0.0022348862906321765 0.019736450941973127
-0.0617240827475411 0.0051637588707557636 0.0158108574469078
-0.06029123622484166 0.03720257380003872 0.05586078232096964
-0.059700009527711345 0.03226529663239541 0.05749160674831244
-0.059342025235156 0.028963491140991116 0.05810686094553402
-0.05905837445770324 0.026186525963162288 0.058402772352125654
-0.05882288247172875 0.023750347554287232 0.05849269077635416
-0.05862037023402396 0.02154822132709866 0.05844234954374683
-0.058440861104822425 0.01951007648247821 0.05829505054386491
-0.058276667734657096 0.017582124992922332 0.05808440247866936
-0.05813346551344925 0.015802674508492487 0.057783921051076825
-0.05800685521937296 0.014140743065987837 0.05741260011704041
-0.05788830093987201 0.012537322725644784 0.05700861327030676
-0.057794131175244096 0.011103434771243814 0.056496725588153995
-0.05770967239677886 0.00973821363567473 0.05594323943307
-0.057633385008360634 0.008430803760453631 0.05535478683515399
-0.05756504383383066 0.0071793435370633985 0.05473201133839839
-0.05750894128932877 0.006012544150698407 0.05405457044232115
-0.05745744916671276 0.004878404710760953 0.053357450954693575
-0.05740957997689638 0.003770082929651253 0.05264505012742571
-0.057366117125271184 0.002692697577489911 0.05191351072534389
-0.05734721290044031 0.0017812910378925406 0.051067622436891835
-0.05733776545972031 0.0009337278833600471 0.0501776183892671
-0.05732768095037688 8.216579496167498e-05 0.04929094611849266
-0.05732079990934494 -0.000747756408990885 0.04838934527288835
-0.05732207997852455 -0.001523175272381716 0.04744896642116736
-0.057337925561850495 -0.0022018896128242482 0.04643869919603372
-0.057364354343624364 -0.0028108918560086904 0.045376992874902045
-0.057403642057087347 -0.0033355637671247385 0.04425234287032431
-0.05745359097977377 -0.0037909393420536563 0.043074766721473534
-0.057513773414367544 -0.004180273232373022 0.04184582197245634
-0.057587321723851885 -0.004483395341081886 0.04054973221468117
-0.05769897028808212 -0.004538605785078587 0.03906481520506294
-0.05782977535168632 -0.004471472641116803 0.03748221111957761
-0.057970010589943805 -0.004346316888863722 0.035848892563888124
-0.05814778700117754 -0.003980281180329337 0.03402547295310265
-0.05835251308049185 -0.0034438026869939575 0.03206263285312699
-0.0586063168497958 -0.002594348738067631 0.029848975783833664
-0.05885221623033711 -0.001803038210177299 0.0276664955582418
-0.05912622350288027 -0.0008367673260776254 0.0253352569606507
-0.059460760587065314 0.0005124390270561663 0.022691013221340095
-0.05985557948009006 0.0022405010925408697 0.019732054537936083
-0.06039958863291297 0.004915992306849193 0.016005901121300348
-0.05902386739463157 0.03731241075987557 0.055791378199112174
-0.05844202979334851 0.03235224387761254 0.057436354513279886
-0.05809151590217416 0.029049229767536655 0.058052068134131996
-0.05781794294984915 0.02630071605983897 0.058329384468143175
-0.057594264177379444 0.02391237733874413 0.05838796935791851
-0.05739508350181705 0.021703039808424862 0.058341724953618945
-0.05721909652814586 0.019662496684027198 0.058195427344649775
-0.05706038102191053 0.01774818014021118 0.057975257704698524
-0.05692301143505593 0.0159879266080033 0.05766147565483887
-0.05680090626866834 0.014338297071166295 0.05728129247730995
-0.056687157311539664 0.012750420579813515 0.056866182367120655
-0.056599354589950995 0.011346509306036479 0.05633335201056516
-0.05652040542261857 0.01000661729787794 0.055761836521735775
-0.056447224493972006 0.008708962000814335 0.05516574518219142
-0.05638372213819114 0.007480383814729208 0.0545262819721854
-0.056327623456904036 0.006304753292287524 0.05385376846791412
-0.056279672673928215 0.005186893614184118 0.053144287543599955
-0.05623668113214466 0.004104512868840338 0.052412683540266625
-0.056195797826898784 0.003037817015281219 0.05167239258267864
-0.056171139372502 0.0020835002816634307 0.050855319148143896
-0.0561598382731614 0.0012212632083178354 0.04997451119573304
-0.05616250617876469 0.00045472218123138175 0.049026335123519005
-0.05616548825554288 -0.0003097526393776029 0.048076541347126855
-0.05617459339548605 -0.0010326737163545707 0.047096749716312614
-0.056189513365843165 -0.0017163894225841192 0.046088164540561416
-0.05621528860504036 -0.002327009196441243 0.0450257152920463
-0.0562532085697195 -0.0028562737971758456 0.04390249889155817
-0.05630505749271581 -0.00329265921423455 0.04270907744651292
-0.056365853261910376 -0.003670279841124613 0.041469497253559695
-0.056442627264069234 -0.003942286539490192 0.0401482749457851
-0.05655173587651785 -0.003999724991595621 0.03866283840215995
-0.05668348011395089 -0.003908819957137821 0.03706022388832175
-0.05682708493777418 -0.0037424359549713127 0.03539352932176737
-0.0570000184774478 -0.0033847271177094296 0.03357395738409519
-0.05720623003798485 -0.0028106745415595324 0.03158003516977542
-0.05740196845223101 -0.0023118466734370346 0.029632477459385353
-0.05764101040094866 -0.0015318897290051425 0.02745757717505204
-0.05790806855500472 -0.0005735828321473679 0.025131382113035006
-0.0582307095732871 0.0007435758814067772 0.022511000265462155
-0.05861400547445136 0.0024506122715627354 0.01956753695553498
-0.059126838703161294 0.004997023966316516 0.01594211239874055
-0.05781561893356937 0.03785750729489101 0.05544694089497981
-0.057202489601725505 0.03257702619762126 0.0572935124307587
-0.05685791001743739 0.02926134795162394 0.057916510193400716
-0.056588217706415284 0.026497460762760827 0.0582029402505409
-0.056371292576685036 0.02412239199039279 0.05825223485523651
-0.05617961198578615 0.02193548982667398 0.058190643586516155
-0.056007731943332056 0.0198965084973442 0.05804247514238359
-0.055857998975566835 0.018021446854707968 0.05779564488164263
-0.05572248500709358 0.016252547881358714 0.05748656990880652
-0.05559988840258744 0.014579894091549361 0.057120710896168325
-0.05549693488124602 0.013050932378609659 0.056665325502148534
-0.05540841199192891 0.011627694972034752 0.05614436344267576
-0.055332781940520104 0.010298632412713948 0.055564475608140096
-0.05526683306591687 0.009040408701328717 0.05494048767390053
-0.05520429607952203 0.00780822422257238 0.054302237535847675
-0.05515241885957051 0.006653142123277889 0.05361436060837976
-0.05510727997351399 0.005547055024673786 0.0528954188356745
-0.05506607033854563 0.004469907053528066 0.05215880256337335
-0.05503092884461593 0.0034365503456856294 0.05139381702442808
-0.055005679351349375 0.002473523584669013 0.050581326106491076
-0.05499306329175494 0.0015995764729500594 0.04970728091553206
-0.054993678575515896 0.0008183408796830771 0.04876807218900936
-0.05500414049892744 0.00010567386538612444 0.04777986115720473
-0.05502107262849434 -0.0005623166312324623 0.0467589982441895
-0.055043408187759234 -0.0011933079637859167 0.045710495936861995
-0.05507146884394292 -0.0017853049139591737 0.04463246174759605
-0.05510990590135511 -0.002306420205374915 0.04350114901913127
-0.05516154837529923 -0.0027375952131178383 0.042301714317235506
-0.05522771147207021 -0.003070347554355257 0.041026806518640824
-0.05531036657469389 -0.0032917650450829394 0.039665642651254496
-0.05542887538778986 -0.0032699041852229382 0.03811843036612356
-0.0555458530026013 -0.0032618975442014753 0.03657503470208728
-0.05569407271722861 -0.003044080527652815 0.03486692652030676
-0.05585260385469023 -0.0027602945173967885 0.03310054773326232
-0.05600980615288334 -0.002490065648646067 0.03133565319102799
-0.056217683016660844 -0.0018807672215663818 0.029302115346258373
-0.05643860917711967 -0.0011891230017248011 0.027193477335122673
-0.05669886086300826 -0.0002382967562322147 0.024871654054538617
-0.05701223253073777 0.0010629580695953322 0.022262260479190832
-0.057391507741520464 0.0027983040100033607 0.019295293448571837
-0.05789103341875148 0.005329493641462846 0.015680389807757322
-0.05668434649764612 0.039000477999794336 0.0547247169896527
-0.05599339164921195 0.03303822781247234 0.05700043333483645
-0.05564058143443932 0.029603819029237755 0.0576976478915141
-0.05537405241377394 0.02681831243548477 0.05799673475620515
-0.055161299429930005 0.02443782073157258 0.05804837020589165
-0.05497421720844936 0.02225279240950334 0.05798441212067168
-0.054808393706447425 0.020229640875897348 0.05782473685719347
-0.05466376686802514 0.018366978768418196 0.057568533568098046
-0.054528097363400634 0.016574184041926232 0.05727397924328026
-0.05440880207579937 0.014905108674077627 0.05690455147586626
-0.05431058008108641 0.01339333382629665 0.056436470323683596
-0.054226321999814156 0.011986148082518078 0.05590344241362816
-0.054154068869474 0.010668698127351273 0.055314363528933985
-0.05408992076632249 0.009412163012148533 0.054687836343772
-0.05403123904273282 0.008197082094356212 0.05403649408075484
-0.053979504277592634 0.00703391447243773 0.05335269925481956
-0.053937249465551625 0.005940622113820737 0.05262346706598092
-0.0538983850666749 0.004872964422414194 0.051878752680684925
-0.053870443399696245 0.0038848912661555435 0.05108058305906121
-0.053845546884263344 0.0029194608346582163 0.050268053277485014
-0.05383212740649396 0.0020368526213622173 0.04939840084552183
-0.05383062001839601 0.001239669183177583 0.04846882057044355
-0.05384192749114203 0.0005338195658994849 0.0474740974510231
-0.05386199109485858 -0.00011011191636267625 0.046434281527934274
-0.053890528267566455 -0.0006945136567059196 0.045350362832697055
-0.05392650701020833 -0.0012270634888455478 0.044227202963081635
-0.053972381451965146 -0.0016907483715405403 0.04305175700705599
-0.0540271391327559 -0.0020931405493847532 0.04182874711351209
-0.05409509573850733 -0.002404263786547678 0.04053530252862203
-0.054173449851076305 -0.00264436665066492 0.03918532743452502
-0.05428236280064613 -0.002672636951044971 0.03767290034134424
-0.054399256378806604 -0.002648286766003982 0.03611482910681807
-0.05452747871729952 -0.0025483037491025318 0.03449308043811028
-0.05466221255782812 -0.0024067271923373657 0.03283249288824219
-0.054840445798053625 -0.001966834373505588 0.030936823660133228
-0.055032445491171214 -0.0014366948776319277 0.02896179599842863
-0.055244045014392236 -0.0007765496190301757 0.02687559185891758
-0.05550355142132975 0.00020819161005852793 0.02452578357303592
-0.05581083850199563 0.001514559635234336 0.02191054619745858
-0.05619290699579861 0.003326101109898949 0.018882026989940903
-0.056691534451081584 0.005926165398229211 0.015210685381094435
-0.055611366736704845 0.04064070003790954 0.05368828835601469
-0.05481709196930424 0.03377025679455942 0.056535251979545176
-0.054443938868013186 0.030119192403451567 0.057368289267137995
-0.0541725062923547 0.02724965790352024 0.057719516923084246
-0.053962601542974636 0.024853295635051398 0.05777984475322523
-0.05378016852483239 0.02267044292989434 0.05771295930656939
-0.053612271809731424 0.020602482285172585 0.05758104439638839
-0.0534688446586804 0.018723396757475308 0.05733426705188399
-0.0533408691189894 0.016964466149518853 0.05701601591959893
-0.05322405749324201 0.015292909499126373 0.05664679304177794
-0.053128782251781144 0.01378569600054369 0.056174222263645324
-0.053049421697198174 0.01239995657560139 0.05562531630712614
-0.0529786627613607 0.011080576358049599 0.05503599210303556
-0.05291703377262055 0.0098310918853306 0.05440312428002947
-0.05285867094781503 0.008607648949149393 0.05375591481913711
-0.05280978713650903 0.00745603920619009 0.05306262112953386
-0.052769440780454285 0.006368889708729897 0.05232753751915231
-0.05273404023592805 0.005319368170024652 0.05156858512936219
-0.05270445283252199 0.0043136269757395596 0.05078104629969832
-0.05268479558310295 0.00338160066372839 0.04994339806724474
-0.05267342177103005 0.0025107910822619317 0.0490636235074145
-0.0526703206748539 0.001700748441955613 0.048141335534826246
-0.05268080680530164 0.0009898414043048587 0.047148425776068925
-0.05270179159683818 0.0003549929852064704 0.04610030151537459
-0.05272900803696778 -0.00023524407411412707 0.045018766866023796
-0.05276751400954359 -0.0007445070621736605 0.043876888167126094
-0.052816616522299034 -0.0011783123343234725 0.04267771900633949
-0.05287116643311923 -0.0015742844550765689 0.04144795707525206
-0.052941638323413774 -0.0018572536587093125 0.04013166311657296
-0.05301798321655796 -0.002100133581309671 0.03878155222143742
-0.05311090919439778 -0.002226412546338319 0.03734004034382621
-0.0532282797823685 -0.002180571603263848 0.03576404463149069
-0.053348139543319496 -0.00212046718818526 0.03417046544475161
-0.05350478184336326 -0.0018018714609743247 0.03237392531754607
-0.05367323162280886 -0.0014040073605775527 0.030507812543623225
-0.053854784256001015 -0.0009182136155879705 0.028564452621001823
-0.054077076934954595 -0.00014940286276532433 0.026392378802457983
-0.05432743538474534 0.0008110518062540706 0.02405878025989433
-0.05463313493827671 0.002154189269624629 0.021412392748597187
-0.05502194441200668 0.00407288929727323 0.01829728995822061
-0.05551687477913045 0.006724969578076889 0.014581860813723091
-0.05367508352411748 0.03480407971471733 0.05587829008473183
-0.05326918805141365 0.030829185650412427 0.05691455531261985
-0.05299412705769969 0.027881173972008955 0.05731365311075576
-0.05278057798356546 0.02541758849938658 0.05741513681163052
-0.052593753865003964 0.02316694024321686 0.057390259857351744
-0.05242891132045667 0.02109144094126908 0.05726145667042276
-0.05228430900656273 0.01917668599819844 0.05703632897209604
-0.05215398748044843 0.0173759940929315 0.056744009814258145
-0.05204305232044456 0.015727828115388975 0.05635771696394948
-0.051953613742754146 0.014247433998845871 0.055865604608202224
-0.051876505031305115 0.01286387063463068 0.055313513593682584
-0.05180664444541489 0.011537869309664273 0.05472692674947599
-0.051745579401960215 0.010280858703772988 0.054097454159684255
-0.051689899306158166 0.009066564241536845 0.053442294485737285
-0.05164262175217271 0.00791758217248062 0.052745455354360704
-0.051605297307160805 0.00684524092582528 0.05199838256677669
-0.05157107020746081 0.005797394548993029 0.05123644573262559
-0.05154542966310766 0.004815202675094554 0.05043061978704377
-0.051528494821255405 0.0038991657282135828 0.049579806391622405
-0.05151692184646353 0.0030238267080950343 0.04870122898715429
-0.051516343334596 0.002231061526166034 0.04776467665034029
-0.05152487770929417 0.001506323243029184 0.04677957610411265
-0.051543692246118815 0.0008578869320858828 0.045739186149511224
-0.051571939828548574 0.00027898452107871785 0.044647490093998654
-0.05160776457683037 -0.0002445822567084255 0.04351396469011937
-0.05165279730580175 -0.0007010904088734504 0.04232938453739232
-0.05170766893224595 -0.0010863024718014702 0.04108982563934921
-0.05177901586167103 -0.0013517522930041048 0.03975865306856968
-0.051846604510319784 -0.0016470312714355062 0.03844538837542805
-0.05194640724092048 -0.0017079105209886758 0.036953265032905136
-0.05206224726738262 -0.0016543677613226615 0.03536939388395194
-0.05219463384646719 -0.0014834166906551594 0.03369009031835024
-0.052348444931923706 -0.0011602341982879238 0.03188747206008058
-0.052507672216992714 -0.0008023334724733266 0.03004919065700179
-0.05269570002019488 -0.0002400992401802582 0.028044772786972816
-0.052916189987187175 0.0005516883641962789 0.025852191946266923
-0.053160854556550695 0.0015115916278375385 0.02351610980373936
-0.053469262161980134 0.002924109432901778 0.020812767021358924
-0.053868892371562754 0.004984244767352819 0.017583696329630805
-0.054373606809194806 0.007787439557897513 0.01374547657555708
-0.052583829844299955 0.036293062960529976 0.054932088142947644
-0.052113578462728086 0.03172614908888771 0.056341334694339884
-0.05183070386882047 0.028662289628397897 0.05681164438288583
-0.051607468009595835 0.026080067549607566 0.05698697018747806
-0.05141712078880303 0.02376504407764718 0.05700152104091383
-0.05125220999967125 0.02165683094594839 0.05689191273531441
-0.05110584395210247 0.01969992418358102 0.05669241483026494
-0.050975248108306295 0.017871631271124788 0.05641641033854694
-0.050866830717435155 0.01622150757295382 0.05602958449051415
-0.05077973733173112 0.014741816968029675 0.0555351676214228
-0.05070298557134648 0.01334570233652127 0.054989668197862995
-0.05063633990766131 0.01203083973818353 0.05439374846792422
-0.0505761514401235 0.010768343173501449 0.053766150403119106
-0.05052223226815851 0.00955644887427276 0.05310750986558049
-0.05047880979250777 0.00842764435612492 0.052394947861716445
-0.050441710765122175 0.0073491389116295824 0.05165019301342383
-0.05041104933567386 0.006321516750036449 0.05087227831565899
-0.05038821945059379 0.005355219216433504 0.05005333653029803
-0.05037319988014179 0.004449714668256444 0.04919304340208136
-0.05036441899808115 0.003592571410829859 0.04829948307844972
-0.0503655518435799 0.0028116492826684714 0.04735230979909427
-0.050375041422521666 0.002094578800349023 0.04635946865197099
-0.05039176310975712 0.0014323868001288043 0.04532665239100386
-0.0504182854808918 0.0008442893355679604 0.04423933592152379
-0.050455350046667506 0.0003354594174306835 0.04309287988119204
-0.05049631217232998 -0.00014498028090648152 0.0419234678856818
-0.05055402781809406 -0.0004999371136579223 0.040659490350602956
-0.05062274568130245 -0.0007736267155646348 0.039332053529928024
-0.050700832980765595 -0.0009788699685925328 0.03794966882506717
-0.050803787951857575 -0.0009995674691860024 0.036424878275080896
-0.05091454118226498 -0.0009649758691517296 0.034852352760518235
-0.05103944451718432 -0.000827897961273083 0.03319578901302789
-0.05118630749165389 -0.0005306422266250777 0.031410150864289665
-0.051351971426691546 -9.779532449932793e-05 0.029512161178061547
-0.05154242890396719 0.0005143503665726024 0.02746659267364776
-0.051758669739775005 0.0013119786113413023 0.025266392577220687
-0.05201098994566749 0.002370168395442296 0.02285101664020306
-0.052331132122811534 0.003921932307763776 0.02003564713863326
-0.05273320792522777 0.006068202893349306 0.016734954386707357
-0.05326048548378468 0.009123700856164207 0.012693561783451435
-0.05157852251841862 0.03855898485741438 0.05349216616612701
-0.05099442918711762 0.032965386117008 0.055549377982411774
-0.050678862622494374 0.029576754777231595 0.05622393437823725
-0.050441754174407105 0.0268357669311039 0.056498554360680964
-0.05024496123319428 0.024429330234562896 0.056569766887955564
-0.050078955130513275 0.02227838338552013 0.05648566053330428
-0.049932153833900116 0.02028789221627242 0.05630595503616681
-0.049803945630953673 0.018451999810408348 0.056032806287935555
-0.04969546399117604 0.016778928601108134 0.05565908509478201
-0.0496084269055493 0.015281521259532638 0.05517443865025584
-0.04953334395493266 0.01388269833461453 0.05462874615625862
-0.04946674742766539 0.012554152881908809 0.054040062802713895
-0.04940787139128577 0.011289363067393476 0.05341205533176685
-0.04935707955061911 0.01009085348419464 0.05274230052365125
-0.04931237441973886 0.00894235717336983 0.05204124451967418
-0.04927775234256586 0.007875281841234483 0.051286632378493846
-0.04924928469074784 0.006858040540311416 0.05049949410148796
-0.04922972358500134 0.005912079415959448 0.049664285429921906
-0.04921655287599987 0.005017130948728521 0.048794431033610475
-0.049211009422643545 0.004182618987232267 0.0478826893947093
-0.04921322665471188 0.0034092235442335084 0.04692787815397703
-0.04922514769917485 0.0027117970557844484 0.04591867725530718
-0.049242762597542386 0.002058513642692994 0.04487704661381675
-0.04927025035743271 0.001481711694005794 0.043779112359726924
-0.049304722791498 0.000958422309437823 0.042640636151051514
-0.04934760254433328 0.0004993653289041 0.04145314627252428
-0.049408709501077036 0.00018029620566334392 0.040160265084615676
-0.04947472956099394 -0.00010271091503627483 0.03883698397732238
-0.04955904902561789 -0.00024650205219001187 0.03740631336183836
-0.04966735872336413 -0.00020809700100932194 0.03583448282540558
-0.04977189008598183 -0.0002022339842822074 0.03428029944001726
-0.04989722616275019 -4.0045606418903645e-05 0.03260170004203411
-0.05003493879660602 0.00021291094335962324 0.03084643070233478
-0.05020310424932941 0.0006942009571055396 0.028908467323220666
-0.050393029122756824 0.0013360499451996466 0.026836874861831894
-0.050613696067711794 0.002205777136933873 0.024577725828814123
-0.05087418830174459 0.003370888179575926 0.022075812940131334
-0.05120059842427308 0.005027219011633166 0.019174832764330574
-0.05160197577899796 0.007240031372573952 0.015817409735878862
-0.05217459370653516 0.010732272894529715 0.011427281959648206
-0.04992424001500015 0.03467780719777369 0.05445502449087947
-0.04954205059804801 0.030663612531805107 0.05552543080288791
-0.049288543483122206 0.02773441776299501 0.05591774762746532
-0.04907829500229215 0.02517337161039751 0.0560861756665445
-0.04891023204932638 0.02296942755443826 0.05603398791899883
-0.04876717128514966 0.02097814830911493 0.05585226331708848
-0.04863854714443774 0.019110943783005374 0.055597266523278066
-0.048531462838638184 0.017425710927044258 0.05522919018801292
-0.04844302156447447 0.015897530033452734 0.054762709088819084
-0.04836574500530749 0.014464019924765259 0.05423803230384466
-0.04829856955518222 0.013115905011289564 0.05366039782019699
-0.04824031949244108 0.011843062114057223 0.05303575088402018
-0.048191748697365935 0.01065120828633509 0.05235935695479521
-0.048149669559898786 0.009513878212253024 0.05164850337407284
-0.04811486349812259 0.008437108476547939 0.0508984145829825
-0.04809069205181959 0.007447833322631492 0.05008969784852352
-0.04807047731561183 0.006491416048882814 0.04925953114021164
-0.048059766327888755 0.005612517079239376 0.04837616972563352
-0.04805746205617532 0.004801813439104796 0.04744530714475392
-0.04806057965397573 0.004034850919666433 0.04648352157226965
-0.04807535985753897 0.0033615185053834096 0.04545467344030474
-0.04809503569216591 0.002726964596654946 0.04439704896759422
-0.04812328847601695 0.0021604126939282486 0.04328908531965742
-0.04815960395924126 0.0016573310869563151 0.04213325903978482
-0.048206064185632114 0.0012339173281790683 0.04091698109038128
-0.048264231502289555 0.0009020977097723426 0.03963053280358253
-0.04833295651584195 0.0006521693116096072 0.03827995697664349
-0.04842429855542082 0.0005791401509913086 0.03679375621436731
-0.04851792049852123 0.0005211231106221348 0.035290522876134434
-0.048626193846893616 0.0005756006263238911 0.03369692663641938
-0.04874568671703172 0.0007148316926862686 0.03203247628444961
-0.04889381173211047 0.0010750506794506842 0.030192804880704638
-0.049059925314528484 0.0015714040615628644 0.028239825139023622
-0.049251360268951064 0.0022603653171390237 0.026128516395325152
-0.04947731623317272 0.003212497553455096 0.023802053397109724
-0.04975092475813023 0.004528386260605866 0.02117916154034194
-0.05007491617312373 0.006226899015493559 0.018240503428538057
-0.05048334550859486 0.00856970453405742 0.014776272301263327
-0.05117256427929207 0.013072461636201405 0.009585068047686052
-0.04893907823795671 0.037210473535786215 0.052836478514646235
-0.048439336773398886 0.032099892804427876 0.054602359774127196
-0.048145059104649314 0.028763555385544315 0.05525260601809934
-0.04792824316872001 0.0260983953431137 0.05548495459031516
-0.04775110935623961 0.023778630020588165 0.055505085990833314
-0.047605427679518766 0.021732272060773106 0.055356592645238734
-0.047477054205272554 0.01983770899761006 0.05511689920269591
-0.047367608191760585 0.018107775103276547 0.054775844597550805
-0.0472797946705883 0.016564371534351863 0.054317003815879894
-0.04720210055782676 0.015109292090804638 0.05380433643202376
-0.04713416010720104 0.013738944507045714 0.05323931124679249
-0.04707575674029764 0.012451014391534398 0.05262257490437777
-0.04702815237195254 0.011255597499836678 0.051946320497335885
-0.046988755029304316 0.010130458906573159 0.05122479787284384
-0.046955266031777985 0.009055988065647058 0.05047077364418473
-0.046932170521930244 0.008069260390643207 0.04965792165255167
-0.046914797509129164 0.007130903526176291 0.04881275238509575
-0.04690406185106316 0.006248219746596839 0.04792958587776125
-0.0469036643288375 0.005451523489858667 0.046986369499305125
-0.04691082076755155 0.004717277645869877 0.045998822821496976
-0.04692434444481383 0.004035310145585891 0.04497347970449117
-0.04694663574225685 0.003425056926630088 0.043895766602376485
-0.046977055035466474 0.002880818732418855 0.04276894693953115
-0.04701590018226097 0.002404624874927097 0.04159075653358596
-0.04706508072317347 0.002011669500225688 0.04034928318009168
-0.047123190086709864 0.001689944920443387 0.03905232938112002
-0.047194720828987596 0.0014755991187292428 0.03767234716049095
-0.047284372885990446 0.0014061621302435268 0.036180175388975166
-0.047378016323331114 0.0013660750813660472 0.03466023303111887
-0.047488053805156256 0.0014555511842048174 0.03303696728647676
-0.047606792740237595 0.0016116070539434202 0.031356252689636044
-0.047756191409059505 0.0020108392055182 0.029483342691899617
-0.04792187952657315 0.002536074787810816 0.02750451134663978
-0.0481202207693971 0.0033178653016989745 0.02531809054919648
-0.048355675660953695 0.004390290221267634 0.02289457075575957
-0.04863244725057207 0.00578506875615592 0.020205677318473447
-0.0489540855138287 0.007528425574504727 0.017226854420899274
-0.04938775240423937 0.010152758957652719 0.013536736700198837
-0.0481724775046218 0.041807515561950837 0.049898656124720664
-0.047387208877080485 0.034059044858713805 0.05334324862658907
-0.04702289734622955 0.030035623927568644 0.05443045580346623
-0.046788670752773036 0.02716529145630303 0.05479152326881476
-0.0466053543957044 0.024748533343120493 0.05487114855381314
-0.04644761152840891 0.022561454058453723 0.05481158766830713
-0.04631520320699335 0.020600638442304642 0.05461262854447446
-0.04620334729021932 0.018823174285434896 0.05430034232671871
-0.04611635563515172 0.017265417143713546 0.05384843711113507
-0.04604135853765358 0.01581458633478461 0.05333029893570551
-0.04597797906703592 0.014466798084400379 0.05274738517963923
-0.04592129526475943 0.013178981073807217 0.05212783484296496
-0.04586930590961751 0.011933554904513588 0.051483007919148505
-0.045828994366234686 0.010790283571014692 0.050771375729163626
-0.045798612549396704 0.009733567370853013 0.050002571662261186
-0.04577695442117749 0.008752567102846054 0.04918315061655376
-0.04576205204728412 0.007830020040775543 0.048324313725756296
-0.045752338334183636 0.00695221681609709 0.04743502491973478
-0.04575182038568338 0.006152972328237083 0.04649088497060705
-0.045759590850952055 0.005424104947079511 0.045496793377523825
-0.045775010084763555 0.004759763957082219 0.04445610517031989
-0.04579874230323483 0.004165166073793081 0.043364313028287915
-0.04582964399372424 0.003630230530777656 0.042227866190593266
-0.045872559935217286 0.0031953736113213282 0.04101670764120546
-0.04592064304498087 0.0028024400513017578 0.039772082877091386
-0.045980594602832055 0.0025073482019989934 0.038452434669904445
-0.04605224489366399 0.0023080594572588153 0.037058073704666517
-0.04613899461934773 0.00223235952223122 0.03556720633805466
-0.046238764945007095 0.0022621395597937632 0.033991815936671665
-0.04634654026793848 0.0023550156013221746 0.032362372621241364
-0.04647097775954353 0.002582405505470897 0.030624211147135316
-0.04662255910750575 0.0030302332265481624 0.028710495522621005
-0.04679178565920023 0.0036185966518780255 0.026679366314716124
-0.04699419100050432 0.004474660417549514 0.024431568871420006
-0.04723545319100853 0.005643415874064528 0.021929044472211112
-0.04751856230165696 0.007147389024229456 0.019150361205774014
-0.04784654251157353 0.009009177555126702 0.016073621883825995
-0.04832873448454689 0.012120427855242366 0.01199604699723178
-0.05050771472128984 0.07477470245831525 0.028830382385704068
-0.04641710848557448 0.03686906329944312 0.05153730123431299
-0.04593533064955346 0.031690693772063794 0.05336076813890134
-0.04565784609773963 0.028370279839749768 0.054008338592447136
-0.045464371015416206 0.025815228526680833 0.05417394709564882
-0.045303954951763564 0.02356377860010045 0.05415277951132086
-0.04516203650565639 0.021483736108614482 0.054028930740489256
-0.045050275789478206 0.0196783389696793 0.05373194253058422
-0.04496244713476502 0.018090432204755924 0.0532970113788358
-0.044886998342504356 0.016615882286357853 0.052791737434692454
-0.04482074102974585 0.015225696182825932 0.052234477407329616
-0.04476474153678141 0.013928837313159248 0.051618218220471246
-0.04471256755192306 0.012667832574480453 0.05098120636343001
-0.04467205769498582 0.011511706046429981 0.05027562444411765
-0.04464403588798475 0.010467094922481768 0.04949570988116875
-0.04462237796896335 0.00947946169453523 0.048678094113823234
-0.0446069389601154 0.008547192830132666 0.04782326002664705
-0.04460187931562629 0.007706402298154391 0.04690520638682433
-0.04460137341464663 0.006905603586075282 0.04595924656211603
-0.04460946921418399 0.006179869788127179 0.04496000567524305
-0.044624909975645555 0.0055177979806174116 0.04391474905680526
-0.04464948534255483 0.004934544835040522 0.04281184168799956
-0.0446822100126785 0.00442107740923986 0.04165686901356641
-0.044726171961958154 0.00400368015198016 0.04042991255319184
-0.04477531841546366 0.003629483141045331 0.0391684064739366
-0.04483645623453833 0.003356866937688885 0.03782897033091981
-0.04491096564432533 0.003197058692235022 0.03640208013113644
-0.04499988049704147 0.0031582144712340443 0.03488029975267437
-0.045100654777668545 0.00321775867840407 0.033278974204812684
-0.045208897249528715 0.0033375281063380835 0.0316254922268675
-0.04534026020742524 0.0036506093252678395 0.029818719985999942
-0.04549093248069811 0.0041233293231016654 0.02788177158806493
-0.04566102720515685 0.004755614594066371 0.025812682012673727
-0.04587049259204497 0.005715479461450568 0.023480654603591944
-0.046121615712364644 0.007020156368912511 0.0208682736465286
-0.04640889108834141 0.008620953336544113 0.01800887032559828
-0.04677072766803071 0.010839379975632668 0.014648231941162493
-0.048838896479707274 0.07229643963991239 0.030414160814220714
-0.04568768714332413 0.04207905358102282 0.04818893589036155
-0.04490128857927824 0.033937376178259926 0.05190871554783011
-0.04454616632212146 0.029821555118712206 0.05306507924215914
-0.04432947883380959 0.02699921770670738 0.05340008123829104
-0.044158966941410076 0.024611088307596174 0.053464403491857604
-0.04401875947694294 0.022508406867803032 0.05335165789201096
-0.04390186300580693 0.020625203908412493 0.053102592595935805
-0.04381004698909952 0.01897643156693224 0.052704824799250816
-0.04373136681140596 0.01745132421495016 0.052230225975426314
-0.04366269078564587 0.016020536952966957 0.051697277472846026
-0.04360504505552284 0.014692877895507495 0.05109896164755684
-0.04355462121377041 0.013433073343451396 0.050458244786256934
-0.04351508421778808 0.01227401831362429 0.04975177427456157
-0.04349144593327556 0.01126054933064008 0.04894743911254962
-0.04347166398757297 0.01028283839897276 0.048119896772203796
-0.04345572789245101 0.009340578351019757 0.04726896020384341
-0.04345152962697724 0.008504669227997919 0.04634442044795034
-0.043453628658863486 0.007725541457498486 0.04538006457826238
-0.04346091510684694 0.006992888088271754 0.04438255327001894
-0.043477102230435646 0.0063396776433775615 0.04332779706494938
-0.043500972415795015 0.005754537675099036 0.04222302566370556
-0.043536269104008984 0.005270431999954306 0.041043628844324276
-0.043581060554765516 0.004869537671824853 0.039801337979057605
-0.043634284657321706 0.004541897791126459 0.03850241554676803
-0.04369812563848982 0.004306408162066011 0.037132099188561585
-0.04377568359490714 0.004189905340644895 0.035669457429976015
-0.043867229641683846 0.004194026709951892 0.034111814096515036
-0.04396598432316488 0.0042582837962016895 0.032502797051626064
-0.044075472302195114 0.00441326218671112 0.030818696029017656
-0.044208116616410255 0.004767344279358154 0.028976633374643623
-0.04435661025310551 0.0052552919935935916 0.02702358120478715
-0.04453384201144145 0.005988818057491074 0.02487268094205075
-0.044749917673183766 0.007054429326425471 0.02245453678506759
-0.045010323058051145 0.008497703771170484 0.019729831664366038
-0.04531496436717676 0.01031538481615657 0.01669628555077962
-0.04572238485665742 0.01301212036622329 0.012956068131265153
-0.04746548059943835 0.07250739443822046 0.03027934635609647
-0.04670189825155163 0.06429631608505693 0.03391030814147761
-0.04397047679413411 0.0373030216267588 0.04973346630893383
-0.04348560120428696 0.03184585154491271 0.05174938361952486
-0.043209224496818646 0.02839222681639003 0.052489598096082224
-0.04302587830766034 0.02583307882536262 0.052661213220229874
-0.04287932765220673 0.023629818904259414 0.05261044231867873
-0.04275923435367723 0.021682512048690206 0.052399834703266035
-0.04265915883208257 0.01992883052344263 0.05206825788449504
-0.042576262071917816 0.018340875810105073 0.05163234670076555
-0.04250754878218158 0.016889493839937986 0.0511099855267283
-0.042445483819985294 0.015503131878679133 0.05054829756476836
-0.04239944721132132 0.014269305631928075 0.04988676797242625
-0.042363414622992805 0.013130770676935133 0.049163026211461625
-0.042337697295427586 0.01208986423882552 0.04837438901986246
-0.04232129316894362 0.011136668599366295 0.04752664363775083
-0.04230791392549738 0.01021220824611313 0.046659994847555675
-0.04230429936600019 0.009378827843999238 0.045730320274346536
-0.042306106569081965 0.008595772137027169 0.04476535711206758
-0.04231442169108382 0.007872767389792534 0.04375761233218306
-0.04233057923988958 0.007221747272913304 0.04269785992272479
-0.04235604637751316 0.006655764964243638 0.04157587724550532
-0.04239315523501528 0.006195704103114319 0.04037557568096933
-0.042439056930414214 0.005814802255766804 0.039115117359986185
-0.042497820178193445 0.0055497623619247816 0.03776675368523763
-0.04256833166909625 0.005389696641601716 0.036337070535926996
-0.04264838115181664 0.005313813268151613 0.03484012445793616
-0.04273586192187848 0.00530242844972062 0.03328947312926733
-0.04283209866223496 0.005367132560488375 0.03167565404233452
-0.04294043443611339 0.005537679743498614 0.02997538742128336
-0.04307565920256254 0.005946935733959546 0.02808714910879173
-0.04322695326253152 0.00649587915991906 0.026083037842791312
-0.043410117904901326 0.007325685328185394 0.023853662829464828
-0.04363864001535299 0.00855556703948529 0.021304124663058532
-0.04391665988278661 0.010220025100289742 0.018402792745109087
-0.04425446849460165 0.012408206042978764 0.015075089703207034
-0.046156008019932596 0.0733633988627394 0.029732301332380418
-0.04553618012620432 0.06634763488415091 0.03259196311489149
-0.04490381152295131 0.059232504786712936 0.03556022902562023
-0.04248119318706322 0.0345448264264564 0.04999517934821074
-0.04212559429619478 0.030228942725829988 0.05128910424363886
-0.04190630671467741 0.027261467968853148 0.05172236120176471
-0.04174880288058057 0.024906226319232616 0.051766780022272085
-0.041625740654626306 0.022892979364137978 0.05159527695198801
-0.04151487412446443 0.02100321582937592 0.05135015741327781
-0.04142481985067378 0.01931991214971457 0.0509743235576669
-0.04135531088807367 0.01783926462760349 0.050468074814450925
-0.04129289283238286 0.016429919763666867 0.049918434816511925
-0.041247648279928245 0.015188802112896305 0.049258388840798306
-0.041212513472392714 0.014046851134609684 0.04853350872403345
-0.04118673105947717 0.012996193992883598 0.047748122273127525
-0.0411708538570653 0.012041588842839734 0.04689789242864262
-0.04116203847744805 0.011155227913832388 0.046001152934064926
-0.04115639861549135 0.01029955806280397 0.04508350335020905
-0.04115733848556292 0.00950686067724743 0.04412178875575401
-0.04116979581350767 0.008823747569701779 0.043082171456975904
-0.04118696637144817 0.00818491695153123 0.042010004526155664
-0.041211806677649135 0.007618117785221368 0.04088483613595639
-0.0412478842898898 0.007156648727507653 0.0396817666987872
-0.0412995165468723 0.00684060832249761 0.038370427157774556
-0.0413617173311228 0.00662211635649379 0.03698401961687031
-0.04143648694922052 0.006519360001925767 0.03550800721968639
-0.04151869965075878 0.006483517804994288 0.033976998114392865
-0.04160412025561025 0.006474505174887346 0.03241989067258216
-0.0417000214395538 0.006560079609236935 0.030785778124528873
-0.04180981918994079 0.006771475986844966 0.0290500452421939
-0.041945319413504704 0.0072177189872296155 0.027128900636676667
-0.04210480416547072 0.007881357174949644 0.025032646394612834
-0.04230134328917404 0.008882075662688615 0.022667314733525012
-0.04255052296868815 0.010361805078492603 0.019919895809682786
-0.042853797836699375 0.01233088925746556 0.016776383757147795
-0.0433204176388066 0.015791936484593205 0.012453896038433276
-0.044894160632362644 0.07475853236847169 0.028840716172456315
-0.04434326010154398 0.06825033276275777 0.031369134032222745
-0.04381944547661405 0.06203936898181944 0.03374612552080397
-0.04167758674003836 0.03944793802836033 0.04680839188545732
-0.041086386239328185 0.03262985180701544 0.049719848716736126
-0.04081412159950804 0.029055637737349205 0.05054308879109276
-0.040631222443292314 0.026392841054885152 0.05078417776922978
-0.040496234514236736 0.02421920089089402 0.05071378118944564
-0.040381142463650654 0.02225066262409059 0.050516385649874096
-0.04028758834623861 0.020502474295042872 0.050179508055630706
-0.0402067193010033 0.01888484464059914 0.04976141061757172
-0.040144608786421766 0.01745759764400623 0.04922000530041881
-0.04009993429682158 0.016206436231273436 0.0485629429561687
-0.040067067737935246 0.015074390308696117 0.047827398388761266
-0.04004159305059147 0.014016960130778466 0.047042780883314095
-0.04002451333426384 0.013043626507147132 0.046201662680718125
-0.04001546355527061 0.012150278657229674 0.0453059594420927
-0.040011226458415504 0.011304725322700993 0.044377369042882475
-0.04001237153167229 0.010512277582082064 0.043411589388414995
-0.04002611752098119 0.009843464779946132 0.04235790958538049
-0.04004342798290236 0.009209014276587935 0.04127863715933494
-0.040071086978567684 0.008675025875933051 0.04012589728964572
-0.04010994286820268 0.008249151692474976 0.03889297164138894
-0.04016432942333065 0.007972905756745086 0.03754842889453486
-0.040228700193386466 0.0077914695202867534 0.03613048378458977
-0.04030582292908439 0.007731073865541671 0.03461872679386474
-0.040384058456654 0.007678345708372947 0.03309533320934732
-0.04046939135221069 0.007690996303310105 0.03151735646020881
-0.04056626432448619 0.007811401009146124 0.029852358003005286
-0.040683480988498465 0.008123505556001775 0.028036028548218794
-0.0408268741673673 0.008682045720186382 0.026024708516641792
-0.04099699174325239 0.009490689597331903 0.023812541134617504
-0.0412162290786473 0.010761794309928296 0.021234511799313127
-0.04149488839176542 0.012590621334393426 0.018211819850886934
-0.04185074861305099 0.015142737277713536 0.014609870636269895
-0.04367141497861663 0.07665525234226306 0.027628583158507747
-0.04314926590745817 0.07026450110100108 0.030074664926492856
-0.042706140385885834 0.06472391409242739 0.032011078024568984
-0.04225184776875559 0.05908485537309577 0.034045337098568995
-0.04016789252842714 0.03644626377060156 0.047225407917737605
-0.0397533709489872 0.03129317496439765 0.04907239969241206
-0.039542258714036396 0.028273020549168026 0.04954144247076969
-0.039378777232092974 0.02575606038472622 0.04969228130869052
-0.03925767630452809 0.02368493984334974 0.04955773967685284
-0.039155194445654004 0.021811347752015375 0.04929979706715104
-0.039070257084638765 0.02012303797982129 0.048924567056325974
-0.03900657082538912 0.018657088792537968 0.04840480820563431
-0.03895373201648507 0.017305259933292405 0.047812012530682124
-0.03891992761077629 0.016150844192094227 0.04708767455955826
-0.03889578559178994 0.01509672997386774 0.046296668396301255
-0.03887914951815247 0.01412028862119552 0.045453582824077354
-0.038871561944628555 0.013236778120429393 0.044546875183465895
-0.038867434656114364 0.012388784880582648 0.04361581255815983
-0.038870781039631076 0.011616839925254085 0.042631356359175865
-0.03888417233698628 0.010946529800870075 0.041574449299999594
-0.03890282392166105 0.010328851730755706 0.04047889620690498
-0.038933128971468514 0.009827988119070818 0.03929798439699528
-0.03897256255168126 0.009417788851942832 0.038049207143864006
-0.039029500943060874 0.009181858613841076 0.03667078215718972
-0.039092359492359695 0.009002935535595336 0.03524620888315444
-0.03916923556081038 0.008961685241958894 0.03371557742692133
-0.03924698320154073 0.008925951023994072 0.032174723790182436
-0.039333948026908816 0.008978850820305972 0.03056187660919224
-0.039436909649658264 0.009187236141537991 0.028826057168889585
-0.039568366102352745 0.00967414867394839 0.026873052498089856
-0.0397217760431687 0.010373031953551604 0.024749601239047236
-0.03991433723013788 0.011452486378379478 0.022325217236640715
-0.040168726431160644 0.013133721589622172 0.0194265261355685
