# .PCD v0.7 - Point Cloud Data file format
VERSION 0.7
FIELDS x y z
SIZE 4 4 4
TYPE F F F
COUNT 1 1 1
WIDTH 773
HEIGHT 1
VIEWPOINT 0 0 0 1 0 0 0
POINTS 773
DATA ascii
0.08496692180464466 -0.07918207734530747 0.019613286284553944
0.08473605694005926 -0.0794318001511187 0.017816421981127872
0.08436529038245083 -0.07972005690637175 0.015866562395827788
0.08305874961572518 -0.08026007230157078 0.012943024983633256
0.07928524026908906 -0.0814643315884346 0.007448146267055644
0.055753627780375736 -0.08021800391335995 0.036458623092229525
0.0596582792094657 -0.07943719949913548 0.038374972233672255
0.062126124670576266 -0.07900666506497324 0.03905644909771816
0.06408422454777007 -0.0786999900108683 0.039303257430153005
0.0657762353797886 -0.07845774786532257 0.03932503628784484
0.0672739531299148 -0.07826257676718715 0.039182306231967445
0.0687088666524408 -0.07808212967972394 0.03899053470101438
0.07011517597146982 -0.07790799100649279 0.03877977298646251
0.07139340465749028 -0.07776502722614947 0.0384593445564152
0.07257295402325398 -0.07764609658128115 0.03805430143196964
0.07369169268735315 -0.07754186992878488 0.037598009475994176
0.07474740656057899 -0.07745300388919134 0.03708758249589866
0.07575089247266581 -0.07737688466895314 0.03653214593428711
0.07667759619975834 -0.07731979700719693 0.03590808223374509
0.07755880633087764 -0.07727395650086932 0.035243601502935484
0.07838664179460952 -0.07724143887760117 0.034530630750189695
0.07917823695598819 -0.07721798162165569 0.03378461507714636
0.07992560487189898 -0.07720568187344712 0.032997427496773424
0.08064263649098447 -0.07720107047936693 0.032181703071096635
0.08133330560493124 -0.07720318396977062 0.03134081270638395
0.08198505251547167 -0.07721529072508258 0.030462224134890914
0.08257118105804806 -0.07724432396363265 0.029519416124953457
0.0831047062430712 -0.07728704825905025 0.02852410104725439
0.08355222413490815 -0.0773521877938299 0.027442682409094254
0.08394750317485389 -0.07743115745741579 0.026307152143346946
0.08430477760408939 -0.07752036079163664 0.025130807339527494
0.08458149018681915 -0.07763094016140644 0.023870613262961138
0.08492249482225472 -0.07772527834183895 0.02267045316521793
0.0850385737456042 -0.07787884790814112 0.021239972943385865
0.08507716578155661 -0.0780534453679014 0.019724908142153053
0.08471647282978928 -0.0783337234022839 0.01779649047256371
0.08455287338402873 -0.07856345807178096 0.01605846057104582
0.08356224814488017 -0.07901250100889982 0.013460769763620373
0.08210696531885497 -0.07958658780698573 0.010364710358503226
0.05657248563450401 -0.07889028656953437 0.03717155866958938
0.059914775564017086 -0.07825624258811806 0.0385994663506784
0.06229194903185176 -0.07785364314750264 0.03920234808072942
0.0642136361695278 -0.07756005606457396 0.03941771791314297
0.06585244325494977 -0.07733412772805495 0.03939279400139101
0.06734244640985171 -0.07714354905915159 0.03924352459528646
0.06877689149493926 -0.07696572056652269 0.03905165344988254
0.07016153492477334 -0.07679931541830709 0.03882164386023923
0.07142152585803879 -0.07666282651992304 0.03848487639652626
0.07260247978884166 -0.07654520894226133 0.03808124888227249
0.07370638332465651 -0.07644610018684384 0.03761148742573539
0.07476433916432551 -0.0763579221701993 0.03710319857813893
0.07574246132879653 -0.07628916261443616 0.03652432968353314
0.07666766945137071 -0.07623325595348361 0.03589883139382993
0.07754891400561553 -0.07618805815993639 0.03523433462875286
0.07837981476407463 -0.07615523792522211 0.03452420200751055
0.07917067335654732 -0.07613229953267957 0.03377745561066742
0.07992183302206746 -0.0761192251482715 0.03299383858213317
0.08064188395790484 -0.07611392088302919 0.03218098330793834
0.08134006294765345 -0.07611411031056213 0.031347309423616354
0.0819798071268667 -0.0761290778986281 0.030457154829716282
0.08257192920634476 -0.0761561861030265 0.029520142916705905
0.08308677153224314 -0.07620305486321134 0.02850658778625631
0.08353430109092208 -0.07626728462403094 0.027425089664517954
0.08392211918734155 -0.07634705718681895 0.026282106641879577
0.08426819503116956 -0.07643788457962408 0.025094525349664276
0.08455982955724317 -0.07654310168223001 0.02384901922669258
0.08480892014877522 -0.0766597520138644 0.02255664088751902
0.08488288732188648 -0.076822078717182 0.021083152663472104
0.08503667747167853 -0.07696455850350031 0.019683913790477514
0.08483544430551176 -0.07719963017768285 0.017917572357548983
0.08468963004139435 -0.07742144024594245 0.016198363188962228
0.08409218389233192 -0.07776179470221638 0.014005699790391679
0.08217951839497623 -0.07844673125432103 0.010439701965696435
0.05696273954996445 -0.07767032045927277 0.03751133180497912
0.06009408103373198 -0.07709548908556427 0.038756400444998784
0.06238989271146894 -0.07671801316450211 0.039288522893275724
0.06426213845639284 -0.07644042414794071 0.03946061665056155
0.06588772712953045 -0.07622087426265567 0.03942416549235017
0.06738145836348175 -0.07603210109035966 0.039278392949573304
0.06879507919525191 -0.07586181933424843 0.03906799467827904
0.07014110724838224 -0.07570712517891962 0.038803193817717296
0.07141371492239307 -0.07556953754799893 0.038477784680805205
0.07257917044042528 -0.07545737160900719 0.03805997500518449
0.07368473347702048 -0.07535928727145139 0.03759162473684602
0.07471507551403345 -0.07527912337907298 0.03705776521030418
0.07568956450799968 -0.07521226265668537 0.03647529068931771
0.07660962327723742 -0.07515844730208283 0.035844737561325446
0.0774956366240907 -0.07511275540682129 0.03518442575714875
0.07832746403025931 -0.07508020576295933 0.034474905407027856
0.07911317769363174 -0.07505889542660266 0.033723032015850196
0.07986298000997571 -0.07504637657475847 0.03293783994853006
0.08058317485026412 -0.07504114605417728 0.03212483075613931
0.08127022246994853 -0.07504413483712104 0.03128016263919586
0.08191384950417036 -0.07505796104801422 0.030393411350782662
0.08250907173953625 -0.07508394567926682 0.029459079770989716
0.08301725426403311 -0.07513184937537412 0.028438704112317637
0.08347230068861111 -0.0751933153885726 0.027364231852511745
0.08386312210532287 -0.075271229159394 0.02622389626403604
0.08419649707181082 -0.0753639970612566 0.02502341650118689
0.0844791347195149 -0.07547002800634643 0.02376857247668107
0.08468104515098795 -0.07559701509297208 0.0224284983684781
0.08478475129342544 -0.07574954608931687 0.020984301915376036
0.08484007787297954 -0.07591511771323874 0.019484856998218114
0.0846750364293351 -0.07613771414625471 0.01775431904076863
0.08453095044139725 -0.0763560109463673 0.016036033311374043
0.08391118138282294 -0.07669732414364125 0.013819575901171777
0.08214015883367282 -0.0773361803137659 0.01039901951750316
0.057040846324329986 -0.07652632754853088 0.03757933518065326
0.06014940242909261 -0.07596514720212391 0.03880481956512527
0.062370308761309834 -0.07561077586115743 0.03927129214147557
0.06422252936023287 -0.07534195273435329 0.03942558365881249
0.06586126495947175 -0.07512249171961087 0.03940063752841133
0.06735438986862197 -0.07493661239121632 0.03925419949651704
0.06875632895011569 -0.07477159231456193 0.039033178478577846
0.07009159835259371 -0.07462172640345012 0.03875847795209336
0.07134339887679081 -0.07449113236996681 0.038413943237391
0.07251466299957676 -0.07437923867935581 0.03800110062811651
0.07360738784667148 -0.07428569317183589 0.037520663859042014
0.07462497468697071 -0.0742098026037399 0.036974669784084535
0.07558985433593007 -0.0741462778795925 0.03638285249591239
0.07652098406426244 -0.07409062122205971 0.03576213375820497
0.07740045220522185 -0.07404722639874071 0.03509525945797887
0.0782295426411257 -0.07401586607303084 0.034382696735877905
0.07901705083928379 -0.07399448250559913 0.03363204134443598
0.07976710631735962 -0.07398213728112267 0.032846616142064355
0.08047774232795385 -0.07397937399085225 0.032023989414680654
0.08115600495027409 -0.07398453230565613 0.031170350401040436
0.08180210533444182 -0.07399761554020728 0.030285418341971015
0.08238477603577993 -0.0740263780584645 0.029338332196266415
0.08291029922868903 -0.07406937912213163 0.02833426242563547
0.08335270937185674 -0.07413314205315498 0.027246844454989483
0.0837383301207264 -0.07421128555623192 0.02610076833420205
0.08407094280065641 -0.07430297115912775 0.0248988938547538
0.08434155408202249 -0.07441053505053893 0.02363141481626113
0.0845493165442322 -0.07453430129095377 0.022296494178515147
0.08464305182853421 -0.07468719532919683 0.0208415704605886
0.08464622612272915 -0.07486353666981908 0.019288582398299947
0.08456573981180876 -0.07506175709564789 0.017643083634195478
0.08424035649728784 -0.075322660585212 0.015738754522065246
0.08352639452048127 -0.07568300488821691 0.013423901678012828
0.08190687726990287 -0.07627445783077226 0.010157897289047757
0.05705595944243064 -0.07539744464730946 0.03759249336131243
0.06006847815160532 -0.0748667724593107 0.03873399195336197
0.06224785485100731 -0.07452730308897133 0.039163552236183785
0.0641028339335426 -0.07426185447515003 0.03931971684279878
0.06576500164896837 -0.07404021473897408 0.03931504818735837
0.06726200358293416 -0.07385621250788156 0.039171625889177164
0.06865585014061526 -0.07369556489271642 0.038942900590399454
0.06997837630565351 -0.07355095006382545 0.03865621710066436
0.07122457080471406 -0.07342365676482134 0.038306056686397805
0.07238712366435768 -0.07331552794683881 0.037884698569471575
0.07348123153017194 -0.07322309926459915 0.03740492153566927
0.07448933916321065 -0.07315064005833936 0.036849580014936045
0.07545859854265075 -0.07308708206969959 0.0362611693400931
0.07640016881393208 -0.07302982848310897 0.03564954477171378
0.07727700492397466 -0.07298776604216863 0.03497961724108861
0.07810116275174195 -0.07295811476462001 0.03426180650844962
0.07888070383536161 -0.07293902700389325 0.0335029795383846
0.07963187424239726 -0.07292667073488893 0.03271794283974644
0.08033453770068982 -0.07292594402784575 0.03188702079816691
0.08099655709198683 -0.07293502893479119 0.031017052323499328
0.08163696222347588 -0.07294938770103174 0.03012581895095967
0.08222138806546997 -0.07297739446417038 0.029179608277758673
0.08273287005489266 -0.07302327012704467 0.02816100268037608
0.08318512101476871 -0.07308379761410198 0.02708234454289299
0.08357377448945824 -0.0731601467504705 0.025938406991155127
0.08389963035113696 -0.07325223317122585 0.024728989004962898
0.0841656551753519 -0.07335943986244485 0.02345605669211598
0.08436125221716861 -0.07348448119161512 0.022108036410940002
0.08446817870129775 -0.07363198294649247 0.020665423741383582
0.08444459366431872 -0.07381244859225103 0.019084429843299
0.0843219840644292 -0.07401831072111131 0.017395003956361177
0.08402128085316263 -0.07426939100088674 0.015514639245154782
0.08333401155570891 -0.07461792002789355 0.01322607532897363
0.08142759493146196 -0.07527239456226344 0.009662506124668402
0.05683668198007008 -0.07432207249153036 0.037401580245633226
0.059847794827289136 -0.07379975294409567 0.038540842588268676
0.06201984163540125 -0.07346714018764212 0.0389629369827062
0.06390044143916596 -0.07319989321285456 0.039140707088147264
0.0655859570475465 -0.07297629796440366 0.03915585659738857
0.06709939990767783 -0.07279134626917126 0.039026292932746676
0.06850144652751278 -0.07263128702628455 0.03880417251243634
0.0698154760006916 -0.07249087753721506 0.03850908741758913
0.07106025129990384 -0.07236589852886001 0.03815686748956021
0.0722143119569279 -0.07226144428254318 0.037726977514487114
0.07330071892099865 -0.0721722808035534 0.03723930994075658
0.07431345201710249 -0.07209991846517316 0.036687368214568916
0.07529879121780925 -0.07203363870007272 0.0361130169490716
0.07623867832364628 -0.07197772002913302 0.035499050106681584
0.07710843753919672 -0.07193803634861781 0.034821707679418556
0.07793692204915159 -0.07190789883230174 0.03410714758184957
0.07871920180403214 -0.07188853804611865 0.03335010677077871
0.07945717851460021 -0.07187957825043707 0.03255171987671979
0.08014816888744036 -0.07188172840022806 0.031708767629957335
0.08080755893452046 -0.07189140565925448 0.030835343678995486
0.08143554307428791 -0.07190861610896536 0.02993116127883283
0.08200601455483691 -0.07193965158568755 0.02897038279141717
0.08251472682841565 -0.07198562609781012 0.027947985626637084
0.08295662990793817 -0.07204785698537343 0.02685806424298709
0.0833483390885606 -0.07212245975979298 0.02571597768759387
0.08367190764899562 -0.07221385100411142 0.024503137401008568
0.08393405126921749 -0.07232052545348366 0.023225164827617495
0.0841279032737639 -0.07244425564201351 0.02187419928921308
0.08423970963229405 -0.07258850414648019 0.020435290743931078
0.0842223321757472 -0.0727648962265389 0.018859390426888112
0.08407707331537145 -0.07297334321124019 0.01714574878852393
0.08374717410291582 -0.07322796229866223 0.01523422692237053
0.08301971327573249 -0.07358130734624126 0.012902884129011583
0.08078643300209132 -0.07430655966006025 0.008999794546812656
0.056384595694243755 -0.0732974285717652 0.03700797298452296
0.05950501468188879 -0.07275866574934925 0.038240830035640216
0.06170138914870216 -0.07242578095578434 0.03868274959896223
0.0636312667817317 -0.0721516114843107 0.038902630624224444
0.0653383341745038 -0.07192666065966065 0.03893569090370386
0.06688792430779306 -0.07173643461832539 0.038837278913870954
0.0682921659570665 -0.07157840923053022 0.03861613875655673
0.06960431924733551 -0.07144066210356739 0.03831837306498104
0.07085029659054798 -0.07131741084121392 0.037966245113371544
0.07200855569477688 -0.07121368651346795 0.03753918876325729
0.07310292075552183 -0.07112415459296394 0.03705783968333004
0.07411804412436329 -0.07105244210863439 0.03650715341895405
0.07511188277316228 -0.07098530959875497 0.03593973995439054
0.07604405166794831 -0.07093212005477507 0.035317675504971224
0.07691294145387301 -0.07089334199372006 0.03463857200828996
0.07774508413429876 -0.07086291587928684 0.033926501459881075
0.0785172728161474 -0.07084629868900162 0.03315896711152061
0.07923985185358956 -0.07084117368334673 0.032344933586102353
0.07993511075674309 -0.07084241068827551 0.03150498736142732
0.08058588159307939 -0.07085407598492549 0.030622216261403434
0.0811954429375662 -0.07087547234131597 0.029699121108471616
0.0817512210322704 -0.0709096271698853 0.028722862571688434
0.08224817754496044 -0.07095781839708691 0.02768770001541332
0.08269174439661592 -0.07101886001209148 0.026598060242200516
0.08306925848644914 -0.07109584382632136 0.025440618521651248
0.08339277479068974 -0.07118601818203865 0.024226298055735063
0.08365249594465396 -0.07129180941061496 0.022944475115025953
0.08384604859434525 -0.07141389462833204 0.021591754954908893
0.08395061683121258 -0.07155784858075889 0.02014409249488608
0.08394913837659196 -0.07172791898403949 0.01858278212409975
0.0837885621082391 -0.0719370458191522 0.016852119743521243
0.08340859391006522 -0.07220003780869139 0.01488785800500353
0.08256968012354104 -0.07257514581182384 0.012440117503338732
0.05552157691847226 -0.07236045769073064 0.036256588863243455
0.059021072547536746 -0.07174646528648754 0.03781726782820288
0.061274706152186775 -0.0714062330001079 0.03830733663321373
0.0632656959224489 -0.07112289999719615 0.038579294771136086
0.06499601175327208 -0.07089640932421576 0.038631326236545915
0.06662258141682337 -0.07069208181134924 0.03860011904185917
0.06804209148643164 -0.07053320187423863 0.038391452624142286
0.06935339793512729 -0.07039789022170659 0.03809174381986913
0.07062906874679259 -0.07026998308607521 0.037765387617080426
0.07176347546204925 -0.07017334472284059 0.03731550997762095
0.07290486978798832 -0.07007468879228551 0.03687613749223417
0.07388214422044803 -0.07001275323984153 0.036289594893688104
0.0749347642677704 -0.06993343242221518 0.035775538907323434
0.07584303613385163 -0.0698865898796941 0.03513034704113038
0.07669117897841438 -0.06985324410885121 0.034430830662948
0.07754995398499615 -0.06981731520968472 0.033742755171887406
0.07829377612579891 -0.06980755452018995 0.03294741214021113
0.07901766054251075 -0.069802326702865 0.032133518581557
0.07971342409542959 -0.06980354645930777 0.03129295430160395
0.08034196291295059 -0.06982027882474773 0.030387705336378967
0.08092628780502609 -0.069847311560136 0.029439001294876588
0.08147112777525234 -0.06988362065651142 0.02845076482044534
0.08195254419408377 -0.06993483169214774 0.027399013786609472
0.08237371540060623 -0.07000030919339639 0.026285892125054833
0.0827505320691061 -0.07007644496448748 0.02512614220269732
0.08306269762547014 -0.07016806200651295 0.023898932990712884
0.08332899270997962 -0.07027086608415803 0.02262196645672243
0.08352446211961834 -0.07039080162783741 0.021269495704280883
0.08362320755946567 -0.07053409150769942 0.019814298718295542
0.08359747878068086 -0.07070745495815646 0.018226727322398606
0.08343948544392343 -0.0709129504849702 0.016496850883796488
0.08300739523483613 -0.07118446032984295 0.01447743012492525
0.08191947116017001 -0.0716132485849389 0.011771511187345762
0.05413771663357447 -0.07153080854213952 0.03505173599870176
0.05822937818415369 -0.0707979994652935 0.0371243506623537
0.06061935348131481 -0.07043368210897585 0.03773073083501577
0.06263168649190465 -0.07015042286176541 0.03801853349904433
0.06454786662821016 -0.06988699527858137 0.03823287280969434
0.06639925279902464 -0.06963663592818703 0.038400510956561884
0.06774943720180282 -0.0694956304263922 0.038128509512912856
0.0691400359405186 -0.06934506062024423 0.03789903771870856
0.07044918835483333 -0.06921184482419701 0.03760207035760954
0.07143897048294345 -0.06914890280220037 0.03701934215187863
0.07275324817078666 -0.06901349715702533 0.03673703198618111
0.07358385398705769 -0.06898530394184868 0.0360144969296764
0.07481451569718967 -0.06886759152978866 0.035664060204666226
0.07563868216354547 -0.0688403782045091 0.034939907453915064
0.07648212255923231 -0.06880871383109459 0.03423499202215252
0.0773950444540254 -0.06876127184958813 0.03359688303786584
0.0779693512661146 -0.06878996986969274 0.032640321723008126
0.07884073701820682 -0.06875165392612696 0.03196517587043429
0.07947776339074597 -0.06876625362549729 0.031067555714254846
0.0800401078587274 -0.0687978789272377 0.03009749259846234
0.08067252644479517 -0.06881370248984231 0.029193758497171263
0.08115502207116221 -0.06886380106063002 0.028143682628772038
0.08162312879424416 -0.06891742353409358 0.027077339357091945
0.0820301203604335 -0.06898530396530873 0.02594862911414353
0.08239417146317718 -0.06906336733584693 0.024774533533083676
0.0827100139909569 -0.06915289850648615 0.023549147203901832
0.08297006581939415 -0.06925572854389117 0.022264143048779494
0.08315684291993225 -0.06937599668015244 0.020901107425800147
0.08323527507577394 -0.06952195964025767 0.0194235409423284
0.08318957908640923 -0.069697469124858 0.017813729507333842
0.08297760766576001 -0.06991255648414609 0.016026779955675252
0.08245264792489038 -0.0702017712888955 0.013909921365654943
0.08100909128485623 -0.07070743006373316 0.010835372547496891
0.05779941476292316 -0.06976645700101178 0.036748032415012954
0.060279101225093445 -0.06938884040960505 0.03743136313193446
0.06233664483806517 -0.06910049889940298 0.03775757849560679
0.06430105050194129 -0.06883098027033102 0.03801342440824074
0.06608172839531284 -0.06860001890443979 0.03811671195720029
0.06723917582884426 -0.06850321682958845 0.037670051461919096
0.06885589355130795 -0.06830612368402175 0.03764240357868909
0.07009825833798355 -0.06818971578352771 0.03728345348117429
0.07119769527844466 -0.06810399685187042 0.036799136123241316
0.07246592731701018 -0.06798093951084996 0.03647342898878653
0.07332849491042859 -0.06794632450419844 0.035778992195665826
0.07456292372950712 -0.06782977988813448 0.03543081713141577
0.07546792283637527 -0.06778530933441938 0.03478077506353022
0.07617452910764788 -0.06778446122864154 0.03394684644063162
0.07718417634501162 -0.0677165120262107 0.03339831694018186
0.0777794025627856 -0.06774021945882924 0.03246052222611012
0.07866817130757237 -0.06769874234402189 0.031800979618470004
0.0792827447434497 -0.0677182048695567 0.030881029379003833
0.07978620531640124 -0.06776258739409857 0.029853382881094515
0.08046148968903527 -0.06776869030436847 0.028989806073704882
0.08078148186512168 -0.06785458653417539 0.027780805452989277
0.08131038540885288 -0.06789387246650665 0.026771945164440036
0.08165095508817549 -0.06797582179663368 0.02557645138628556
0.0820127670839994 -0.06805335275117508 0.024398215039635296
0.08232170800299055 -0.06814322939047203 0.0231640317569895
0.08256486553266218 -0.06824847194969079 0.021860188507336786
0.08272011612698199 -0.06837422643937846 0.020463466977317768
0.08277192090428681 -0.06852418479894935 0.018956812186302685
0.08267851987431257 -0.06870807246014295 0.017296282838633714
0.08239806255188636 -0.06893572808966414 0.015436954416438498
0.08169026819659925 -0.06926269434955204 0.013130003796090417
0.07966329109458703 -0.06989516790609333 0.00945149358247388
0.056936063719973395 -0.06882340955135323 0.03599239894648942
0.059646243603518945 -0.06840353357201044 0.036874549388353994
0.06181880711353155 -0.06809575734338683 0.03729956742012913
0.06375101759911661 -0.06783767231262695 0.03752438083115994
0.06545927004570973 -0.06762612163195657 0.037560367138671114
0.06675449735168226 -0.06750177231614084 0.037234579051554306
0.0682995783602185 -0.06732341533028739 0.03713994609235066
0.06943833396470223 -0.06723136730204282 0.03668429401232681
0.07077063278850293 -0.0670973134248314 0.03640936654420229
0.071910023743472 -0.06700419763312662 0.03596341432635969
0.0730509259270864 -0.06691033202136064 0.03552300439035844
0.07393214309416613 -0.06687222176222372 0.03484604006047409
0.07499774091949257 -0.0667939550822635 0.03434260765218461
0.0757585668981604 -0.06678156989531599 0.03355718381249029
0.07664959323155096 -0.0667407647679161 0.03289492131898464
0.07734062637186517 -0.06674343898820065 0.03204519041812348
0.07834379645869166 -0.0666778154549454 0.0314923369905582
0.07881123867504058 -0.06672940173579497 0.03043005558645484
0.0794672779020793 -0.06673976199884757 0.029546756250822426
0.08012503811178895 -0.06674979112342033 0.028664648902332612
0.08046847990354039 -0.06682929485966563 0.027476738404793866
0.08107199335943044 -0.06685158985703633 0.02653915511717203
0.08118817018737973 -0.06698213745825407 0.025122195035646167
0.08165616815458315 -0.06703503891854387 0.024046371224489438
0.08188309274461486 -0.06714193864385173 0.0227290204090147
0.08211226079237205 -0.06724884048207301 0.021408975252298623
0.08223649601750477 -0.06737975327164893 0.019978835109011994
0.08222940041443866 -0.0675407749252214 0.01841034054770141
0.0820800778150188 -0.06773457212874279 0.01669036117112055
0.08167643287098525 -0.06798666848930307 0.014702523902786535
0.0806604852206741 -0.06837843726024401 0.012076531614238606
0.05464396271702532 -0.06817099479217048 0.03398627612402044
0.0589633977585548 -0.06742423825553838 0.03627375398309868
0.0612383553346838 -0.0671004730487984 0.03678617619562452
0.06323169845641002 -0.06683411360605195 0.037062645378805104
0.06480200008301967 -0.06665517002947205 0.03697290817318272
0.06627154270723723 -0.06649657423770546 0.036800655465046295
0.06784258139818994 -0.06631590800739814 0.03672719168894223
0.06886536128520887 -0.06625004339520467 0.03616407984808495
0.07027932426137845 -0.0661012002205481 0.03596096116488251
0.07129245739235507 -0.06603659294459956 0.03539682704560804
0.07253489922880269 -0.06592300468108857 0.03504709912031312
0.07341398627767454 -0.06588622226384112 0.034365673022458465
0.0745052107558315 -0.06580402466030827 0.03388361367757198
0.07529360330523743 -0.06578618992720879 0.03312161795704471
0.07636315370490238 -0.06570802944636522 0.03262519262793179
0.07704331678256271 -0.06571313553324244 0.031763766467116206
0.0779071618451449 -0.06567872599170048 0.031076879210686026
0.07846199139971488 -0.0657108294648379 0.03009601668675954
0.07901431396700848 -0.06574362384320416 0.02911126278488496
0.07948721863457575 -0.06579378503239088 0.028048240506348354
0.08003314288303137 -0.06582831527542606 0.027053828458390827
0.08053100095256893 -0.06587347400197759 0.02601087555302528
0.08085098209943631 -0.06595767074915564 0.024791220904802902
0.08130784071494412 -0.06601231467558172 0.02370268860187702
0.08143178268250417 -0.06614022558093859 0.0222814185649739
0.0816186837306308 -0.06625489919648396 0.020916915640864564
0.08167271721500868 -0.06639939025056292 0.01941387685146506
0.08159997296097748 -0.06657256538995394 0.01777632900655246
0.08134096133734253 -0.06678779883774554 0.015942006870674763
0.080765835760235 -0.06707420502446079 0.013775773906939293
0.07918873563389 -0.06758485590865633 0.010570925787985685
0.05645197653952866 -0.06681432274546077 0.03406410397178328
0.05960586664587969 -0.06631687541563017 0.03534229162592134
0.061773841709258315 -0.0660198161346744 0.03576644023391812
0.06345070603997116 -0.06582257839769168 0.03576513991103519
0.06542483283948408 -0.06556308821020737 0.03603990621711367
0.06687887548658328 -0.06541003355325983 0.03585678358635713
0.06806701445902069 -0.0653114270734226 0.035439243670332354
0.06945227539393972 -0.06517140482249353 0.03520613371808373
0.07059357486651541 -0.06508156628669366 0.03475563610448218
0.07171289484244442 -0.06499590798541378 0.03428900613642416
0.07271519103113588 -0.06493434732374964 0.033717841724914155
0.07366264954237656 -0.0648840067925886 0.03309842213246239
0.07461329423625462 -0.06483276588709912 0.032484322035151
0.07551839001453037 -0.06479088686510456 0.03182971231444648
0.0762728404245645 -0.06478062905844188 0.031034457663675796
0.07716538378945914 -0.06474109363468948 0.030371077483997977
0.07770355411982915 -0.0647765594033333 0.029370606433452184
0.07856458432151248 -0.06474353269921962 0.028678878864471347
0.0790088079524292 -0.06479919319418613 0.027585889681798148
0.07972011306999777 -0.06479805298680474 0.026749734353786914
0.07990489352037977 -0.06490965764875258 0.025399481091308573
0.08036361745646542 -0.06496298473517699 0.0243128377860668
0.08052707101099293 -0.06508008753253289 0.02293233017192281
0.0810302439876649 -0.06512448018884816 0.021883179138573294
0.0809093368403685 -0.06530398156513362 0.020209749562353718
0.08107693777853114 -0.06542181996652159 0.01881685101291919
0.08083486547718893 -0.06562918903024854 0.017005649284411395
0.08044519462505217 -0.06586967328884638 0.015035044447855916
0.07957169513222051 -0.06621687873265239 0.01256045067673317
0.057742250154238284 -0.0655685202787935 0.03369398183083372
0.0605299759647539 -0.06515213062736759 0.03466049811667965
0.06262686100505421 -0.06487375388014188 0.03502879840844425
0.06445740967908148 -0.0646481741279878 0.03517069886553065
0.06597139496863935 -0.06448596423339337 0.035037157613076964
0.06738967041220756 -0.0643425321135361 0.034824268506894074
0.0686845860010416 -0.06422365461571485 0.03450548222433297
0.06989947481103903 -0.0641206252598794 0.03411883284878242
0.0710174632014568 -0.06403701540038627 0.03364764478050397
0.07205248959641791 -0.06397009055945498 0.03310347187557072
0.07301421439806677 -0.06391797331577098 0.03249413868725576
0.07392217922818878 -0.06387672705643159 0.03183690338930162
0.07478316079497127 -0.06384502299689822 0.03113737624848595
0.0755875469788766 -0.06382492252339467 0.030385780338678114
0.07632424331401694 -0.06381881448910431 0.02957073242740893
0.07703305941116173 -0.0638184930477193 0.028729309190615004
0.07761034426247787 -0.06384566642842898 0.027761443107515604
0.0783846916003823 -0.06383167487834844 0.026982724408210534
0.07865663816098406 -0.06392313285859147 0.025716617261548613
0.07936889903350769 -0.06392232662920308 0.02487608200045527
0.07977746636065541 -0.06398559692277181 0.023737488725956823
0.07992791127200422 -0.0641037561223694 0.022341160005504568
0.08023238743361505 -0.06418981674074875 0.02109187822407005
0.08039260415307148 -0.06430693694660278 0.019694605514877728
0.08005583350344186 -0.0645304661401759 0.017793610533720472
0.08003028894676939 -0.06468860653057236 0.016195213064607916
0.07933472418018983 -0.06499088526427797 0.013910694824988135
0.0775906289096801 -0.06551952632380346 0.010544242749168209
0.05869885020815585 -0.06439237659776025 0.033032413168501584
0.06125202738068164 -0.06402881803219916 0.03379999078822826
0.06326888043137036 -0.06377058692197894 0.034102832804465966
0.06498888833167993 -0.06357052694577395 0.03414976891144772
0.06647904454712894 -0.06341561103171824 0.03399749178560646
0.0678194338565512 -0.06329006549252038 0.03371587884050803
0.06908047377222876 -0.06317991896083965 0.033367438977220276
0.07022860586142271 -0.06309204542218955 0.03292012163744801
0.07129310704908004 -0.06302067844502879 0.03239947197944776
0.07226722750703429 -0.06296729887900551 0.03179801384578418
0.07319430207912342 -0.06292322939889938 0.031155046921575058
0.07405845247034093 -0.06289176625843071 0.03045494729014786
0.07486262404816013 -0.06287239554133407 0.02969959098361341
0.07559802267457322 -0.06286699927196455 0.028879733580318423
0.07626670516992118 -0.062875252769415 0.027996326729171073
0.07690077961594449 -0.06289065450812978 0.027079245821373554
0.0774711048319367 -0.06291925505432197 0.02609980600472983
0.07800417137144305 -0.06295567892503283 0.025082775704329596
0.078402246128352 -0.0630202000353861 0.023932144582961057
0.07890590739996123 -0.06306312794013127 0.022881991512950783
0.07929249951476702 -0.06313059005117871 0.021714221228036013
0.079384033640778 -0.06325984140575742 0.020250494984580647
0.07941025503392707 -0.06340334079689972 0.01871527652387156
0.07945053891821191 -0.06354457405315546 0.017187049640228103
0.07886953649392159 -0.06381683296519224 0.015026006911498968
0.07763435580273159 -0.06422796751160541 0.012189074449789117
0.05939989842706128 -0.06326759338180143 0.03214458308544538
0.06182130245809547 -0.06293544011527054 0.0328022174503364
0.06374765868947513 -0.06269900670938588 0.03302870456522761
0.06536845692148047 -0.0625216459184635 0.032989165500302675
0.06679800452159917 -0.06238120972962575 0.032783645054401844
0.06810658558203797 -0.062264053206820824 0.03247394362981615
0.06930587279575612 -0.06216802207250695 0.032069131697864794
0.07041343428072677 -0.062089771465504526 0.03158395476784753
0.07142107138323256 -0.0620310553944556 0.031009472166387997
0.07236149415811155 -0.061985481507842013 0.030374894023458887
0.07324485625927674 -0.06195110972186641 0.029688816150275132
0.07403888226916089 -0.06193448683726888 0.028919862799939244
0.07475993213392695 -0.06193244879724408 0.028082290536304066
0.0754311061788463 -0.06194044496288607 0.027197114860431804
0.07605970737299961 -0.06195707104985576 0.026270613085244976
0.07662655935614254 -0.0619862667077924 0.02528361123384476
0.07712183804681016 -0.0620301118216569 0.02422562935230599
0.07754961799047472 -0.062087880763796156 0.02309955245164047
0.07780454013068955 -0.062181135717835574 0.021800921072681945
0.0782184927199781 -0.062242353073678196 0.020654535914931882
0.07835629623709478 -0.062360381507730406 0.019231202051188334
0.0783312313215257 -0.06251238099424833 0.017639570155388085
0.07803029877410228 -0.06272183047749026 0.015763838278676556
0.07709389514647252 -0.06306326547315232 0.013237433659675446
0.059836116427974595 -0.0621936202453929 0.031018573681747208
0.06214586616323203 -0.06188832381510896 0.0315819839664323
0.06401936386278612 -0.06166597917784902 0.031764295025442146
0.06556855458749994 -0.06150546088515549 0.031661555911595696
0.06695397293009203 -0.06137601631011056 0.031416477226336115
0.06822043981601622 -0.0612691341037612 0.031068091873651726
0.06937473143123585 -0.061183646739828026 0.030621005723643513
0.07042486646725821 -0.061118133089656516 0.03008109845925727
0.07140783464085071 -0.06106548170155425 0.029481530478953744
0.07228812379510335 -0.06103275626285131 0.02878789930311859
0.0730990239733314 -0.061013540610568004 0.02803022235605096
0.07382700826874922 -0.06101059734721196 0.027194613595925676
0.074504010027313 -0.061017723637197714 0.026310390180672716
0.07513347475984111 -0.061034306446752486 0.025380104548609173
0.0756492686041097 -0.061073552140340846 0.02433912733770699
0.07611655370067444 -0.06112264142081533 0.023249041722687547
0.07648002454342068 -0.06119268340026607 0.022055093503867196
0.07676078487191634 -0.06127960243916054 0.020776400925210048
0.07688989606885677 -0.06139734341763827 0.0193436556066659
0.07678039673044113 -0.06156360537617173 0.01766825102390085
0.07699498316240311 -0.061665346227911415 0.01630743014945296
0.07620712605994662 -0.06197003940417765 0.013936851390847216
0.05983609642783949 -0.06120047349265363 0.02949582648978094
0.06217835685699913 -0.0608941913612255 0.03009280534512132
0.06401310470292809 -0.06068306305928079 0.030241934518931313
0.06555688236084439 -0.06052645147339108 0.03013471414911839
0.06691152546416435 -0.06040526895145692 0.029860946506646335
0.06814570263072761 -0.06030660607677181 0.029481611421097176
0.06926455897042133 -0.06022962955580017 0.02899979585275847
0.07027052330318373 -0.06017402108055308 0.028416126664034258
0.07117848299230656 -0.06013705687044765 0.027742994765050488
0.07200372374248964 -0.06011591108319665 0.026993445442040687
0.07275804932822683 -0.06010840637462377 0.026177499298466633
0.07342780046472613 -0.06011728970651799 0.02528104540541909
0.07402451521744607 -0.06014042932000806 0.024313916719270023
0.07455325460507517 -0.06017693721439909 0.023279905637433707
0.07496470475287026 -0.060236549408641905 0.022130073305504316
0.07527787300988242 -0.060315702304290564 0.02088119146731149
0.07546432240257145 -0.060420119464041154 0.01950383064676553
0.07542178922109016 -0.06057011545939395 0.017895125418407987
0.07505804337591437 -0.06078421539446879 0.015960049496174022
0.0750627574203972 -0.06092642794938269 0.014381144830479031
0.05894296590572262 -0.06036920701947799 0.027155324624047128
0.061773083216997204 -0.05997751675727126 0.02819752122539043
0.0636635052040892 -0.05975988880624668 0.028397632112924343
0.06523954937683474 -0.05960023246312485 0.02831896770206832
0.06660657431227834 -0.059479139139413655 0.028054733518639907
0.06782585277868758 -0.059385328943500244 0.02765905061121804
0.06889892753098004 -0.05931869799887798 0.027131251256715283
0.0698558082599543 -0.059273753470393147 0.026497484662376225
0.07070739149337169 -0.05924857788873156 0.025766377912127325
0.07146821145376803 -0.059240544406378076 0.02495021872314812
0.07212941927676547 -0.0592514583509312 0.024039203724601443
0.07271224931909553 -0.05927739509088148 0.023052263903102943
0.07318370664448898 -0.05932477682239652 0.021956332288283253
0.07349481303755939 -0.05940315297537205 0.020702140928392065
0.07362315394648189 -0.05951705221853569 0.01926535683726588
0.07354796901266614 -0.059670726630586736 0.01762279326646843
0.07305597347679071 -0.05990567641593005 0.015560856948311996
0.07261571608193507 -0.0601317075294739 0.013537789741043416
0.06006123993720286 -0.05929369802433929 0.025092727824632455
0.06271103793736799 -0.05894097522900513 0.025987049753996405
0.06442815489365022 -0.05875865956093205 0.026035188758488814
0.06585255466885054 -0.05862962022017624 0.025820113609274387
0.06704615251662643 -0.05854275185054931 0.02539561959359543
0.06810009100773429 -0.05848141957801804 0.02484419567031204
0.06897739711544015 -0.05845268139496638 0.024128819385340117
0.06972977182938506 -0.058447117579078924 0.02329609363919949
0.07038630348750274 -0.058459449631209054 0.02237199392391276
0.07090414418946334 -0.05849783257828455 0.02131389599184802
0.07120896518153835 -0.05857641110602907 0.020047881290550296
0.07125140165905453 -0.05870476101415282 0.018522769680033524
0.07101365836377826 -0.05888658922029475 0.016717182091023186
0.06880722810226048 -0.05944169463834766 0.01296941831498466
0.0635017041321857 -0.05806100172064866 0.02207527211661081
0.06521066281341942 -0.05788302854015715 0.022123336248910053
0.06624302743868299 -0.05782774802016253 0.021540550639105316
0.0670719047212548 -0.057809444624986765 0.020767133420106054
0.06762213320631627 -0.057842158846823526 0.019728192627433472
0.06770452589814363 -0.05796102122292858 0.01823768450683011
-0.05466168367421659 -0.01789587905995668 0.020623568065866404
-0.05255674677237748 -0.01784589210657449 0.020412086800623508
-0.059345849856596744 -0.016628828007647232 0.020751944224163543
-0.05696612214304447 -0.016572743078756932 0.020707980245736113
-0.054602392937960376 -0.016517035199395517 0.020664311829655668
-0.05225723481990491 -0.01646180395321122 0.020619047266956514
-0.04992228903101642 -0.016406735481781558 0.020577849842055573
-0.047606942236610605 -0.01635218721617052 0.02053411209915551
-0.047750772496356564 -0.016390988714991117 0.01877386116983476
-0.04813173353827532 -0.01643899000199128 0.016838217173945402
-0.04851628947997888 -0.016487325107037765 0.014890238895949759
-0.04890311348863924 -0.01653594528700984 0.012930771664649454
-0.049290858162394646 -0.01658480060904233 0.01096069552486273
-0.04968227361887717 -0.016633998245570283 0.00897795255666306
-0.05014355846903462 -0.01668609036933075 0.0069343799683805885
-0.05070190126041563 -0.01674214443755789 0.004809238414836936
-0.049972401045737413 -0.016748615880527094 0.0036176851059973036
-0.06168088378506098 -0.015292759941408725 0.020837336342267032
-0.05928552721361274 -0.01524101374633511 0.02079294065604148
-0.05690493593156942 -0.015189568550876005 0.02074979459743098
-0.05454311826314323 -0.01513856485768726 0.020705044556248886
-0.05219847490785978 -0.015087949906432386 0.02065964991636049
-0.049864039806076954 -0.015037484079373133 0.020618322227435815
-0.04754919712557226 -0.014987494934191463 0.0205744558070855
-0.04524836279719191 -0.014937790616994072 0.020531815195132586
-0.04339205568893156 -0.014903419750538638 0.020186198620540996
-0.044314119402193375 -0.014966212561009325 0.017874862845589312
-0.04454601740031089 -0.015005042297310247 0.016042427847325236
-0.04477912184403987 -0.015044074044697245 0.01420045963505523
-0.04501344217270198 -0.015083309383720786 0.012348883620167117
-0.04524898792435661 -0.015122749911463213 0.010487624433892118
-0.045503344016420366 -0.015163019128334992 0.008603777342066077
-0.04579297148552286 -0.01520470585225377 0.006684981789674027
-0.04608555715502949 -0.015246670789922331 0.004754602200383429
-0.045586214171820405 -0.015260613712097677 0.0034022836867216855
-0.06403118425631477 -0.013947956610169282 0.02092328675728905
-0.06162004516598779 -0.013900607073285795 0.020878454655058
-0.05922381874599414 -0.013853533999695376 0.02083487892107555
-0.05684515675534041 -0.013806822297801983 0.020790647388257644
-0.054483859643239374 -0.013760467883077046 0.020745766250130526
-0.05213836490608825 -0.013714423683378068 0.020701185467430216
-0.049805806252970486 -0.013668601071076068 0.02065878372380492
-0.04749146749909622 -0.013623168599290178 0.020614788696702968
-0.04519113206436942 -0.013577994952202079 0.02057202004135328
-0.042908640374217044 -0.013533203738401112 0.020527670247117602
-0.040929107439797496 -0.01349787487327739 0.020279093894254363
-0.0415897169833942 -0.013546631044540073 0.01815369422375146
-0.041779235286850125 -0.013580527226559789 0.016354602545201213
-0.04196838007519865 -0.013614551038820021 0.01454744112499673
-0.04215980322119811 -0.013648788399277523 0.012730237621146279
-0.042352191561827846 -0.013683198391511912 0.010903871405355814
-0.04254421625629762 -0.013717739254634684 0.009069253613642303
-0.0427385530185303 -0.013752498232047543 0.007224361135002855
-0.042933877130978515 -0.013787433806440657 0.005370095468004821
-0.042827062948947614 -0.013812714993160793 0.0037325065164116045
-0.06639258322689556 -0.012594211052766507 0.021012687209456593
-0.0639683974149362 -0.012551397908496196 0.020965486627434138
-0.061557808924424195 -0.012508795274240179 0.0209205175632326
-0.059163529377225244 -0.012466480869996245 0.020875852739154988
-0.05678400418059437 -0.012424412523536113 0.020832438752779625
-0.05442461707172708 -0.012382744123892234 0.02078647691578217
-0.05207827150607652 -0.012341276813895092 0.02074270954681101
-0.049747588365370965 -0.012300086308236787 0.020699234335558203
-0.04743375335095462 -0.012259208064291325 0.020655110772358987
-0.0451339166252443 -0.012218562663778153 0.020612214143683028
-0.042851917620450375 -0.012178261325420417 0.020567737680653564
-0.04058492287944404 -0.01213822497048855 0.020523553652643856
-0.038762334081345884 -0.012110784726003914 0.02017289309143716
-0.039420939859531934 -0.012154621144537725 0.018048035039377297
-0.039578275412531616 -0.01218418574776239 0.01627311448572827
-0.0397376913742542 -0.012213932464083444 0.01448858504640943
-0.03989657078689163 -0.012243786660448066 0.012696281911515173
-0.04005754937395861 -0.012273825469033503 0.010894226369306037
-0.04021931979081356 -0.012304012034069152 0.009083306782751988
-0.04038055978330768 -0.012334308758723121 0.007264442936193216
-0.04054392769161552 -0.012364793934605692 0.005435606111056868
-0.04049049451873016 -0.012389064388664089 0.003760913807808408
-0.06877092866205897 -0.011231618769490973 0.021101709333414098
-0.06633069736513375 -0.011193312701735484 0.021054050655932743
-0.06390705458452184 -0.01115526703586612 0.02100671595862813
-0.06149700397347235 -0.011117408403209537 0.020961613121129263
-0.05910185494355186 -0.01107977074784515 0.020917767874063353
-0.056724257863072614 -0.011042421960404284 0.020873269088129698
-0.054365390542085 -0.011005393428542244 0.02082717655768518
-0.052019559898636214 -0.01096854356105701 0.020783278818102824
-0.04968938613696272 -0.010931939642281896 0.020739674067083824
-0.04737471302928947 -0.01089557921808712 0.020696359381124685
-0.045076716473684386 -0.010859493606084764 0.02065239750642972
-0.04279520997262587 -0.010823679749553863 0.020607794443756766
-0.04052870250620566 -0.010788101339766805 0.020563484609582516
-0.038273158484194936 -0.01075265682548453 0.020522241887156012
-0.0369582918034721 -0.010741124737733754 0.019816400525542788
-0.03761539409015646 -0.010780082693061277 0.017690329414099037
-0.037749784573845424 -0.010805777744052536 0.01593171856997988
-0.03788612160409366 -0.010831629145745281 0.014163752082042735
-0.03802180462354782 -0.010857570808756573 0.012388265934223763
-0.038159450599107525 -0.01088367091982251 0.010603287079425427
-0.03829644486501016 -0.010909862762310683 0.008810681527526953
-0.03843541875354378 -0.01093621518924197 0.007008443596792258
-0.03857374333934338 -0.010962660847805715 0.005198469809612805
-0.0383841614908938 -0.010980672917055321 0.0036274884425236964
-0.06870851101069542 -0.00982630867837248 0.021143196302006506
-0.06626882854479649 -0.009792800113988915 0.021095402712213496
-0.06384430260288998 -0.009759488163870064 0.02104889239907437
-0.061434802168713 -0.009726371146189221 0.021003652754888524
-0.05904159882147425 -0.00969347812137873 0.020958719097049994
-0.05666452777605807 -0.009660806824574247 0.020914088331632052
-0.0543061800478038 -0.00962841564551879 0.02086786518031275
-0.05195949930459304 -0.009596150616545876 0.020824780228810458
-0.04963119956142631 -0.00956416092471769 0.020780102922772825
-0.0473170301787455 -0.00953235409514952 0.020736659590667506
-0.04501953160356864 -0.00950078763356241 0.020692570133893418
-0.0427385174247078 -0.009469458866677789 0.020647840540690576
-0.04047119012786843 -0.009438306906237667 0.020604333223181837
-0.03821743600031435 -0.009407330300495656 0.020562036559563124
-0.035980996370416074 -0.00937661385535346 0.020518171738587554
-0.03595491839643705 -0.009395337081593891 0.01888920522717591
-0.03607063930601112 -0.009417323900341341 0.01715070470477148
-0.03618690310246947 -0.009439413866881305 0.015404048273400195
-0.03630371361509965 -0.009461607708773488 0.013649178404823492
-0.03642107470928785 -0.009483906160436248 0.011886037028488727
-0.03653899028694724 -0.00950630996322765 0.01011456552512191
-0.036656156717886634 -0.009528790177194914 0.00833568009842478
-0.036775189641207184 -0.009551406793389894 0.006547378155739525
-0.036894788958923175 -0.009574131026244645 0.004750566934689615
-0.036631757306971546 -0.00958820830151364 0.0032357073795055147
-0.0711034555516572 -0.00845032493111935 0.02123196174207953
-0.0686461106036248 -0.00842138683589847 0.021184671808882227
-0.06620697675884574 -0.008392673130208078 0.021136743383003143
-0.06378299382577246 -0.008364127877739653 0.021090098842595217
-0.06137403085794774 -0.00833574963779499 0.021044725576770895
-0.058979958393603316 -0.008307536985977255 0.021000611120958967
-0.05660342541143193 -0.008279540813212305 0.020955845382808647
-0.054246985582369345 -0.008251810623395403 0.02090854278814125
-0.05189945529184631 -0.008224136556829346 0.020866270181969182
-0.049573028632448 -0.008196750007130403 0.020820520907011864
-0.047258021869506395 -0.008169468869585434 0.020777885833903997
-0.04496236200877124 -0.008142444600729128 0.02073273203037751
-0.042681839970670765 -0.008115598532745434 0.020687875975711256
-0.04041499993739528 -0.008088903949283252 0.020644242742576924
-0.038160432901068575 -0.008062334810882366 0.02060274579401744
-0.0359244810223599 -0.008036013542851593 0.020558753985285505
-0.03412624598195535 -0.008017997216323758 0.02020952032486467
-0.034609779533227136 -0.008043854836978061 0.01821122510286388
-0.03471065926548211 -0.00806243399606519 0.01648159045339659
-0.03481200608709245 -0.008081099179648648 0.014743947317123862
-0.0349138232496331 -0.008099850986575683 0.01299823994410687
-0.03501611403493027 -0.008118690021264877 0.01124441206574256
-0.03511888175541378 -0.008137616893771064 0.009482406888718098
-0.03522212975447331 -0.00815663221985117 0.007712167088881172
-0.035325861406823145 -0.008175736621031028 0.00593363480502207
-0.035430080118867835 -0.008194930724673054 0.004146751632570556
-0.07104051747875334 -0.007040961488151079 0.02127356169960659
-0.06858372743370228 -0.0070168530811974186 0.02122613585879013
-0.06614657982455258 -0.006992953976152247 0.021177111655946823
-0.0637202766748638 -0.006969128184914634 0.021132251872849728
-0.061311863461418536 -0.006945486278896402 0.02108674195542687
-0.058919735490723824 -0.006922004235055445 0.021041539767537754
-0.05654372814266434 -0.006898680437417687 0.02099664219848474
-0.054187807139273625 -0.006875578210827658 0.02094920938564293
-0.051840791929476104 -0.00685252271998379 0.02090680611628687
-0.04951352108118562 -0.00682968538912935 0.020861867595319383
-0.04720037029110874 -0.00680697856181597 0.02081816419511512
-0.0449052076831728 -0.006784464362180761 0.020772883200180947
-0.042625177604485254 -0.006762098603786558 0.020727900753077844
-0.0403588246558661 -0.0067398590293064504 0.020684141672778766
-0.038103445227316124 -0.00671770328765681 0.02064344401222823
-0.03586926484192976 -0.00669579534612085 0.020598403332462933
-0.033644517586721545 -0.006673948275288155 0.02055733181268271
-0.03331947797869694 -0.006682502348236359 0.019147927682921784
-0.033408136809756905 -0.006697745601634025 0.01743232965465258
-0.03349592109443178 -0.006713037926949073 0.015709826290621287
-0.03358539030112129 -0.006728420966533886 0.013978492435536893
-0.033673984119661604 -0.006743853850284719 0.012240159973572529
-0.03376427488822886 -0.006759378607746675 0.010492872825415223
-0.03385368946564765 -0.00677495399677876 0.008738492034689571
-0.03394481318928744 -0.006790622439564229 0.006975030101675106
-0.03403765879664622 -0.006806384729671998 0.005202407391050101
-0.03385623899012136 -0.006817727898155231 0.0036309227029401314
-0.0709761337858601 -0.005631970493661131 0.02131611716351295
-0.0685213614937834 -0.0056127072534866195 0.021267588456478914
-0.06608332426197105 -0.005593575337707251 0.02121939058691219
-0.0636590019226923 -0.005574537845031811 0.021173435447752298
-0.061251125762927905 -0.0055556294993836354 0.021127792060159467
