# .PCD v0.7 - Point Cloud Data file format
VERSION 0.7
FIELDS x y z
SIZE 4 4 4
TYPE F F F
COUNT 1 1 1
WIDTH 776
HEIGHT 1
VIEWPOINT 0 0 0 1 0 0 0
POINTS 776
DATA ascii
-0.06977756016196929 0.017055302844393338 0.011952707413422525
-0.06746595067638933 0.017002537683001386 0.011824655062375067
-0.03662762523452556 0.015870708815051763 0.03141898784257985
-0.03446193427532085 0.015820854505675875 0.031319923001638494
-0.03236603577422936 0.01577344759915406 0.031182194124637186
-0.030260346644286285 0.01572547490967106 0.03106096369388739
-0.028117020844667717 0.015675871259904585 0.030976073983436714
-0.026132293017768427 0.01563212396122062 0.030788646312378543
-0.024073883807421814 0.015585376397669382 0.030662771253917087
-0.02203735322094863 0.01553927603602181 0.030530750367617154
-0.020297688268634706 0.015504397907313453 0.030193841947244004
-0.01877565502053513 0.015477759289332567 0.02970610800982676
-0.017468930889009582 0.015459321638155648 0.029066699441627375
0.010367889806799424 0.014414599920616217 0.04790161700568252
0.014414402498764245 0.014287680813653635 0.04939760525784492
0.017271841966287615 0.01420641937155129 0.050037692955017865
0.01978182629837022 0.01413834301745217 0.050435466210047186
0.02168310628996628 0.014093724196090134 0.05039087494075306
0.023572423635989936 0.01404938611146879 0.05034656423478706
0.025450846056084164 0.01400528871034281 0.05030325561055765
0.026979037768131375 0.013974752495172039 0.05000221699881474
0.028389282633754898 0.013948726793658245 0.04961719434122258
0.029794284560487883 0.013922797849216427 0.049233603101852486
0.031195005288410627 0.013896928287944942 0.04885215771443874
0.032543240262736584 0.013873026570824594 0.04843529691179366
0.03363304479751844 0.013859274481411972 0.0478211409727059
0.03472069086345031 0.013845549629413425 0.047208201431957086
0.0358061848667896 0.013831851933989286 0.04659647467932143
0.03688953318846755 0.01381818131461947 0.0459859571188459
0.03797074218421381 0.013804537691101912 0.04537664516877932
0.03883343993814914 0.01379959625893328 0.044594522191208075
0.039666611447204625 0.013795819903119002 0.043789586039373496
0.040499327074613345 0.013792045613591786 0.04298509031979608
0.04133158719443342 0.01378827338865631 0.04218103467108936
0.042163392180320336 0.013784503226618844 0.041377418732267135
0.04291339243518799 0.013784032101682128 0.04050705738352356
0.04351071217872632 0.01378976027075344 0.03951003313694973
0.0441085285796976 0.013795493202663343 0.03851217988799094
0.04470595169116326 0.013801267233112592 0.03751274932810328
0.04530476447351173 0.013807009738776582 0.03651323202642931
0.04590407577779704 0.013812757025174831 0.035512882609438357
0.04625180577024335 0.013828860320617767 0.03429680126932011
0.04658968649551892 0.013845439946708173 0.03306874458403902
0.046928378373764124 0.013862059375637902 0.03183773969332104
0.04726788432950535 0.013878718750911536 0.030603775967740388
0.04756642133013628 0.013897149311804977 0.02933046192464911
0.04755589855546821 0.013928493952626457 0.02778256727203915
0.047545328205881976 0.013959980307040154 0.026227674366853804
0.047534709958007515 0.013991609338284566 0.02466573564141611
0.04742710016885182 0.014027434121349845 0.023010509149899216
0.04681752450803839 0.014084448280849754 0.02089862817278615
0.046202064898720474 0.014141965942634062 0.01876869347817911
0.04502314163808041 0.014223454212808054 0.01611693598288677
0.042819658539223704 0.014348522937202818 0.012516628632652904
0.09748942220558088 0.012612639601199658 0.033781500290682165
0.10415640899089712 0.012347358775698066 0.03904261263962172
0.10597656467586525 0.012295930242909937 0.03943371048727351
0.10745983129993081 0.012259244149041077 0.03949237188966459
0.10893491229089503 0.01222274782224514 0.039551341344858715
0.11000461692205327 0.012204197503167513 0.03920001056195588
0.11052450424351101 0.012210194585490441 0.038281879325257895
0.11104490275630435 0.012216197564583368 0.037362845314659276
0.1114993515763596 0.01222519885547307 0.03637314165194383
0.11186968535921266 0.012238040068362432 0.035292518936429984
0.11196274781228283 0.012263488051456429 0.0339147304684036
0.11186107460069344 0.012297891467695058 0.032323189169034594
0.11176265768551047 0.012332314405139681 0.030726795339712787
0.11176606169164921 0.012362265009132758 0.029231702952876082
0.11176948227222083 0.012392361445045588 0.027729330839899313
0.11179862503603172 0.012421427527357799 0.02624759848086211
0.11185108747531436 0.012449565954488796 0.02478425642118942
0.11200182974643397 0.012473319933281496 0.02342206071134456
0.11213313174993367 0.012498088243222448 0.022032536400851677
0.11225137455701989 0.01252358328859805 0.020622396248554276
0.1123701007609404 0.012549182562070311 0.019206491202579723
0.11257688085533929 0.012570816398194027 0.017883059617632036
0.11143541929712752 0.012655383506759883 0.015033382708899812
-0.08529067570181781 0.018404077180695092 0.033772200805857466
-0.0812770172943052 0.018281869783079815 0.03460478948185752
-0.07885222565142025 0.018221869570696596 0.034472266349387104
-0.07626999561724718 0.018155411415395877 0.0344488817316273
-0.07388115288027547 0.018096352360909625 0.034315951161068725
-0.07150635796812443 0.018037619012846777 0.03418479472488556
-0.06912832202615199 0.017978525848400158 0.03406631066854443
-0.06704554809370111 0.017930963276945325 0.03376983291813668
-0.06588684908580944 0.017920101299349858 0.03288809719827823
-0.07668812427546523 0.01838757346523736 0.024278486482351702
-0.07645277356305435 0.018414578704606964 0.022757016200389724
-0.07628980532346913 0.018444597849374227 0.02118330792728995
-0.07615916342375129 0.018476037153458368 0.019582863130272632
-0.07604153799569185 0.01850812659188031 0.01796805469092355
-0.0759369866137159 0.018540872386382568 0.016338665311774192
-0.07579605530853217 0.01857227665537268 0.014727568071332187
-0.07564112500528458 0.01860323909082924 0.013120091354531904
-0.07442013291198846 0.018590999948971825 0.012227403403246295
-0.0721674317149203 0.018536697208294397 0.012038149847454938
-0.06988511188313612 0.018480966749145566 0.011879207103698552
-0.06774223161783066 0.01843071230979132 0.011634798667795598
-0.03650571107352235 0.017188272997694123 0.03150322959455509
-0.034377545893799766 0.01713579459456535 0.03137855724273081
-0.03229856281339655 0.017085125918389073 0.03122933420933116
-0.03021696569729143 0.01703414294502373 0.031091439003512467
-0.0281317725818212 0.01698280318854162 0.03096565375154231
-0.026096918420760673 0.016933336812435716 0.030813771394772593
-0.023961370767125123 0.01687949132810852 0.03074312337155999
-0.021985736726092997 0.01683207053182431 0.030567814871330923
-0.020137930119820402 0.01678977786941211 0.030309188520084462
-0.018641664204331776 0.01676198094417653 0.029803379490901116
-0.01731901412654968 0.01674132927474232 0.02917612691627053
0.011758125287438914 0.015557559744312159 0.048921915258795357
0.014765644151279012 0.015463571788351487 0.049656786954111465
0.01761739129777573 0.015375747397890783 0.050294061597104534
0.019868004612309142 0.015312904439987363 0.05049975072891888
0.021768563047354472 0.015264590280425344 0.0504549671796411
0.023658128950007073 0.015216539270745419 0.05041119131281546
0.025523424216864987 0.015169316481046803 0.050358280301824154
0.026939174726954285 0.015141010219823605 0.0499718316547767
0.028350595140842094 0.015112769190251339 0.049587545780380826
0.029755821979668806 0.015084673377101105 0.049203967891187084
0.031156766421034765 0.015056641921098497 0.048822536116152115
0.03242635109273423 0.015034124517276716 0.04834426179449253
0.03351663463949767 0.015019216486277092 0.04772999150134172
0.0346047580499132 0.015004337991979685 0.04711693823797575
0.0356898111037765 0.014989528505063522 0.04650437293939419
0.0367736372198596 0.014974708743256375 0.04589374201731489
0.03782350016148228 0.014961297465508469 0.045258861795792416
0.03865760209409852 0.014957199989086895 0.04445311202818275
0.039491247277915975 0.014953104756417196 0.043647803483891634
0.04032443608800512 0.014949011765656703 0.04284293580060505
0.04115716889901849 0.014944921014965081 0.04203850861639957
0.04198944608520577 0.014940832502503708 0.041234521569753435
0.04268522622357557 0.014942719230890985 0.04031862102730421
0.04328285197143816 0.01494893307800465 0.039320849276333225
0.04388008199618432 0.014955191472600216 0.038321502008855424
0.04447870406110066 0.014961415699228023 0.03732206591662296
0.04507782461656762 0.01496764510895561 0.03632179756399623
0.04563030223216619 0.014975972224548684 0.035280718785554055
0.04596731856939518 0.014993920788779473 0.03405427572856268
0.046304253747260216 0.015011952103824621 0.032824126688729416
0.04664289040896458 0.015029987066687702 0.03159178226888548
0.04698234170766358 0.015048065415128325 0.03035647327541069
0.04720770102901395 0.0150713444430236 0.029018143414541397
0.04719635702540831 0.015105373881463964 0.027467884599612913
0.04718496167889835 0.015139557337116043 0.02591060931444661
0.04717351464012709 0.015173895857974098 0.0243462698161927
0.04694604436024785 0.015218170089192467 0.022582794276467033
0.046333633298501875 0.01528011299039546 0.0204661327820036
0.04571530529382495 0.015342603651865868 0.018331351222642456
0.044232719328380354 0.015444775929970024 0.015403035637832352
0.0405062148205006 0.015649936997292425 0.010416203544810487
0.10294236973715254 0.01349856883170131 0.034870990297396265
0.10675153357413647 0.013346790380242987 0.03730618496826715
0.10882575295462371 0.013278301902724839 0.03798152461613641
0.11010437618030511 0.013248104852786493 0.0378453865992337
0.110507084175344 0.013260383880654824 0.03680119136263399
0.11086665713036215 0.01327482611798078 0.03570899501687058
0.11122701418035708 0.013289299848456079 0.03461441699692419
0.11160850118612836 0.013302808088807174 0.03353902510638829
0.111994577056584 0.013316156501002822 0.03246550911285784
0.11220855916389494 0.013338045845450995 0.031204599161155866
0.11218881205475578 0.013371581737126633 0.02968703506895215
0.112193254886429 0.013404084537663268 0.028188116873945568
0.11219707868135037 0.013436777521988666 0.026681196772372517
0.11221312331840239 0.013469023486042743 0.025180254667725332
0.1123296244533758 0.013496419795951578 0.023782452654683817
0.112447244735919 0.013523895581567054 0.02237966469206565
0.11231603705828463 0.013563975256879872 0.02069422315614383
0.11193471605213223 0.013616817297301315 0.018720377360129603
0.11084556092677783 0.0137055657469344 0.015940063566550366
-0.08480256676702036 0.01979911784881324 0.03407198046734966
-0.08129644599336167 0.01968899131420373 0.034592788734739366
-0.0788018510031761 0.019621411589430038 0.03450355964216456
-0.07624210320887492 0.01955079414979525 0.03446630764280023
-0.07383602989544441 0.01948645482702753 0.03434430247343445
-0.07146161518911986 0.019423216001404054 0.03421306694030668
-0.06905248107638157 0.01935824179809888 0.03411450521671183
-0.06671757325411765 0.019296196303313754 0.033979431199031795
-0.0660838044226324 0.019307037726747116 0.032761517573591525
-0.0766777068475894 0.019801553463099062 0.024285219368785638
-0.07649001809246148 0.01983269224437586 0.02273280903500413
-0.07633455647196119 0.01986534837723773 0.021154058170283152
-0.07621443612751178 0.019899665860229822 0.019546533461600957
-0.0760953962820835 0.01993416707976934 0.017932456168073985
-0.07594597594992969 0.019967484421685 0.016332690394406768
-0.07574955164834168 0.019998886122759386 0.014758650318625388
-0.0753618740532424 0.020022059896665702 0.013307779628943195
-0.07446954845660664 0.020023239659594978 0.012194005475231195
-0.07214514950071277 0.01996161979456777 0.012053293270084642
-0.06981438719163663 0.019899471647063037 0.011927540005059356
-0.06753754654343336 0.01983944653611292 0.011775455385000078
-0.06687179787931258 0.019850262968764402 0.010520496070389851
-0.034378805171164095 0.01845398831503222 0.0313776822790065
-0.032229862881939964 0.018396322858217264 0.03127733151888101
-0.0301401417993184 0.01834105127633755 0.031145408136035335
-0.028076459025426492 0.01828671217726114 0.03100472576581015
-0.026042038913056065 0.018233455006954297 0.030852749991547024
-0.023939601232855046 0.018176941402158624 0.03075867026438317
-0.021912535889864193 0.018123568955621353 0.030620378546447613
-0.02003308315247837 0.018076596970218996 0.030384888811089195
-0.018523162774647717 0.01804603846565344 0.029889406353796777
0.0066132502747453525 0.016951348869168378 0.04664480228622053
0.012235464551344943 0.01673275388555517 0.04927223606695191
0.015115216367669881 0.01663726916603836 0.04991473677117658
0.017963275625651642 0.016542823281456585 0.050550678778433555
0.019954142044558587 0.0164869086683557 0.05056400475218653
0.02185494980140823 0.016434858517410937 0.0505197569124462
0.02374283110843428 0.016383179863769696 0.050475061949830424
0.025484273869362528 0.016337975985332525 0.05032859870392853
0.02690025219489428 0.016307485648620737 0.04994216320770001
0.02831095529726807 0.01627710890357134 0.049557167375747335
0.029717351021641747 0.016246801963103276 0.049174326225928267
0.031117586278725518 0.016216650665310976 0.048792185362692475
0.03230845530569709 0.016196040087818518 0.04825244270807061
0.03339922206752921 0.01617997449116422 0.04763805713712127
0.034487827010361516 0.01616394073533437 0.04702488923287135
0.035574276554680206 0.01614793872576342 0.046412935378916886
0.03665857709557152 0.01613196836825993 0.04580219197316027
0.03764700786130043 0.01612040428776275 0.045117680236099134
0.03848158449548528 0.016115987108118332 0.044311557305138805
0.03931570388740119 0.016111572348529068 0.04350587602741013
0.04014936641270839 0.01610716000700683 0.04270063604005486
0.04098257244666287 0.016102750081565326 0.04189583698061794
0.04181532236410257 0.016098342570220775 0.04109147848703537
0.04245675367019952 0.01610296204292393 0.04012993167163642
0.04305379033298384 0.016109705295832128 0.03913066791207631
0.043652221407318614 0.016116411735098316 0.03813131324281971
0.04425115094057441 0.016123123760445092 0.03713112616819536
0.04485057955579291 0.01612984137885467 0.03613010564775132
0.04534449969748222 0.016141631988282404 0.035038354209476485
0.04568145903934795 0.016160993992148962 0.03381058027618844
0.04601922772236394 0.016180402501524378 0.03257985735823421
0.0463578086659695 0.016199857684161975 0.031346174818113026
0.0466963129923883 0.016219402716449328 0.030108749587384964
0.04684821271012429 0.016248053518168167 0.028705156232590845
0.046836043979401054 0.016284779197652696 0.027152526670839783
0.046823820113834014 0.016321671276278378 0.025592862352174617
0.04681154073786131 0.016358730887511292 0.024026115357726197
0.04646451048493899 0.016412280619927604 0.0221546543458242
0.04584925555752428 0.016479180046049716 0.020033202536027195
0.04522805054271556 0.0165466718536309 0.017893564089676017
0.04343859149441143 0.016671823241171477 0.014685788505849506
0.10644139384576967 0.014458677740618348 0.034039725219750405
0.10851072679481788 0.014385027081144478 0.03471635820118929
0.11023164627657878 0.014329322856931188 0.035042416821909006
0.11059215107518261 0.014344982813606336 0.03394455359382886
0.11095919334920046 0.014360373603538923 0.032850384995456006
0.11134554067080227 0.014374817713770145 0.03177360557185155
0.11163115547032093 0.014394675061913137 0.030585884703638044
0.11172896025206408 0.014424615187718476 0.02919174207177444
0.11182653186853309 0.014454714279068978 0.027791094052430076
0.11192451153169358 0.014484939245478574 0.026384588492333994
0.11200746672803075 0.01451611761334825 0.024955305534288486
0.11204180004389042 0.014550060418100343 0.0234660058174464
0.11132483777439711 0.01462461085911918 0.02113928550373778
0.11093462705279467 0.014681899120212059 0.019159757169414815
-0.0842897863794072 0.02119008871673399 0.03438691248366749
-0.0812650619803027 0.021093921969624944 0.03461217405761552
-0.07873667659092976 0.021019974149326912 0.03454404671324324
-0.07627146373286242 0.0209486185946494 0.034447964519604524
-0.07381856532632192 0.020877546329683784 0.03435527567160335
-0.07139091069495751 0.020807351049334125 0.03425774393030745
-0.06904103559590596 0.020740448241876715 0.03412177846107062
-0.06664806427581743 0.020671300718055684 0.03402385217466819
-0.06585710826372576 0.020675670079423697 0.03290721108550748
-0.0766955655847692 0.02121677435077871 0.02427367709071876
-0.07652875880869875 0.021251104613396767 0.022707629419634
-0.07639125378002204 0.021286928903220325 0.02111700029490793
-0.07627121654076285 0.02132370671995257 0.019509212804927623
-0.07613879131528278 0.02136005488294187 0.017903773505026255
-0.07598793084167044 0.021395688938499226 0.016304804351950475
-0.07574205194090611 0.021427027707602218 0.014763662994190796
-0.07531686541929988 0.021450100644620263 0.013338030529706446
-0.07466282079539188 0.021462534314434702 0.01206338067471674
-0.07184084439352262 0.021373151061117136 0.012260104891391399
-0.0695935148272297 0.021310463166654445 0.012078483077073932
-0.06739291712089529 0.02124972651998518 0.011874842699122923
-0.0665304151096821 0.02125200048052391 0.010756388950849238
-0.03431333282617027 0.019769028937049293 0.031423173390366266
-0.03217117367475697 0.019707560178938374 0.03131833482099017
-0.030075730874218498 0.019648062808601638 0.03119065709950053
-0.028001502183661153 0.019589333471538805 0.031057673270577957
-0.025974983950301067 0.01953264227975084 0.030900376299877297
-0.02391904325547728 0.01947431055055513 0.030773351913838176
-0.021890940698903405 0.019417074026541515 0.030635885508665917
-0.019936624472561393 0.019363147395137576 0.03045453269612236
-0.0184248596773543 0.019330307764568667 0.029960770109454637
0.00802970157890076 0.018093814121312654 0.04767870060836571
0.012590133357623767 0.01791080196173256 0.0495325286350235
0.015465124330677427 0.017808691969942295 0.05017293433612974
0.01813005402521034 0.017716356039960485 0.0506744143725385
0.020041216759779157 0.017660308509197396 0.05062895793957206
0.02194032530568346 0.017604614484444333 0.050583788211812475
0.023827493347648165 0.017549270631737085 0.05053890248530346
0.025444159743215844 0.017506938248244622 0.05029818642311429
0.026861321152853612 0.017474216114221165 0.0499124882739459
0.028272250711811664 0.017441662491977306 0.04952750571585779
0.029678871683671282 0.01740918368990651 0.04914467810396833
0.03107933057977702 0.017376871697301566 0.048762550725889864
0.032191409449584374 0.017358691383906895 0.048161285561171385
0.03328265602036318 0.017341466759125995 0.047546785604131
0.03437081745890941 0.017324322079596256 0.046932778422600796
0.03545774725976747 0.017307165561306206 0.046320710546307875
0.03654252638689659 0.017290042990078837 0.04570985374939163
0.037470334995753085 0.01728069696654177 0.044976354236677285
0.038305386866534286 0.017275959431578003 0.0441698578002957
0.03914088724955356 0.017271178977853224 0.04336453615304853
0.039975021577562164 0.017266446659486873 0.04255892544253176
0.04080869892368599 0.01726171693372931 0.04175375608717752
0.041630233352848434 0.017257580548829844 0.040939427390382366
0.042227076378080486 0.017264809154784972 0.0399402473545441
0.042825316188341844 0.017271998298929295 0.03894097432209481
0.04342405442564895 0.01727919343275133 0.037940868739407
0.0440232917131646 0.017286394563739593 0.03693992956558262
0.04462213571588419 0.017293647333312952 0.035937402504821914
0.045059105163335667 0.01730922255577922 0.03479633562360307
0.04539511421723863 0.01733004848807802 0.03356647111198657
0.04573282577551596 0.017350878658305192 0.03233440885284056
0.04607135014802022 0.017371758963203168 0.03109938122969713
0.04641069027274869 0.017392689583988243 0.029861377523971777
0.046488848802400284 0.017427238277478788 0.02839227736876382
0.04647585388907666 0.01746667148663721 0.02683727635695854
0.04646190100769643 0.01750633031750951 0.02527443127780382
0.046448785731044384 0.01754612267605159 0.023705270037009618
0.04598068909827652 0.017609865249699982 0.02172448055006304
0.04536257110531772 0.017681749858120266 0.019598210582884468
0.044738469604706343 0.017754271844507143 0.01745368693154037
0.04264073201753227 0.017904636503653714 0.013965170996881326
0.08700397459036457 0.016115963839395436 0.03233174003973038
0.08771854779563776 0.016114656143329242 0.03153222590641108
0.08827284777051053 0.0161221088919739 0.030574819875404946
0.08869075012767241 0.01613707482272384 0.02948074223857783
0.0889129927498476 0.01616286378364197 0.028188799080937854
0.08898123766587757 0.01619725746477318 0.02673768711337632
0.08883336979244827 0.01624374665285813 0.02506240629416462
0.08776578098862281 0.01634135953634722 0.022447126917165994
0.11027275211671173 0.015424935225064879 0.032122362107689706
0.11060739629317112 0.015443436463143764 0.030986708689265063
0.11069162428834506 0.015476258697808143 0.029579134085228997
0.1107710568196903 0.015509514370645579 0.02816001215520103
0.11085147694848413 0.015542876410017269 0.02673547704286372
0.110931597112088 0.015576419308056614 0.025304096442593238
0.11077797133261352 0.015623541386998611 0.023610471783695464
0.11226142610910639 0.015576715484478828 0.02370747239019727
0.11331483288135502 0.015554459694997098 0.02333844195960827
0.11558922528313981 0.015499903913097213 0.022800694120489906
-0.08411457974391773 0.022594286972956013 0.03449451835222228
-0.08124414166187788 0.022499169598606223 0.03462509615035669
-0.07866411764173759 0.022417782564815955 0.03458912114095314
-0.07623476366471588 0.02234340766492279 0.03447089305696954
-0.0737647246425468 0.022266758207541672 0.03438910441873544
-0.07132022819651684 0.02219105550176905 0.03430240702157872
-0.06897094467125547 0.02211971467030888 0.03416631904837064
-0.06701145051994117 0.022067205919567255 0.03379162359223792
-0.06655919188921278 0.022088542402227837 0.032455994666361954
-0.07674766149445267 0.022633790578675806 0.024240006990215
-0.07658539160737504 0.022670638394499173 0.02267082080517091
-0.07645841343249377 0.02270937679631228 0.021073104136224874
-0.0763713635845022 0.022750246684225695 0.019443388109011472
-0.07628399984572165 0.022791263943797373 0.017807795531438575
-0.07616782443219705 0.022831012543132922 0.01618523497410429
-0.07589959730928741 0.02286334508370186 0.014658362377425016
-0.07532136588507099 0.022880332015748055 0.0133350057068779
-0.07452346850128527 0.02288639954453138 0.012157563141454164
-0.07229225244236909 0.022820652658786404 0.011953319273118712
-0.06984679993342169 0.022743881136008236 0.011905389299014357
-0.06776417319263445 0.02268505778445044 0.011619720724807936
-0.03422145437560892 0.02108232180183833 0.031487011837369294
-0.03212747972171798 0.021019185282935615 0.031348861666432415
-0.030059631280850374 0.020957116872664862 0.03120196713597323
-0.027944995428036856 0.020892416391906813 0.03109758812881319
-0.02591038814565333 0.02083152784233223 0.030946255972053582
-0.023890023764250312 0.020771116600610328 0.030794076423342698
-0.02186215069366404 0.02071007300265541 0.030656558885637675
-0.019864013221751464 0.020650302132108174 0.03050695855979657
-0.01832778820848968 0.020614009195500525 0.03003123975665939
0.009436560006987449 0.01922766038089751 0.04870559688360465
0.012943113870323042 0.019086650626842568 0.049791582159052605
0.015813370455345643 0.01897794018496115 0.05042990562829719
0.018216836896270683 0.018892952033547877 0.05073879998924424
0.02012727205213205 0.01883319638945089 0.050693150690769184
0.02202662994189608 0.018773767131678918 0.05064851635655304
0.023913077084339596 0.018714761861050512 0.05060343788655064
0.025404992032037166 0.01867611294958332 0.05026849166105318
0.026822381598042955 0.01864120170027539 0.04988280685138824
0.028233537678871434 0.018606470250393053 0.04949783758215154
0.029639445133382014 0.01857186797998716 0.049114300160035596
0.030979453346854313 0.018540589918029246 0.04868518119392812
0.03207335557411989 0.018522168052609825 0.048069343353004945
0.0331650861642217 0.018503782758656852 0.04745472808597395
0.03425465157751578 0.018485433927374655 0.04684133175582733
0.03534205824875847 0.018467121450398676 0.04622915073996908
0.036427312587233196 0.018448845219793324 0.04561818143014401
0.03729348128759791 0.018442177322612354 0.04483488357575233
0.03812991855830117 0.01843707015235193 0.04402874482085156
0.03896498551873112 0.018432014409413614 0.0432223189771519
0.03979959462696181 0.018426961438448564 0.04241633528223032
0.04063374625943539 0.018421911237177825 0.041610793372550636
0.04139993980766249 0.018420503501897476 0.04075024065336119
0.041997988080008875 0.018428175843725986 0.03975104947184255
0.04259653474728442 0.01843585457944635 0.03875102559532162
0.04319468385116887 0.018443588377567 0.037749419631237624
0.043794230387749655 0.01845127996566696 0.03674772428293005
0.04439427719455169 0.018458977971737688 0.03574519310569102
0.044772333683463006 0.018478837260695668 0.034553149368354075
0.045109177178594306 0.01850104036179262 0.033322709583478216
0.045446831110810326 0.018523296882996643 0.03208930939113952
0.04578440373553633 0.0185456562179128 0.03085216730383128
0.0461236871634404 0.018568020278064458 0.02961280993297216
0.04612781895112106 0.018608996326052573 0.02807794805731101
0.046113992272432514 0.018651148814184743 0.026520563067800818
0.046100102812102806 0.01869349270073083 0.024956106585422133
0.04608524708862716 0.01873607950839038 0.02338373161541013
0.045496382912040056 0.018810847414278384 0.021293875710783228
0.04487447963553837 0.01888779633120624 0.019161961056545662
0.04405526802373105 0.018976137138352098 0.01683984610045075
0.0418391145330565 0.019143256454832367 0.013241159298646221
0.08516150927475297 0.017137430762746608 0.03650379632478151
0.08628282976040463 0.017112469741796414 0.03609943753789813
0.08720203741141586 0.01709907537266293 0.03550407908989134
0.08792651360596743 0.017096900768356415 0.034721876044771116
0.08858744471231983 0.0170984062055653 0.033878000015390375
0.08920105624474006 0.01710267305017591 0.03298741356859136
0.08958159446349773 0.017120558373122718 0.03186611491735547
0.08993059424379868 0.017140372145173787 0.03071039909600698
0.09028112137203592 0.017160189707410487 0.02955272153683758
0.09057424362191735 0.017183473789277908 0.028334025722067335
0.09071275051158195 0.017215974344431242 0.026955474446167527
0.09062091096752589 0.017262227815722005 0.025337941643366002
0.09026109620899336 0.017324559027384924 0.02343946872605074
0.08950371373147237 0.017410770018008014 0.021123190426514504
0.11337946981643526 0.01658744744401372 0.023409872654373498
0.11550204248084833 0.01649764628537494 0.024233228183636712
0.11532267789411549 0.016549709321666634 0.022503089788384667
-0.08402249791835187 0.024001697770562283 0.03455107183143519
-0.08120977665975265 0.023903598222887294 0.034646322774899097
-0.07862266562240511 0.02381675542091836 0.034614871597232255
-0.07616138112068632 0.023736077360113777 0.034516739140851516
-0.07372107934964062 0.023656170068701694 0.03441652727954814
-0.07128705827977883 0.023576275125453298 0.034323366538452305
-0.06886513425838492 0.02349669503462983 0.034233558251665686
-0.06694043049857379 0.023442706201327563 0.03383701022740376
-0.07700308784254595 0.02401426919761877 0.025743892057897788
-0.07682955035487715 0.024052685711425655 0.024187081411654543
-0.07665694772866843 0.02409130347549618 0.02262431274371668
-0.07655246994038989 0.024133652036790666 0.021011627948605782
-0.07647753722941864 0.024177723692658786 0.01937360224584489
-0.07648924471560087 0.02422653893872622 0.01767213554892416
-0.07647396736164674 0.024274123651894502 0.015981751795525523
-0.07638341187513636 0.024317914114111588 0.014334989036097312
-0.07572226160333612 0.024331616108592677 0.013065558369170449
-0.07436923109119181 0.024308602388909764 0.012261805844015483
-0.07209613630761025 0.024236499642157436 0.012086603581648425
-0.06963914411787753 0.024154293062990505 0.012047300247466808
-0.06772321731466124 0.024100684046463813 0.011647865030702753
-0.06705291182653672 0.02411359425713101 0.010395347719322434
-0.03420887143694118 0.022399291392143677 0.03149575464113208
-0.03207381116758512 0.022329997275359562 0.03138635728180189
-0.030028674051106263 0.022265267945757575 0.03122371472856722
-0.027894643804954156 0.02219547269818848 0.031133155166330362
-0.025853122141263563 0.02213039880705327 0.030986929596642288
-0.02382232771074172 0.02206563982183066 0.030842422119460533
-0.021793790836482863 0.022000737378103683 0.030705646375740414
-0.019798566491624647 0.021937381825134654 0.030554211586197866
0.00424149007181196 0.020670739054326297 0.046415550169197684
0.010396900795871467 0.020376873285242385 0.04940657031446105
0.01329643083724985 0.020260205255084048 0.05005088260791235
0.016161952310620675 0.020144920224903433 0.05068712465653902
0.018303578497732564 0.02006898849689942 0.05080315498736693
0.020214263753463357 0.020005474382939276 0.050758041954131305
0.02211192430888953 0.019942414562425036 0.05071248680327045
0.023943838797774175 0.019882731153212305 0.05062663411046303
0.025365815739356368 0.019845543812688767 0.05023879039297835
0.02678248346833051 0.01980849531794631 0.04985239476134212
0.028194816195681538 0.01977153226203862 0.049468162972508944
0.029600948822751993 0.019734759331744647 0.04908463896073317
0.030861768199251238 0.019705962135743146 0.048594016826209285
0.031956152716634934 0.019686375821695738 0.047978063930976755
0.03304743723598713 0.019666880478603377 0.04736260865415226
0.034137485384615196 0.019647371737798038 0.046749097636215264
0.035225373109936786 0.019627901662385074 0.04613680256774472
0.03627998340102373 0.019610230342998212 0.04550095581800262
0.03711644645902995 0.01960484718047046 0.04469326803109969
0.037953360970629735 0.019599415254132873 0.04388675583440338
0.03878890374176408 0.01959403802680875 0.04307995623330613
0.03962398816543172 0.019588663749230458 0.04227359921223739
0.04045861461867467 0.019583292418971648 0.041467684407120176
0.04117023675783121 0.019584944822956654 0.040561539009785874
0.041768591580646885 0.019593107654566174 0.039561597053959285
0.042366546392846205 0.01960132902167197 0.03856007481322904
0.04296590101939374 0.019609505519422293 0.03755846109522193
0.04356575588415751 0.01961768884150687 0.036556011402275435
0.04414999418938276 0.019626812485974577 0.0355391288805445
0.04448507512249511 0.019650438555122683 0.034309550061473904
0.04482185957909951 0.019674069460108804 0.033077771125864464
0.04515945502054669 0.01969775726886298 0.03184302603791034
0.04549786437967035 0.019721502187171554 0.030605304070848105
0.04578060944713558 0.019748611915330637 0.029315677258440864
0.04576601364905042 0.01979329265562929 0.027762943602480217
0.045751351655992756 0.019838176032499107 0.026203167972184027
0.0457366230166269 0.0198832634275724 0.024636302353419293
0.045628586047095576 0.019934065161563624 0.022979829379533023
0.045009772029719786 0.020015339944469347 0.020861221727150103
0.04438589132165438 0.020097280184488236 0.018725267457694317
0.04326117473446456 0.020209379295433438 0.01612637163227082
0.04103371242735515 0.020387724216784288 0.012513729374020344
0.08548763193137038 0.018146639368739597 0.038289695544298064
0.08661407442815505 0.01811972343895968 0.03789310785233929
0.0875982909570856 0.018101397349873538 0.03736416241220697
0.0884901673818157 0.01808865720701429 0.03674896758458379
0.08911041355521593 0.01809257873128254 0.035871980539669834
0.08964801381706089 0.018101617927082286 0.03491364668490737
0.09016330075295159 0.018112079382705218 0.033931925107259564
0.09062639014949159 0.018125825642865873 0.032896978640950314
0.0910416934336909 0.018142605749920434 0.031812368868145535
0.09141712859719126 0.01816194798397096 0.030685236228311097
0.09162145897009816 0.018192063555584437 0.029383431900102452
0.09184075553821469 0.018221385095236086 0.028091694675244916
0.09191125891230545 0.01826017889814868 0.026644416959114625
0.0916820326685287 0.01831800264312731 0.02488561086995511
0.09131927964889014 0.018384517477320533 0.022980521760429362
0.09056300780276916 0.018476210769389007 0.020659612578315
0.11523535004564905 0.017546223691222048 0.023936987046606573
0.11505559864556286 0.017601609475998533 0.022204891626791012
-0.08398627895388794 0.025411591542767228 0.03457331626937221
-0.08114106191527709 0.025305945943086088 0.034688766598304055
-0.0786197050488644 0.025217579310087827 0.034616710738503254
-0.07609829088631581 0.02512886411159195 0.03455615505665732
-0.0737268982403087 0.025048028591287175 0.03441287120077652
-0.0712596606970538 0.024961609412702278 0.034340678613787146
-0.06889229706981698 0.0248803490264036 0.03421629713576607
-0.06704838979211386 0.024827644373363197 0.03376801687912928
-0.07716377625933407 0.025435754962071705 0.025640620525292257
-0.07692487593891911 0.02547282890636071 0.024125471546028343
-0.07672554325590525 0.02551224546551073 0.02257972892700677
-0.07661967673957076 0.025557015460629058 0.020967700974405534
-0.07661069747381416 0.02560736144165104 0.019286078617905655
-0.07676819208608693 0.025667201338477438 0.017487760682819875
-0.07697457865786306 0.025730015073847663 0.01564901186267903
-0.07721518589964804 0.025794998219817126 0.013779045572377968
-0.07650957247833301 0.025807102675796247 0.012536396271520478
-0.07424501833142122 0.025731530424884314 0.012345756124062579
-0.07200407945405757 0.025656985399738593 0.012149167195225019
-0.06966122610988457 0.02557638145257491 0.012032209524285131
-0.06774369432352034 0.025519530622752716 0.011633793516925894
-0.03419628925719076 0.023716181552375693 0.031504496917588276
-0.03203388078315733 0.023641252125182862 0.03141425470442211
-0.02997791423771451 0.023572092459774163 0.031259373724895956
-0.027851670472961165 0.023498631015616105 0.031163510376702064
-0.025794654263199768 0.02342883624369279 0.031028456861346865
-0.023761903836821807 0.02336014870918353 0.030885574328420984
-0.021717063413669524 0.023290483166076223 0.030760742403778907
-0.019743845552763817 0.023224660681929438 0.03059372051145176
0.0056728653560564335 0.021803957317605187 0.04745466611622229
0.010754353988828291 0.021554815864057084 0.049667483100773735
0.013648067226422311 0.02143157962374867 0.05030894967539834
0.016469150699408852 0.02131205446557086 0.050913806768203174
0.018391263853535955 0.021244408440541467 0.05086821017211113
0.02030023702335343 0.021177247509614996 0.05082217352085733
0.022197178379486426 0.02111050987841003 0.05077642702784568
0.023903462967862332 0.021054670756965016 0.05059618825141571
0.025326630862354593 0.021015230921756247 0.050209082616752776
0.02674352667180191 0.020975994515739078 0.04982270019639701
0.028155141521262472 0.020936904349050784 0.049437757874896626
0.029562444123893195 0.02089790407391811 0.04905497129834585
0.030743069394075784 0.02087216915840662 0.04850206723237194
0.03183794043455457 0.020851416732677337 0.04788599835325552
0.03293063645799382 0.02083070553269891 0.04727115332628373
0.03402116393913618 0.02081003543574763 0.046657528508208646
0.03510952932705019 0.020789406319586413 0.04604512027022878
0.03610228982931757 0.02077441403011895 0.045359570134332006
0.03694014418296587 0.020768653521425644 0.04455223847747858
0.0377766225233202 0.020762951023015796 0.04374462139922625
0.03861264164207695 0.020757251655243798 0.04293744769789881
0.03944820191729431 0.020751555415532474 0.0421307170084772
0.040283303726622366 0.020745862301307084 0.04132442896634814
0.04094022460057001 0.020750953112611638 0.040372583433665454
0.04153798484370769 0.020759662547018096 0.03937114513331175
0.04213714728495355 0.02076832445022334 0.03836961326064109
0.04273680993216422 0.02077699358474852 0.03736724526712781
0.043336973411991 0.020785669959652916 0.036364040105291706
0.0438623090956729 0.020798973148814823 0.035296452948665735
0.04419822540569718 0.020823976365179228 0.034066297460210004
0.04453495032269272 0.020849039768480817 0.03283318078102321
0.044871589229999786 0.020874218981916305 0.03159632300805554
0.04520993996091821 0.020899403546661578 0.03035724755989122
0.0454188612113538 0.020932724770543885 0.02900237442442849
0.045403430395136724 0.020980135452906296 0.027447261826740066
0.045387929521555626 0.021027761384391736 0.025885088866094474
0.04537235811242413 0.02107560403421342 0.02431580735098976
0.045144352452056 0.02113694989552891 0.022551540092872302
0.04452266952212025 0.021223253247629536 0.020428130631148123
0.04389497010863652 0.02131032199682072 0.01828648874528299
0.04246428088190907 0.02144835472458339 0.015410380922699363
0.04022449883490148 0.02163808130079902 0.011782856958368837
0.08510428059010305 0.019194580138570186 0.03939402248733742
0.08648164589422258 0.019149897643149203 0.039235499704930066
0.08759855146820911 0.01912186734614251 0.03883471470361183
0.08851484318531633 0.019106722371963338 0.03824536392888511
0.08925068162429822 0.019103241493081086 0.03748395198233234
0.0899421213401635 0.01910263827016608 0.03667994650209566
0.0905368996049804 0.019108347218181245 0.03578164444358678
0.0910312602612412 0.01912065858647378 0.03478388920129216
0.0914049399825369 0.019140948830443382 0.03366514680115262
0.09178721902279713 0.019160768654296816 0.032551768798434855
0.09212843204763976 0.019183389983188037 0.0313943528517715
0.09238456813063994 0.019211741868299246 0.030148137525338792
0.09252704075583834 0.01924775908525713 0.02878297807272101
0.09255965306336267 0.019291243586522303 0.027300915042952567
0.09249741564058905 0.019341249322380506 0.02571545774411027
0.09219462506816917 0.019407546013906974 0.023876003692332004
0.09180970748958417 0.01947965303640985 0.021941587038386168
0.09091573752877286 0.01958623820266368 0.01946954809573026
-0.08380376052872995 0.02681286340385395 0.03468541278678727
-0.08105594359915003 0.026706933410002937 0.03474134260372752
-0.07859898209625826 0.0266173610402929 0.03462958406756306
-0.07602495194504788 0.026520675084310535 0.03460197389951225
-0.0737123512922006 0.026438743664037756 0.034422011222681625
-0.07124380044901452 0.026347445596224373 0.03435070043985994
-0.0688394040809367 0.026259516812261224 0.03424990897354002
-0.06715213632402722 0.026212998959552737 0.033701715772722796
-0.07729925829809875 0.026856756953599095 0.025553548674916104
-0.07697106347798599 0.026890686139030683 0.024095620083757097
-0.07676432369750241 0.02693186398898703 0.02255452349204995
-0.07669287983473011 0.02698114601688349 0.02091985476670577
-0.07674842741425852 0.027038092225251567 0.019195551418002554
-0.07695284338871045 0.027104037549210543 0.01736571235829948
-0.07732399809840956 0.027180091028577436 0.015416764204542965
-0.07750218214131671 0.02724503262905524 0.013587222216555561
-0.07637088220462007 0.027232609107388485 0.012629611846831701
-0.07433031381226912 0.027166126329964263 0.01228810842734318
-0.07190612436199956 0.02707654336087675 0.012215739365474876
-0.06936991718040963 0.02697991835079637 0.012231288593494594
-0.06771151700231248 0.0269353594421832 0.01165590532152555
-0.03417364324580158 0.025032388398931727 0.031520231686612665
-0.03202389938745093 0.02495405490386955 0.03142122822141552
-0.029929642089167263 0.024878744942614016 0.03129328512552576
-0.02780870612826164 0.024801516795194364 0.031193859238690447
-0.025754467295851402 0.02472800723889546 0.031056999967168653
-0.023709953658329508 0.02465478569718236 0.030922674977757025
-0.02164395965611393 0.02457995847867998 0.03081323636914768
-0.019693895938904415 0.024511879355622927 0.030629784504532243
0.007093463312685955 0.022928643182278365 0.04848595819405316
0.011111122041367327 0.02273050064777653 0.04992789578833523
0.014000040068207154 0.022600666451900703 0.05056726366652958
0.01655753637985863 0.022490633094476565 0.050979026682813566
0.0184779225359325 0.022419323880677976 0.05093250365123714
0.02038616955735484 0.02234846542630038 0.05088627470073909
0.02228336028961775 0.022277993683813557 0.050841063128497954
0.023864039708024753 0.022226814430425755 0.05056646068879167
0.025286481352762236 0.02218523365084962 0.05017864351019441
0.026704561354054024 0.02214374908652061 0.04979299913620788
0.028116402922997608 0.022102478226412006 0.049408070148939165
0.029523931034063644 0.022061302289336077 0.04902529717076087
0.03062522612433588 0.022039104095339327 0.04841078037592006
0.03171964851588921 0.022017242501826878 0.04779387075331404
0.032812829770257124 0.021995365956717243 0.04717891036834143
0.03390384079002934 0.021973532841950062 0.04656517083147538
0.034992688031474706 0.021951743028323624 0.045952648510794114
0.035924414040439445 0.02193979153791336 0.045218039465678705
0.036762747215065006 0.02193370476489461 0.044410333246557465
0.03759970293833387 0.02192767928945684 0.043602341291719415
0.03843619894252903 0.02192165712366407 0.042794793146860854
0.03927223560631199 0.02191563826479038 0.04198768844641898
0.04010781330793556 0.0219096227101124 0.04118102682523794
0.040708998877898916 0.02191858940914584 0.04018263091045354
0.04130796885822713 0.021927737214181793 0.039181181098453755
0.041907439012021985 0.02193689265814652 0.038178895019812975
0.042506509749503596 0.02194611376924213 0.03717502024139574
0.04310698334354074 0.021955284568297005 0.03617105551466432
0.04357503362585102 0.02197306754939407 0.03505412255383733
0.04390999047934163 0.02199956289038893 0.033821870181725056
0.04424665498026553 0.022026063762773527 0.03258740879686517
0.044584131557654894 0.022052628558540073 0.03134996973840248
0.04492152389616527 0.022079316234311766 0.030108767479470777
0.04505633607079795 0.022119380673208823 0.028688398728897002
0.04504006667755395 0.02216953293982524 0.027130900543178516
0.04502372334004834 0.02221991314824047 0.025566323536003743
0.04500730555301524 0.022270522855985703 0.023994619337637912
0.04465781617650855 0.022343352535058755 0.02212121415819246
0.044034161082451284 0.02243465297104639 0.019993789497112335
0.04340354505949762 0.022526824879626685 0.017847259710989827
0.04166364008554674 0.02269315573677451 0.014691023670712788
0.08446911268924101 0.02025753417475105 0.040258251277885626
0.08610940190362065 0.020192588930595265 0.04034543886094111
0.087263037765964 0.02016051702438524 0.039978993972612675
0.08826077925589454 0.020138948005688127 0.03946810501808112
0.08915526165924964 0.02012435034770785 0.03886108195689991
0.08991140753560567 0.02011918033831451 0.038122497862043914
0.09053747502707521 0.020122935648171962 0.037258305299903094
0.09110503227540978 0.020130743373538373 0.03633642649913005
0.09165606597247528 0.02013972975117531 0.035397180520338745
0.09194972534137741 0.020166590111025035 0.03420266764958535
0.09221092037085044 0.020195831219718206 0.03297198877718799
0.09236665178295556 0.020232551381146675 0.03163184020578652
0.0924839329409074 0.020272127743304138 0.030247710212040757
0.09259741010594125 0.020312157439330836 0.02885385991917211
0.09251760948015353 0.020365926821372633 0.0272583459794139
0.0923394252834231 0.02042686547428445 0.025554664830187257
0.09235601711785935 0.02047437464343764 0.024041108417012347
0.09194669310580489 0.02055218373871969 0.022082448597307958
0.09153424610422423 0.020630586488383413 0.020108844933515224
0.09036297846973179 0.020763201405765132 0.01733502974170409
-0.08359878606804311 0.028211674086862898 0.03481130102619173
-0.08101563529196854 0.028110119719322643 0.03476624029758957
-0.07854718285322954 0.028015130804452816 0.03466176233449386
-0.07601908584207945 0.027916143347492515 0.03460563877448092
-0.07364690149025382 0.02782626842866851 0.03446313411794705
-0.07110687164719187 0.027725793390267022 0.03443722346477268
-0.06874937152901905 0.027636089109970112 0.034307121840377375
-0.06697735811256667 0.027581917766435815 0.033813410964666724
-0.06705978902082416 0.027641421769935812 0.03213426996440283
-0.07699639606703712 0.028307544266827318 0.024079247381474822
-0.07677178222493009 0.028349790389555516 0.02254967580542727
-0.07673322619884132 0.028403698932597313 0.02089348401676694
-0.07680533995878458 0.028464672763998222 0.019158143914022763
-0.07710007013084286 0.028539697776033317 0.01726840041440003
-0.07745667541303342 0.028618868060637667 0.015328577938887589
-0.0774780002359392 0.028677475795845817 0.013603384986537237
-0.07643720188955538 0.02867004263939782 0.012585037505602081
-0.07419714709219855 0.02858759621642453 0.012378110319769764
-0.07194619180188738 0.028504134847554194 0.012188508760371586
-0.0696479766564817 0.028417369850314334 0.012041264134645846
-0.06763109379371507 0.02834795098781073 0.011711171024418987
-0.03411703897115648 0.02634630742744344 0.03155956113726183
-0.03198273120385137 0.026264820763837956 0.03144999043427277
-0.02988756788363872 0.02618548435287006 0.031322842443416155
-0.02777679557416801 0.026104831980979383 0.031216399999149713
-0.02572159292602222 0.0260273879782733 0.031080349243781724
-0.02365680906987977 0.02594901499423442 0.030960628624836006
-0.021592443366033887 0.02587034664330385 0.03085022891833822
-0.01963563704563165 0.025798245628035954 0.030671847859211565
0.00850134407246883 0.024045024981068083 0.049508018142343846
0.011466190507381735 0.023903999512394195 0.050187067911077465
0.014350339996742623 0.023767592026057847 0.05082434990129164
0.01664488706418643 0.023668707597045868 0.05104348287236865
0.018564540037273425 0.023593680989546322 0.050996766577471375
0.020473037194092436 0.02351906522538753 0.050951073418397386
0.02237046868092535 0.023444857019540685 0.05090639408646397
0.02382460779163814 0.023399215482802126 0.05053672659859726
0.02524727908910518 0.023355436638771473 0.0501489225523819
0.026665587512291034 0.023311759114088608 0.04976329157864362
0.02807765586611055 0.023268306608237904 0.04937837594062888
0.029408341391407022 0.02323001691261554 0.04893623597575225
0.03050636778148319 0.0232068816444892 0.048318707196806476
0.03160220925184981 0.02318379241232801 0.04770240721415664
0.03269587231755472 0.02316074907886077 0.047087332363748124
0.033787363467769005 0.023137751507361498 0.04647347899607912
0.03487668916591563 0.023114799561646727 0.04586084347612851
0.03574727404858763 0.02310630360394318 0.045077094249636906
0.03658516829134367 0.023099950999766375 0.04426828246364056
0.03742260193705654 0.02309360188766641 0.04345991528781906
0.03826048626046985 0.02308719526608045 0.04265272881756277
0.039096997390971666 0.023080853163009927 0.041845251693509555
0.039879588169237035 0.023078110064062178 0.04099453246395346
0.04047836541268324 0.023087744267876638 0.03999316492825766
0.04107764279685111 0.02309738651885281 0.03899096098022797
0.041676518306372146 0.023107097930653568 0.03798717014116454
0.042276799064438375 0.023116756357320977 0.03698328725257449
0.04287758184938706 0.02312642286152438 0.03597856479653516
0.0432863710642708 0.023149213927175307 0.034810622081752896
0.04362216495761351 0.023177089768467527 0.03357779008413231
0.043957868127155575 0.023205094448761177 0.032341217799501054
0.04429528413927758 0.023233105114419013 0.03110242544651548
0.04463351571970037 0.02326118348465747 0.02986063880844464
0.04469303152001419 0.023308587824455194 0.028373748001923382
0.04467591997365822 0.02336149337376108 0.026813857555464893
0.04465873057147418 0.023414639638181276 0.025246869758822454
0.04464146278089609 0.023468028264307297 0.023672736063168276
0.04417079002768298 0.02355317108251738 0.02169045494610483
0.04354332183248111 0.02364961823740127 0.01955737600012991
0.04290976942327124 0.02374692305127067 0.017405929753883997
0.04085828828411853 0.02394388912537011 0.013967433689550113
0.08342627438527822 0.021349196129895193 0.040740093661274845
0.085400929612031 0.021257166519263515 0.041135706152307994
0.08672202902989329 0.021211500096691163 0.04092533252254271
0.08783583133617673 0.0211804972333107 0.04052400698262715
