# .PCD v0.7 - Point Cloud Data file format
VERSION 0.7
FIELDS x y z
SIZE 4 4 4
TYPE F F F
COUNT 1 1 1
WIDTH 765
HEIGHT 1
VIEWPOINT 0 0 0 1 0 0 0
POINTS 765
DATA ascii
-0.05492902662734744 -0.01519612411577309 0.061571310528291845
-0.05487061035110873 -0.016337730803170303 0.060953302036479695
-0.05481231819271194 -0.01747691190361994 0.060336606635535694
-0.05475926012014223 -0.018579663833443893 0.05969679749030715
-0.05472000782066896 -0.019589270907247547 0.05899251448618287
-0.05468153979347982 -0.02059260616384634 0.05828573737645715
-0.054643271219814694 -0.02159356996595191 0.057579251283648436
-0.054644434493471415 -0.022333211016476284 0.056682995318549645
-0.05467921013748167 -0.022851479932621044 0.055623327198029426
-0.05477868820578531 -0.022945391484241295 0.054246982246837716
-0.061242070022494766 0.018702801958513204 0.021727944244511244
-0.06102748557174036 0.016460576259214377 0.021783259330175164
-0.0608340372355077 0.0143622868845803 0.02174145847929726
-0.06082682930012936 0.013483314883318276 0.020785557371119368
-0.060927353771645106 0.01330533075729512 0.01929571819825271
-0.06103474114625123 0.013169145797751913 0.017768461756731968
-0.061130494664716484 0.012954664417932582 0.016295768496330743
-0.06124974209556497 0.012889426020392836 0.01470231451383397
-0.0614004669528914 0.013023962055712823 0.012946845640401106
-0.061549168103870996 0.013141349701122074 0.011196662620415243
-0.061709530536301994 0.013329568779518852 0.009382671399992604
-0.06188061232412568 0.013582103861013162 0.0075090796317564545
-0.06207590559203467 0.013984804154870079 0.005506705499782827
-0.062271680078692083 0.014385233716147694 0.0034955086366195154
-0.06015486906716895 0.06133783525480385 0.06973554993699865
-0.0600832948299641 0.05996953861201587 0.0690344055404184
-0.060013324300295996 0.05861504393814815 0.06832888248322033
-0.05994530446422365 0.05727683262164762 0.06761743169189127
-0.05987904421436317 0.05595342187175112 0.066900767939793
-0.05981417636496132 0.05464205120244048 0.06618037001650512
-0.05975122526342937 0.05334649160078109 0.06545392235618797
-0.05735577266502344 0.03505081006783134 0.07475950786341432
-0.05725887267059143 0.03354437949639971 0.07422264523008154
-0.057162136960231424 0.03204184991144665 0.07368829806943855
-0.05706929247685117 0.030570224319921846 0.0731402458358138
-0.05698175687554298 0.02913959381560366 0.07257210366577233
-0.05689674433449069 0.027729624298576505 0.07199581754291492
-0.05682628153469317 0.026426865570977787 0.07135834406777919
-0.05675663416320519 0.025131940079767656 0.07071961598576848
-0.05669403336446097 0.023889536621195917 0.07005196801143393
-0.056632049237724726 0.022653300126222742 0.06938366087400322
-0.05657418152578864 0.021448225743949 0.0686990317836117
-0.056518180208585275 0.020258086096895056 0.06800796251545566
-0.05646800065512004 0.01911097084897545 0.06729256100164033
-0.056419493907923474 0.017977147389861947 0.06657127543888197
-0.056372019106172226 0.016851999655324967 0.06584692741859799
-0.05632572910824 0.01573656654832789 0.0651187698990004
-0.05627998786720493 0.014626304385291944 0.06438964821370569
-0.05623542229165592 0.013525610849866476 0.06365666171185452
-0.056193598099004816 0.012445455539846273 0.06291254961810056
-0.05615952441252628 0.011420905711946538 0.062134050422656906
-0.056125492023014305 0.010397597628146293 0.06135649476040694
-0.05685007135865499 0.014682239945946918 0.05705268497806554
-0.05680106680087241 0.013545702347196598 0.05633462985169213
-0.05443271969852868 -0.003750007561876545 0.06647991866735331
-0.05437057765057684 -0.004942751255215205 0.06586549515246665
-0.05430945785757476 -0.006126664024646955 0.06524831998907477
-0.05425213627157994 -0.007282563022987576 0.06461520336140647
-0.05419522783940843 -0.00843400438940517 0.06398203354098925
-0.05413829283749519 -0.009584038594025845 0.06335088576997255
-0.05408162286488484 -0.010730657189167936 0.0627203666522011
-0.05402492618421106 -0.011875875494515575 0.06209186319046678
-0.053967188922832636 -0.01302664343660681 0.061470259858805776
-0.05390986414906672 -0.014172975554283984 0.060848585997234805
-0.05385237243203294 -0.015318845487051092 0.06022963102398715
-0.05379500320747663 -0.016462274016895817 0.059611994802916346
-0.05373948034678329 -0.01759154388158729 0.05898725365875823
-0.053689378193371225 -0.018682476744867837 0.05833780252996945
-0.05365154058954775 -0.01968895270183313 0.05762972460642113
-0.053613756280289096 -0.02069401102945917 0.05692264401621322
-0.05357602515307611 -0.021697654720749027 0.05621655865369929
-0.05357973874018421 -0.022421313813719868 0.055305907116608155
-0.05361418534986523 -0.02293866757116103 0.0542419936682495
-0.053710470003390166 -0.023042531462445948 0.052867773066796186
-0.05972654341127011 0.01644395581361341 0.02179572459697493
-0.05953140706331224 0.014306964091169494 0.021783175256822163
-0.0594590210175032 0.012992980379896157 0.021157301392716155
-0.0595557514082629 0.012805023577767694 0.019677073990986338
-0.059659171740595505 0.012658733511205056 0.018159621392891512
-0.05977628314717053 0.01260016591830132 0.01656890760102353
-0.059861744280405194 0.012329293976737155 0.015136218629306752
-0.060009202949058746 0.012464624481828557 0.013382466391109127
-0.0601518084188487 0.012563917033081962 0.011648793853925088
-0.06030504383440056 0.012728983058925947 0.00985545692797174
-0.0604728875986689 0.012985429578019125 0.007981305703438524
-0.060651916595082754 0.013310275694281726 0.006043408325906163
-0.06085042686778074 0.013757147439183937 0.003997933821712096
-0.05870763499159415 0.06028431090249631 0.07033220130209805
-0.058637598368293846 0.05891786889640621 0.06963351075200175
-0.05856877546518253 0.05756255795482007 0.06893197293511022
-0.05850133239778849 0.05621957330141614 0.06822680699531569
-0.05843526019531623 0.05488878858007129 0.0675179814391173
-0.05837089668762018 0.05357267190090348 0.06680395278229179
-0.058307539394774614 0.05226590575987711 0.06608770964893523
-0.05633624159883522 0.03674469502919975 0.0737602326445082
-0.05617174718726538 0.03471666417452379 0.07352706644676194
-0.05604445195522771 0.03296944472200952 0.07313472020043524
-0.05594032450399716 0.03139749452573887 0.07264368763534798
-0.05583452187459747 0.02981613287210122 0.07216367777594893
-0.05573101434433092 0.02825473091752445 0.07167698635087097
-0.05565434411999017 0.02689395334708472 0.07107311085714191
-0.05558024128011267 0.02555423924377931 0.07046025449068871
-0.05551323133561567 0.024268681475837606 0.0698177773345357
-0.05544747735670906 0.022994234931208946 0.06917186843648204
-0.05538562325944672 0.02175016820892922 0.06851039188687919
-0.055324374040636656 0.02051228052268922 0.06784824915668819
-0.05527335871596437 0.019350642196640677 0.0671411167205549
-0.05522491917876862 0.018209175433587577 0.06642382892721777
-0.055179506724925616 0.017091042255689415 0.06569416294537811
-0.05513525118428363 0.015982578828242 0.0649606623118974
-0.055091220943436395 0.014877006947543958 0.06422761672046828
-0.05504710684833622 0.013772088493490653 0.06349646306080903
-0.05500521768018686 0.012684436395712873 0.06275634960543391
-0.05496938534312773 0.01164146723407189 0.0619890796832846
-0.05493344617436418 0.010598756248982766 0.0612235356894974
-0.05561105415122455 0.014659741834270379 0.05706763873179971
-0.055567517368088716 0.013554668849015072 0.0563286367976682
-0.05340184218904178 -0.0026642262598711164 0.06575015083733765
-0.05334026855098853 -0.0038647097256130913 0.06513689156187569
-0.05327984741315902 -0.005055258303848842 0.06452017219740563
-0.053222012101305914 -0.006225773849718286 0.06389299911510687
-0.05316602737641354 -0.007381561949945548 0.06325881003523603
-0.053110016843614036 -0.008535932635087229 0.06262665277839413
-0.053054267365102395 -0.009686866190479093 0.06199512610507529
-0.05299820621456543 -0.0108383958161683 0.061367026668082025
-0.0529414080661992 -0.01199348896296043 0.060744464413892085
-0.052885016031947035 -0.013144119116644482 0.06012182957650952
-0.052828460106770135 -0.014294282156950222 0.059501927159060664
-0.052772166661275065 -0.015441001202776805 0.05888264458336917
-0.0527157103717788 -0.016587243992324363 0.05826609142525324
-0.052663324196855224 -0.017703640065990622 0.05763107535479739
-0.05261639230989505 -0.018780781779918432 0.05697043235867805
-0.052579103839723515 -0.019789963100338925 0.056262760137248735
-0.05254200859649328 -0.020796747041462504 0.055555379815428685
-0.05250510587432777 -0.021801146739789168 0.05484828510861578
-0.05251127610314239 -0.022508777053972584 0.053923051022247204
-0.052545097868839465 -0.023027138412842207 0.05285629065929254
-0.05263836800318433 -0.023140024619463573 0.051483549396662553
-0.05824138640135571 0.01433521210342975 0.02176187452397177
-0.058118633694077194 0.012667543678027138 0.021404029182589546
-0.05818812421575166 0.01230948794521608 0.020054792704033653
-0.05828904290481584 0.012162521903415213 0.018539898194757654
-0.0583981167864191 0.012067846407786964 0.016979056796756653
-0.05847349434606918 0.01174256507481708 0.015590725897893676
-0.058622387549127096 0.011910397220625646 0.013814107151288113
-0.05876290672458623 0.012017680438952627 0.012076498482986309
-0.05890868990593457 0.012156261909524013 0.010306307259107639
-0.05906442355442426 0.012357287409436923 0.00847843641140028
-0.059232579751860415 0.012636843435891887 0.0065792389355815994
-0.059421803620191095 0.013052021455616458 0.004561985395199919
-0.059638459843445374 0.013644251364695104 0.0023915555954302503
-0.057197728757264775 0.05786330993342087 0.07023426188257903
-0.057129906930798495 0.0565059330178968 0.06953743507026583
-0.05706377017760602 0.055163477166335684 0.06883551187069015
-0.05699846235693997 0.05382930683490306 0.06813220836637568
-0.05693431553785508 0.052505925909925644 0.06742599999649324
-0.0568714906340693 0.051194512093384936 0.06671610552980717
-0.05680947573461215 0.049891106462240487 0.06600475723609017
-0.056749103594294664 0.04860200731167552 0.06528815463161208
-0.05552503310141351 0.03848077595365029 0.0698456213785783
-0.0554414442899213 0.0370363010988316 0.069259067199339
-0.055357947363638464 0.0355949633463184 0.06867500412746874
-0.05469767306713635 0.029802896415796754 0.07073698020072122
-0.05458088954011276 0.028124122885937797 0.0703218918675983
-0.05448729607497256 0.02662310857615785 0.06980379203062326
-0.054402027352133536 0.025187294149492112 0.06925036748783259
-0.054328844927484715 0.023844484916822728 0.06864368382663333
-0.05426183168321485 0.022549924541995503 0.06801074056393352
-0.054196969793586375 0.021273370693116966 0.0673700472171131
-0.054142172461274514 0.0200736439622205 0.06668426410267464
-0.05409463907184858 0.01892949321122439 0.06596608967338907
-0.05404916449312996 0.017801999246756406 0.06523981309285493
-0.054006800594353456 0.016698857049429305 0.06450032341627016
-0.05396465453925285 0.015598561770434005 0.06376126885247951
-0.05392227171469328 0.014497752412158393 0.06302481630545376
-0.053879804400605184 0.013397559748539623 0.06229024584017423
-0.053845245244062624 0.012356676493814223 0.061518986739639625
-0.053810429147577096 0.011314920050806254 0.06075017554557943
-0.054282362791021166 0.013980375018011248 0.05751919147593981
-0.05426060644236871 0.013028573791034503 0.056680269593607
-0.054499190147441305 0.013973839771064755 0.0545674888034382
-0.05230449400504352 -0.0027773991814942778 0.06440202342852586
-0.05224436650812961 -0.003977743821116764 0.06378787277444892
-0.05218607702223302 -0.005163023350924223 0.06316672092982645
-0.05213102733950679 -0.0063231889673750485 0.06253151114443667
-0.05207595260678851 -0.007481926808836636 0.06189834302480823
-0.052021134891442 -0.008637205798635583 0.06126580742170562
-0.05196573009519053 -0.009795099665413254 0.0606381264597084
-0.05190988250530917 -0.010954548490415328 0.06001460427995847
-0.051854434564883325 -0.012109506905148781 0.059391007432469334
-0.05179896538057116 -0.013262996909677971 0.05876944900155345
-0.05174347546837535 -0.014415013897088713 0.05814992747163278
-0.05168810431667469 -0.01556456531731193 0.057531731852664636
-0.05163326758095322 -0.01670870749670217 0.05691272683011145
-0.05158325263319663 -0.017817109619666427 0.05627084864674814
-0.05153941352189876 -0.018880416238213127 0.05559886246971718
-0.0515028228266118 -0.01989133558133377 0.05489089563893801
-0.05146642183472937 -0.020899851061320363 0.05418321797507447
-0.051430209852150174 -0.02190597586581372 0.0534758231856759
-0.05143887956385343 -0.022596562319373792 0.052535103481066714
-0.051472071645072184 -0.023115935199681192 0.05146548242951571
-0.05156512711941031 -0.02321857175759051 0.05007972960615187
-0.05679537743645564 0.012446598804622955 0.02157153714953297
-0.05682475683628912 0.011821027010792629 0.020427118775872943
-0.056923357536784736 0.011674565467060583 0.018913848562209623
-0.05702855984029247 0.011570900989431254 0.017361950452983832
-0.05710207693388362 0.011245388697582903 0.015975861650509793
-0.05723706770341361 0.011341282183262358 0.014257342741727297
-0.05737629415962015 0.011462353573507278 0.012511320817384486
-0.05751740418794876 0.011592279881698031 0.010750278089005527
-0.057665263496097414 0.011764290048520143 0.00894775245575602
-0.05782918936069788 0.0120417398778776 0.007052745659291593
-0.05800577408548686 0.01240069510672287 0.005083001015825261
-0.05818326443949882 0.012760651357662578 0.0031021534106273063
-0.05521275206322043 0.05246024940864247 0.07331222606738813
-0.055105381447514534 0.05078963401752207 0.07281296120731964
-0.05499794461183484 0.04912170837521124 0.07231782185827698
-0.05488787891530981 0.047436377919983175 0.07183846295877461
-0.054785441150782856 0.04581404620003765 0.07132820836335241
-0.05469086684320286 0.044256211200648765 0.07078557115911288
-0.05459614251533205 0.042700033890640754 0.070246993740953
-0.05450158763478997 0.041148007322808544 0.06971100885795717
-0.05441523898968305 0.03966255178126227 0.06914035121445128
-0.054332148780685596 0.03820493987103862 0.06855760694893803
-0.05424946858584406 0.03675298475205602 0.067975907869048
-0.05416688347303987 0.03530423584154413 0.06739670882790288
-0.05408454942017046 0.03385989114860205 0.06681927056017073
-0.0540026205110148 0.03242112478426168 0.06624285163484889
-0.053920784685533726 0.030985522559541512 0.06566891037576478
-0.05384089374872729 0.029567270913949117 0.06508862644317709
-0.053762162272525275 0.028160275534930834 0.06450564885048399
-0.05368366071800314 0.026757389042916024 0.06392437374314702
-0.05317419483367371 0.022073642694802775 0.06542049864560895
-0.053109557926071006 0.020787309932443265 0.06478550567820984
-0.05305811127637823 0.019603002350059184 0.06408884966657041
-0.053014542205835895 0.01847989319958243 0.0633556840984999
-0.05297313566313714 0.0173744320731683 0.06261350668218785
-0.05293253942242654 0.016276321425083673 0.061868831720107764
-0.05289200535635411 0.015179892573880471 0.06112529725513022
-0.052872356777999896 0.01424160160764365 0.060280062630030384
-0.05289230317528192 0.013600808578869639 0.059239280244993864
-0.05306320649665067 0.01408914200790995 0.05744689764058436
-0.05302232249586166 0.012990569984962896 0.05670567067727533
-0.05298120262358436 0.011891462125138308 0.055967082085376374
-0.05126290166654704 -0.0016827940145425768 0.06366222516192777
-0.051203383444479465 -0.002890960128679898 0.06304927381953529
-0.051144977885707134 -0.004089103098494973 0.06243280939277679
-0.05109017856903451 -0.005258835171884857 0.06180010232389216
-0.05103605111539062 -0.006421971158475204 0.06116592198945886
-0.05098217657933268 -0.007581626367339556 0.06053237610715173
-0.050927449283542474 -0.008745937990999986 0.05990512829562622
-0.05087256384635129 -0.009909773277295808 0.05928064521576881
-0.050818071501449714 -0.011069090484668642 0.0586560853518468
-0.050763558605856636 -0.012226928638947143 0.05803357366540968
-0.05070916253766118 -0.01338228541307035 0.0574123960930058
-0.050654609766930404 -0.014537155829659532 0.05679397520371848
-0.05060031052912427 -0.01568855475097053 0.056176169155278566
-0.05054857555863512 -0.016819753278870198 0.05554681169747211
-0.050499389488456926 -0.017930977507145618 0.05490584687561517
-0.05045856450488338 -0.018980408742717503 0.054222363709692245
-0.05042267684284385 -0.019993072095202125 0.05351410471717416
-0.05038697533020249 -0.02100332506992486 0.05280613213238233
-0.050353753485129486 -0.021994731894774244 0.052086169555612294
-0.05036252735628374 -0.022684671391672462 0.051142036322415485
-0.050395084871659425 -0.02320505973628184 0.05006954071379677
-0.05048826118948402 -0.023294513840553255 0.04866843703794288
-0.05226386569306516 -0.011424640203324177 0.038145972733623745
-0.05225587033738509 -0.012262636744710287 0.0372583664247797
-0.05224569796733663 -0.013115807797412615 0.036382921043447314
-0.05223669146068606 -0.01396043768696087 0.03550145731321591
-0.05585805970919558 0.010790196715131983 0.014686536624884727
-0.055994242123963915 0.010913282181427841 0.012941245100380916
-0.05613109018931452 0.011036969281280229 0.011187422707015726
-0.0562738336363278 0.011197864465424978 0.009396038791582406
-0.056431031249577 0.011455533028351783 0.007519173528856893
-0.05659695148439316 0.011769346418425919 0.005588035902288624
-0.056776544650356586 0.012173370310159082 0.003574449275205449
-0.05425352023926671 0.05757390489498038 0.0747867707083773
-0.054004439778975996 0.0547245982117775 0.07493395964604338
-0.05380192556892826 0.05225965763591511 0.07487687111961838
-0.05370147269502644 0.05062507616931866 0.074357670122226
-0.053611416614092536 0.04907736597935014 0.07379411679633033
-0.053521818176732995 0.04753609384109253 0.07323172663012723
-0.05343251872366812 0.04599996483004082 0.07267121312415756
-0.05334367182886646 0.0444701959498241 0.07211184224763167
-0.053255119910498666 0.042945505983933985 0.07155432851225052
-0.053167015544643134 0.04142709945280176 0.0709979372040776
-0.05308058406200346 0.03992471926299923 0.07043685065745353
-0.05299902487722337 0.03846373263002506 0.06985579263726338
-0.05291771594197314 0.03700722876888507 0.0692765174879389
-0.05283665610624954 0.03555518707932981 0.06869901701642561
-0.05275584422708464 0.03410758708713746 0.06812328307979432
-0.052675279168492385 0.032664408443153325 0.06754930758485705
-0.05259480905580153 0.031224443621288733 0.06697781168689854
-0.05251473471672237 0.029790053034355835 0.06640732951527573
-0.052436701850544866 0.028374129977717044 0.0658298186696531
-0.052358900541995594 0.026962408583775466 0.06525402155115756
-0.05228118080875384 0.02555370611332447 0.06468066193859251
-0.05220369146248088 0.024149179502421403 0.06410900195333336
-0.0521264314802776 0.022748810210600823 0.06353903404918221
-0.05206328122997016 0.021460425095626456 0.0629018302531244
-0.05200470487419775 0.02020943779508516 0.06224413745994373
-0.05194640722954655 0.01896240024601864 0.0615871874776725
-0.05188809342099797 0.017717022289317763 0.060932445232405485
-0.05182991038904988 0.016474437261052632 0.06027917133512484
-0.05177185769426898 0.015234635776469163 0.05962736085190823
-0.05171626681253616 0.014015511131746483 0.05896517582975658
-0.051672432899396645 0.01288816910156243 0.05824514477088316
-0.05162881848748973 0.011763847223641322 0.057525590856835784
-0.05158527763947881 0.010641421725676947 0.056807250605558135
-0.05021515776939373 -0.0005829151475280625 0.06291886262002494
-0.050156825151025486 -0.0017948005329529448 0.06230430282166621
-0.05004261251353917 -0.0034287729875177586 0.061981543215785306
-0.04998644991999439 -0.004619804855411469 0.061360969760975215
-0.049942915392768544 -0.005713715182510126 0.060676522668806354
-0.04990122066861948 -0.006792421784757086 0.05998402575350309
-0.04985864720561871 -0.00787646395157443 0.059297669130695896
-0.04981722824968164 -0.008950533932349014 0.058606775465500804
-0.049775878052368515 -0.01002282087510925 0.057917028736424736
-0.0497223330914788 -0.011185037911098872 0.057293562885000815
-0.049668903205686975 -0.01234475719125716 0.05667143694290977
-0.04961545387377322 -0.013502985868008521 0.05605136403016214
-0.04956211945320097 -0.014658724455450967 0.05543262421937156
-0.04950876599945086 -0.015812971703520695 0.0548159324413966
-0.04945992614951242 -0.016932177286721417 0.05417680127688729
-0.04941184781323404 -0.01804426305425777 0.05353532359117752
-0.04937395720641561 -0.019079781991361455 0.05284018688314568
-0.04933877769001118 -0.020094198795989004 0.052131636818422644
-0.04930364826953966 -0.02110717106241311 0.051424095735039754
-0.049273728338498815 -0.0220809073520839 0.05068921574117147
-0.049282329908109636 -0.02277213856380067 0.04974309161163176
-0.04931424810649747 -0.02329354711322068 0.0486677041196924
-0.04940732447838626 -0.02337074300067027 0.04725180948508123
-0.05064981451966337 -0.015101434211231057 0.03943390767526056
-0.05061809933691374 -0.016106496565077233 0.03868722995664248
-0.0505864238472377 -0.01711030103516925 0.03794148674099962
-0.050555066533532166 -0.018110839327193484 0.03719511034641776
-0.05152574577766033 -0.0118929556661454 0.030798586779266113
-0.05049219051963866 -0.02011019643336759 0.03570670227449502
-0.05046039484772281 -0.02111099679992967 0.03496624865432413
-0.05042919353592642 -0.022106570171057993 0.03422357028930817
-0.05039775395633674 -0.0231028901108416 0.03348339126255506
-0.05036690652610693 -0.024094027901995052 0.03274096548992417
-0.0503355445388403 -0.025087880484157776 0.03200262329137932
-0.050304221583639314 -0.02608049615112218 0.03126520000847233
-0.05027321304770253 -0.027069926855161464 0.030527100192663303
-0.05024210515604392 -0.02805911037455905 0.029790708172217406
-0.05021048618311767 -0.029050944709141602 0.02905842653077928
-0.05017973028345834 -0.03003573998014425 0.028322257571881337
-0.050163406532229615 -0.030918292580587925 0.027502657267549302
-0.05015408344203519 -0.03175131405235526 0.02664251014143676
-0.050145997097682624 -0.03257540711799378 0.02577541229942515
-0.0501376393810976 -0.0334011450092675 0.024910214164124866
-0.050128462803835656 -0.03423232464833875 0.024050178084159046
-0.050298154687998774 -0.0338214081213431 0.022126232501437526
-0.05011887892289899 -0.03583309376908611 0.02227877417266333
-0.05305258750502469 0.0599929198743378 0.07634636451369342
-0.052893586914065496 0.057835934695962876 0.0760925163113356
-0.05272591283236019 0.05561177911163012 0.07588499620180619
-0.05257102128957935 0.05349902030558368 0.07562398331108922
-0.052430538018043586 0.051510530785974284 0.07530113047031187
-0.05234321220322412 0.049966170120966324 0.07473302945952784
-0.05225602435682362 0.04842568672543024 0.07416753890546954
-0.05216912648420263 0.04689032674799293 0.07360392908866206
-0.05208266856988532 0.04536131018335665 0.07304146856555718
-0.0519963458202146 0.0438361141683819 0.07248159175600383
-0.05191030874281693 0.04231596556225786 0.07192356777527409
-0.05182470585436804 0.04080206550362614 0.07136666409559073
-0.051740879267573224 0.03930534837600275 0.07080435631204418
-0.05165911107510543 0.03782802875308139 0.07023517336849239
-0.051577600917982684 0.036355371097916256 0.06966778659176986
-0.051496347576708526 0.034887353377660524 0.06910218749304287
-0.05141520226627364 0.033422758407327335 0.06853909338659864
-0.05133431228276927 0.03196277184300245 0.06797777107801395
-0.05125382307040294 0.030508555162151785 0.06741748554111204
-0.05117387824744465 0.029061246017722753 0.06685749996191104
-0.051094765378726203 0.027623129945579528 0.06629634812061752
-0.051015896743404364 0.02618945355533553 0.06573692863994146
-0.05093727121224397 0.02476019631972115 0.06517923351015764
-0.050858887662960726 0.023335337837818826 0.0646232547708428
-0.05078319230205772 0.0219343733304751 0.06405658302738781
-0.050725383430230774 0.020678132763911006 0.06340176823813737
-0.05066842259695602 0.019430440682673522 0.06274478463839617
-0.05061158954575299 0.018185547589236017 0.06208927487108895
-0.050554883847116434 0.016943444075557645 0.061435233982331694
-0.050498305073464665 0.015704120775720032 0.06078265704041258
-0.050441852799127974 0.014467568365685968 0.06013153913567254
-0.050392897178917075 0.01329174333967642 0.05944356195503292
-0.0503502627286492 0.012167066961504325 0.05872443760997337
-0.050308124213024726 0.0110476121257565 0.05800430995179462
-0.05026563302441834 0.009926721561074658 0.057287609944285334
-0.0502233543628974 0.008808821415860146 0.05657137711592353
-0.04910407901515435 -0.000693348850687836 0.06155573522070712
-0.04904693884733067 -0.0019071928484593048 0.06094170323132225
-0.048990735395000436 -0.0031119812060683705 0.06032481475159018
-0.04893853753997338 -0.004284007722154148 0.05968860603474374
-0.048886317383169814 -0.005454569794116737 0.05905446752691923
-0.04883327666871006 -0.006629819092867972 0.05842669908386744
-0.04878035092582065 -0.0078025209097897785 0.057800291397794745
-0.04872780487785575 -0.008970648543707493 0.057173802597596246
-0.048675239649326164 -0.010137275506600929 0.0565493817017812
-0.048622787708304555 -0.011301388178887817 0.05592630654511621
-0.04857031699490087 -0.012463999415349647 0.05530529425678915
-0.04851795940573656 -0.013624104120026126 0.054685620839942495
-0.04846571457537044 -0.014781710390123326 0.05406728196942734
-0.04841475977469257 -0.01592789712941517 0.05344375575526844
-0.04836743783499071 -0.017044997735458423 0.05280195978731794
-0.04832033865378042 -0.01815893250600431 0.05216069097266951
-0.048285302186844084 -0.01918049490832957 0.05145374529967367
-0.04825083635413877 -0.02019666780060253 0.050744908065630034
-0.04821641968945265 -0.021211391048290507 0.05003708203948043
-0.04818956986473023 -0.02216837301763591 0.0492878153789309
-0.04819799774840135 -0.022860899095758336 0.048339694744816974
-0.04822927149082334 -0.02338333106766899 0.047261404654740435
-0.048322163507987737 -0.023448230840295237 0.04583055998669128
-0.04924947688082808 -0.017320043880346525 0.039622261353220334
-0.04921213415587664 -0.01836886770407664 0.03891643053045274
-0.04917525299760244 -0.019413107735696822 0.038209337117911135
-0.04913802270372634 -0.020458767427532 0.0375056389639547
-0.04910111791510676 -0.0215008631173641 0.036801445389245124
-0.04906426851908308 -0.022541394663708247 0.03609830878060455
-0.04902734020696534 -0.02358134934767503 0.03539700951129132
-0.048990601423675735 -0.024618759578923843 0.03469598103885008
-0.048953783878055296 -0.02565559281917479 0.033996787818585006
-0.04891742237415114 -0.026687949634892016 0.03329628455527761
-0.04888058131466343 -0.02772265207646013 0.032599973335631416
-0.04884392888670584 -0.028754831194843566 0.03190392080589921
-0.04880746436667275 -0.029784501098995775 0.031208120695109642
-0.04877092146718395 -0.03081359367272335 0.030514150662257433
-0.04873456583274847 -0.03184019099102314 0.029820425779962356
-0.0486982643595877 -0.032865258922757934 0.029127734383229964
-0.048661884735684224 -0.033889749309105155 0.0284368699881134
-0.04862555942538365 -0.034912710164424265 0.02774703703119835
-0.04859034270276745 -0.03592661304199163 0.027051846074594932
-0.048560441989268836 -0.03690152115078377 0.026325669401024765
-0.048531103971588635 -0.03787148984386862 0.025597180432833433
-0.04949961048070379 -0.031759562732471824 0.018769291941110933
-0.04944373009171498 -0.03293127131555723 0.01818711915631266
-0.049387975727828125 -0.034100337384951274 0.017606259325577467
-0.048412404576641754 -0.041751663147191365 0.02270250021851783
-0.04838219968062987 -0.04272310841927113 0.021984882540812767
-0.04835281553980643 -0.04368784663819386 0.02126329905599139
-0.04832359742810724 -0.04465050093301609 0.02054177993802292
-0.04829402400410767 -0.04561472147882961 0.01982357137723295
-0.04826448675508505 -0.046577762565152836 0.019106241347709052
-0.048235505146441836 -0.04753601292217868 0.0183865246285273
-0.04820590968864563 -0.048497614349387486 0.017671758459859577
-0.04817648009216273 -0.04945713940325208 0.01695705010452242
-0.04815549943578487 -0.05035737522687894 0.01618989309106722
-0.048182959296897504 -0.050923078812024014 0.015115604744354638
-0.04821603036451346 -0.05145105636336028 0.014004517433439723
-0.048249146860915984 -0.051979759182482044 0.012891903853416431
-0.0515511366339674 0.05738858971606747 0.07634142692064136
-0.0514134322827333 0.055385958312634265 0.07601139082976949
-0.05127646164841264 0.05339399733839362 0.07568311323858565
-0.05114845087052065 0.05148255226939291 0.07531697578046079
-0.051057746171391694 0.04989153608869501 0.07477554626592775
-0.05096557900773605 0.04829105850381821 0.07424468292096742
-0.05087715036242531 0.04672512150270319 0.07369914886544654
-0.05079065169816864 0.045178297626696284 0.07314756877996847
-0.05070444665570381 0.04363672448144079 0.07259786104630461
-0.05061853374250524 0.04210037537664452 0.07205001614699111
-0.05053291147614509 0.040569223802596754 0.07150402462896405
-0.05044830650577296 0.039049335197496704 0.07095626253289833
-0.05036471007291918 0.03754058738219085 0.07040671505862373
-0.050281245568271585 0.03603562583039749 0.0698597095372962
-0.050198201426703656 0.034536843443319365 0.06931378995774962
-0.050115431143043614 0.03304300364941298 0.06876967067848799
-0.05003279012704729 0.03155289516152615 0.06822806759143862
-0.04995113505564005 0.03007359646524349 0.06768462208208087
-0.04987358861822549 0.02863083448721626 0.06712335710447837
-0.04979642446773115 0.027193714029336513 0.06656310599420912
-0.04971964017389106 0.02576219668077323 0.06600385927091773
-0.049643092312716096 0.024335087231837527 0.065446334568949
-0.04956677979385687 0.02291236535475094 0.06489052394690886
-0.049497289477041996 0.021547857935656 0.0643022013834948
-0.049439179896309186 0.020278422375729355 0.0636572103509574
-0.04938120659632403 0.019011963943216137 0.06301373197532367
-0.049323369098232 0.017748472177278152 0.06237176094151736
-0.04926566692541941 0.01648793666602877 0.0617312919593343
-0.049208376713757114 0.015232589764010596 0.06109085390302166
-0.049150666660303474 0.013975693003093814 0.06045483911250832
-0.04910412688563026 0.012810695665841476 0.059761518259914714
-0.049060429488326014 0.011670061080726435 0.059054781047344684
-0.049016534836957365 0.010529247158908905 0.0583507760891292
-0.050794046956216456 0.023984565441807493 0.0478391490022948
-0.04892925472563066 0.008255923464611625 0.05694505792640098
-0.04804536409621761 0.00041554008138283693 0.060802113122728985
-0.0479891621667359 -0.000804164034417465 0.06018789905406391
-0.04793322303775832 -0.002019972957773508 0.05957440218361287
-0.04788082462654226 -0.003205897162325 0.05894364009944075
-0.04782932602893238 -0.004383013970795935 0.05830993559231051
-0.04777728501255234 -0.005562760969749558 0.05768119754269446
-0.04772535712023673 -0.006739943495840395 0.05705382621123778
-0.047673802079832704 -0.00791252339723092 0.05642637155085367
-0.04762222853531261 -0.009083591649584721 0.055800994762063294
-0.04757076645478825 -0.010252128915428371 0.0551769695769857
-0.04751928626972082 -0.01141915380051689 0.0545550171679271
-0.04746804631434948 -0.012582649397272716 0.05393368298333767
-0.047416659442985856 -0.013745642342152253 0.05331514201902965
-0.04736551208174541 -0.014905122310980456 0.05269721058575211
-0.047317421332560325 -0.01603925205805462 0.05206384002891151
-0.04727121813488114 -0.01715722711708767 0.05142153139654526
-0.047226508857611586 -0.018262178746026092 0.050772431860644396
-0.04719271376540581 -0.019281571709513057 0.050062294386512496
-0.04715896700586733 -0.02029950676958253 0.049353172528418476
-0.04712526847538471 -0.021315987051568508 0.04864506410916508
-0.04710139078133197 -0.022256163050254907 0.04788121791320299
-0.04710964363036565 -0.02294998885447963 0.04693109245855753
-0.0471402679103494 -0.023473448261402297 0.045849885613297614
-0.04723238010915984 -0.023529898634567115 0.04440691959466353
-0.04790379228391975 -0.019189484251882494 0.03955211795692842
-0.04786456374281335 -0.020256596459247822 0.03886625917736686
-0.04782526852094903 -0.02132295218788327 0.03818229780801391
-0.04778603776631203 -0.02238755846726731 0.03749945853672182
-0.047746740872927004 -0.023451401971937347 0.03681851608401082
-0.047707769025174755 -0.024511539870817056 0.03613713526101592
-0.04766873072319794 -0.025570923556079983 0.03545764576550797
-0.04762975625749105 -0.02662857491440107 0.03477926738579967
-0.04759084547160237 -0.027684498191416274 0.034101997398736705
-0.04755199820959094 -0.028738697618899633 0.03342583309005648
-0.04751321431602458 -0.029791177414818903 0.03275077175435148
-0.04747449363597781 -0.030841941783392002 0.03207681069503315
-0.0474357072615687 -0.03189194797865019 0.031404734333683015
-0.04739981232636918 -0.03291935095311105 0.030716411947991684
-0.04736448513551155 -0.03394141595609074 0.030025971877052693
-0.04732933874029971 -0.0349610159891528 0.029335769269582257
-0.04729424446655255 -0.03597910397392817 0.028646590220006596
-0.04725920219841323 -0.03699568327143471 0.027958432453136062
-0.04722421182036795 -0.03801075723273678 0.02727129370051945
-0.04718927321724478 -0.03902432919898163 0.02658517170041863
-0.0471542590440755 -0.04003732793254894 0.025900861487412663
-0.04711942383455552 -0.041047902484283194 0.025216767489294245
-0.04708464005606416 -0.042056985014318704 0.024533683493935865
-0.047049780927824136 -0.04306549405272986 0.02385240830414148
-0.047015099856945956 -0.04407159905381397 0.023171338857300217
-0.04698034358288226 -0.045077130388261555 0.022492076235681557
-0.04694576476538386 -0.046080271025776776 0.02181301243141559
-0.046911110890949924 -0.0470828378187077 0.021135753480205743
-0.04687663387527247 -0.04808302718052615 0.020458686465001652
-0.0468420819485962 -0.049082642516933894 0.019783422338796763
-0.04680770628583577 -0.05007989361398707 0.01910834331118455
-0.04677450771204232 -0.05106768620194274 0.018426956733446853
-0.04674948335069383 -0.05199653149955147 0.017693739362585725
-0.046724360830261116 -0.05292526600141051 0.01696212003398473
-0.04670999938881713 -0.05377734143266083 0.016161143272354128
-0.046696769703156615 -0.054620996072855976 0.01535329930495577
-0.046697767908971184 -0.05536439461511716 0.014452443081903299
-0.04670550544855072 -0.05606064657472959 0.01350712236810514
-0.04676274292892413 -0.05641141863310556 0.012234249520953588
-0.04686444065538997 -0.05645421551501034 0.0106643957282051
-0.05008433600977743 0.05417776329826346 0.07524183810019225
-0.04992453255503864 0.05195995204644044 0.0750466059232765
-0.04982948875697294 0.05031057870956934 0.07453683004702832
-0.049734370657947315 0.04866369342557508 0.07403115745182845
-0.04963657837344747 0.046996776160156184 0.07354257456419014
-0.04954622817234669 0.045397433177880364 0.07302052651909827
-0.04945864665299191 0.043824963243262294 0.0724880941492306
-0.04936980070051683 0.04224448859290619 0.07196549058527618
-0.04928127337580364 0.0406696819902701 0.07144476123164509
-0.04919306296788027 0.03910051299899264 0.07092589602418092
-0.049105309291547966 0.03753816338720606 0.07040816167083291
-0.04901786813876105 0.03598137788462008 0.06989227116243968
-0.04893439136441513 0.03446129682249249 0.0693593973702678
-0.04885357944552703 0.03296665872511367 0.06881602534693537
-0.048772894392787425 0.03147576264442975 0.06827516956374735
-0.04869261455936264 0.029990963313112518 0.06773537249720424
-0.048612875950023136 0.02851339205274178 0.06719589909704254
-0.04853353630946492 0.027041820174953157 0.06665746412131685
-0.048454455222703606 0.02557504388852605 0.06612078380952158
-0.04837549408875429 0.024111883926211664 0.06558657584103095
-0.04829692677808584 0.02265463477074975 0.06505337955475693
-0.0482287136327202 0.021286776090680304 0.06446811067050345
-0.048169406273958174 0.019995677803651635 0.06383790335523104
-0.04811010876139136 0.018706616710181034 0.0632099730502026
-0.04805109256481153 0.0174218546752552 0.06258285699532262
-0.04799222098001352 0.016140240788408644 0.06195727760959374
-0.047933358635945986 0.014860644217842112 0.06133396081973319
-0.04787706180001765 0.013604241315160526 0.06069898698255316
-0.04783418731404107 0.012460667293904715 0.05999287522056185
-0.047791523591214385 0.011320245635439707 0.05928729185075954
-0.047748935904854004 0.010181856467951611 0.05858296599110874
-0.047706424051869166 0.009045494362733442 0.057879894282850064
-0.04766385450172997 0.007910060371344174 0.057178812456897155
-0.04762149394599405 0.006777740318176462 0.05647824032398413
-0.046925374076093596 0.00030632376712624865 0.05942899744338814
-0.04687038730234562 -0.0009153626788045433 0.0588153296790328
-0.0468170727835596 -0.002121631214165365 0.05819442083911197
-0.04676631801119607 -0.0033053585793114126 0.057561165592650565
-0.046715288942304665 -0.004489635508128698 0.05693145704761032
-0.04666437111277503 -0.00567133080628901 0.05630312121770864
-0.04660234539260915 -0.006940988433293438 0.05574010547215702
-0.0465612136658638 -0.008040331170784898 0.055060011105666995
-0.046509742310710186 -0.009221418109330082 0.054440879139323495
-0.04645851129790621 -0.010398880693088308 0.05382238497230046
-0.04640827777900426 -0.011566670504069232 0.053200138860275414
-0.046358278896739345 -0.012730930261089513 0.052578505563718514
-0.046308387633113395 -0.013892684041095948 0.05195821028364017
-0.04626224580578335 -0.015022967835017609 0.05131798600036941
-0.04621632119084659 -0.01615000636927183 0.05067830203064927
-0.04617098808590544 -0.01727084532129458 0.05003694574752371
-0.046129240218989426 -0.018361847950029486 0.0493762287095349
-0.04609617058595335 -0.019383014370601692 0.04866580694583916
-0.04606327285693184 -0.020401737434250833 0.047955663854108155
-0.04603029770526686 -0.021419984287361693 0.0472472742402158
-0.04600929291272951 -0.022343305372990063 0.046468652042970515
-0.04601724513531285 -0.02303940967509549 0.045517255737462126
-0.04604721490386076 -0.023563900553126738 0.04443311788211152
-0.04613848323749062 -0.02361187469033421 0.04297790556041581
-0.04658629156396782 -0.020891352191863166 0.03936061675616831
-0.04654722253291046 -0.021962227707483017 0.038682852150064395
-0.046509107580176796 -0.02302443045092556 0.038000808879769865
-0.04647105499683744 -0.024084895059165334 0.037319881670806854
-0.046432938099242 -0.025144601018783685 0.03664084374342186
-0.04639501000293033 -0.026201598456527198 0.03596214166871775
-0.04635714381811834 -0.027256870516456755 0.03528454746566084
-0.04631933939333881 -0.02831042141972895 0.03460805842383091
-0.046281596577618225 -0.029362255373741875 0.033932671841641726
-0.04624391522047476 -0.03041237657219137 0.03325838502630529
-0.04620629517191624 -0.03146078919512696 0.03258519529379639
-0.04616873628243821 -0.03250749740900699 0.031913099968816194
-0.04613123840302188 -0.033552505366753915 0.031242096384757778
-0.04609380138513222 -0.03459581720780924 0.030572181883670113
-0.046056425080715974 -0.03563743705818839 0.02990335381622322
-0.04601898505751859 -0.0366783044107179 0.029236398578724343
-0.04598172993895729 -0.037716549045364145 0.02856973662511869
-0.04594453509209284 -0.03875311399765191 0.027904153203757
-0.04590740037078125 -0.039788003340396394 0.027239645699464576
-0.04587032562935056 -0.0408212211332567 0.0265762115055152
-0.045833310722599094 -0.04185277142278754 0.025913848023595976
-0.045796355505793446 -0.042882658242493155 0.02525255266377452
-0.045759459834666595 -0.04391088561287931 0.02459232284446461
-0.045722623565416086 -0.04493745754150602 0.023933155992392763
-0.045685846554702154 -0.04596237802303893 0.02327504954256443
-0.0456491286596458 -0.04698565103930202 0.02261800093823163
-0.04561246973782703 -0.04800728055932835 0.021962007630858593
-0.04557586964728293 -0.04902727053941214 0.02130706708009006
-0.045539328246505896 -0.05004562492315895 0.020653176753717584
-0.04550284539444178 -0.05106234764153744 0.020000334127647235
-0.04547103148766593 -0.05204388304741725 0.019317907692130376
-0.04544665477518124 -0.052970357859732975 0.018587177752372452
-0.045422183103091915 -0.053896717200956346 0.01785804000720187
-0.04539773777135434 -0.054822079445173866 0.017129687077417133
-0.045382623884288556 -0.05567932857631147 0.016339570100928458
-0.04536860719704664 -0.0565281835298691 0.015542650123629376
-0.04535447844411185 -0.05737738107584783 0.01474703847126807
-0.045344943492950505 -0.05819320513540854 0.013920832415899975
-0.0453622059032537 -0.05881719333836993 0.012912768249517481
-0.04540136660474242 -0.0592856037435221 0.011754678746529301
-0.045534825537034654 -0.05908446111407073 0.009950081032304048
-0.048703350245734016 0.051663104089259226 0.07376633623918755
-0.048566011941802364 0.04961582082296229 0.0734855739937654
-0.04845828175529847 0.04783643945041682 0.07305861565034025
-0.04835243659509539 0.046077431198644936 0.07262630255371064
-0.04825630814832412 0.04440806958932664 0.0721480697374022
-0.048162936237022044 0.042766329482776866 0.07165941945948828
-0.048068811564214005 0.04112110611457426 0.07117845215462892
-0.0479749154402602 0.03948107984460808 0.07070008549506218
-0.04787931419427538 0.03782924241796082 0.07023444906731047
-0.047793859666110966 0.03626965565514351 0.06971923617343745
-0.04770870963129146 0.034715626044166115 0.06920585909679705
-0.047623862465246206 0.0331671239358185 0.06869430804270404
-0.04753931655493987 0.03162411989142477 0.06818457328603184
-0.04745507029877218 0.03008658468099551 0.06767664517058558
-0.0473713924295919 0.02855683794235858 0.06716906338458795
-0.047288278515942764 0.027034812404861275 0.06666181742490351
-0.04720532152434841 0.025516956772108912 0.0661570739936238
-0.047126266518989594 0.024035611448872396 0.06563449873902255
-0.04704974241155677 0.022578758703075352 0.06510132436181243
-0.0469851646321926 0.0212272782916178 0.064505919647309
-0.04692726233075153 0.019935303960629758 0.06387648634550741
-0.046869502565788854 0.018646510046750497 0.06324860250206221
-0.046812016800364224 0.017362013723359326 0.06262153278190147
-0.0467545402100139 0.016079540515834823 0.06199672987650706
-0.046697335930878 0.014801331665929673 0.06137272803113353
-0.04664197481303701 0.01354072915694765 0.06074073227178822
-0.04659838195287271 0.012381857483721004 0.06004496584982255
-0.046554739960129536 0.01122404452056247 0.05935123356291344
-0.04651130993570004 0.010069499462894427 0.058658063461104415
-0.04646796086582539 0.00891710650348898 0.05796618544412552
-0.04637800649040409 0.007373870628571255 0.05754120088173509
-0.046286593046213305 0.005821420671562827 0.05712817342149723
-0.045854879968831065 0.0014190359334271818 0.058668575713360704
-0.04580124450249829 0.00019461407120074936 0.05805256941172965
-0.04574760830670728 -0.001027999344753061 0.05743872980070586
-0.04569560676031751 -0.0022351764656396433 0.05681758813066967
-0.04529233591977611 -0.006361822375534343 0.058239462829840716
-0.04519419642400084 -0.007942451371900028 0.05789859314704415
-0.04516555007651302 -0.008944191852161276 0.05715511430470238
-0.04549201811268567 -0.00700977936227104 0.0543280538785928
-0.04544146627616825 -0.008196276909680555 0.053708766281040654
-0.045392019466312425 -0.00937196807192947 0.053084985110559035
-0.045342927818003226 -0.010543068852514936 0.052461091050446496
-0.04529381867362411 -0.011712652246631816 0.05183928039720065
-0.045246788667194233 -0.012863565048837344 0.05120703436624319
-0.0452017021177234 -0.013997020463060061 0.05056504015795543
-0.04515658251324457 -0.015129219858616927 0.049925062472514214
-0.045111675468748794 -0.016258164674656295 0.04928562178925977
-0.04506697998501446 -0.017383873804734162 0.048646711300486534
-0.04502811194181798 -0.018460890105441552 0.047974217486464354
-0.044995773082914615 -0.01948383963667244 0.04726351264750084
-0.04496348064173684 -0.0205053208727502 0.04655382792187168
-0.04493123451841699 -0.02152533697269754 0.04584516111481873
-0.044913002487106536 -0.02243174800308234 0.045051568047730306
-0.044920901217591486 -0.023128189661204057 0.04409740508488258
-0.044950211541412724 -0.023653716857665763 0.04301031843307879
-0.045035073925638526 -0.0237370470079854 0.04157688787751734
-0.045271834492532435 -0.02261398943359022 0.03919318322326043
-0.04526837824865599 -0.023407240014997388 0.03830215940419873
-0.045234707503154684 -0.024439888587487968 0.03760083428453631
-0.045195549733886176 -0.025514801698426626 0.03693540173853427
-0.04515645970042522 -0.026587855405513894 0.036271120269597334
-0.04511743722716779 -0.02765905452922529 0.03560798689357608
-0.045078482139116305 -0.028728403873388375 0.03494599863662751
-0.045039594261876835 -0.029795908225256018 0.03428515253517178
-0.0450007734216574 -0.03086157235557041 0.03362544563584208
-0.04496201944526398 -0.03192540101864538 0.03296687499544987
-0.044923332160098875 -0.03298739895242969 0.032309437680934694
-0.044884711394157964 -0.03404757087857896 0.03165313076932241
-0.04484615697602805 -0.035105921502526116 0.030997951347681962
-0.04480754780687776 -0.03616339162704563 0.030344682005400136
-0.04476912577978209 -0.0372181100515665 0.029691749951954782
-0.044730769589245926 -0.03827102120465814 0.029039936704638336
-0.044692599373897496 -0.039321204521035935 0.02838845065131096
-0.04465425404213993 -0.0403714402454457 0.027739655145550046
-0.04461645404152581 -0.041416203382012295 0.027088808466561642
-0.04458051349016516 -0.04244548228306344 0.026427182783333836
-0.04454463079564536 -0.04347310425836032 0.02576662218035486
-0.04450880581837247 -0.04449907330564579 0.025107124087855426
-0.04447303841920127 -0.045523393409812596 0.02444868594432642
-0.044437328459433406 -0.0465460685429549 0.023791305196486257
-0.04440167580081569 -0.04756710266441877 0.02313497929924707
-0.04436608030553827 -0.04858649972085444 0.02247970571568242
-0.04433054183623279 -0.04960426364626658 0.021825481916994516
-0.04429506025597077 -0.05062039836206467 0.021172305382481604
-0.0442596354282617 -0.05163490777711388 0.02052017359950553
-0.04422839059547223 -0.05261699236297218 0.019840970531854907
-0.04419848409551226 -0.053588044619273134 0.01915387535514973
-0.04416885302112696 -0.05455603688053384 0.018466096973876855
-0.04413949634608076 -0.05552099073795308 0.01777762579009179
-0.044114280798859436 -0.05645429560777654 0.017061769739019628
-0.04408897696443568 -0.05738739948898175 0.016347541180000758
-0.04406580727017564 -0.05830392096548287 0.0156195239483371
-0.04405540054122633 -0.05912582494471752 0.01480362090702153
-0.04404920561062588 -0.059916482850785935 0.013958741812303221
-0.04404815381463115 -0.06066929271736771 0.013078113045769113
-0.04408113398916612 -0.06117359008837314 0.01195863339755071
-0.044178255409697616 -0.06121177505429232 0.010386280481187171
-0.04729363107641915 0.04802448471252935 0.07149751227252371
-0.047137112196047826 0.04577903412999912 0.07134862480814347
-0.0470120941671566 0.043825034472219804 0.07103846576596617
-0.046907873478163296 0.04206384717373729 0.07062229999568548
-0.046804113858848674 0.040310451323071095 0.0702079753321686
-0.0466986537465589 0.03854530959344643 0.06980710844772686
-0.04660575747985562 0.03689703273194239 0.0693426612284217
-0.04651323007105173 0.03525530058919152 0.06888005816313308
-0.04642106932759564 0.03362007426231717 0.06841928828990873
-0.04632940584962949 0.031992504546104916 0.06795961441710208
-0.046237971404848775 0.030370167382567703 0.06750247851403851
-0.04615361644844712 0.028814178590710837 0.06701010888502595
-0.046072457293725264 0.027289581887289693 0.06650355183013174
-0.04599171391458118 0.025771500669391545 0.06599804656268443
-0.04591112266136192 0.024257574418648398 0.06549503678459856
-0.04583094328774097 0.022750094981559443 0.06499305985805909
-0.04576425438929074 0.02136460733589679 0.06441865136626856
