# .PCD v0.7 - Point Cloud Data file format
VERSION 0.7
FIELDS x y z
SIZE 4 4 4
TYPE F F F
COUNT 1 1 1
WIDTH 783
HEIGHT 1
VIEWPOINT 0 0 0 1 0 0 0
POINTS 783
DATA ascii
0.049936089100949495 0.05501161091932344 0.03430804288491729
0.050093406168791856 0.05471006194360478 0.03253148597261102
0.05029628743054261 0.05411514750230295 0.03048591342617163
0.0505611198835543 0.0531219429875765 0.028073879692101233
0.06083501610611103 -0.08134524542950844 0.029626175185953563
0.06071293023973811 -0.0795057673519372 0.029130104123976264
0.060579415383488336 -0.07758304094581725 0.02869360413404698
0.06044298598302568 -0.07564218957729779 0.028275995322466774
0.06030271752316692 -0.07367634220092334 0.027881933353869293
0.060159052931783225 -0.07168901884314788 0.027509459650996326
0.06001262043037598 -0.06968511081432738 0.027155675591048034
0.059862130163034 -0.06765503145546592 0.02682707616267127
0.059746954080719575 -0.06589478919573205 0.026329437314455972
0.0597634892151867 -0.06512565143714155 0.025183091413406355
0.06271993432515838 -0.0863575342235553 0.009412472499526536
0.0626931441491438 -0.08521987282194038 0.00842885421551659
0.06263775287000936 -0.08386982430256062 0.00758947696607698
0.06254933017200968 -0.08227571465811045 0.006918143365576224
0.06241508962173836 -0.08034409944260928 0.006481132142754198
0.062279772327236124 -0.07840852002948817 0.006054355749098961
0.062143807131998775 -0.07647219559471863 0.005635692741198239
0.06201703135929805 -0.07460774576554752 0.0051750182251701915
0.0618932185340503 -0.07276890574422046 0.004703700166935387
0.061368172990879155 -0.06798502752102875 0.006296934691709111
0.06135955439759754 -0.06700445217727391 0.005248067134267453
0.061604417416412406 -0.0678794434308077 0.002888966353320477
0.049699971737231834 0.028911056896782084 0.05292658470023792
0.04941564429062535 0.03167557397173598 0.05358211216542469
0.049180727425445006 0.034081018670120033 0.05397910590127153
0.04900075978921057 0.03609039250876517 0.054084710737529074
0.04886057750965292 0.03781329518723375 0.05397898200000778
0.0487347181988387 0.039431026601730534 0.053799602978864325
0.04862573552353306 0.04092626330901111 0.05353174094286539
0.048533783659039265 0.04229867978971774 0.05317364187760837
0.04845142377121688 0.043601151695408846 0.05276563850616289
0.048377314261820126 0.04484348754081485 0.05231468027449926
0.048316599092902125 0.04599017567531721 0.05179162342786653
0.04826149049315271 0.04709602386274209 0.051239345860591035
0.04821603381490125 0.04813318617197354 0.050634831117035706
0.04817745672455986 0.04912130950084248 0.04999318087284693
0.04814634332961298 0.050056662860179624 0.04931072656172614
0.04812500697201818 0.05092361718089261 0.048573955000387636
0.048113914580426076 0.05171939574434048 0.0477796883286144
0.0481132984300878 0.05244286201929527 0.046926054018715524
0.048118474023114276 0.05312660226521959 0.046039298850349186
0.04813696753053375 0.05371939005006482 0.04507591126579896
0.04816065998999551 0.054277242679523274 0.044081928910922
0.04819302799913467 0.05477671401012568 0.04303699355658791
0.048228534534718565 0.055255823294816486 0.04197272129949303
0.04826992166870608 0.05569611686291842 0.040873008853761106
0.048318462227758006 0.05608924622314099 0.03973012222528288
0.04837855906052968 0.05640580740045026 0.03851793507723272
0.04845767122188222 0.05659607212833545 0.03719208284904346
0.04854945997820894 0.05670349808759145 0.035788838506895126
0.04866225962458016 0.056672760533728994 0.034258347429562186
0.04880650246691555 0.056434994296775676 0.03253774425107825
0.048991685746268714 0.055928200973842546 0.03056897093536526
0.04922737537745883 0.055090492566249705 0.028292883788656298
0.049539038324112154 0.05375486483228731 0.025554699034647577
0.05961851255204091 -0.08380710152216803 0.02974004311938816
0.059469738914504994 -0.08173201182033657 0.02938316534608809
0.059346646773231114 -0.07986178289588414 0.02890514396023025
0.059213934387867775 -0.07792043426551615 0.028479201362741235
0.05908352629312392 -0.07600104996715074 0.028046659188103062
0.058947631160818456 -0.07404311220464954 0.027646217040984244
0.05880972094205582 -0.07207374040529119 0.02726081043132106
0.05866438893737217 -0.07005127039413905 0.026917689471871897
0.05851921359610998 -0.06803445636780092 0.02657908071716586
0.058377540612183094 -0.06604902798625906 0.02622805926716537
0.058293347046173456 -0.06450921854738845 0.025590532910854225
0.0583385661279312 -0.06396353575680613 0.024297027372247204
0.05849216611350189 -0.06424521615112161 0.022447951962114243
0.06125805911385862 -0.08445742026062153 0.007194546070189989
0.061109140031053055 -0.0823857301375252 0.006843788540251805
0.060971475936829764 -0.08040414409613272 0.006440324731058045
0.0608610637380941 -0.07863348831218492 0.005900613659577503
0.06074421323227826 -0.07681747352406387 0.005398422709588735
0.060616395067455434 -0.0749221770304993 0.004957748751943825
0.06045443899750502 -0.07277341064307402 0.004700570187452402
0.05963846837723669 -0.06570867721992008 0.007887310043618478
0.05978166065274349 -0.06587115622803397 0.006044212570248009
0.04838429029189534 0.030077232971479184 0.0538107139325576
0.04809528268441108 0.032921504397505186 0.054531814456334926
0.047909065618326155 0.03501025849834788 0.054691238427839683
0.04774974287913337 0.03689836374992783 0.05470724818833739
0.047613703842909416 0.0386131720377445 0.0545986036436249
0.04749588788909195 0.040192280423207716 0.0543924793656092
0.047392113373380666 0.04166664508775808 0.05411146187974469
0.047298298627075006 0.04306624764881778 0.053777877123962814
0.04721578593268266 0.044381918301614975 0.05338356095331448
0.04714264224879055 0.04562801049688975 0.05293890269034218
0.047080714489581996 0.046791764529218516 0.05243283871176935
0.047026902038094905 0.04789579118078202 0.05188252493973344
0.04697910508845296 0.048955394691576226 0.051299589606786766
0.04694100946107549 0.049944697935068894 0.05066244567892897
0.04690789129931326 0.05089759290294643 0.04999789321389597
0.04688523948356899 0.05177552892191739 0.049273802646035925
0.046872904023641554 0.05258004392939458 0.04849047455556721
0.046864763761170096 0.05335467050154985 0.04768309467111459
0.04686967142672717 0.05403746274294102 0.04679956819898268
0.04688368199224134 0.05465665003566311 0.04586236576859254
0.04690561279174945 0.05522091541622398 0.04487796128586791
0.046937887168000306 0.05571372402290109 0.04383159120676955
0.046967921782087634 0.056223104594173345 0.04279732924790369
0.0470002819909455 0.05671725878977385 0.04174813469414196
0.04704040311709332 0.057158641230662055 0.04065144170996715
0.04708735818116901 0.05755401553142614 0.03951237485684428
0.047147122787432064 0.0578624835145819 0.03829467917522872
0.04722088783006907 0.058076438295763866 0.03699048121330811
0.047310003884175104 0.05818724951094717 0.035590855993192116
0.047417094103612986 0.0581776513104309 0.03407906906393254
0.0475453570965338 0.05802660492098527 0.03243469725078929
0.04771534843038719 0.057594889843375796 0.0305312798005149
0.04793121347009707 0.05685621328450524 0.02834118860081586
0.048187730969737615 0.055848131465335016 0.02589393159210346
0.048724741693166373 0.052947766262859575 0.021712144180772497
0.05821907413796435 -0.08396792620362542 0.02963956725093292
0.05809445994232113 -0.08205757484090881 0.02917861031088015
0.057972254136600475 -0.08017037359757745 0.02871015075775679
0.05784570430711358 -0.07825236397024055 0.028268270547130825
0.05771691617525513 -0.07632050874390384 0.027842503366271698
0.05758610840955899 -0.07437665004748822 0.027431858431883116
0.05745497080402823 -0.07243427818278514 0.027027791427716608
0.05731232437802063 -0.07040496606121066 0.026687804299443785
0.05717147928394874 -0.06839434969211866 0.02634385129286121
0.05702987220243088 -0.06638214500374773 0.026009108075281562
0.05697454903483298 -0.06505295819131202 0.02523113936573551
0.057000292582264835 -0.06436178230975276 0.024032326057911113
0.05705403012986671 -0.06388907958865403 0.02268598756068768
0.05712025188046257 -0.06351228643682494 0.02127204642204078
0.057213659601617305 -0.06334551541202438 0.019712282075160237
0.0573422280704617 -0.06344958017919045 0.017962971568819486
0.05748465448497077 -0.06365729552943289 0.016135267445688162
0.059333472725359715 -0.07709315531693023 0.005208978160530453
0.059177839293057144 -0.07495848547848871 0.004932659983760301
0.05795574757877211 -0.06459203733851321 0.010385103206971391
0.0580223888533735 -0.06419707341192232 0.008943394206902378
0.047562610194014636 0.026863180547783472 0.05282798899719715
0.04705387435951875 0.03141039958367048 0.05482144600427674
0.04684530297946123 0.03370338427637082 0.055127797291173564
0.04666676047283873 0.03576637896185697 0.05527069915760341
0.04651492450258252 0.037625466004578445 0.05526747653182246
0.04638412227445762 0.03932393589019906 0.055149194241150445
0.046269704597730804 0.04089715468693056 0.054941446476046096
0.046166079915589735 0.042387150124135464 0.05467561927529241
0.0460758327579972 0.043775400483676286 0.05433612762529988
0.04599006994171551 0.04512787415349451 0.053973933113492134
0.04592098288365523 0.046355401492141846 0.05351766684886594
0.045860320167681996 0.04751913215323583 0.053014682185281325
0.04580731303788552 0.04862507433797053 0.05246902011672916
0.04576003857767245 0.04968759540585227 0.05189157647659337
0.04572067876011749 0.05069110482698874 0.0512691385213771
0.04568942606599114 0.05163457878062422 0.05060012181853646
0.04566519966316166 0.0525262209487678 0.049890498050153276
0.04564693038135676 0.053374083015152896 0.04914625012176743
0.0456362315814697 0.0541668192657116 0.04835739157659358
0.045638208085446476 0.05486808039300506 0.04749286114711565
0.04564972200380543 0.05550097583312519 0.04657083923663491
0.045666945598242546 0.05609335685472416 0.045613906713486585
0.04568942564945038 0.0566487294835501 0.04462448896829996
0.04572184519471971 0.05713396202597021 0.04357383581624241
0.04575337587270328 0.05762653267480983 0.04252738884163443
0.045785769240476046 0.0581139701072384 0.04147448942495974
0.045823834438711325 0.05856226334867731 0.040385597856585465
0.04587112329096265 0.058946585844284694 0.039238548816465435
0.04593134339839065 0.05924123566452011 0.03800995043078942
0.046008850060355745 0.059416187765280626 0.03667212551476218
0.0460968179788657 0.059520154298982164 0.035266470362665
0.046199059133571314 0.05952693504561646 0.03376866607508555
0.046323666473755146 0.059380659745652264 0.032127376524151596
0.04647787170753653 0.0590319692345167 0.030296054823010565
0.046670162893455144 0.0584232197271059 0.028219721440535805
0.04690245817559283 0.05754289158578635 0.025884156295450544
0.04723053769899492 0.05600665509501679 0.022934631502344316
0.05684657857695062 -0.08435831042248187 0.029395673024945723
0.05671559627783852 -0.0823700010342418 0.028982309300377485
0.05659456153115511 -0.08046736824566114 0.028522484906864654
0.05647185245108005 -0.07855494014110015 0.02807599297974106
0.05634767582362651 -0.07663448429649378 0.027641851697972397
0.05622042673038033 -0.07469300512100446 0.027228542875328776
0.05608997042345927 -0.07272955585930285 0.026836950664113957
0.05595438477787691 -0.07072870404707043 0.02647739018581463
0.05580555017051527 -0.0686249830151438 0.02619310736457342
0.05571499467386047 -0.06699677494639789 0.025605123967976318
0.05571552746373759 -0.06610574789136608 0.024535280846928853
0.05575089684436953 -0.06549496469463206 0.023279137050628174
0.05578933859603551 -0.06490771265401418 0.022005150923631756
0.0558303302691432 -0.06433965732861002 0.02071595963216666
0.055881744008962134 -0.06385362782792348 0.019368869996151894
0.0559285985488147 -0.063329560136899 0.018044539574088247
0.05598611153265205 -0.06288887755046951 0.016660400453629487
0.05607107400238446 -0.06266453150402262 0.015124124823726826
0.056181207148597125 -0.06263712196146876 0.01344662649601791
0.05631644362233597 -0.06280490230432068 0.01162682978238161
0.05655555009859257 -0.06378894982164524 0.009228530400140433
0.04607857546295293 0.029349792470180103 0.054703047093652424
0.04580166980967135 0.03221117648300248 0.05542855011795611
0.0456073201150546 0.034432662966545846 0.055683685218031076
0.04543775561215396 0.03645886141387422 0.05580139024583969
0.04529302925549051 0.038290563650258624 0.055779930666624455
0.045166257802372184 0.03998124578653567 0.05565837693413728
0.04505528913850683 0.041548084278910324 0.0554484006372869
0.04495365071258705 0.043040792400641736 0.05518742295556672
0.04486122002592842 0.04446074443335246 0.05487563559355213
0.04478534504075402 0.04575304832571653 0.05446871498935202
0.04471521721093165 0.04699972539359387 0.054030336911224996
0.044656944890329515 0.048155248300777276 0.05352353083834693
0.04460337726009125 0.049273695158006114 0.052990646024326016
0.04455925220187157 0.05031991733516511 0.05240281100560379
0.04452020395981441 0.051326896850719284 0.05178592163632073
0.04448631931677142 0.052294233277071334 0.05113915903063959
0.044462212183923454 0.053187948166430854 0.05043410864703157
0.04444242538603853 0.05404890815374702 0.04970357010085452
0.04442909334960967 0.05486155629993589 0.048934205901973005
0.04442547921741607 0.0556021541216849 0.048105571636718136
0.044428754386535686 0.05629197171719985 0.047234563598610724
0.044443329300892245 0.056898977586208876 0.04629348573472808
0.04445949717511741 0.05749478842029532 0.0453419588358559
0.04448360124441825 0.058033138525186156 0.04434038438236948
0.044513172888741744 0.058532406103158185 0.043303728773553596
0.044543465053292666 0.05902738326729934 0.04226142535429134
0.044579256066692094 0.059483425537010026 0.04118339776496721
0.04462068628012957 0.05989978164839782 0.040068445190277135
0.04467189734760562 0.06024679808772082 0.03889005196367046
0.04473925476124622 0.060479055034171225 0.03760727908566852
0.04481646740854662 0.0606425849049857 0.03625922463509007
0.04490363640828379 0.06073713705590278 0.034844677114754086
0.045004121275537455 0.0607391333610115 0.03334156168891278
0.045125554705247324 0.06059467927310702 0.031700113546704434
0.045274488309921014 0.06025807795143712 0.029876944130231897
0.04545098871751241 0.05973018122906604 0.02787004317813585
0.04566189398841758 0.058963788994480404 0.02563353557846998
0.045940850380885495 0.05772231618539403 0.022946867623033773
0.05533416003501753 -0.08267679794538907 0.028789545234841563
0.05521152290312967 -0.08073468873123085 0.028353569660872935
0.055093703051048215 -0.0788370060497754 0.027896749039374058
0.054976384976133816 -0.07694740531548405 0.0274418739485211
0.054851442024006956 -0.07499800260846123 0.027032526632281062
0.05472267177170406 -0.07302082284159689 0.026648702051414452
0.054587508790449164 -0.07099471800340967 0.026304493928153816
0.05447198608982273 -0.06913609755835487 0.025859038395891765
0.054440311660000906 -0.0679759062889076 0.02496156025125884
0.054470244633921194 -0.06732611567480712 0.02372865884904246
0.05451363623281685 -0.06678638951611343 0.022420769496968196
0.05455011068350803 -0.06618827156148127 0.02114924758548975
0.05458610937139518 -0.06558504130289688 0.019878920745251105
0.05462618314548253 -0.06501404766720115 0.018584590315737892
0.05467087608499997 -0.06447954265271699 0.017262989488261216
0.0547072100360822 -0.06387528073510879 0.015986297636479407
0.05474798959339153 -0.06330606352684587 0.014683273159332988
0.05478354546600969 -0.06269300256009902 0.013408013521540585
0.054857798250387425 -0.062392967042463 0.011913048265896009
0.04480399126288937 0.0303150820864318 0.05543093479039074
0.04456517750316596 0.032929587560662055 0.05597320909466452
0.044376460212433015 0.035143501814498046 0.05622551749698901
0.04421708464843601 0.0371216615629521 0.05630933399723731
0.04408039161953716 0.03891750121762888 0.05626298267180646
0.04396075358920356 0.04057597977131039 0.056119085434461036
0.043850676426110624 0.04215619486901406 0.055922006693997384
0.04375193119988052 0.04364488133007294 0.05566042623586526
0.04366481620595554 0.04504029054739328 0.05533185871280061
0.04358941825250057 0.046342327083014445 0.054935088145036615
0.04352128214964009 0.0475859082335679 0.05449674580400754
0.04346111699784934 0.0487659394258988 0.05401204124554554
0.043412064817511704 0.04985870153755173 0.0534611127115851
0.043367648179173726 0.050914347935951454 0.05288341026515858
0.04332838984969952 0.051929113115282866 0.052275413778291535
0.043296792276742505 0.05288417097808029 0.051621227114357904
0.043271723189098936 0.05378851521189576 0.05092747601356312
0.043250525093744295 0.05466264438937013 0.05021043840071304
0.04323406421503821 0.05550018778643384 0.04946443788358451
0.04322857999995021 0.05625421523079205 0.04864982853110372
0.0432284702716911 0.05696752436746666 0.04780141959615308
0.043235819260735275 0.05762469480192933 0.04690566238577043
0.043249866123486316 0.058231808979996635 0.04596696263766942
0.043270514036738386 0.05878992358888219 0.044985544167353786
0.04329338152762967 0.05933212379933528 0.043989092501922455
0.04332288108525151 0.059825601405321505 0.04294911693681258
0.04335528882128562 0.060298403823333735 0.04188923395642824
0.04339139116858297 0.060744833843233814 0.0408041867429661
0.04343607780927366 0.061128838018273346 0.039662042530458186
0.043492176735243374 0.061429929918166704 0.03844389723957725
0.04356111243110613 0.0616381643060549 0.037139783049171315
0.04363909441474299 0.061782078726677236 0.03577375240775621
0.043731044300817486 0.061825972170710675 0.034312963391071816
0.04383307751925444 0.06179900267167959 0.03278217020653296
0.04395451486377844 0.06163351662617306 0.03111922442714682
0.0440947626872891 0.061334804343568805 0.02932691472467641
0.04425911818874733 0.060865238240171426 0.027368942018356268
0.044451126654681226 0.060200263044045466 0.025220263846625013
0.044695515074264655 0.05916207638327864 0.022714011631371656
0.04532033533369623 0.05538163876995511 0.01764843541475125
0.05396528096949496 -0.08310820583806428 0.028518486609601323
0.0538302039111828 -0.08103090312826 0.02816639683771005
0.053714215830564405 -0.07912240722534897 0.027715385641826962
0.05359976474096018 -0.07723103320497005 0.027260616502579438
0.053477703185574 -0.07527830998917767 0.026852378270587285
0.05335362434590138 -0.07331246235418082 0.02646021266885601
0.053228413375797326 -0.07134114843241901 0.026079330813018498
0.05316432551493783 -0.06989478961290146 0.025363150546097946
0.05317879986608205 -0.06911855608530287 0.024210519067440206
0.05322022312863931 -0.06857050394624703 0.022906160116554386
0.053263932315589645 -0.06804040863113886 0.02158726428746688
0.05330052558312882 -0.06744869423115946 0.020306802960784465
0.05334025363993172 -0.06688218256597755 0.019007095103438676
0.053383302044955644 -0.06634227653491359 0.0176868954557009
0.05342435698616259 -0.06578416749004384 0.0163763415158954
0.053462031842329664 -0.0651963313512644 0.015083498473446755
0.05349338198000621 -0.06455430205457441 0.013825501350918423
0.05350682896830643 -0.06376172029736782 0.012669537956733756
0.043914167138162874 0.027479723978788506 0.054738307654217055
0.043557133350248176 0.0311071650619556 0.056028214048099434
0.043339621348183276 0.03359763734714888 0.05647968697066019
0.043160705821200865 0.03577022101602528 0.05670323013240919
0.043012325502074324 0.03769159569256675 0.05674610892424503
0.04287924305114246 0.03948538826158099 0.05670053657495949
0.042764047900479545 0.04113167302391302 0.05654955117953936
0.04265670220410701 0.04271143854051118 0.056354439172474624
0.042561565490345586 0.04419037704153095 0.05608755087379197
0.042477282615729035 0.045579873429733075 0.0557566224764543
0.04240416042421501 0.0468780461008495 0.055359072498469775
0.042337874374432795 0.04811966953432362 0.05492144438650276
0.04228116094495415 0.04928349075362681 0.05442604630729486
0.042230398988340946 0.05039851713564725 0.05389523662618628
0.042188333300672703 0.05144347801633181 0.053311213829588366
0.04214956128110444 0.05246118496388269 0.052707891294366205
0.04211545379243045 0.053441077223861766 0.05207630352109932
0.042090576272896446 0.05434774119685121 0.05138688159818289
0.042071804131727494 0.05520599152398942 0.050659174238432025
0.04205603141378667 0.05604028654077692 0.04991286181286886
0.04204708456481127 0.056821092925993855 0.04912298525872422
0.04204474192769463 0.057550472931726826 0.048290571547688343
0.04204868180801041 0.058231246516612045 0.04741731733739102
0.04205901428586311 0.058862884080998545 0.046502123211738966
0.0420744692441733 0.05945547764396564 0.04555292946465722
0.04209516470544023 0.06000838151708693 0.04456865016706152
0.04211865844190819 0.06054056054897189 0.04356507812359267
0.04215052364754322 0.06100957986534261 0.04250516913630764
0.04218468786746149 0.061462152590742614 0.041428717656900926
0.04222309492398907 0.06188361116141039 0.040322645000795965
0.04227104078155935 0.062233980677901424 0.03915133360767026
0.04232567668179326 0.06253531577261612 0.03793328508402477
0.042393331569009166 0.06274014073119194 0.036625581528431705
0.04247293454709802 0.06285718873067708 0.035234650689103864
0.042567456608697575 0.06286472073817007 0.03373969319765241
0.042673804491668896 0.0627867064832095 0.032160772177120656
0.04279314526649493 0.06261500782480295 0.030489238784889128
0.042933574152007194 0.06228980935221162 0.028669113416131264
0.04308353469884961 0.06189831735387469 0.026778146458535323
0.043266995689088476 0.06126276934264224 0.024651374068329457
0.04348651086958263 0.06036591735312796 0.02226920414497424
0.043924388502427476 0.057860005492480826 0.018371763675480268
0.05338499384648725 -0.0905585652108648 0.023837337400527014
0.05245392636521783 -0.08138776439083256 0.027940902279129265
0.052335225191053575 -0.0794276234098576 0.027521430429049643
0.0522172287030198 -0.07747782129802516 0.027102902193912815
0.05210127432908653 -0.07555009276973534 0.026677708514020126
0.05197530380092037 -0.07353840940887002 0.026314180962735245
0.05189088396977806 -0.07189536982868916 0.025719113516614267
0.05189404885050035 -0.07102158005423975 0.02462667029050536
0.051926720344068776 -0.07040533385620934 0.0233647453977745
0.051968954136942254 -0.0698712849360289 0.022046387693526293
0.05201008533152505 -0.06932617894511789 0.0207326551000257
0.05205061130232305 -0.06877439053095225 0.01942073057144933
0.0520895219820701 -0.06820720145750292 0.018116532540928543
0.052131180545985596 -0.06766241642373533 0.016794667602343938
0.05217105366049494 -0.06710077940554748 0.01548154689583603
0.05220070354413033 -0.06644973033814244 0.014226932088969413
0.05222465017042356 -0.06574864252887935 0.01300476752430757
0.05234996872656368 -0.06591605870676903 0.011180906946267666
0.04263291116279708 0.028524268502626238 0.05552171197032563
0.04233625411319307 0.03172649886372397 0.05649522982506672
0.04212850244796438 0.03418225205622705 0.05692290906017683
0.041961301692330026 0.036295714686157055 0.057103784276851366
0.04181812769904264 0.038205252148690194 0.05713975488017553
0.041690652240884564 0.03998064344629931 0.057082128031982926
0.04157731413085858 0.04163552547590921 0.05693985864497708
0.041472781579423385 0.0432143211167596 0.05674609201584746
0.041382222514950474 0.04467523560278347 0.0564671964651321
0.04129986450456098 0.046066093124285834 0.05613937833874316
0.04122855598500958 0.047364130861591636 0.055743774795473044
0.04116692618976141 0.048581060824464395 0.05528856023419665
0.0411112298510993 0.04974774901038387 0.05479742062708437
0.04106277548401941 0.05085391972141434 0.05426147494984751
0.0410197428897156 0.05191464285942354 0.053692152300511053
0.04098199445246543 0.05293130942532559 0.05309001687501691
0.040949604982394416 0.053903593557261376 0.05245424914481356
0.040920995398889506 0.0548444384383488 0.051794919667921435
0.0409010131436998 0.05571524984532916 0.05107975704355133
0.040887150909889494 0.05653649835885238 0.050324848055798066
0.040877432244970514 0.05732425065469299 0.04954295674711928
0.040872264596716154 0.05807548335732238 0.048731107633633086
0.04087443476565173 0.058768326187820186 0.04787036935594402
0.04088177385174741 0.05942032961022542 0.04697484488119402
0.04089408052582391 0.06003335315055158 0.04604556874863924
0.04091084608483186 0.060611664697287126 0.045085668144089375
0.04093373982163961 0.061142370269549995 0.04408355731533148
0.04096029132448179 0.061645172248261326 0.04305564284702118
0.04099061872334798 0.06211933646578632 0.04200089237331972
0.04102598809645534 0.06255516998095845 0.04091041554617214
0.041069242357000615 0.06293077807578235 0.03976440414253829
0.041118966919433016 0.06325757231338675 0.0385720981171227
0.041177201240684094 0.06352006536842697 0.03731902572081286
0.04124664803808031 0.06369777679434213 0.03598595685253303
0.04132625792706552 0.06379939687921365 0.03457947806517375
0.04141869412962027 0.06380492964481504 0.033080419577579234
0.04152636699198882 0.0636965087210632 0.03147115654115201
0.041649404068807745 0.06347394956830382 0.02974984939879438
0.041783213649414355 0.06317320229340406 0.027947791684390433
0.041929845515933185 0.06277917294783986 0.026049876130566918
0.04210019367369297 0.06220951515133255 0.02397834604001653
0.042328048556620944 0.06120856164175209 0.0214923175337845
0.04273501724887779 0.058856862825773015 0.017724094702118443
0.05223887654011063 -0.09419663453656008 0.023249135925917652
0.051904446790906285 -0.09021474960311904 0.024053360909808863
0.051729473659410906 -0.08769579940655586 0.023954961002041142
0.05095012042329756 -0.07969426904980553 0.027351985585038374
0.05083682377935535 -0.07775763601698216 0.026924081623644902
0.05072173986011896 -0.07580888108402989 0.026511390063987506
0.05062085705877127 -0.07399244613680256 0.026020732676008518
0.05060033789039982 -0.07290371647596716 0.02506373654712507
0.05062818918833001 -0.0722506896839219 0.023823313296408355
0.05066928917154224 -0.07171557019945984 0.02250355286981226
0.050709474998715774 -0.07117079513791436 0.02118745521904164
0.0507482509434652 -0.07061198221413784 0.019878024008916306
0.050788562167427775 -0.07006548089091569 0.018557788194064728
0.050828280459939014 -0.06951226105063185 0.017239384886179043
0.05086921252651787 -0.06896840765070122 0.015912002244686974
0.05090691510912704 -0.06839445514184678 0.014602340143447079
0.05092669420978536 -0.06766054004136185 0.013399471003971153
0.050987776799872146 -0.06729070181121166 0.011945086242740877
0.04139802344370477 0.029230575778444734 0.05605143969469395
0.04112869645742682 0.03226663045672734 0.05690252227492393
0.04092813776088979 0.034707822865811366 0.057321367383442456
0.040768375066105075 0.036795392059752186 0.057484660120063424
0.04063429950100198 0.038659566048311056 0.057487923060615564
0.040511534504184314 0.04042330073659067 0.05742319310201438
0.040400713409831396 0.04208185729795261 0.05728560797256843
0.04029989102014928 0.04365225623363872 0.05708716276814063
0.04021046418887314 0.04512329501551565 0.05681802822724802
0.04013248944046214 0.04649511007290985 0.05647710377077697
0.04006073358549315 0.04781210377444983 0.056098314220134116
0.04000164140498645 0.0490207973364396 0.05563844599794504
0.03994515784268566 0.050205646129845016 0.0551637064802567
0.03989743399705559 0.05131564979989639 0.05463280189137082
0.03985658964828339 0.052366876096934856 0.05405778450313925
0.039820868967086864 0.0533742287467282 0.053450029635031204
0.03978933871154704 0.05434569116293109 0.05281550959069958
0.039763185374869676 0.05527170807183657 0.0521459227888415
0.039742187017316036 0.056154392878926596 0.05144243352161093
0.039725625013342966 0.056999919362089646 0.0507096093081113
0.03971639640792763 0.057784801284693765 0.049927365305013904
0.039710981589997855 0.058538190680881064 0.0491193652152892
0.03971108179061678 0.05924642122570567 0.04827366506468539
0.039716496517322515 0.05991141942546868 0.047391295978995385
0.03972472173507728 0.060553796633572576 0.046489247199246464
0.03973957592461228 0.061142774793379207 0.04554083328425407
0.03975795831047943 0.06170376901908381 0.04456722110995115
0.039781689696529905 0.0622222853314684 0.04355546882615857
0.039810587691197885 0.06270007780232861 0.04250651268509614
0.03984346357041988 0.06314696660941221 0.041428375587034716
0.039882157133121175 0.06354842723480741 0.04030783686482414
0.03992609404151197 0.06390936174840622 0.03914858523523718
0.03997856015709062 0.06420384716194721 0.037926987694269054
0.04003911278829674 0.06443586278751007 0.036645648071535086
0.04010434787612894 0.06463286666750662 0.035328331377524114
0.0401828290142902 0.06472727600534367 0.033913472166364866
0.04027801102393249 0.064692495820739 0.03237543450206637
0.04039002578437286 0.06452838077717621 0.030712203133709204
0.040514245601488766 0.06427224136122556 0.028956106846003193
0.04064343235099904 0.06398154874803069 0.027158766308643112
0.04079205664125407 0.06354323683478441 0.02521479775054708
0.040960750286745715 0.06295340978611058 0.0231183594791472
0.041204006327245885 0.061788305303159485 0.020470193782011092
0.04170183331519852 0.0586517531044522 0.01594706212166258
0.051077030402941107 -0.09785241362506064 0.02266914310803919
0.05064683719941658 -0.09287213204662681 0.02407662491556034
0.05045300022121642 -0.09012419053713122 0.024110260325768018
0.05031571129394743 -0.08791263551664807 0.02381794598619852
0.05019415596346371 -0.08585309431286792 0.023438245803242663
0.04945697952986027 -0.07805866721652971 0.026731702278422365
0.049348290359639405 -0.07613907485318655 0.026299180630693253
0.04929944847862492 -0.07477922451024072 0.025512230218327825
0.04931900533083257 -0.07405507162590841 0.02431541089738365
0.04935816569703464 -0.07351152116178439 0.02299922261835996
0.049396590471546126 -0.07295974203567407 0.021685783244931034
0.049435075119257946 -0.07240710313141746 0.02037029727997819
0.04947361978021998 -0.07185360243789624 0.019052759936297126
0.049514629380679756 -0.07132130410646198 0.017718417766319106
0.049554582899616374 -0.07077782831752982 0.016388780544392634
0.049590740964891425 -0.07019819756277079 0.015080838203756664
0.04961809538779934 -0.06953694205078848 0.0138258842175763
0.04965144420895094 -0.06892924566935549 0.012532444140039789
0.040181767969621966 0.029813461025423316 0.056488601387842785
0.039926931308024265 0.03278681539479472 0.05729477372240499
0.03973675332556394 0.03518481731063894 0.05768299783699682
0.039586873687385914 0.03722382091257903 0.05781122725014198
0.039456640693411774 0.039086063346883526 0.057814773704078004
0.03934102174324387 0.04081640284229715 0.05772607617619424
0.03923282117730868 0.0424781034433005 0.057592558620665146
0.03913492668022657 0.04404656158553272 0.057394253981126575
0.03905287257389374 0.045474510038818305 0.05709303058037091
0.03897602900066139 0.04685450385087586 0.0567600213212241
0.038904930393355394 0.048182230443992335 0.05639124376703808
0.03884257388906406 0.049432266183268514 0.05596583999392196
0.038789171876584455 0.05060327257627528 0.05548177999628545
0.03874190287544807 0.051719870921498656 0.054957879689357114
0.03870180000936893 0.05277358332060139 0.05438660876715806
0.03866666804396841 0.053783496553466925 0.05378268984678486
0.03863638251924613 0.054750941961531296 0.05314666064228574
0.03861179824308542 0.05566893945432394 0.05247224941342038
0.038591432613867875 0.056550345500326005 0.05176944020184654
0.038575953513652526 0.05738975471968927 0.05103327514358985
0.038563890364914054 0.05819982295770426 0.05027377214064738
0.03855805603495385 0.05895709740734051 0.04947086973601156
0.038555819973286186 0.059683981653800344 0.04864276792536004
0.03855756980687674 0.06037743033714699 0.047786479816385785
0.03856457090772115 0.06102709784121618 0.04689273683276096
0.03857741291425048 0.06162836113284337 0.04595698424715805
0.03859240607909242 0.06221221404007443 0.04500526350436129
0.03861335762201718 0.06274719646555149 0.044010083759344454
0.03863970112167377 0.06323832441686672 0.04297513512910589
0.03867116522984955 0.06368813567406417 0.04190202471155041
0.03870728499998196 0.06410074319995623 0.04079378680825452
0.03874798821262379 0.06447699721479971 0.039650640843378215
0.03879428774959223 0.06480884200685189 0.0384648988669582
0.03884711161441358 0.06508899093391635 0.03722940513260353
0.03890680967397594 0.06531494650111508 0.03594116433535183
0.03897523272015353 0.06547200815746429 0.03458610566837572
0.039056262159428506 0.06552910421261032 0.033135009143766325
0.03915015420986949 0.06548485110760133 0.031585150363720116
0.03926737456231127 0.06525526512140395 0.029857983585870385
0.03938864675892489 0.0649972700496429 0.028095514529236976
0.03952067734973264 0.06465706348403322 0.026247391658350883
0.03966439575852886 0.06422776812144526 0.02430594715300949
0.03984972573550138 0.0634700716455111 0.022045628795732908
0.0401126215143109 0.06209861274368256 0.01919283211504691
0.049384117848753795 -0.09558875778185905 0.02407535116691706
0.04917568013793125 -0.09263897399866222 0.024222291537673357
0.04903089846540785 -0.09031159284843787 0.02399251330693991
0.04891191665272978 -0.0882382644486443 0.02361218661395581
0.04880088443773501 -0.08624587795046479 0.023188644227905064
0.048757796758148265 -0.084909757724565 0.02235338925182362
0.04800433291989501 -0.07677117138798717 0.025892943797018175
0.047994716857002497 -0.07577170318157894 0.024870781651985863
0.04803398044471532 -0.0752389274085864 0.023545961392647863
0.048075797635591465 -0.07472898102223935 0.02220348001875172
0.04811457067956121 -0.07418852636768558 0.02087812752470919
0.04815246977747839 -0.07363831748194422 0.01955650606812198
0.048189803304857774 -0.07308132262169215 0.01823673476383575
0.04822954345264956 -0.07254564864448981 0.016900087142462994
0.04826605567469076 -0.07197804267093033 0.0155821007567703
0.04829963923786817 -0.07138150328305881 0.014281090905418348
0.04832477897402422 -0.07070441409970757 0.013032447911930145
0.039419452059747985 0.02557777860228183 0.05475893603309695
0.03898321719775448 0.030270427226601893 0.05683132429705934
0.038732461686581336 0.03327172154679764 0.05766042279957179
0.03855693206399974 0.035585674550163204 0.057986905340654704
0.038412762048661474 0.037611002254887005 0.058106353738425265
0.03828899978367012 0.039447756280150126 0.05809196085906476
0.03817584076487936 0.04118488632975975 0.05800999074100299
0.03807222601932844 0.04283245609938979 0.057867056636194125
0.037981210083411224 0.04436377123567059 0.05764130186312183
0.037903583513381266 0.045772512276160526 0.05732636718354728
0.037829645098023466 0.047145572328716745 0.05698915268353594
0.037757242133649296 0.04850223298851958 0.056644503561294246
0.0376949653937306 0.04976663164996631 0.05623188504931559
0.03764099918550871 0.05095536056714528 0.055763425922196574
0.03759708091077425 0.05205359667809112 0.05522626457502844
0.037556682952841404 0.05311924928567535 0.05466608096399145
0.03752101494416428 0.05414191535234936 0.05407401908277992
0.0374900501871871 0.055122096649381336 0.053449950033013005
0.03746641126293255 0.05603717158504168 0.05277475308207047
0.0374469551694355 0.056914926505856944 0.05207053790970195
0.0374317632425492 0.05775489187112609 0.05133643497962348
0.037417620357087004 0.05858518689898545 0.05059542451316906
0.03741055289166009 0.05935373212844891 0.04980368582717448
0.03740678464064657 0.06009352839727994 0.048988239926661126
0.037408668582357314 0.06078449432072963 0.048131675836012244
0.037413379355895816 0.061451234654308795 0.047254313791462665
0.03742289879873211 0.062076913155825586 0.04634139654225877
0.03743497002108882 0.0626811153531604 0.04540923767778654
0.03745450797640212 0.06322202034949825 0.04442131914437103
0.03747869909793665 0.06372402167557645 0.043398005676836215
0.03750803491126984 0.0641832050069826 0.0423353258279357
0.03753874469275667 0.06463184405316996 0.04126107084041836
0.03757720272367019 0.0650160728902826 0.04012743622420328
0.037621360260107914 0.06535363021499341 0.03894927930653602
0.03766982431700528 0.06565657507585532 0.03773670413609481
0.03772760968371096 0.06588299731345615 0.036451544868705554
0.03779259013376853 0.06605125850029359 0.03510927792546209
0.03786184742006295 0.06618618721238434 0.03373158886321931
0.037938333903615756 0.06626337586407666 0.03229569100832225
0.03804258394329619 0.06611217512592182 0.030644157067542144
0.038156521156796 0.06588440133143203 0.02891367070995665
0.03828189318348479 0.0655661114545919 0.027090141663561884
0.038409283507824875 0.06523586327088493 0.025245401436941206
0.03856033253145093 0.06471513462218836 0.02321197146644005
0.03875367864007711 0.06385176404887105 0.0208437046924283
0.03906173559028437 0.062053129318487776 0.017574513834325678
0.048185382441498045 -0.09906097945861836 0.023619971317902833
0.047900910212240425 -0.0952818721689806 0.02426599197364676
0.0477407157373062 -0.09275237388094792 0.024151444528276556
0.047616474459001246 -0.09058671820119435 0.023819648859342124
0.047512284752099294 -0.08862495130428827 0.02336784576563572
0.047449739615996765 -0.08707983113615292 0.022658693272600727
0.047405900016040524 -0.08572210568528443 0.021834243698476696
0.04736447517596734 -0.08438991790896355 0.020996514461584126
0.046711389058829246 -0.07703513670898743 0.024054212319662704
0.04673879665496259 -0.07639467553791035 0.022794780517423063
0.04678520542434114 -0.0759395475947357 0.021412242934385095
0.04682349365539648 -0.07540310764988362 0.02007980719053787
0.04685803713443621 -0.0748285860946315 0.01876977861285567
0.046896444715892445 -0.07429039976435348 0.017433101008514362
0.04693491531127463 -0.07375133045128895 0.01609423036571367
0.046968858396162466 -0.07316678864559367 0.014783129017945706
0.04699840738344038 -0.07253833209735522 0.013499238252901613
0.047061610703445556 -0.07223428368950796 0.011992719289293019
0.038152637867998926 0.02658133444748767 0.05550753620288035
0.0377943012333647 0.030665262919928438 0.057127449572242195
0.03755449575837074 0.033632473289969766 0.05793245183174828
0.03738709664260655 0.03591811707588216 0.05823894465346696
0.03724791519991527 0.037935814773773946 0.05835394000412397
0.03712744480190147 0.03977510499035258 0.05834282796722012
0.03701924854823841 0.04149646549657304 0.058250060841325224
0.036919526042952774 0.043135600512621 0.058101886380676315
0.036833978841104946 0.04464062694385673 0.05785692146777688
0.03675903956447061 0.046045075937363955 0.0575397853153245
0.03668533799763153 0.047435283337518175 0.0572172154359209
0.03661639444303799 0.04877918735062281 0.05686369371846978
0.036554288391260306 0.050058124455177544 0.056463817561773766
0.036501354075520985 0.051251277725340216 0.056000139097522716
0.03645594564473853 0.05237411063931441 0.055484024433584744
0.03641690370527513 0.053437555848956764 0.05492343299045355
0.036379781083496335 0.05448214707225957 0.05435056553821094
0.036351255517360855 0.05544782098684464 0.05371611598108994
0.03632817433088402 0.05636342844135894 0.05304277396072016
0.03630804803188898 0.05725162429807834 0.05234860762287202
0.03629342470857066 0.05808976839281044 0.05161447054342155
0.03628054765850286 0.05891174257996834 0.05086799130771558
0.036271420518609813 0.05969978855448366 0.05009406169423625
0.036268227065933224 0.06043470186789168 0.049276035859694034
0.036268774405588275 0.061136291215534544 0.048430004593006004
0.0362722415899606 0.06181204511700028 0.04756190499990287
0.03627981702654576 0.062451633364396575 0.04666253445719182
0.0362919626147955 0.06305122365389465 0.045728098382154636
0.036307498912761825 0.06362145870512331 0.04476726465745956
0.03632945519359851 0.06413594685812457 0.04375664684791314
0.03635547113239299 0.06461573531598386 0.04271389072473797
0.03638639055044254 0.06505368743861017 0.0416322257464149
0.03642187036071894 0.06545308119938154 0.040513956264399464
0.036461752690886584 0.06581555652783394 0.03935998584187039
0.03650791499803161 0.06612507393758688 0.03815544207566113
0.03655651139101965 0.06641530868524453 0.036929814345467216
0.03661695090608508 0.06660509700935185 0.03560949850967915
0.036681603066621306 0.06676091932351841 0.034253400459025474
0.036752666121124204 0.06686411177799462 0.03284396811258444
0.03683962385447301 0.06683365126001506 0.03130607653761108
0.036949990356234294 0.06660612076984074 0.029579275954639495
0.0370625444155005 0.06636419958502038 0.027830024274347
0.03718077139303438 0.06607830493677752 0.02603048154290083
0.037308634722247325 0.06571505964409252 0.024148675283389764
0.03746637109540506 0.06510330956459681 0.02202223515407087
0.03769666932504119 0.06388339847295782 0.019306989148832054
0.03812519406007359 0.060998142144347955 0.014987939018582808
0.04777991475331171 -0.11570125009268284 0.023761329716873447
0.04779673901346179 -0.11491676310677884 0.02251232636284356
0.04786366336720369 -0.11465252848968033 0.020948033631407126
0.047958232283790446 -0.11467249120855488 0.01920634692933082
0.04806589622272823 -0.11482428739183675 0.017377306602087084
0.04699978511691144 -0.10283787134389977 0.02299532477944838
0.046623160535644324 -0.09800799517626418 0.02427038014380828
0.04644581868602845 -0.0952453266619312 0.024288694524568555
0.0463199477442586 -0.09301876095963058 0.023985018077345266
0.04621170544438677 -0.09097807147713388 0.023573757027277042
0.04613500317619091 -0.08926460753765919 0.02296365781755788
0.04608998511201652 -0.08787794150430289 0.02215151930143705
0.04604611634587675 -0.08650480328404564 0.021334046744630797
0.046024137471970095 -0.0853561963455523 0.020375505017172446
0.046020955997486436 -0.08439939203807423 0.01929462235202567
0.04601368580720668 -0.08340126978818052 0.01824082975969127
0.04608102204192895 -0.08315819785223388 0.016694068489293834
0.04553176582471545 -0.0766870293563835 0.019235910758158725
0.0455601050935524 -0.07605798524009438 0.017957187191395718
0.04559531862743989 -0.07549693208128705 0.016631158715648853
0.045629097429435175 -0.07492006501338366 0.015313068488516324
0.045659347316080554 -0.07430649495242408 0.014017117486022246
0.045700689046372776 -0.07380258379331472 0.012644782919304876
0.03696138484128766 0.026919622856201586 0.055759881711526516
0.0366254016142723 0.030892331590143207 0.05729775024705214
0.03639704605582698 0.03381893384885032 0.05807305461296247
0.03622700574699 0.03617804140119735 0.05843600474258154
0.03609159140697756 0.03819949799429678 0.0585549308670405
0.03597337621547465 0.04005153764463576 0.05855467503493883
0.03587120408071184 0.04174619575768973 0.058442476701769275
0.035777391035055235 0.043357389405976665 0.05827369438048241
0.035693268496789395 0.04487300880123285 0.05803790414606691
0.03561952002365482 0.04628717578435321 0.05772935020124098
0.03554860631205199 0.04767163806365038 0.057403275722876235
0.03548058538738143 0.04902602024417585 0.05705904483193186
0.035421796262251115 0.05029095178901932 0.05664907164705585
0.035369463958534485 0.051492999746852675 0.056193499941369185
0.035323710621291284 0.05263141076377981 0.055690947240649324
0.03528368439100406 0.053714531816672295 0.05514736908847212
0.035248280326653246 0.054752998397190555 0.05457071837777949
0.035220309838796295 0.05572096271336663 0.05393931401185531
0.03519769954355369 0.05663809894954591 0.05326841652900055
0.03517901255923791 0.05751802527790301 0.052568621092814294
0.03516308672384678 0.058371708015145685 0.05184855457427018
0.03514991456518666 0.05919938238994782 0.0511080761343814
0.03513984318557322 0.05999802359525913 0.05034431065897871
0.03513569259528632 0.060741952116195264 0.04953521596072391
0.03513613403523571 0.06144368601737332 0.04869067975545405
0.03513754684808122 0.06213656682117075 0.047838560020711296
0.03514390611979262 0.06278443137460088 0.04694774475552993
0.03515557081443578 0.0633843140236397 0.04601506690652113
0.035169631766726585 0.06396292643695894 0.04506300299301885
0.03518875148771543 0.06449631218881802 0.044070397630660396
0.03521294646808119 0.0649846271858942 0.0430367571575348
0.03524179344470526 0.06543199160769725 0.04196507309395964
0.03527460321471135 0.06584488286382906 0.04086049246452195
0.03531246803717775 0.06621374048055506 0.03971401797313601
0.035357029688707194 0.06652417274969524 0.03851215120307533
0.03540385545954542 0.06681617350702651 0.03728998215334617
0.03545431146713354 0.06707770529962326 0.03603635290526691
0.035512035899752985 0.06727663895885971 0.03472163337264533
0.03558026801303589 0.06738467662285691 0.03331907503737058
0.03566076518702622 0.06738689684675941 0.0318136526349036
0.03575954502241782 0.06723089755680173 0.030155475918947627
0.03586503672910025 0.06701972923192134 0.02843774537779359
0.03597633610882581 0.06676174494956627 0.026667386379926272
0.03609037788049115 0.0664841793396963 0.02486916667994704
0.036221653496230174 0.06606038861479502 0.02292347831902458
0.03640121299222131 0.06522032825196805 0.020572484925172996
0.03667959185948465 0.06352672174043877 0.01739388190400304
0.04605495637164354 -0.11415825106803479 0.02639014785665772
0.04605934157408095 -0.1132505477821743 0.025223880796210407
0.046138105299264764 -0.11314252157538734 0.023577292007670725
0.04623228372097593 -0.11319667745355405 0.021826929492268277
0.04633524714371171 -0.11334103641805732 0.0200147721005125
0.04643946633486745 -0.11349455176529405 0.0181893270876326
0.04533854508535726 -0.10078374409351398 0.024256898691975892
0.04514661538437472 -0.09779955287550607 0.024399131142992414
0.045015622268311455 -0.09547104558791686 0.024148475516832635
0.04490547727471326 -0.09336914313761441 0.023766115309052538
0.044817659611396436 -0.09150821054067654 0.02324066443667505
0.04476877360880599 -0.09006232155031557 0.02245959581437018
0.04472486729246613 -0.08867097835398441 0.02164756939204865
0.044697709221337485 -0.08745774481745744 0.02072505233045202
0.044689597666562726 -0.08644572262691491 0.019675286431476147
0.04468738587849331 -0.08549589198557189 0.01858594382252199
0.04472826404958252 -0.08499702941497683 0.017203662477552284
0.04480461238079307 -0.08486688192109909 0.01557725734550075
0.04492811814426487 -0.0852250494153744 0.013624037993579585
0.035773808105053685 0.02724317475782656 0.056001234557647106
0.035460142718488664 0.031097917506639372 0.05745193894190753
0.03524257335917403 0.033987940566453545 0.0582004961264746
0.03507973203850473 0.03632806245391462 0.05854974234759913
0.034942170932530325 0.03841211050139309 0.05871699341693398
0.03482689536704624 0.04027112951764528 0.058722961588374145
0.0347291111973304 0.041953588207702786 0.058602271512835924
0.034640466252844795 0.04354242660274138 0.0584170328179906
0.03455782672646944 0.04506885980426656 0.058190436027122205
0.03448734365893205 0.04647323574591988 0.05787503571106756
0.034419334084333966 0.047850602175009194 0.05754415768799437
0.03435499039850303 0.049189526273248074 0.057188448538022574
0.03429644400029723 0.050469569162274186 0.056791192426891346
0.03424277112266426 0.05170002953216363 0.05635910941458483
0.03419738037146774 0.05284830065892654 0.055865371831896216
0.03415968963405115 0.05392050592552661 0.05531389993992697
0.03412681056407576 0.054944891340412305 0.05472669244403011
0.03409802886426581 0.055928608277771075 0.05410899180801221
0.03407623864568568 0.05684420918715455 0.053437736668459135
0.03405738771504384 0.0577308325419868 0.05274437295700429
0.03404026858952023 0.05860016913089766 0.052038237395925946
0.034026414697197485 0.05943774409625707 0.051307029933102544
0.034016586968593644 0.06023654003800383 0.050544449775733025
0.03401120546215062 0.0609928301549475 0.04974684345432173
0.0340088141950666 0.06172064655152604 0.04892554623411405
0.03400966809992009 0.06241777202392629 0.0480782876990708
0.03401624500145855 0.06306110172529744 0.047184853258029846
0.034025217625643665 0.06368221939824531 0.04627172238616434
0.03403787281856647 0.06426922320783435 0.04532828047499676
