# .PCD v0.7 - Point Cloud Data file format
VERSION 0.7
FIELDS x y z
SIZE 4 4 4
TYPE F F F
COUNT 1 1 1
WIDTH 752
HEIGHT 1
VIEWPOINT 0 0 0 1 0 0 0
POINTS 752
DATA ascii
-0.0015818325956590829 0.033278049107288134 0.01135225535747203
-0.003165697088590713 0.0332115009440348 0.010993745931853982
-0.003777213967948556 0.033229862627347936 0.009843075045623761
-0.0037566742593226343 0.03330380575368049 0.008168573773596421
-0.003731585070402388 0.0333784709933286 0.006482902477010111
-0.061532477384632855 0.030057508469876447 0.013903717895880796
-0.06340796009018618 0.02995139166286468 0.014106833923674233
-0.06519425725844763 0.02985315909449482 0.01423508222178338
-0.0668678431209822 0.029765080705592764 0.014264343635257637
-0.06822152792464475 0.02970677942914351 0.01399066424582196
-0.06932757283649116 0.02967162915056245 0.013480173742915935
-0.0703869587572809 0.029640737799600372 0.012927432548721307
-0.07102287729366386 0.029649944277365222 0.01195803861483219
-0.071005027229465 0.029721469414728512 0.010335889700488154
0.004446654929632643 0.03215704565300056 0.014739151462514588
0.0022700150638232386 0.032044779885829766 0.014827826587059056
0.0010235840642459082 0.03200956427165779 0.014183897421289393
0.0008947453616788836 0.0320675468638545 0.012644806302215372
-0.0003589132201908818 0.03203162366530141 0.012009172016701375
-0.001989256856221533 0.03196394629225429 0.011683417077068048
-0.00339100688189381 0.03191519396739112 0.011177858016231779
-0.003692882009456888 0.03195889604413319 0.009773796125796652
-0.0036754872230210234 0.032029745090385385 0.00810152357722943
-0.0036858858961096863 0.03209855060435274 0.00644496015121937
-0.06265025960974874 0.028867689018892733 0.013378357365564586
-0.06501123237011042 0.02872149074963375 0.014058201330127251
-0.06665811899318691 0.02863925544794482 0.014060606265204334
-0.06841980307287454 0.028546220008824313 0.014184280103566815
-0.06979718934951107 0.028487701195699794 0.013941135807662652
-0.07101870669032717 0.028443117504693836 0.013550756357733729
-0.07216043345776574 0.028405615342977582 0.013086247975754972
-0.07285529347009218 0.028408866050088993 0.012180467493874303
-0.07329008134765663 0.02843600890799235 0.01101370406685176
0.0037941218508584784 0.03081877463259314 0.015255586012357547
0.0017270809089421912 0.030719639056554858 0.015259823737765743
0.001095626962600793 0.030734946167676587 0.014126268115398521
0.0007021046236426187 0.030769397859294438 0.012799729483388977
-0.0007971832731991091 0.030715139869261877 0.012363514915588458
-0.0024369756716918767 0.030649332699639164 0.012047330930950895
-0.0034797255140559535 0.030631426066500995 0.011250354520050243
-0.003622946818115702 0.030686196631334973 0.009716344187045589
-0.003597603988439557 0.03075486823675529 0.008037201902116375
-0.00360895266356126 0.030820858093450264 0.0063810853478193374
-0.06636087933730639 0.027519516901629352 0.013771851573976202
-0.06808728307515571 0.027433336343486384 0.013859574031472255
-0.06986089633879194 0.02734263078572601 0.014003668756363497
-0.07137091761677727 0.027274568607600948 0.013898270682303038
-0.07253267005419206 0.02723673742265842 0.013455426066313503
-0.07371126197799421 0.02719724738416943 0.013033804417418193
-0.07469718567889433 0.02717455192768294 0.012423752134716637
-0.07512896913830402 0.027200704366022885 0.011258197196708675
0.0030622195681331843 0.02947877595365491 0.015834835767202682
0.0013914770485249361 0.02941397487677947 0.015526854113664945
0.0012082481178740112 0.029462959249835954 0.014036179027435203
0.0004028252177891156 0.029464341454920134 0.013040412311368266
-0.0012623747995746393 0.029399517741127423 0.0127396239215819
-0.0028570062611730784 0.029339860635394652 0.012388739299965312
-0.0035761599707290204 0.029347658075827173 0.011329156016264053
-0.003524105526028609 0.02941526638932621 0.009635145812519674
-0.0035118954848862294 0.029480073164899406 0.007966417547182914
-0.06775405941762092 0.026318097657328784 0.013534180834944565
-0.06950200242706867 0.02623338447067199 0.013651388813077092
-0.07127198938984458 0.026146425338268383 0.013800661626531152
-0.07282836918845687 0.02607701487334848 0.01374869556967706
-0.07415667706656315 0.026026495925750973 0.01347785012455649
-0.07529132116246406 0.025992096038240216 0.013019130581118366
-0.07636514390909482 0.025962682714959454 0.012503374964613179
-0.07722109267264654 0.025951619608906677 0.011770646164186382
-0.07639668752179057 0.026083445093059168 0.009329122293364411
0.0048235791596564215 0.028265413703363957 0.016078650825349705
0.002600677225683301 0.02816338199928042 0.016200114432162238
0.001257624263493129 0.02812530976450391 0.01563335693951967
0.0011890978625686555 0.028180556417328168 0.014051497899191912
-7.437916227159835e-05 0.0281482066892322 0.013424183788692423
-0.0017409190829750787 0.028086027204788807 0.013126528679189842
-0.0031575691427885855 0.028042026638004286 0.012633042181156351
-0.003497464264767547 0.02807749490299741 0.011264849754899497
-0.0034418836581212586 0.028142437769175042 0.009567600337510362
-0.0034228066655092038 0.028204950320228798 0.007892841480048984
-0.06861144771442801 0.025164078685800763 0.012777245916207991
-0.07078779640829819 0.02504846778306751 0.01332292517854744
-0.07280904912815245 0.0249447851779269 0.013729534253887232
-0.07413027637216568 0.024897037071954013 0.013451530596292838
-0.0752953009135719 0.024861683376545745 0.013023118658075872
-0.0766493108166802 0.02481085786358239 0.012789611445133742
-0.07793256632756101 0.024765534722403355 0.012491012148967362
-0.07878236052301285 0.024755265786760506 0.011757114231702503
-0.07724628895359326 0.024939542692874052 0.008583794916469156
0.004204133185762016 0.026937530205825594 0.016566283414878757
0.0021233300689562085 0.026849950599197803 0.016577901508437798
0.0014117318077067065 0.026857652986256732 0.015510737982130152
0.0010157060115857375 0.026887482425472606 0.01419019931525739
-0.000483266388949688 0.026840054022658127 0.01375301407943963
-0.0021204454641814974 0.0267827036102076 0.013433377110192046
-0.003249528410638025 0.026760909098904714 0.012707788317362745
-0.0033776955096923578 0.026809702953898465 0.011166980617402344
-0.003355178786982216 0.026869372232812015 0.00949637206386772
-0.003341476613011818 0.026928675419007356 0.007825673170440695
-0.07221620461537598 0.023856436079509064 0.013141560886071879
-0.07404224145259874 0.023772126749532604 0.013363766330745486
-0.0752475371041913 0.023735290358922335 0.012975254924281698
-0.07621215653080476 0.02371688428798855 0.01234927338713565
-0.07755793906607245 0.023668856539048592 0.012111702621082687
-0.07915018486548314 0.023601457858730742 0.012131463330587733
-0.07809757900808456 0.02373965064677196 0.009454668112142295
-0.0784925027892619 0.02376553824468446 0.00824757838024004
0.003604795533084071 0.025615082935546325 0.017038086580763
0.0017742508997811712 0.025548204735361936 0.01685417339327644
0.001478137374198163 0.025583135493957566 0.015457900975547556
0.000663774550727303 0.02558365980870382 0.014471719996317856
-0.0009515713437270867 0.025530663213870482 0.01412962856967187
-0.002526956578384365 0.02548011448857759 0.013762042793936058
-0.0032982598466566593 0.025483309723054126 0.01274739809938219
-0.0032889291662390185 0.025539020426276496 0.011094445126262842
-0.0032639847921006604 0.025596024869035606 0.009421455963576575
-0.0032445034879451384 0.025652907801538203 0.0077455856666440726
-0.07311000384216043 0.02270842925669749 0.012434394785928726
-0.07539555667322684 0.022594166886402346 0.013123584158078572
-0.07652826789361428 0.022564236570512805 0.012667686972700543
-0.07742865261877124 0.022551308839179936 0.011980800291410076
-0.07864047141516073 0.02251528269301661 0.011612708183670606
-0.07989443316617095 0.022475960077990423 0.011292857239990517
-0.07950979582638484 0.022558236728696588 0.009293655238839016
0.005325103831956224 0.024390669544653753 0.017316804295564592
0.0030615508085327647 0.024300136931384386 0.01746573296631554
0.0017000125045670833 0.024266111958665956 0.016912927919997822
0.001515289475925219 0.024306327075704397 0.015428340112697891
0.00021495965136497652 0.024276046769994182 0.014830740686967159
-0.0014075950106379187 0.02422518133022718 0.01449636635259599
-0.002883880690109586 0.024183402190050298 0.014050617209557914
-0.003259497221924368 0.024211615532037444 0.01271589114531746
-0.0032123348475734947 0.02426696319943769 0.011031856015269126
-0.003181650158083582 0.02432149557808637 0.009353817850919321
-0.07770364924567441 0.021404464662917906 0.012259233954529158
-0.07870790483789619 0.02138477987590939 0.011681337793299551
-0.07992405842246053 0.021350075286592482 0.011323163997929708
-0.08081812049589243 0.021337947050049447 0.010638998331107485
0.004724710212884786 0.023071226234927338 0.017786914137517096
0.0025829529058693512 0.022992644793851602 0.017842488881204543
0.0017045109857670715 0.022989216976606185 0.01690936768498591
0.001318352628470798 0.023015253643104115 0.015585037119516532
-0.00023168836584136487 0.022971556404222535 0.015188028022664724
-0.0018280876573677496 0.022924883503870386 0.014834529812493225
-0.0030631981327048363 0.022899784249463553 0.01419559600058895
-0.0031575691428610275 0.02294347634018095 0.012633042181215193
-0.003119047874929892 0.022995401236632865 0.010955626488239167
-0.0030803518514955774 0.02304756169552314 0.009270601032689951
0.004145449071100149 0.021756939785416173 0.018240477192092375
0.002243913078868398 0.021696182680779955 0.018109383615792285
0.0018035041952199071 0.02171762493366436 0.016831021444428496
0.0009542700751710709 0.021716037517532975 0.015874727175361203
-0.0006706033024878599 0.02167048251322934 0.01553912943198732
-0.0022631764431974566 0.0216265664469725 0.015184431601080739
-0.0030808993184698874 0.021626566447607277 0.014209907472328087
-0.0030633478204410425 0.021674213487077567 0.01255645740663125
-0.0030190466816058525 0.02172359570191523 0.010873910430214184
-0.002946689037179595 0.021774799239661198 0.009160796688494899
0.006002812931317325 0.02053172917524161 0.018415026651125543
0.003575831342932101 0.020446992978517316 0.018686489427493125
0.002045946601237858 0.020409443990085045 0.018265224335072494
0.0018428906559646019 0.020442209606650986 0.01679984979997673
0.0005292577784934971 0.02041600063387938 0.01621289728223213
-0.0011051738337654604 0.020372566990522145 0.015886755619301418
-0.0026054424417859545 0.020336118804803318 0.015459684581573985
-0.0030322170885643263 0.020357023510033 0.014170547716053083
-0.0029823910150016397 0.02040360616745428 0.012490654268484058
-0.0029390078136642406 0.02045004355224887 0.01080850660292404
-0.0028876246820682683 0.02049711348598135 0.009112275169540662
0.005369708014810404 0.01921717082315924 0.018908098681125973
0.003111640960661577 0.019146039527630467 0.01904995176338964
0.0020594378525432555 0.019134524114556312 0.018254603919269807
0.0016179336967941382 0.019153369649734606 0.016977887587978913
9.736165546636588e-05 0.019118448097261865 0.016556544652491678
-0.0015620765340624843 0.019076432315992525 0.016252245987943892
-0.0027879539471970527 0.01905596456371147 0.015606461755017675
-0.002929279495142434 0.019089879503185702 0.014087322305128436
-0.0028936315997484807 0.01913284827136235 0.01241850902964875
-0.002847811360257857 0.019176515903789652 0.01073398534542186
-0.002811817108835435 0.01921987601382651 0.009049999054029811
0.004767041858744991 0.017908194843662975 0.01937746452750616
0.0027476207894941984 0.017852790640531174 0.01933498055067029
0.0021449044025040886 0.017862852846268984 0.018187324000064786
0.0014067138073373675 0.01786666171568721 0.017145053440680846
-0.00032687200097153424 0.01782412610810092 0.016894095217633798
-0.0019813295962217703 0.017785101505117275 0.016587619265763076
-0.0028354887888974445 0.017783343470260952 0.015644689644756238
-0.002837363350953803 0.01782152952700383 0.014013007775165065
-0.0027870655588442816 0.01786233121301702 0.01233189024728254
-0.002754345214838416 0.01790248176612779 0.010657609407209612
0.0042058610876308244 0.01660497371935197 0.01981452090599256
0.002505696579837957 0.0165671951602153 0.019524407866939708
0.0021505285318867973 0.01658717698475679 0.018182896642570612
0.0008908760817479822 0.016568210024343496 0.017553303125290298
-0.0007924451979518521 0.016530838931811585 0.01726453847071102
-0.002320050542422125 0.01650005656831729 0.016858572454293563
-0.002787953947230859 0.016515169288548473 0.01560646175504482
-0.0027564846893038952 0.01655208359237999 0.013947617089147546
-0.002699325761680693 0.01659027775888005 0.012260573772250871
-0.0026708544555538727 0.016627382937999605 0.010589384864047036
0.006041479849615505 0.015367743345949064 0.020007051149861066
0.003770508796495431 0.015310435477579853 0.020153580092485357
0.002347203988644686 0.015286508582345502 0.01964850799830309
0.001993114967544285 0.015304982849591857 0.018306813799582322
0.00045797058357882614 0.015276486914731813 0.017895917719620957
-0.001199171007233768 0.015242998779431163 0.01758815854351181
-0.0025013395139076855 0.015223568586558444 0.017003591017274222
-0.002710546216316778 0.015247875167116788 0.015544209855250013
-0.002660050096573774 0.01528272107636928 0.01386964937744456
-0.0026082112353489895 0.015317771369189973 0.012186514257045422
-0.0026062631253207513 0.015350959941100945 0.010536604005001282
0.0055267018722713335 0.01406845914533891 0.020405822020918007
0.0033361343206606553 0.014018804810484864 0.020491877741099285
0.002478709911501842 0.014017414627474556 0.019545538501882065
0.0016438919333943702 0.01401684227955389 0.018581724832412383
-5.7554605662257785e-05 0.01398462103925571 0.018303920053446776
-0.0016449063185930979 0.013956437273957662 0.01794281735940223
-0.0025908148968077915 0.01395165651780146 0.017075165097837408
-0.002604335777373068 0.013981122350445317 0.01545879459343813
-0.002551364029124148 0.01401316401520785 0.013781776304793603
-0.0025148291253082045 0.014044737206840867 0.012110611609279898
-0.0024134724058419987 0.014078844672455617 0.010379064908757063
0.00497812177045881 0.012771451206082007 0.02083077758364993
0.0029578403546450804 0.012731889652384846 0.02078649900986046
0.0024427335635824887 0.01274191497399118 0.0195737080804671
0.0012068538372005944 0.01272810641394234 0.018925764551049995
-0.0004905487064706393 0.01269891773299762 0.018646604770604314
-0.002084077478606061 0.012673059891601423 0.018292253268144598
-0.002572039601824172 0.012683950062649404 0.017060146168248025
-0.0025290674834114735 0.012712626010579483 0.015398263245495203
-0.0024725832732269137 0.012741877816287411 0.013718081783049452
-0.002421401158071934 0.01277107789503508 0.012034671687966403
0.006983551356185058 0.011529322085036178 0.02089647927926619
0.004303330247696635 0.011474315741413138 0.021353502360459575
0.0027577346410287418 0.011452760091452656 0.020942344475367025
0.0022719375705936296 0.011462642233263008 0.019707441809007187
0.0007507063805673453 0.011441696322631874 0.019284847303798813
-0.000920346127774252 0.011416184759170705 0.018986759538254683
-0.0022607875836873625 0.011400462985751014 0.01843285643560033
-0.0024836603860417528 0.01141820690900115 0.01698944894510701
-0.0024294018727379907 0.011444360337236984 0.015318111385527633
-0.002394880160065005 0.011470031582601296 0.013655258539295168
-0.0023635418020350185 0.011495717431542285 0.011987642569441515
0.0062200420564048065 0.010228223359025226 0.021484759068664094
0.0039329688038809985 0.010189639091887848 0.02164040149378732
0.002710548936645074 0.010178986023037961 0.020979093441361174
0.001974529925187485 0.010181150441702381 0.019940312806859484
0.0002533120571183156 0.010157215244813998 0.01967639990431963
-0.0013868080573452013 0.01013533166305218 0.019355931714275854
-0.002340253655069735 0.010131629932777221 0.018496085311710708
-0.00239745110738393 0.01015181657938983 0.016920487520679983
-0.002340766375949488 0.010175133858961051 0.01524683002901206
-0.0022727111360599794 0.010198856080466777 0.013556484448245587
-0.002262245587702716 0.010221134693998128 0.011905307196283965
0.005679751306198744 0.008937272744729151 0.02190105017191102
0.003574574460152302 0.008907676348964068 0.021918030356948726
0.002754363850699937 0.008907624461426214 0.02094496969969678
0.001547739995140629 0.008898631070175349 0.020274490486614893
-0.00020168665151226728 0.008877012626956587 0.020034578353889776
-0.0017704237056659355 0.008859500773355703 0.019659536820434476
-0.002332529242712378 0.008865356074344403 0.01848993921812042
-0.0022990363857094964 0.008885136262857026 0.016841762591102483
-0.0022587417775868923 0.00890516048866145 0.015180865208474337
-0.0022004834793616923 0.008925691940728725 0.013498088130544594
-0.002133042554428699 0.008946527646843075 0.011800288661999891
0.005116039957243468 0.007649409899676036 0.02233538671992691
0.0032539356318843637 0.007628818651789882 0.02216641204861075
0.002596003124630708 0.007631972481036187 0.021068303514739817
0.001029251005546572 0.007617114568625473 0.020680468780203576
-0.0006367607181351209 0.00760022051670364 0.020377071973487315
-0.002028680432527019 0.007588713790975607 0.019863929058650143
-0.002261891506349145 0.007600286621970833 0.01843373479523236
-0.0022072104916672775 0.007617667930137857 0.016768308265175835
-0.0021500601889059556 0.0076351733956458966 0.01509346262880662
-0.002121557333882418 0.007652178694363029 0.013434276060805495
0.006971107505682861 0.006391479993602298 0.02251839316536841
0.004542668551068274 0.006365091603277339 0.02277716628982679
0.0030752839445384317 0.006354408619656188 0.022304803922611027
0.002287517318136534 0.006354889230538316 0.021308557094942004
0.0005811719003127602 0.006340189630828638 0.021031315942219464
-0.0010509360442350069 0.006326657039024632 0.02070311394534069
-0.002126814460996218 0.006322299279694909 0.019941595317212846
-0.0021525721055715152 0.0063353906052946 0.018346752480289885
-0.0021142331521974422 0.006349606509059165 0.016693932863025396
-0.0020568551489142384 0.006364201529410377 0.015018506410074683
-0.0020359243859242593 0.00637824919524938 0.013365041517373943
0.006432148028942375 0.005106117722760066 0.02293143034183731
0.004214338255521033 0.005087759470974375 0.023030143008215265
0.003083145635609741 0.005083630406153555 0.022298713892472843
0.001865412557423174 0.005078341986628152 0.021637298897147716
0.00012191948912804174 0.005066079292489644 0.021390911833282122
-0.0014156404798123523 0.005056493100633635 0.020990212055310264
-0.0020397092494284785 0.005058996077703174 0.019872657600201626
-0.0020155582115295445 0.005070135756936598 0.01823773445056892
-0.0019846533155411517 0.005081413248674594 0.016590278009951942
-0.0019525001695125388 0.005092755861850057 0.014934583323270634
-0.00194023686355832 0.00510388091172262 0.013287677814721344
0.005889002551852152 0.0038242474261397734 0.023347675503024523
0.0038291759144635784 0.0038120242229028813 0.023326908510543087
0.0029214838419397426 0.003811126422736262 0.022423944607685264
0.001425261086699714 0.003804400855667786 0.02198009575990889
-0.0003240461494077862 0.0037951369223543866 0.021740104145106742
-0.0016749299723001765 0.0037897930311984233 0.02119432671903887
-0.0019327027759963311 0.0037953127476114223 0.01978796941850669
-0.0019293215334925118 0.0038034624949095795 0.018169118396737183
-0.0018682886327205939 0.0038122237923058104 0.016497194360427903
-0.001848088004096582 0.0038206134483200517 0.014850614247028715
-0.0017899327219983996 0.0038294204660864637 0.013166156380917005
0.005403955410628158 0.002546318569068497 0.023719396402853754
0.003503176070683567 0.0025392078855881422 0.02357808962843888
0.0026590719607308966 0.002539023434267222 0.022627221008484744
0.0009593975763990126 0.002533193854089418 0.022342917562011566
-0.0007280669063578493 0.002527420222580018 0.022056453500199913
-0.0017884649745332215 0.00252577648744094 0.021283702337695387
-0.0018201156485160852 0.0025309560101986167 0.019698864537252836
-0.0017888269756284325 0.0025365764585862306 0.018057330902542135
-0.001752962102888389 0.002542251509807628 0.016404941161059117
-0.0017269426586635772 0.002547885147687434 0.014753188217154767
0.00727435169473345 0.001276600298026395 0.023892793518658695
0.004941569911222077 0.001271643705949507 0.02407375031879172
0.003332526552734416 0.0012690434173962075 0.02370957415981112
0.0022448746080968585 0.0012681483417125658 0.022948077467713046
0.0004857782474002037 0.0012650346522875553 0.022711779717253244
-0.0011102696237572651 0.0012624467034247108 0.022355719270792718
-0.0017135174119300434 0.001263136517633055 0.021224703045470916
-0.0016842603082856122 0.0012659290045650808 0.019591344483851858
-0.0016471213056485912 0.0012687596560806069 0.017944579761137724
-0.0016264662795118512 0.001271547483370238 0.01630375330402184
-0.0016046077948514426 0.0012743513058710175 0.014654805567340334
0.0066936138451637595 0.0 0.024335457169851804
0.004485916526909439 0.0 0.024422945008609975
0.0032035168142925396 0.0 0.023808975466098725
0.0017367418867179074 0.0 0.023341700615622796
1.1417848755912452e-06 0.0 0.023089222188728054
-0.0013517893710404127 0.0 0.02254482989192036
-0.0015778756115327197 0.0 0.021117924786892006
-0.0015715263141078406 0.0 0.019502123367821145
-0.001534124156658323 0.0 0.017854671167318537
-0.0014976650438464634 0.0 0.016200721277565555
-0.0014710620196319302 0.0 0.014547407015298774
0.006214386768199021 -0.0012731333151141404 0.0247007448944197
0.004221362647934601 -0.0012692830551371095 0.02462568861348452
0.0027644085204971414 -0.001267177343645281 0.02414730603348164
0.0010664994970175923 -0.00126426959248107 0.02386090142320013
-0.00046569845556460043 -0.0012618961232114631 0.023452804683569084
-0.0014134988104418378 -0.0012614443501655504 0.022593148551350584
-0.001405703233313238 -0.001264156193628109 0.020982389379165134
-0.0014023002901319415 -0.0012668650282601432 0.019368192739081358
-0.0014066450789125273 -0.0012695596730104475 0.01775323971772963
-0.0013654423115291858 -0.0012724177195154234 0.01609495229185781
-0.0013708413017098353 -0.0012751323412167831 0.014466808733760439
0.005770282655858605 -0.0025433614371785816 0.02503926036749271
0.003926838755510975 -0.002536635365886148 0.024851400048535255
0.002184571878670827 -0.0025305455565263917 0.024594067032511935
0.0003365749303458898 -0.002523733933518167 0.024426334810151218
-0.001029474456580859 -0.0025200729175816022 0.023891882267771614
-0.001271316737147421 -0.0025238286933846658 0.022481819600006503
-0.0012134813569065206 -0.002529585909054187 0.02083107085373015
-0.0012262787800932373 -0.0025348987350110575 0.019228883955731635
-0.0012435694525536611 -0.0025402043868476094 0.017623485114333648
-0.0012475868792027889 -0.002545621283012222 0.016000676146456394
0.015280512902068666 -0.003875767096422332 0.024280793381175225
0.012608722683384865 -0.0038578119413800525 0.024672135292312325
0.010098627611417443 -0.003841361598908138 0.024956520674264404
0.007654312183006773 -0.003825486340391283 0.025204781195706183
0.005478542217643323 -0.0038121794409115995 0.025261637620287103
0.003546420518189597 -0.0038012123147374093 0.02514293750432095
0.0014997346126811029 -0.0037890699650501855 0.02512173044502597
-0.00035969400346058666 -0.0037787253665871948 0.024965696984610097
-0.00176506171680052 -0.0037728301797393953 0.024464769152997667
-0.002739818513406045 -0.0037711802182298373 0.023631660497735463
-0.003925230316033257 -0.003767429760742746 0.022965780292195537
-0.004765066012916319 -0.003767104928075795 0.022029587936909456
-0.0010692462574746209 -0.003812046396833159 0.01748478114277613
-0.0011096258498337064 -0.0038198117825671376 0.015890316922381797
0.012824807576255925 -0.005135828463918972 0.026112621229100075
0.010409742248243481 -0.005115159469124538 0.026321362148872374
0.008130345356047675 -0.005096171496991356 0.026440726552959426
0.006036224416151648 -0.005079522800766974 0.026431524596963907
0.004095928243688152 -0.005064816647119881 0.026315526135311684
0.0021011737315239642 -0.005049334524284645 0.026250517346269986
9.760981593853746e-05 -0.005033671281937002 0.02620206002368941
-0.0016767566711550774 -0.0050209594714375316 0.0259859547468842
-0.0032843900277014226 -0.005010393690682767 0.025648045850051704
-0.004874453084637076 -0.005000015330929073 0.025303085191521635
-0.0063729885523152174 -0.00499080556341396 0.02489267422258179
-0.0077387147634188636 -0.004983320040592435 0.02438302411326676
-0.008905422787701678 -0.00497845088013925 0.023719802283109548
-0.009882956787444608 -0.0049760836236594575 0.022908371218241186
-0.010375957691430626 -0.004980181677761362 0.021708793436246654
0.014339080969797469 -0.006430935805690496 0.026585037574872183
0.01158862192031096 -0.006399737312976255 0.027034751130421086
0.009194038648961511 -0.0063741920518211505 0.027233135165817712
0.00692049003163453 -0.00635051096525868 0.027353031879070788
0.004805300674429247 -0.00632931492134165 0.027364741946813986
0.0028724484524927374 -0.006311011733960777 0.027248115653857485
0.0008401677656430517 -0.006291001918638013 0.027216902327211134
-0.001086071679708256 -0.006272649154706644 0.027114080219348635
-0.0028574341194133046 -0.006256767701179229 0.026900562199417943
-0.0046057954664081024 -0.00624119825661601 0.026677177112704786
-0.00620479857228845 -0.006228031238456374 0.02634474933830122
-0.00767533555751343 -0.006216935953470824 0.02591789170622716
-0.00890151201556072 -0.006209849339460889 0.02530329726876196
-0.00986425023462456 -0.006207114452086836 0.02448271380997924
-0.010630478479900118 -0.006207643597325216 0.02350633655914669
-0.011147429881425697 -0.006212339299627216 0.022329217377098254
-0.011515030899839407 -0.006219555550995304 0.02102893289654917
-0.011336815604121753 -0.0062359603772194185 0.019281279866844026
0.01343108739415566 -0.007699488894064432 0.027258692705409482
0.010842087195341521 -0.007665156154540097 0.027591627024392384
0.008466391773280346 -0.007634839839002201 0.02777886751990677
0.0063070643033639184 -0.0076086250378277894 0.02781559260660782
0.004296952975776536 -0.007585222471779531 0.02775014266341347
0.0021325147092643437 -0.007558692821154122 0.027812125340261007
5.581104181612284e-05 -0.00753377680669211 0.027818002225320715
-0.0018194343913731092 -0.007512725909049539 0.02767913222551882
-0.0036495351462647596 -0.007492477523789269 0.02751416035307691
-0.005368608304562983 -0.007474340678981075 0.02727126770466326
-0.006919985369995829 -0.007459452773414117 0.026904742552347483
-0.00814581434685141 -0.007450971997382359 0.02628825619325581
-0.0090237723733389 -0.007449383998433805 0.025400057839048196
-0.008707091366990938 -0.007471635177093187 0.023561995654308665
-0.008459183551978389 -0.007492606013919424 0.021769451696961373
-0.009297125582777899 -0.007491899380210403 0.020841188256114584
-0.01041600948554372 -0.00748554566787186 0.020140370168597432
-0.010934260690208253 -0.007491257101821774 0.018954076039218726
0.012683776670003477 -0.008965804668903402 0.027813134627616753
0.010221172535555656 -0.008928584323809103 0.028054796914128266
0.007916456706743125 -0.008894800792107709 0.028191316701629054
0.005866862058798883 -0.00886669257525395 0.028147532173413203
0.0038357704712354 -0.00883888916948736 0.02809978537489688
0.0015193589022363119 -0.008804436186949968 0.028279499368818573
-0.00047629403859422714 -0.00877719756667476 0.028225786464177782
-0.0023964759448503736 -0.008751579202592402 0.028123739624081157
-0.004240637458972907 -0.008727604037030528 0.027972055590434364
-0.005937360870066077 -0.008706931565102456 0.027714221115273052
-0.007267481928662556 -0.008694654119093901 0.027176833305954273
-0.008236360658919806 -0.008690701035490024 0.02635953493988913
-0.00593877208571747 -0.008762637004691407 0.02295849466527594
-0.006164674010994631 -0.008776114550818939 0.021539067010340474
-0.006303575499669145 -0.008791680236726671 0.020045115243762734
-0.007505972446382458 -0.008782440128046624 0.019400728960286606
-0.008827140021746172 -0.008770376502069785 0.018855763547882987
-0.009827271128682147 -0.008765801511977724 0.018054295141871735
0.012029441089452864 -0.010229690173281358 0.02829859678589186
0.009618235007073761 -0.010188451014597914 0.028504556803322867
0.007413421558022826 -0.010152406314654777 0.028568591125632647
0.005410781334207249 -0.010121478753697363 0.028491445090756018
0.003203992051002136 -0.010085090702873235 0.028578764342511498
0.0009478823367475298 -0.010047259086617322 0.02871510366641683
-0.0010178708408542514 -0.010016881757837687 0.028640829455163663
-0.0029076957531037895 -0.009988371342857582 0.028517631723655956
-0.004713488591107484 -0.009961953088267111 0.02833834798470969
-0.006304150131753172 -0.009941099840011283 0.02799988234001949
-0.007519415719135558 -0.009930085233555958 0.027374098151315085
-0.006072654156130397 -0.009989570312480897 0.02465624869798677
-0.00609968174671488 -0.010010168911993446 0.023085843471100043
-0.006200357001016066 -0.010028895518831816 0.02156745894309947
-0.005837341935137519 -0.010060069684054858 0.0196721608329804
-0.006726881380542282 -0.010057898551089805 0.018774177860169994
-0.007976417454790663 -0.01004607510852253 0.018167951322396403
-0.00878790648780714 -0.01004595961338337 0.017209480988477188
0.01408682323664412 -0.011544316865572793 0.028366511767397518
0.011384180383863185 -0.011489604107813595 0.028777326147547744
0.009019425580414187 -0.011444526874564591 0.028951237344275682
0.0069105481510168265 -0.011406746492425934 0.028945744243973504
0.004938937286646683 -0.011372831793102993 0.0288472445231322
0.0024776616617843694 -0.011324390461021102 0.02912942731046514
0.0003770013696886565 -0.011286361094668676 0.029150253972983153
-0.0015513662748839474 -0.011253254052603917 0.029049679205915502
-0.0034132107961903357 -0.011221973761947506 0.02890712833249881
-0.005161497396452275 -0.01119392519900239 0.028685396361701698
-0.0065932169574228205 -0.01117515571027886 0.028225012113651804
-0.007702815755557257 -0.011165889669514251 0.027517700880254126
-0.005939018406173724 -0.011242250779600374 0.024551049617596687
-0.006195730075703565 -0.011258570358117236 0.023161859043578925
-0.005975333033620189 -0.01128924495150918 0.02138841381970502
-0.006115052452073888 -0.011309245582887616 0.019894309923246145
-0.00642778772278213 -0.011324129564655666 0.018533644412253414
-0.007520971096659612 -0.01131555916575892 0.017799721319638973
0.013294463936107392 -0.012801424742620483 0.02895119478006214
0.010742172799191041 -0.012745446153998852 0.029253641966139887
0.00841788969035906 -0.012696629740509908 0.029399951684447867
0.006295050477428621 -0.012654156967445668 0.02940736512845704
0.0042422608520014116 -0.012613787968290062 0.0293725814035658
0.0018425617060258137 -0.012561926504151411 0.029610924480040823
-0.00016365567228898703 -0.012522717152618656 0.029562366289103803
-0.002064865563914442 -0.012486784451981878 0.029443204703866965
-0.003857947459092237 -0.01245425165468262 0.029249795527862055
-0.005547268275891304 -0.012424996599483248 0.0289842323577868
-0.006860476161481777 -0.012408023899622646 0.028433157769838957
-0.007890295554373095 -0.01240034675205889 0.027664498074279842
-0.008358794894099408 -0.012411231394336154 0.02645591610251463
-0.006202203482710611 -0.012509307722203027 0.023166982295016125
-0.005690422502016013 -0.012553083912572902 0.021161718673060104
-0.005804770942525572 -0.012576172999795963 0.01964610630520225
-0.006462489613350775 -0.012581206760882386 0.01856155194279152
-0.00743450579954158 -0.012575738620140317 0.017729813818947004
0.012549215339489994 -0.014055087715362869 0.029501114739806655
0.010109121721862735 -0.013997450970354338 0.02972331280696383
0.007822733145810057 -0.013945057970525122 0.029843907366230937
0.0056410323383525585 -0.013896189028976396 0.029897876213687447
0.0034400500958949864 -0.01384642462995694 0.029977497653213003
0.001253672545582396 -0.01379697577903054 0.030057387216144593
-0.000708261241691932 -0.013755394332520439 0.029977488344589964
-0.002563953748189518 -0.013717468213059305 0.02982568610244757
-0.004354472034477308 -0.013681736769551117 0.029632365029926333
-0.005895825053825299 -0.013654875823425958 0.029254240586706448
-0.007109220296814267 -0.013639800742572594 0.028626883600362918
-0.008062696719118578 -0.01363411265220455 0.027799488656685134
-0.008907168721054737 -0.013632372348634816 0.02688760015655256
-0.005620869159696673 -0.013781466928692945 0.022706896608665983
-0.0056437992123309355 -0.013810098475111117 0.021124621857323833
-0.006108548291841542 -0.013822649796677047 0.019889107047624033
-0.006968193610485285 -0.013820741797940676 0.018968243034026555
-0.007443154121104634 -0.013832993954869135 0.017736806017734308
0.011924354288716965 -0.015308602598868355 0.029962200564653152
0.009524902379763556 -0.015247254356109241 0.030156754593031576
0.007279137585050555 -0.015191632237248195 0.03024940124847353
0.005049698374256895 -0.015136414463300883 0.030341374409122768
0.002767603087443671 -0.015078907369947237 0.030484564056078467
0.0006819805764553544 -0.015028854380187882 0.030490812006223666
-0.0012316784557640514 -0.014985340516006055 0.03037645971394387
-0.003066068189268023 -0.01494476118205951 0.030210486704269457
-0.004803459927209652 -0.014907833758290127 0.02997830777489985
-0.006194534556760389 -0.014884429355056983 0.029485634806973915
-0.007271313919443689 -0.01487336646846116 0.02875312465374308
-0.008216872067082992 -0.014867461741363452 0.0279202083748204
-0.00906627869854415 -0.014865354046584617 0.027012852742916593
-0.009708015280725901 -0.014871510192927047 0.025941588512900793
-0.007248360934718923 -0.01500150525205038 0.022401325645385273
-0.007314472264845107 -0.01503100870217021 0.020853762317031066
-0.00798736932619687 -0.015036310953266565 0.01978787207854993
0.014147579884384864 -0.016643120030956745 0.02990963561224913
0.011571794168267535 -0.01656951502482005 0.03022235516021371
0.009301278717581296 -0.016508449100577555 0.030322664607573435
0.007039530650970627 -0.01644749822946601 0.03042813550041734
0.004722826285825432 -0.01638397052068355 0.030586527216435677
0.002164951499855905 -0.016309964932071267 0.030939000418882923
0.0001284371408918905 -0.01625777106887899 0.030910477595938124
-0.001741693293628721 -0.01621243254698363 0.030765215209145547
-0.003554976504744789 -0.016169325272635426 0.030585166654973683
-0.005228852373279358 -0.016131988742001915 0.030306070355731962
-0.006459657143375985 -0.0161134536319814 0.02969101104576921
-0.0074566969430758245 -0.016104864146758054 0.028897503857579054
-0.00837304460303262 -0.016099705722959285 0.028042491896597632
-0.009163799209645829 -0.016099933902418113 0.027089621632157668
-0.009835040148690577 -0.01610532080510983 0.026042119861640067
-0.010193705324660463 -0.016124249158890106 0.02474485178546265
-0.009913765087041726 -0.016170936510828793 0.022933015714256766
-0.009195631332004628 -0.016236856978222573 0.0207595657895433
0.013884737434006367 -0.01791149855775733 0.03010253652486411
0.011524603533864808 -0.017841959077169636 0.030257177193946938
0.009237433032322828 -0.017775436602392357 0.03037003275487188
0.006954834479906469 -0.017708844350798853 0.030491314418155113
0.004531660146909422 -0.01763557696093392 0.030729901084309563
0.0015829255560676492 -0.017538037171676447 0.031377883777693294
-0.00036116848385270295 -0.0174859959315268 0.03128166912316993
-0.0022416638034077896 -0.017436648165557653 0.031146314480549442
-0.004013533794613666 -0.01739207709434771 0.0309365867828878
-0.005536556896002631 -0.017358761092853146 0.030543155027623337
-0.0066785294148459795 -0.0173428638803831 0.029860559647662765
-0.007633386187935465 -0.017335540301487522 0.029035112210271774
-0.00849406842591105 -0.01733254384221251 0.028137253880134105
-0.00926126887106199 -0.017333870016802044 0.02716635049213889
-0.009835040148668484 -0.017344191636273147 0.026042119861622637
-0.010160891855533205 -0.01736610431233555 0.02471874304826066
-0.010081527877865981 -0.017407024367785053 0.023067214273869152
-0.008181946475520507 -0.01753326137678024 0.019944352536755194
0.013841738842083895 -0.019188812282299496 0.030134093328611278
0.011399200380553254 -0.01911030875486081 0.030349712352461755
0.008940140448142453 -0.019030676404908332 0.030590598935048008
0.006050320518877106 -0.018929754003725402 0.031166034566877387
0.0029902447163636103 -0.01882010903526459 0.031885956720161035
0.0009421972984270388 -0.018759449884487335 0.0318610322916027
-0.0009378850883189349 -0.01870675973068778 0.03171890330997784
-0.002773883260060561 -0.018656010909743528 0.031551995302098235
-0.0044559327950269845 -0.0186126172942506 0.031275623838342315
-0.005810602398357567 -0.018585170410957273 0.030754305606217724
-0.006868368336555575 -0.01857226674143982 0.030007617671708786
-0.007815223644355218 -0.01856479607899103 0.02917673007080218
-0.00861501408480253 -0.018564585725356905 0.028231954661055547
-0.009318455657870262 -0.01856916200523191 0.02721136836635779
-0.00979059127898374 -0.01858527582354445 0.026006941672572337
-0.01000521383538966 -0.018614308985214732 0.024594874508171494
-0.009670347137651025 -0.01867094598027089 0.022738298291927805
0.010923500849459644 -0.020317559723190853 0.032275797498521
0.008480103692376229 -0.020233465756198346 0.03250371779512723
0.0062520893379896525 -0.020160176346585942 0.03258490756242022
0.004193705014854943 -0.020095384638173168 0.03255097271373392
0.00221253303257668 -0.020034337662219733 0.03246923748749514
0.00029812329150380457 -0.019976514338471075 0.0323467037062497
-0.001569399253904702 -0.019920897007639764 0.03219768193453837
-0.0033434719999715368 -0.019869936370069077 0.03198616061692022
-0.0049369835328534895 -0.0198282303136243 0.031644282053041095
-0.006154735771954578 -0.019806096001651327 0.031019458510842035
-0.007095283576952716 -0.019798467200315983 0.030183396729966283
-0.007985204497186149 -0.01979347800369838 0.02930911382265955
-0.008761317516548184 -0.01979448685253355 0.028346510647312362
-0.009362922172792887 -0.01980474931763678 0.027246372745646452
-0.009756718365995565 -0.019826093380294653 0.025980133617716672
-0.009831378745009722 -0.01986451595797752 0.02445655890753773
-0.009101490505352139 -0.01994602018106281 0.022283252567513345
0.0122026651082342 -0.02161272192005807 0.03291066028852757
0.009752252100207859 -0.021523225207154946 0.033135380691055094
0.007458399504407909 -0.021441953853991384 0.033257634714217776
0.005366109248604811 -0.021371435475005543 0.03324223053119357
0.003406118074193276 -0.02130791810505125 0.03313847141539045
0.0014665408305195027 -0.021245263313339566 0.03302872876570562
-0.00043656758080712343 -0.02118436550269343 0.03290070581074084
-0.002263824230898659 -0.02112742100134034 0.032724156008223204
-0.003987735258811798 -0.021075983523833372 0.0324772460984315
-0.005387929444721273 -0.021042367303814813 0.031989869122600656
-0.006423619860018215 -0.02102896273064326 0.03122663224761779
-0.007332558944863121 -0.02102259410186023 0.030367201222983198
-0.008159275108284125 -0.021020809197775152 0.029444682742343575
-0.008865144746122433 -0.02102580769552334 0.028427807651369486
-0.009414786400894104 -0.021039625426691713 0.027287200661104405
-0.009697425971534335 -0.02106857038057162 0.025933207811135006
-0.009573507921518454 -0.0211206322557755 0.024251378481887353
-0.007890922647723841 -0.021261257606859055 0.02131488251353114
0.013312794382356108 -0.02290098454356527 0.0336719062655238
0.010789738888269396 -0.022802248153120225 0.03394198557577954
0.008514417695179688 -0.022717476479418082 0.03404383130872474
0.006389315753657143 -0.022641086805640927 0.03404651307755163
0.004381833917896483 -0.02257123213381366 0.033972480330509924
0.0024892836035452226 -0.022507796367965408 0.03382238202046872
0.0005755929241137991 -0.02244285868882824 0.03369693626385273
-0.0012629951922826232 -0.022382052262017855 0.03352388305878112
-0.0030625293944850918 -0.02232328517012922 0.033329689471271684
-0.004644821693010059 -0.022277061137168385 0.03297810596201223
-0.005832464340482124 -0.022253926374156175 0.03233054304357402
-0.006733640008686093 -0.02224763095236278 0.031465501096785586
-0.007587588151662161 -0.022244107072005276 0.03056475866214342
-0.008351202140135905 -0.022245931800233175 0.02959415852232844
-0.008998552281052119 -0.02225468206688335 0.028532266115231963
-0.009443358497076726 -0.022275546771170468 0.027309692832878818
-0.009604214141030798 -0.02231346789175021 0.02585943712993588
-0.00922699749820255 -0.022383772280289364 0.023975670066388233
-0.004609882442902669 -0.022708817584538833 0.018690278646644187
0.01420694199967304 -0.024177908232992637 0.03459140609893002
0.01164177868259092 -0.02407134288856577 0.0348849906889222
0.009390280238496473 -0.023983507459580465 0.03496348059341059
0.007223678852236681 -0.023900507544522564 0.03499110866210797
0.005214604389722932 -0.023826830695581173 0.03491333420126558
0.0033417003128318745 -0.023761221686850003 0.03474417228769233
0.0014494506206532143 -0.023694146870374255 0.03459804308828107
-0.0003962076056919228 -0.023629669106499752 0.03442578291813042
-0.002212389494300193 -0.023566745522733062 0.03423978475449052
-0.003929836025173716 -0.023509681048202075 0.033987232719455474
-0.005297497628828973 -0.02347411438757978 0.03347560395187038
-0.0062631755323308 -0.02346343220568494 0.03266062302589601
-0.007061215761172912 -0.023463166934300606 0.03171789644382361
-0.007843331807791343 -0.02346389644761181 0.030762869546855476
-0.008540815244115929 -0.023469933247681957 0.029741832179026484
-0.009086379885436147 -0.023485537163444845 0.028601035369108962
-0.009424310918500933 -0.023514276003149065 0.02729469843392135
-0.00946430908826379 -0.023561929419759674 0.025748712010709385
-0.008750827648682014 -0.023657413523280327 0.023596795360503575
-0.004568355924572887 -0.023973049046591872 0.01865706032142328
0.015079398946866496 -0.025453914090252786 0.03552708192312609
0.012294506002361372 -0.025327900149795978 0.03597219912704047
0.010088090108881675 -0.02523850560996344 0.03601290074257618
0.007933201539032597 -0.025152056393535693 0.03602703372664551
0.005915751345458631 -0.025074109334515066 0.03595100083069952
0.004030345111385059 -0.02500436890107812 0.03578720074408981
0.0021542986972688527 -0.02493494418653763 0.03562512476554097
0.0002940950539656595 -0.024866257723604446 0.03545987796686639
-0.0015050016576327319 -0.02480125662290333 0.03525737418635255
-0.0032269830788870246 -0.024741006864830377 0.03500485071930415
-0.0048070850722498615 -0.02468976613775843 0.034652313750166086
-0.005872335434825016 -0.024671989963961676 0.033913770333198145
-0.006684404227448815 -0.024670736143038916 0.03298343599864756
-0.0074539787689448245 -0.024672268609741307 0.03202051821878016
-0.008117788505501433 -0.024680770287324842 0.03097547642055648
-0.008663590558352474 -0.024697093190173623 0.029837451517695623
-0.009157246786398288 -0.024716932919557774 0.028656524345928025
-0.00939679432012186 -0.024753692525889017 0.027273037158058566
-0.00923833200773333 -0.024817034506847253 0.025569866867597546
-0.007569569352620098 -0.024981136813594717 0.022656901980137478
-0.004544310090046189 -0.025236391813614006 0.01863782532692715
0.015244320727833272 -0.026682850313484708 0.03696847670313258
0.01270936066024192 -0.026567496931017027 0.03722894666853488
0.010494613916215478 -0.026473210319813027 0.037271734613401775
0.008397941126651542 -0.026386494228748923 0.037239875093477925
0.006415427697915255 -0.026307131181097582 0.0371348895513558
0.00454119127625463 -0.026234768696978033 0.036959794849366345
0.002683836440860732 -0.026163250838417612 0.0367807913355398
0.0008442220802979961 -0.02609264125879843 0.036597091812549665
-0.00095298085503015 -0.026024626099695344 0.03639013142788322
-0.002709636840688423 -0.025959094358544866 0.03616084593376029
-0.004352738227229425 -0.025901055368964015 0.03585373934012198
-0.0055430143265299825 -0.025873811150519063 0.03521025403929845
-0.0063732214098757844 -0.02587118471485788 0.03429556741205514
-0.007104692080074193 -0.025875343486218987 0.033305527947011526
-0.0077855948716190615 -0.0258830078812352 0.032276026633803134
-0.0083749254930644 -0.02589703452289484 0.031174666644350535
-0.008852887687626265 -0.025918835173995868 0.02998487908834102
-0.009192141507196716 -0.025950357260520945 0.028683847007526075
-0.009290923463439793 -0.025998742093603686 0.027189694813164522
-0.008854712994084524 -0.02608462976224421 0.025266259098015775
-0.00409655397679376 -0.02647282842052706 0.019893523155598336
-0.004514795116607795 -0.026500277823463356 0.018614215401848044
0.015209831148180641 -0.02789383899974532 0.03854640972546153
0.012876015105401872 -0.02778723601234248 0.03865982173732757
0.010724390842410614 -0.0276930088230301 0.038654303454006333
0.008688535717173707 -0.027606552622598535 0.03857573651932944
0.006715567047348492 -0.027524180818461485 0.03846120520439106
0.004868401854585758 -0.027450371278840025 0.03826409704266964
0.003046511353251291 -0.02737804823117853 0.03805674521183422
0.001218913985549741 -0.027305019316962754 0.03786175962090116
-0.0005707872407900161 -0.027234385102646894 0.037646910131181766
-0.002345873899256057 -0.027164499228002122 0.03742915685197368
-0.003986865596064926 -0.027103910140250796 0.037118762580800546
-0.005298546163247098 -0.02706666489901955 0.03656693669528993
-0.00619548073282522 -0.027059045311622117 0.035704917477747566
-0.006891843788531082 -0.027065826535847593 0.03469088394927772
-0.007510290546718701 -0.027078254897487705 0.03361636253230571
-0.008094434407604989 -0.02709321455277474 0.0325139858272796
-0.008556718831113086 -0.027117062009123172 0.03131549218653873
-0.008969120592300317 -0.027144630523657457 0.030075403095920494
-0.009176281077941106 -0.027187241978497624 0.02867142824814256
-0.009118225302068628 -0.027249363322490363 0.027053745504935278
-0.008224980345589161 -0.027372746555683565 0.024767869503026896
-0.004205853117530967 -0.027725439731117234 0.01998048935020713
-0.004558519361504643 -0.027758988794606837 0.018649191755403305
0.015036012471239757 -0.029089480049548606 0.040216147830029914
0.01279536915463747 -0.028984934524082445 0.04026130011733753
0.010697509189790622 -0.028890437393781207 0.04021561974221122
0.008686245596397968 -0.02880191923436029 0.0401178441739124
0.006758549842505568 -0.02871919383753756 0.03996920068954968
0.00494914092968235 -0.02864486044949621 0.03974355342453406
0.0032094711425851297 -0.028575379320049672 0.03947498630844298
0.0013964333604624124 -0.02850017088219826 0.039267742713328
-0.00038976832595294386 -0.028426643853776228 0.03904880850096426
-0.0021323871245895187 -0.028356055475983036 0.03880548636100195
-0.0037873800468549157 -0.02829170982822053 0.038504445110858154
-0.005184399918190363 -0.028246380844544113 0.038016908709860964
-0.006108360895567433 -0.028236301009442587 0.03717758681068095
-0.006745238990006341 -0.028247730661728646 0.03612171335748815
-0.007361504604005531 -0.028260759040905883 0.035048879853202874
-0.007891790466263371 -0.02828032415835007 0.03390872894646507
-0.008335229859256721 -0.02830653289588544 0.03269951742149391
-0.00870667113016993 -0.028338303299659667 0.031431652184719716
-0.008991302301821436 -0.028376794494561947 0.030092678558892416
-0.009112825900600252 -0.028427850120291403 0.028621742671142425
-0.008829686208066179 -0.02850995471380618 0.02682660533207365
-0.007120248280497954 -0.028701312118223188 0.023893550904796945
-0.004272494636374247 -0.028980587818566425 0.020033514097315575
-0.004588027516550464 -0.029018498314386583 0.01867279622624285
-0.0046615127023388325 -0.029075171827128907 0.017113192290942103
0.014695378234225787 -0.03026645020293744 0.04199542373823306
0.012538635748548577 -0.03016380064721967 0.04198022783683619
