# .PCD v0.7 - Point Cloud Data file format
VERSION 0.7
FIELDS x y z
SIZE 4 4 4
TYPE F F F
COUNT 1 1 1
WIDTH 764
HEIGHT 1
VIEWPOINT 0 0 0 1 0 0 0
POINTS 764
DATA ascii
-0.01579040296768699 -0.047191647726798236 0.04800638327475848
-0.01580477822875679 -0.046736711374957995 0.04674856723185661
-0.01582199626793454 -0.046357382872133424 0.04543933430831215
-0.015842554295197882 -0.04606667214219351 0.04406943638714583
-0.015866334181039655 -0.04586084928984596 0.04264030922857781
-0.01589432836719662 -0.04576617017188778 0.04113383634425949
-0.015925274980313285 -0.04574798295886484 0.03957154148577363
-0.015956779400959454 -0.04574146888502073 0.037995388660305884
-0.015988408716856927 -0.045734928986900514 0.036412987378223294
-0.016020163672177665 -0.045728363110632386 0.03482430040891643
-0.016052094162883085 -0.04572308377124562 0.03322840796254417
-0.016084102849514503 -0.045716468069380345 0.03162703006662593
-0.016116239445042146 -0.045709825930650594 0.03001925295526786
-0.01614850471769992 -0.04570315719627255 0.028405038194125654
-0.016180949379936905 -0.0456977848354167 0.026783437804737076
-0.016213474537238082 -0.04569106506709958 0.025156224344582367
-0.01624613071482203 -0.04568431822963226 0.023522456020800386
-0.016278918705965095 -0.04567754415912062 0.021882093146265047
-0.016311839310360537 -0.0456707426903441 0.020235095712816287
-0.01634494428961354 -0.04566525009449457 0.018580479364357583
-0.01637813275272733 -0.04565839602037847 0.016920084384514422
-0.016411456268594565 -0.04565151405511536 0.015252932812288289
-0.01644491566324465 -0.04564460402811199 0.013578983322019011
-0.016478667146289837 -0.04564170763451708 0.011895275992706345
-0.016515938540588755 -0.04572657142145781 0.010140924486410796
-0.016560594420684013 -0.0459987461399064 0.008242177602087286
-0.016615227858169903 -0.046524082819129786 0.006148421955621097
-0.016684917981563154 -0.04743201480872594 0.003761054575206979
-0.011796547889343327 0.12733887451212422 0.03883648648607868
-0.011724451943013052 0.129529545262017 0.0398149202896656
-0.011678722327169091 0.1311438402820888 0.04016765017290397
-0.011646475701125382 0.13246316602928393 0.04020068361977558
-0.011624037178700494 0.1335685530583395 0.04000039997621829
-0.011610445845035622 0.13448214748062431 0.03958824400923788
-0.011605537143148464 0.13520888481727014 0.03896652598179984
-0.01160589686144443 0.13582288142776336 0.038216888022124806
-0.011618215979821519 0.13618282765394613 0.03717463768238227
-0.011641950368372943 0.13630217675591888 0.03585083055633925
-0.011691744501093147 0.1358731961414988 0.033883158528775326
-0.011781333036716832 0.13461047468404982 0.03092800537362511
-0.010963681297429577 0.16359641124134214 0.03708932422247624
-0.010948319263246083 0.1644903200193424 0.036788779679849726
-0.010932521475489393 0.165391257496796 0.03650155188020632
-0.010916541911029871 0.166294111383717 0.036221089619953295
-0.010900042435984313 0.16720554741213683 0.03595628239139481
-0.010883073153675715 0.1681244926877831 0.03570591451369998
-0.010865706236491848 0.16904945045553632 0.035468176774085314
-0.010847945740927236 0.1699802771510842 0.03524303832009834
-0.010829974757157645 0.17091332362981684 0.035025733209446686
-0.010811171422529573 0.1718607021961806 0.03483278490082842
-0.01079172240929186 0.17281864303805777 0.034659392930447674
-0.010771657161958301 0.17378647044513007 0.034504896734613544
-0.010750497958493225 0.17477333941759557 0.034382168361608456
-0.01072924606578997 0.17575973209742832 0.03426462197340291
-0.010708034290856459 0.1767430751924855 0.034148712736354225
-0.010686993357193697 0.17772086389140518 0.034030917928458415
-0.010667532358021509 0.17866613180225116 0.03387322561278516
-0.010647017686531613 0.1796294434646829 0.033746484808235055
-0.010627960395637842 0.18056279460160551 0.03358289642513029
-0.01067907011412488 0.18016119797728383 0.031517095526292005
-0.010661285297972618 0.18107012036350573 0.03131927227389297
-0.010569597337064009 0.18337309853461095 0.03313921622334243
-0.010551049507602918 0.18428862333088708 0.032971509768523366
-0.010532735934538013 0.1851977612755674 0.032799752815612315
-0.010514970832386143 0.18609466528895235 0.032615271025636994
-0.010496971323573145 0.18699404359033486 0.03243951000944029
-0.0104793893982681 0.18788371765016174 0.03225452538905638
-0.0104619706523598 0.18876847826399146 0.03206727277824506
-0.010529351746654205 0.18808137991103058 0.029531677830788083
-0.010428218859666211 0.1905123585935095 0.03166927554412802
-0.010413016710958066 0.19135077821488866 0.03142690056183706
-0.010394560494577923 0.19224729241992183 0.031277289177411516
-0.010378079706932412 0.19310567934892686 0.031074772859344624
-0.010362019710140086 0.19395462279487324 0.03086256250654057
-0.01034605017433034 0.1948001999722854 0.030649860468219492
-0.010330129786319621 0.1956431748036963 0.03043781304113613
-0.010314258319570844 0.19648355928410707 0.030226417207988576
-0.010299042443062071 0.19731042181431163 0.029998498794615858
-0.010284173974925492 0.19812940837632592 0.029762671473673397
-0.010269348375643274 0.198946033631454 0.0295275240914869
-0.010254545403486453 0.19976066621488656 0.02929362502459315
-0.01024034504499206 0.20056297570981282 0.02904441197640678
-0.010226423316115995 0.20135881426572635 0.02878903960193674
-0.010212201226630371 0.2021584809305245 0.028544057982229587
-0.010198911340618717 0.2029401639928001 0.028274100271941105
-0.010185636212147318 0.20372016349920588 0.02800541426120229
-0.010172395597389604 0.2044981351020505 0.02773742680135577
-0.01019706674372639 0.20461137071404803 0.02637427065810638
-0.017551352360076794 -0.06706357928626155 0.05123558516492904
-0.017484572347462927 -0.06448654302972479 0.05123319096172052
-0.017418245167953407 -0.06192767837812613 0.05123164341122277
-0.017352472321647397 -0.059389505971094936 0.051229282180946634
-0.017287194336488617 -0.05687043024256172 0.051226938715903225
-0.01722235342707743 -0.0543689102245587 0.05122543202027874
-0.017158048944801555 -0.05188739937389247 0.051223120437694
-0.01709422287533596 -0.049424350479975954 0.05122082605266204
-0.017075876018703338 -0.048115891930457344 0.05050457675156972
-0.017085173114816887 -0.04750584714307765 0.049350320228737476
-0.01709736195478879 -0.046967608978308206 0.04814875292834697
-0.017112403345747127 -0.04649976474114936 0.04689999232862979
-0.017130777303697962 -0.0461139160050012 0.0455958060948638
-0.017152453432113607 -0.04580880847979624 0.04423609625984487
-0.017177924231514735 -0.0455962410854337 0.04281229196698316
-0.01720748395508441 -0.04548297851804256 0.041318933021562476
-0.017240860472658468 -0.04546165102852018 0.039759741912312074
-0.017274944648254704 -0.04545457525199198 0.038185015781073695
-0.01730916385561924 -0.04544747144319594 0.03660405103461539
-0.017343518898780642 -0.04544033943521619 0.0350168105259378
-0.01737801058816348 -0.045433179059809425 0.03342325681253916
-0.017412693122479554 -0.04542730364117009 0.03182246441737785
-0.0174474607748683 -0.045420088621261234 0.0302161640634917
-0.01748236754505128 -0.04541284473141122 0.028603436328127396
-0.01751741426969229 -0.04540557179799265 0.026984242556577276
-0.01755260179217764 -0.04539826964598359 0.025358543783547904
-0.017587985424702243 -0.04539226470703267 0.02372537898414645
-0.017623457320166257 -0.045384906239821 0.022086545110307276
-0.01765907258598354 -0.0453775180310696 0.020441087395490887
-0.017694832093125914 -0.04537009990009799 0.018788965600004204
-0.01773079206965769 -0.045363988956006296 0.017129189336226147
-0.017766842926021965 -0.04535651312830408 0.01546361020938769
-0.01780304068070859 -0.04534900683836979 0.013791244259496294
-0.017839386233412 -0.04534146989963278 0.012112049919928425
-0.01787903159243144 -0.04540941147462124 0.01037116880285055
-0.017926148967737886 -0.04565211380679829 0.00849519205202165
-0.017983588031797636 -0.046136472978791865 0.00643289009116671
-0.018056365755541537 -0.046980434608736577 0.004094276252708806
-0.012815173669324928 0.12662699674019184 0.038049785988251206
-0.012738520822624623 0.1287904658688911 0.03899395340745965
-0.012689967370419266 0.130386942906633 0.03932256264505518
-0.012655838645151895 0.13169215956142832 0.03933541194091794
-0.012632925733066963 0.13277182230165518 0.039101657055883254
-0.012619649568567223 0.13365879715330628 0.03865469380275388
-0.012614324533936482 0.13438773803241905 0.03803068373982971
-0.012617967586267903 0.13493982988717493 0.03720531676954869
-0.012632925954741622 0.13527036996904118 0.036124003539401206
-0.012665914272934979 0.13524968370480547 0.03463272150014002
-0.01272698976339036 0.1346842014140063 0.03249999078378185
-0.012861138645661534 0.13270250847883608 0.028697036758189576
-0.01183766442611657 0.1666702918667556 0.0352483576386014
-0.0118209362661587 0.16756051493161786 0.0349561552513431
-0.011803568452266234 0.1684607111918985 0.03468146176929837
-0.011786080398351516 0.16936136967772208 0.03441174290260912
-0.011768010124281776 0.1702708246203339 0.034158296024996815
-0.011749630577361168 0.17118406857951826 0.03391454581632691
-0.011730823770994927 0.17210317707254827 0.03368344069878182
-0.011711111126045346 0.17303666788891214 0.03347682207610664
-0.011690646442445773 0.17398165655374215 0.033291059846062454
-0.011671140429482352 0.1749075267979305 0.033084027535817795
-0.011648067378147983 0.17589489776633838 0.032967620327476854
-0.011626703542370671 0.1768496779659642 0.03281150839797792
-0.011603829388795546 0.17782905285152842 0.032695490433030105
-0.011581021450008538 0.17880499807029926 0.032580516958586825
-0.011558420600809019 0.17977504624674173 0.032463054751998066
-0.011606366673868973 0.1795058229316617 0.030580602655336464
-0.01158688064732426 0.18042042505430209 0.030386080675446903
-0.011567507058095618 0.18133113972197795 0.030191024659322774
-0.011548198147444379 0.1822388139757824 0.029996619836214655
-0.011529234415454314 0.1831385943337776 0.029795760328182874
-0.011430923494989871 0.18540823126924763 0.03160867066809386
-0.011410668988948032 0.18632258831158888 0.03144975522974558
-0.011390897316734167 0.18722664301901687 0.031280929600343066
-0.011371285106558571 0.1881260094062438 0.03111036340615797
-0.011352126015644564 0.18901569254355596 0.03093051472050129
-0.011333415807713878 0.1898958318331612 0.030741412083449715
-0.011314136090395223 0.19078379741344834 0.030569153523975767
-0.011295528335239129 0.19165847228896102 0.030381855017697856
-0.01127695929667532 0.1925306530192042 0.030195749737984334
-0.011258875233105174 0.19339282914590875 0.02999928105149241
-0.011241027051351415 0.19424925569630305 0.029798824781169853
-0.011223235368172104 0.19510297122098152 0.029599003056946127
-0.01120572098718561 0.19595029792230464 0.029394052152276973
-0.011188503616784787 0.19679094888938475 0.029183408319775395
-0.011171339073824397 0.19762902051720388 0.02897341079823268
-0.011154227115544089 0.19846452465871892 0.028764056617625433
-0.011137364045351646 0.1992942307765797 0.02855017490414946
-0.011121226883792901 0.20011033016215338 0.028319150830236728
-0.011105158130322701 0.2009237119925812 0.028088221797771984
-0.011089373899353688 0.20173085332114493 0.027851655022975985
-0.011073850373463135 0.20253218454850447 0.027610032074426027
-0.011058434838831278 0.2033302258495476 0.027367367297813083
-0.011043448644851656 0.20411978740826048 0.027115078464775122
-0.011040443441381838 0.20471436826290237 0.026544587117366902
-0.018901456838779907 -0.06706357940462054 0.051235585164731534
-0.018829539884788433 -0.0644865431476278 0.051233190961525954
-0.01875811059733923 -0.06192767849557662 0.05123164341103115
-0.018687278284248352 -0.05938950608809651 0.05122928218075784
-0.018616978898675213 -0.05687043035911771 0.05122693871571743
-0.018547150210179077 -0.054368910340672094 0.05122543202009594
-0.018477899212578613 -0.051887399489567 0.05122312043751409
-0.018409163428897982 -0.04942435059521466 0.05122082605248529
-0.018380563791596655 -0.047908603986624665 0.05063481829916566
-0.01839006879536331 -0.04728709598740155 0.04948854547988263
-0.018402905055205497 -0.04674251045292371 0.04829179603675432
-0.018418587344275258 -0.046263079243497596 0.04705125054154741
-0.018438019390980876 -0.04586943225036533 0.0457529314163726
-0.018460890562038815 -0.04555384150470915 0.044400883975215466
-0.018487840975116167 -0.045330664493410444 0.0429849041108758
-0.018518962217386737 -0.045201457160870484 0.041502937977898724
-0.018554633762086017 -0.04517440236613124 0.03994854488870386
-0.01859134705750871 -0.04516806529395195 0.03837438930547327
-0.01862814919632205 -0.04516039908961039 0.03679485866769494
-0.018665097326005933 -0.04515270247404174 0.03520906216974917
-0.01870219231698632 -0.04514497526592737 0.033616962453357935
-0.01873943504662247 -0.04513721728250397 0.03201852186266896
-0.018776884039274706 -0.04513074265675898 0.03041280920612205
-0.01881442513709248 -0.04512292517227123 0.028801565952260078
-0.018852116649327465 -0.04511507636570922 0.02718386699432168
-0.0188899594817834 -0.045107196048448595 0.025559673455707643
-0.018927954547551685 -0.045099284030347186 0.023928946147034835
-0.01896616157500211 -0.04509266756761188 0.022290718139712506
-0.019004464113955385 -0.0450846942272809 0.020646797475328105
-0.019042921671405182 -0.04507668861707209 0.018996223515356625
-0.01908153519034878 -0.04506865054068232 0.017338955786950994
-0.019120365389523483 -0.04506191794471437 0.01567399784154727
-0.01915929393480063 -0.045053817039698296 0.014003212659650599
-0.019198381318353233 -0.04504568308086321 0.012325610253040853
-0.019240230521694258 -0.04509541367771375 0.010599117536822467
-0.01928980282160715 -0.045312795036253406 0.008742868175905638
-0.019349909370082845 -0.04575905676447006 0.006709877093259986
-0.019425741003696952 -0.04654753527187394 0.004413713298032251
-0.019529254793896507 -0.04793992791263052 0.0016560310316111604
-0.013841241155217301 0.12587856300292055 0.037222687264281185
-0.01375858209401862 0.12804591713320201 0.038166911197945075
-0.014336386035341694 0.11799616512005834 0.02548806776008178
-0.013671860479718781 0.13090850453891206 0.03845594526197732
-0.013648309972501996 0.13196942570574344 0.03819652285103464
-0.013635531591198758 0.1328305313241277 0.03771557018775673
-0.013631733159728257 0.1335261067137808 0.037048702194963756
-0.013638207107311666 0.13403379324716871 0.03616741515419397
-0.014300656595872525 0.12259622398767883 0.021530568837913155
-0.013700891834236478 0.13414748502285037 0.03335708533439352
-0.013779659103435756 0.1333493566502643 0.03094715443191348
-0.012723909074014383 0.1688360283926763 0.03370612241588411
-0.012705751672575687 0.16972504378933218 0.033421437960319156
-0.012687593385743543 0.1706124066633163 0.033138760679431944
-0.012668778434811324 0.17150906555747916 0.032873025565918534
-0.012649809917380081 0.17240655357007198 0.03261285522992885
-0.012629359449476655 0.173326905827436 0.0323886731578108
-0.012609000990057262 0.1742438567037955 0.03216461856136221
-0.012587438680206474 0.175178816115276 0.031970472135264716
-0.012566982665846731 0.17609357914396748 0.03175318770051411
-0.012546850388688852 0.17700114792644275 0.03153066272690386
-0.012523730421721247 0.1779557892714864 0.03137952758346069
-0.012499648151447825 0.17892402040972608 0.03125325952033409
-0.012522704944763435 0.17912250078356798 0.03003285761873542
-0.012516811175216825 0.17979315520468242 0.02948509995052695
-0.012496992391003912 0.18068872304899866 0.02926349994849209
-0.012477007209341959 0.18158515742626244 0.02904796764831674
-0.012456020423054388 0.18249588124507815 0.02885814566026318
-0.012356453252952626 0.18466611941167602 0.030520423224901894
-0.012333780322912881 0.18559637105658552 0.030379278866506543
-0.012311116110836665 0.18652440156073763 0.030240409545808533
-0.012289053500341533 0.1874407762992732 0.030089759872502897
-0.012267758701393967 0.18834294051358602 0.029923282087688186
-0.012245630437577384 0.18925633746015927 0.02977898270917767
-0.012224852206851551 0.19014640241790937 0.02960488158451241
-0.012204193068911042 0.19103268586109495 0.02943020523781109
-0.01218357937084311 0.19191635948173158 0.029256700169378924
-0.01216325286793173 0.19279364856861916 0.029078548883214483
-0.012143283357185994 0.19366350428342902 0.028894023004489455
-0.012123379310799265 0.19453050842375522 0.02871010204138369
-0.01210373200885222 0.1953917047985616 0.028522146868162734
-0.012084554142218644 0.196243841420863 0.02832495724791051
-0.012065460752143578 0.19709291520045588 0.02812781304724865
-0.012046427601672996 0.19793931015407634 0.02793129083615037
-0.012027927417566224 0.19877579322584824 0.02772383875176232
-0.012009507548655653 0.19960935087418874 0.027516445888212615
-0.011990979463915159 0.20044286481757684 0.027313722818220476
-0.011973000596415262 0.2012663399721379 0.027099527670578882
-0.011955262492079661 0.20208452031952748 0.026881368936245098
-0.01193792634140563 0.2028950068681298 0.02665522740820131
-0.011920756554361757 0.20370139891299452 0.026426866555406603
-0.011903960407582657 0.20450061086853227 0.026191118864615948
-0.011972297801584878 0.2040254526636345 0.023841344426892064
-0.020251561317486084 -0.06706357952300379 0.051235585164519426
-0.020174507422116954 -0.06448654326555475 0.051233190961316954
-0.020097976026728005 -0.06192767861305021 0.05123164341082537
-0.02002208424685219 -0.059389506205120735 0.05122928218055528
-0.019946763460864644 -0.056870430475695954 0.05122693871551792
-0.019872007248858594 -0.05437023671337654 0.05122461281596924
-0.019797749480358385 -0.05188739960526262 0.05122312043732119
-0.019724103982462673 -0.04942435071047424 0.05122082605229544
-0.019684056719911164 -0.04770280895915058 0.0507641218296247
-0.01969369829376374 -0.047069859432462724 0.04962581368020558
-0.019707081973567214 -0.04651764748130138 0.04843468945807555
-0.019723570038276603 -0.04603181942418055 0.04719904137671316
-0.019743832305071898 -0.04562651826817571 0.04590904787369332
-0.019767951597321 -0.04530305340124452 0.044562970845042627
-0.019796195243091726 -0.045066709900352 0.043156462033011045
-0.019828958345192927 -0.044925484653256964 0.041683316156362726
-0.01986670698966072 -0.044888835740641675 0.04013624229519869
-0.0199059297008016 -0.044880638536740014 0.03856436880319275
-0.019945368293849845 -0.04487371115243094 0.036985410791723794
-0.019984902529875243 -0.04486545144879517 0.03540105586056225
-0.020024593800812795 -0.04485715893652181 0.03381040767409771
-0.020064443044167758 -0.044848833419741 0.032213428661320986
-0.020104451204922852 -0.04484047470101993 0.03061008095155937
-0.02014468115612379 -0.04483339772175782 0.028999427611254236
-0.020185010265085932 -0.04482497460745544 0.02738322090472528
-0.020225501173507698 -0.04481651769973899 0.025760530013894334
-0.02026615485704977 -0.04480802679483109 0.024131315838730072
-0.020306972299233006 -0.044799501687312004 0.022495538964200867
-0.020348017668363506 -0.044792270457546746 0.02085222652938723
-0.020389165866003273 -0.04478367898125091 0.019203197717821474
-0.020430480822362346 -0.04477505268673787 0.01754748599054079
-0.02047196355321785 -0.04476639136191796 0.015885050639909526
-0.02051367929234353 -0.0447590337904849 0.014214889126822783
-0.020555500914751963 -0.04475030446431205 0.012538875861046517
-0.020599500412679637 -0.04478322047758154 0.010825756212453685
-0.02065136464627151 -0.044975361685431425 0.008989168091425581
-0.0207141569941501 -0.04538907407927234 0.006981408605452433
-0.020792295858169833 -0.04611414519806556 0.004733512458573896
-0.020898246719725018 -0.047405345948451305 0.002052646062511043
-0.017718752874693364 0.021877196749663708 0.04611336859310916
-0.017724407540139445 0.022521479205519168 0.04512033914946917
-0.017742834019835656 0.022907024261506648 0.0439270030120249
-0.017764235594896604 0.02323389228265038 0.042685107518163456
-0.017786412906140917 0.023546916348775315 0.041428815680189746
-0.017808839231409284 0.023856819043584887 0.040166326372647054
-0.017831273665770732 0.02416848059233423 0.03890141799354313
-0.017864763622294683 0.02426004622357847 0.037458505884432336
-0.017899943950998948 0.024320608244285558 0.03598522067625187
-0.017935312194426654 0.02438042777369026 0.03450533634089947
-0.017970820481770136 0.02444048416429173 0.033019592262989894
-0.018008201382922223 0.02446629867103467 0.03150007624723744
-0.018046632573761247 0.02447444987636227 0.029959781080901526
-0.01808527805424597 0.024481646533213386 0.028412089084945413
-0.018124039280876122 0.02448986559565791 0.026858568869618626
-0.018162967014185426 0.024498119964848575 0.025298375194257428
-0.018202112883579365 0.024505414129118774 0.023730638240029356
-0.018241377083474557 0.024513737672984037 0.022156961829238764
-0.018280811045010607 0.024522097204407234 0.02057648151322672
-0.018322567096356518 0.024488397964616493 0.018953643967054512
-0.01836533774277585 0.02443846739796557 0.01730974230693183
-0.01840836024312523 0.024387295824513988 0.015657289148863995
-0.01845153283572344 0.024336893804091986 0.013997941222408106
-0.018515600291367274 0.023884904514401062 0.011985015117136955
-0.018581589249036308 0.02340121805081674 0.00993333736741453
-0.018648050254127923 0.022914071569845484 0.007866983083359869
-0.018749898479462748 0.021750781942330988 0.005197072345301812
-0.018856499686008887 0.020504844713344406 0.0024363621546780734
-0.014872337675314153 0.12514271922183967 0.03640950178044594
-0.014786970743933635 0.12725660529265848 0.037290146278282754
-0.014732555582578277 0.12882913695606768 0.03758324840618904
-0.014694732319665204 0.13011144139436437 0.037561431148866176
-0.014671178949385187 0.13114551621976234 0.03726712127727139
-0.014658217434338532 0.1319961835007501 0.03676955054465941
-0.014656250647337261 0.13265792284302835 0.036059252855969726
-0.014665926099428309 0.13312111436807295 0.035121904585319996
-0.014692031306259198 0.13330588252145067 0.03386202730579546
-0.014747275278058558 0.13299887209106076 0.03202773135873427
-0.014853630591676312 0.13183224963733242 0.029182290831316737
-0.01360635169082913 0.17100011234226298 0.03217877311066286
-0.01358728242524828 0.1718795107612742 0.031890212547167895
-0.013568069903988733 0.17275949486147718 0.03160665937455043
-0.0135480713726366 0.17364997939526963 0.03134189636250939
-0.013527992085647143 0.17453999448811913 0.03108090902359678
-0.013507359741182967 0.17543678826321632 0.030833869548776316
-0.013485402660818865 0.17635211598455053 0.030617501873674235
-0.013462963699726436 0.17727292628183614 0.030413791974785942
-0.013482683943249139 0.17754931547669778 0.029299016232504416
-0.01346395950574275 0.17841163669504734 0.02901707412064536
-0.013445121503673036 0.17927407409519236 0.02873951643157019
-0.01337032082996241 0.18098056261069004 0.02968485966953688
-0.013344104565539762 0.1819485513757554 0.02957536170601288
-0.013318017973084028 0.18291234487416333 0.02946569906789298
-0.013291979259297865 0.18387318525966326 0.029357648961396365
-0.013266444977375854 0.18482425785833367 0.029241149846100323
-0.01324111562085165 0.18577008926125044 0.029122735459406857
-0.013216495793533053 0.18670321036306256 0.028991210490499242
-0.013192047013389545 0.18763168798561808 0.02885840717348831
-0.01316946134792661 0.1885305549481321 0.02868669097405596
-0.013144421538911592 0.18946362486269216 0.028571953421098584
-0.01312121036668519 0.1903676993708533 0.028418942891862253
-0.013098238092894416 0.1912662871148643 0.028262956719210752
-0.01307568525430625 0.1921567835093923 0.028099908765297166
-0.01305354793609882 0.19303929945309087 0.027929822780399516
-0.013031485449136434 0.19391883220945316 0.02776031174078125
-0.013009419941031409 0.19479651780246204 0.027593122380075663
-0.01298807249215313 0.19566195382458224 0.027411933640690722
-0.012966820643335198 0.19652418526281443 0.027230756546128
-0.012945638228294578 0.19738359962914098 0.027050171391157507
-0.01292511116790262 0.19823182891265792 0.026856815559378133
-0.012904725332388236 0.19907628586913168 0.026662330902295084
-0.012884454363176522 0.19991736324481563 0.026467299135052802
-0.012864448991485434 0.20075294017333517 0.026268244699227228
-0.012844732215668798 0.20158272593300477 0.026064598117820137
-0.01282505068809142 0.20241032546465665 0.025862153159028012
-0.012805454404063147 0.20323504136911966 0.02565974980875313
-0.01278656650836301 0.20404816239973003 0.025442952002809938
-0.012820233905213488 0.20412629629372162 0.02400898033673393
-0.02151947495944869 -0.06448654338350546 0.05123319096109369
-0.021437841456119943 -0.061927678730547164 0.05123164341060543
-0.02135689020945914 -0.05938950632216777 0.05122928218033873
-0.02127654802305711 -0.056870430592296406 0.05122693871530487
-0.021196808049012073 -0.05437023682953385 0.05122461281575952
-0.021117599748141088 -0.051887399720979666 0.051223120437114855
-0.021039044536030223 -0.04942435082575458 0.051220826052092716
-0.020986242249126548 -0.0474959179442942 0.050894113981895195
-0.020996264458468968 -0.04685800664233969 0.049759679969959225
-0.021009894853209064 -0.0462930196938951 0.04857743342714588
-0.02102721072530014 -0.04580209850702388 0.04734584874859804
-0.021048166893394532 -0.04538387929170895 0.046064987589770734
-0.021073483831471417 -0.04505255863156288 0.04472486813030013
-0.021102874361381117 -0.04480178890685588 0.043328648069066056
-0.021137394908108054 -0.044652453925820124 0.041861771560856575
-0.021177031325635767 -0.04460364975328168 0.04032368951563059
-0.021218813081582896 -0.044594895358544995 0.03875323551169446
-0.021260760032148416 -0.044586106351057975 0.03717657232513566
-0.021302873158980194 -0.04457728252513726 0.03559366305867989
-0.0213452186273041 -0.0445697292907552 0.034003592999570176
-0.021387667342346765 -0.04456083777360692 0.032408073080311406
-0.021430285227222047 -0.04455191082124327 0.03080619457420608
-0.021473073295231664 -0.04454294822141136 0.029197919394279126
-0.02151609879128284 -0.044535265723520956 0.027582304837337868
-0.0215592305637559 -0.04452623379533588 0.025961114014024567
-0.02160253560985099 -0.044517165583037976 0.024333410367480157
-0.021646014975809872 -0.04450806086753889 0.022699154572688562
-0.021689669716314388 -0.044498919427983175 0.021058306987397413
-0.02173350089457171 -0.04448974104173009 0.019410827648913165
-0.02177757742526445 -0.04448185727376597 0.017755730357238986
-0.02182176497877356 -0.04447260699233252 0.016094859222417546
-0.021866132213360104 -0.04446331909613943 0.01442723444102234
-0.02191074890234815 -0.0444553332055444 0.012751847353633772
-0.021956720361993427 -0.04447013954634399 0.011053039341854975
-0.022010782939186152 -0.04463845956213219 0.009235080252464
-0.022076122025175657 -0.045021081087495474 0.00725147987540925
-0.018935070091348493 0.01664290763429005 0.051042019372881386
-0.01886277402138418 0.018799583099757933 0.05117114573237136
-0.018827010116686107 0.020246513850428305 0.050782095615982015
-0.01884020266407035 0.02074919925358082 0.04969044503488862
-0.01885336286608104 0.021253565317557288 0.048597999216800136
-0.018866541466132328 0.021758636488331484 0.0475040261529151
-0.018879789492160137 0.022263439929505136 0.04640777997240375
-0.018893005075632546 0.02276992644381226 0.04531073930854074
-0.018913298083818638 0.023142806377410285 0.044108671905341235
-0.018937019865281398 0.023452212264551187 0.042854228340983846
-0.018960852655066238 0.023761420826627744 0.04159587517987451
-0.01898469395107602 0.024072383487033278 0.040335113971276704
-0.019008646966116653 0.02438315393547341 0.03907041053639165
-0.019042511118802355 0.02450925184320274 0.03765573484813978
-0.019079984636627526 0.024570262121717867 0.03618386316114508
-0.019117658214844284 0.0246305328784146 0.03470540307038711
-0.019155428371596207 0.024692024007582636 0.033221882611571885
-0.01919487640729028 0.024725230094800044 0.031709423273488524
-0.019235863359940316 0.024732941688889565 0.0301698878937533
-0.01927697256905327 0.02474167427150159 0.028624571015532174
-0.019318257864524756 0.02475044425918388 0.027072634957990116
-0.019359720380150113 0.02475925189278344 0.02551403710115996
-0.01940141510527454 0.024767103128649826 0.023947908939352613
-0.019443235734101852 0.024775984666414785 0.02237585200148523
-0.019485237044926936 0.024784904576114763 0.02079700314294547
-0.019529220449145863 0.024760837882576436 0.019183459924691726
-0.019574827896694843 0.024710577489764907 0.017540495548930057
-0.0196206488610737 0.024660081796902933 0.01588983943486788
-0.019666629516912774 0.02461035747266005 0.014232301582534856
-0.01973157729067419 0.024219425297347885 0.01227321599607517
-0.019801834215743233 0.023737382077851477 0.010224482278479663
-0.019872593247367877 0.023251893830660397 0.008161106834979004
-0.01997520341967214 0.022196741476155968 0.005587390948669391
-0.020088630031805808 0.020954883312901018 0.0028323243528959874
-0.015911597454563928 0.12436615526712513 0.03555131617780072
-0.015820027526668185 0.12649026060480056 0.03643889319740995
-0.015763129698010504 0.12804616961866128 0.03670905336448743
-0.01648081527175136 0.11709934579532821 0.022958442163277026
-0.01570103061956581 0.13031220799643706 0.03632711756600587
-0.015689155409232065 0.13113364144416273 0.03579156305809589
-0.01568894419902174 0.13176732398385083 0.035044257664525846
-0.015703076415918414 0.13217185852591523 0.034034493622740025
-0.01573609169499866 0.13227663714354843 0.03267691991654109
-0.015805720363274618 0.13180212477342912 0.030642668763479597
-0.016136079723137978 0.1271995532017191 0.02379303512933789
-0.014485412279668852 0.17315539379660866 0.030656726994625738
-0.014465299818269679 0.17402791917207236 0.030367840965274784
-0.014444496934727297 0.17490877602395205 0.030094804443636713
-0.01442360499815084 0.17578924087212458 0.029825560098808823
-0.01440277340908085 0.1766671624491898 0.02955709348109281
-0.014380877628119277 0.17755861467577147 0.02931223583441578
-0.014358252020842642 0.1784587055392903 0.02908433288498341
-0.014372539891444769 0.17883254996512352 0.028105332101606872
-0.014353770899181618 0.17967585206220318 0.027801111319862182
-0.014334521760542986 0.18052442893589055 0.027508531724595164
-0.01426278031538938 0.182110889008303 0.0282965042809451
-0.014237102227945417 0.18304456648422196 0.028142546058842366
-0.014210158675213691 0.18399390498193227 0.028017172955340952
-0.014182396116212819 0.18495251677320487 0.02791132794187956
-0.014154856470635056 0.18590579364107923 0.027803517824249113
-0.01412742357222942 0.1868553754864508 0.02769612559236906
-0.014100409648516441 0.18779695226105902 0.0275826299930525
-0.014073810505844473 0.18873063235528942 0.027463058431943355
-0.014047876100343814 0.18965302510174756 0.02733211903336985
-0.014022233984911626 0.1905693224058726 0.02719753053778834
-0.01399710568848617 0.19147652793849723 0.02705459251341724
-0.01397234655709139 0.19237667736138403 0.02690627995877859
-0.01394756355011618 0.193275162229618 0.026760842589253042
-0.013923201066570332 0.19416595175923598 0.02660887490311903
-0.013899531524015768 0.19504541245739135 0.02644453576121719
-0.013876080038115756 0.19592003109786255 0.026277825481200834
-0.013852789907467246 0.1967905962354972 0.02610992138386503
-0.013829906146283552 0.19765384327450458 0.02593556586584367
-0.013807316031221987 0.19851132754810558 0.025757114151470528
-0.013784962690428861 0.19936384215852784 0.02557574450637745
-0.013763115146809501 0.20020784222314086 0.025385636937698464
-0.0137413097343857 0.2010495289293991 0.025196713246684488
-0.01371957330722819 0.20188855281134802 0.02500838724911142
-0.013698039743252087 0.2027231600242345 0.02481775044071255
-0.01367708207457814 0.20354847999378298 0.024616679291453225
-0.013667161680790046 0.2042277254789492 0.024177589634599594
-0.022864442496783866 -0.06448654350147981 0.051233190960856045
-0.02277770688551525 -0.06192767884806727 0.05123164341037145
-0.02269169617206939 -0.05938950643923746 0.051229282180108304
-0.022606332585252825 -0.056870430708919006 0.05122693871507811
-0.022521608849168727 -0.0543702369457128 0.05122461281553636
-0.0224374500159269 -0.05188739983671786 0.05122312043689542
-0.02235398508960083 -0.04942435094105574 0.05122082605187683
-0.022287177415561982 -0.04728922558688414 0.05102398131526514
-0.02229754803016796 -0.04664636245654008 0.049893414446075646
-0.022311412853893608 -0.046069915667191375 0.04871920909412414
-0.02232945618757313 -0.04557262344927843 0.04749249899950991
-0.022351160184395664 -0.04514409175737899 0.04621909473594121
-0.022377557364039118 -0.04480364563276901 0.044885743101531095
-0.02240814002241014 -0.04454106534026431 0.04349810597851833
-0.022444162969318695 -0.04437977136371868 0.042039999401272454
-0.022485610264387165 -0.04431884364351424 0.0405108870498857
-0.022529944208357192 -0.044309533550591584 0.03894185014718876
-0.022574453320454733 -0.04430018667243957 0.037366613812749194
-0.022619138640896586 -0.04429080279061193 0.03578514123191706
-0.022664001218152145 -0.04428138168492912 0.034197395297971944
-0.022709111540507657 -0.044273229560711946 0.03260245564910119
-0.02275433208701255 -0.0442637359121516 0.0310020438448132
-0.022799733087738507 -0.04425420437877503 0.029395245539441284
-0.022845315625008595 -0.044244634733356325 0.027782022428213815
-0.02289108078981859 -0.04423502674684893 0.02616233589942113
-0.022937100514523013 -0.04422669958780895 0.024535230294110644
-0.022983234527748548 -0.044217016848383084 0.02290249295577179
-0.02302955449613948 -0.044207295080075315 0.021263174443917232
-0.02307606154627734 -0.04419753404643323 0.01961723488749012
-0.023122756813862427 -0.044187733509091276 0.017964634092710707
-0.02316971372036535 -0.0441792258595492 0.016304379829966298
-0.02321678916088017 -0.044169348268668696 0.014638327528491812
-0.023264056283382933 -0.044159430458085125 0.012965491387749328
-0.02031684431405402 0.010726452334704206 0.05112334735588819
-0.020244357869233492 0.012820192880599768 0.05117538098979979
-0.02017633220542613 0.014827047495003132 0.05117420443105192
-0.020108816616696654 0.01681946882553481 0.05117230417035851
-0.020041751373858645 0.01879860020675106 0.05117041658473781
-0.019993252072935622 0.020435957988175768 0.05092341109437176
-0.020007254510868447 0.02093851337969438 0.049832429951890744
-0.02002122260751946 0.021442747860960787 0.048740654542085315
-0.020035264265280756 0.021946712916336153 0.04764661520567531
-0.020049271512986973 0.022452358667198857 0.04655178210506511
-0.02006329836009977 0.022958711934453147 0.04545541707752987
-0.02008337076468202 0.023357858487880856 0.04427436844425375
-0.02010859946352893 0.02366637592808185 0.04302012948750966
-0.020133837049301335 0.023976642735246523 0.04176349342568647
-0.020159138064204156 0.024287689329983375 0.04050369908494911
-0.020184557599926 0.024598544624739704 0.039239967779377716
-0.02021856852430828 0.024759086734023883 0.03785346183603222
-0.020258383863594763 0.024819568725932717 0.03638222933062285
-0.020298300852182524 0.02488126814831132 0.034905973887959296
-0.020338431147443055 0.024942230679861566 0.033423100813719464
-0.02037989467049529 0.024982805410424136 0.03191767388154859
-0.020423324492298306 0.024992045531439133 0.030380492175332896
-0.02046693980843828 0.02500132511829606 0.028836744968851746
-0.02051074180986364 0.025010644424382444 0.027286390108945235
-0.020554731697739845 0.02502000370526003 0.025729385080825617
-0.020598910683559173 0.02502940321868713 0.02416568700419136
-0.020643337363354504 0.02503784827568395 0.02259442217378027
-0.02068789846936664 0.025047326915083934 0.021017201691745924
-0.02073409926858199 0.025031864735585607 0.019412083895533394
-0.020782483806763015 0.024982274914906233 0.017770898843711802
-0.020831094690898517 0.024932453109994424 0.016122036223448932
-0.020879874816219945 0.024883404478352356 0.014466304859535706
-0.02094529113812731 0.024553323476965594 0.01256088048135462
-0.021019800008148792 0.024072918217511285 0.010515083388902169
-0.021094780961835154 0.02359010367892772 0.008455568037950945
-0.021197487014965516 0.02264160136733684 0.005976747108253355
-0.021317704972157094 0.0214038059182054 0.003227304654143892
-0.016956090076975645 0.12360089133566615 0.034705618302322994
-0.016860671321868102 0.12569828263073352 0.035559166746510606
-0.01680163032001065 0.12723464301660375 0.03580297146285322
-0.016761666637000492 0.1284768267082918 0.03572696430819128
-0.016738247294272198 0.12946536824149268 0.03537184976595048
-0.0167268635229628 0.13027027437482014 0.034812640136964
-0.01672995302073934 0.1308561675093765 0.03400583342661945
-0.016748060529692025 0.13121649922717138 0.0329400909038855
-0.016790615952988832 0.13121155150475194 0.03145054485524956
-0.016889388010866695 0.13036885885376026 0.028983869944869733
-0.015362227843277216 0.17528690011108103 0.02911878764060094
-0.0153399235546882 0.17616852842687988 0.028851902810164087
-0.015318663276657552 0.17703443135099073 0.028567071091599783
-0.015296768744444637 0.17790723128103694 0.02829630822358503
-0.015274339877638456 0.1787855202206023 0.028037780906857823
-0.01525113111931565 0.1796725116791201 0.027796288569128302
-0.015228024004599508 0.18055639661884854 0.02755492656340025
-0.015204053069528307 0.1814499865238152 0.027332354218688293
-0.01517919577476236 0.18235348137841983 0.027129125259654552
-0.015154048599381091 0.18325891773052758 0.026933769230644444
-0.015127875314095774 0.18417593998564522 0.0267606642800034
-0.015100932583619794 0.18510106775143725 0.026604938698413627
-0.01507258675701338 0.18604249478648463 0.026479094732098085
-0.015043920548654466 0.1869859531247871 0.026362088511906745
-0.015014300827912993 0.1879396327851377 0.02626640845672462
-0.014985099834129245 0.18888564778284375 0.02616514826053945
-0.014956584419017937 0.1898205985513075 0.026052981907929984
-0.014928657392685087 0.19074581463625936 0.02593174026744599
-0.014900924144672244 0.19166643033055134 0.025809171570575218
-0.014873740508087782 0.1925779114946951 0.025678175029714312
-0.014846626196556599 0.1934864519445271 0.025548246931352825
-0.014820083674461826 0.1943856639403169 0.02540934273930423
-0.014793960009914463 0.1952775531487249 0.02526444638714198
-0.014768163186304766 0.19616333135446912 0.025115347290503853
-0.014743158481273567 0.19703716613709515 0.02495264589250279
-0.01471794665847335 0.19791171497157545 0.02479637185982775
-0.01469308250435449 0.19877999766588306 0.024635348058995754
-0.014668910568775416 0.19963774623113442 0.024462553022574884
-0.014644875785108934 0.20049195742387407 0.024289153988983125
-0.014621121103971516 0.20134087049986832 0.02411222589065065
-0.014597558116303597 0.20218561245868033 0.02393353241285301
-0.014574528517706067 0.20302198498100069 0.02374606936102358
-0.014552170175304273 0.20384835107520177 0.023546942824594463
-0.01462270447028599 0.20353279359239598 0.02144435905756803
-0.024209410034122684 -0.06448654361947781 0.05123319096060419
-0.024117572314914133 -0.06192767896561058 0.05123164341012337
-0.024026502134683148 -0.05938950655632991 0.05122928217986411
-0.023936117147451974 -0.05687043082556392 0.05122693871483769
-0.023846409649328756 -0.05437023706191357 0.05122461281529983
-0.02375730028371601 -0.051887399952477375 0.05122312043666283
-0.023668925643174663 -0.04942435105637766 0.05122082605164813
-0.023586934760979342 -0.04708402157361341 0.05115291350427875
-0.02359755090231798 -0.04643492656710946 0.050027017303146404
-0.023611791497525875 -0.04585090626928312 0.048858382753173
-0.02363030866376227 -0.045343393856462744 0.04763899238154945
-0.02365290908026925 -0.044908433590256536 0.04637054801308521
-0.02368004391412527 -0.04455373448340699 0.04504726318711472
-0.023712030228472767 -0.044284524456232266 0.0436648453444885
-0.023749337437497534 -0.044108726170950074 0.04221715704233098
-0.023792447290987773 -0.04403441665282676 0.04069783539651989
-0.023839326586782207 -0.04402455234988628 0.039130213213989073
-0.02388639098389216 -0.04401464909801728 0.03755640132816257
-0.02393364158078561 -0.0440047066660787 0.03597636300677198
-0.023981079484639477 -0.04399472482109801 0.03439006122632632
-0.02402870581142603 -0.04398470332825127 0.03279745866922118
-0.024076595395378295 -0.043975949187800845 0.031197629297523843
-0.024124602245801607 -0.04396585026279637 0.02959230534729107
-0.02417280092249257 -0.04395571098433271 0.02798056682698996
-0.024221192577504862 -0.04394553111005661 0.026362375212546363
-0.024269778372135883 -0.04393531039567111 0.024737691670781103
-0.024318634675829082 -0.04392636882001699 0.023105554679237972
-0.024367612574236776 -0.043916068311662726 0.021467762598998352
-0.024416788154389774 -0.04390572622891714 0.01982336015751479
-0.02446616261551546 -0.04389534231956976 0.01817230725332719
-0.02172949514910993 0.004633645337259629 0.0511644889241773
-0.021654108598355065 0.006719676614420966 0.05118044679129502
-0.021580664490429315 0.008766637468228644 0.05117849956805082
-0.02150771689956935 0.010799759894193905 0.051176565508816274
-0.02143526080770039 0.012819183751084318 0.05117464448055037
-0.021363233231960033 0.014826047207934123 0.05117347039346287
-0.021291745740031842 0.01681847727992508 0.05117157258393473
-0.021220735088871193 0.01879761730843227 0.05116968743316369
-0.02115833354814167 0.020624229380028336 0.05106385176568501
-0.021173087254429346 0.02112762974812038 0.04997426655133502
-0.021187918633844328 0.021630759003853472 0.04888242655941716
-0.021202713642643353 0.02213556658476573 0.04778979351834994
-0.021217529327809802 0.022641079646009865 0.0466956334972482
-0.021232423056082902 0.02314632807178507 0.045599198700578825
-0.021252103315840456 0.023571682388740023 0.0444391186543725
-0.021278726707824786 0.02388125635845706 0.04318658587464641
-0.021305474606362743 0.024190634823294144 0.04193015386804044
-0.021332231971170092 0.024501764551155103 0.040671320618485884
-0.021359056629120507 0.02481367675142071 0.03940932147986498
-0.02139304615979329 0.02500759978245176 0.03805014267767287
-0.021435086631260782 0.02506950441415251 0.03658109604401427
-0.02147735131294751 0.025130675443907513 0.035105482418564316
-0.021519724109381383 0.025193067325927965 0.03362482564548369
-0.021563151243482764 0.02524099164838639 0.03212641842228564
-0.021609069394113674 0.025250774892739247 0.03059079207179133
-0.021655183525023332 0.025260599892422686 0.029048611614008735
-0.021701494893570962 0.02527046691532936 0.027499834999464456
-0.02174806490932973 0.025279386938932336 0.025943602788025655
-0.021794774827080053 0.025289336723976763 0.02438150018189683
-0.021841685821355736 0.025299329340891297 0.022812673047331478
-0.021888799193346638 0.02530936506684689 0.021237077869114218
-0.021937156469616567 0.025302481831616153 0.019640362216981067
-0.021988309642383574 0.025253560611414927 0.01800095298673604
-0.02203970193121517 0.025204410708545955 0.016353880320013836
-0.022091272961710713 0.025156035772712804 0.014699951868890615
-0.022156685723059736 0.02488760977957738 0.012848879347335529
-0.02223543013837859 0.02440884215667183 0.010806020364398927
-0.022314736262477243 0.023926659333245004 0.008748589023121478
-0.02241676042658634 0.023085365678095326 0.006365144379445242
-0.022543735858063636 0.021851616675238272 0.0036213067062236814
-0.01800805974074349 0.12281261621485196 0.03383449061770477
-0.01790861682583005 0.12488905593971644 0.03466028047775849
-0.01784704613888851 0.12641385787302506 0.034886552257084646
-0.017805709606625683 0.1276440536733901 0.03479237432023141
-0.017782197589764015 0.1286162852972894 0.034414051562565606
-0.017772794128341513 0.12938549312997993 0.033809436895821
-0.017778177888287124 0.1299435275721384 0.03296571852060953
-0.017802404729193956 0.130234380917431 0.03181503465359864
-0.017857664062979502 0.13008742146869184 0.030156184104732364
-0.018323282602827437 0.12414675002310016 0.021782675030371235
-0.016239051523106448 0.17736933821721046 0.027527690302993124
-0.016211401620475813 0.17829841601641794 0.02733812750834891
-0.01618864291576919 0.17916392563387742 0.027061989277040233
-0.016165881561775158 0.18002784306540268 0.026787836461155068
-0.016142687085659434 0.18089555809820984 0.02652353264356705
-0.016118501863179095 0.18177398658770608 0.026279342713670828
-0.01609412551141614 0.18265306727359437 0.02604071887494147
-0.0160689690778048 0.18354009102472063 0.025818518842869564
-0.016043563866663307 0.18442839755203802 0.02560304668270702
-0.016016738209578173 0.1853324217879758 0.02541598579168952
-0.015989709517309998 0.18623702886274066 0.02523496879101872
-0.01596147598623378 0.1871544904645481 0.025078619521683054
-0.01593263183532209 0.18807740689376085 0.0249360351817825
-0.015902123045386036 0.18901857164755195 0.024826950716667295
-0.01587115432093394 0.18996315215381868 0.024729060188978524
-0.015840465510234297 0.1909021259154027 0.024628561509109248
-0.015809958717736487 0.19183670674674613 0.024527257146142845
-0.015780107458269514 0.1927612049586953 0.024416212414501648
-0.01575071570275741 0.19367804731036736 0.02429904118698878
-0.0157217789493269 0.19458733698687877 0.0241757699043198
-0.015693261473678582 0.19548954963554502 0.0240470173591667
-0.015665596154753377 0.19637957276715157 0.023904509642816485
-0.015637934919934135 0.1972675714977958 0.02376427896140787
-0.015610371197933947 0.198152439809256 0.02362454262849284
-0.015583583789435258 0.19902617350081078 0.023472311093483744
-0.015557226675346647 0.19989292885534743 0.02331411505273867
-0.015531111925754638 0.20075495745053665 0.023153508350404972
-0.015505054134384614 0.2016144544933483 0.022994028253974674
-0.015480271922704856 0.20245721180667026 0.022812162816024273
-0.015455022091358957 0.20330363687020314 0.022641446057720116
-0.015473967042256587 0.20363591696286215 0.021616691290588408
-0.02555437757146536 -0.06448654373749957 0.051233190960338015
-0.025457437744316802 -0.061927679083177034 0.051231643409861305
-0.025361308097300618 -0.05938950667344495 0.051229282179605984
-0.02526590170965476 -0.05687043094223099 0.051226938714583725
-0.025171210449492346 -0.05437023717813594 0.05122461281504992
-0.025077150551508623 -0.05188740006825798 0.051223120436417025
-0.02498386619675192 -0.04942435117172028 0.05122082605140649
-0.024891273287297098 -0.04697955896548245 0.051218548672742115
-0.024896274964650744 -0.046223698666692015 0.05016048873538431
-0.024910918139944886 -0.04563340664717591 0.04899659699709752
-0.024929770387747126 -0.04511440933493138 0.04778532914628297
-0.024953150818848063 -0.04467174906607568 0.04652266091109819
-0.024981009677210446 -0.04430411513103266 0.045208594681374836
-0.025014356686186026 -0.04402829124028701 0.043831384740844026
-0.025052781943535336 -0.043836736302393264 0.04239493213184986
-0.025097773517036 -0.04375423887548907 0.04088199081863614
-0.02514688753638457 -0.043738658218482995 0.039319179697178075
-0.025196576539447 -0.043729492862338626 0.03774593538014703
-0.025246385516470318 -0.043718993381549776 0.036167328897891204
-0.025296391809805988 -0.04370845230741405 0.03458246882778454
-0.025346596594272183 -0.04369786939228398 0.032991317936062914
-0.02539700105403211 -0.04368724438654209 0.031393838692788445
-0.025447684392289872 -0.04367788508497322 0.029789099356687
-0.02549849210478519 -0.0436671777198675 0.028178842890185685
-0.02554950310394379 -0.04365642751346677 0.026562143628832968
-0.025600718612266204 -0.043645634208135775 0.024938962827733502
-0.025652139862074964 -0.04363479754416971 0.023309261430701833
-0.023172884920607293 -0.001614784362376609 0.051184598693331584
-0.023093014788826926 0.0004922076668554265 0.05118486544879047
-0.023013884748611234 0.002581561102763086 0.05118288305729257
-0.022935231781900416 0.004657690098218259 0.05118166076116082
