# .PCD v0.7 - Point Cloud Data file format
VERSION 0.7
FIELDS x y z
SIZE 4 4 4
TYPE F F F
COUNT 1 1 1
WIDTH 761
HEIGHT 1
VIEWPOINT 0 0 0 1 0 0 0
POINTS 761
DATA ascii
-0.013836242851663735 -0.0719912624602157 0.05623969093804376
-0.013872435801758719 -0.07186359049709795 0.05472864481537382
-0.013913793128312466 -0.07162391608704205 0.053113755874904967
-0.013953272224964739 -0.07143027446643807 0.05153031877881348
-0.013992355502438407 -0.07124935645690972 0.049949907622888146
-0.014029925342664855 -0.07110595046811458 0.048394339400984476
-0.014066721954943896 -0.07098341211192272 0.0468494347765554
-0.014102626517165822 -0.07088425661928693 0.04531765652806069
-0.014137307169420812 -0.07081568042124176 0.04380567846919131
-0.014171486968586503 -0.07076156982012655 0.042299477028116705
-0.01420426928706959 -0.07074156286823752 0.040816851828667455
-0.014236846761702988 -0.07072929113349635 0.03933442148560251
-0.014267817593150968 -0.07075540414697712 0.037880077157182335
-0.014298635493395499 -0.07078791938346601 0.0364251307082869
-0.014328032450182982 -0.07085444060320506 0.03499495509592532
-0.014357115027769587 -0.07093070279955532 0.033567617522174076
-0.014385040666012315 -0.07103493304999775 0.032160114546571916
-0.014412526556040233 -0.07115144053267536 0.030758188186226332
-0.014439053120991203 -0.0712913773835876 0.02937242431521553
-0.014465014388914496 -0.07144611394400535 0.027995000318938867
-0.014490071025408068 -0.07162285883837588 0.0266329189600526
-0.014514658222446356 -0.0718121468871219 0.025277461724805717
-0.01453832418697762 -0.07202357305242524 0.023937955338822203
-0.01456587656106004 -0.07215439502340892 0.022515914444281304
-0.014599347755525514 -0.07216191366696656 0.020968829116082666
-0.014632935433620146 -0.07217026779208541 0.019415395246724698
-0.014666715886509299 -0.07217785777280156 0.017854013335893815
-0.014700652666116483 -0.07218548287789284 0.01628540577562776
-0.01551173732269321 0.03212116137978083 0.04391911577986868
-0.015356625298933306 0.027147283192930582 0.04571344498996166
-0.015248407323654912 0.023440032369748676 0.04668274802050182
-0.015166495359012816 0.020444180264277745 0.04719026670805032
-0.015093145380466237 0.017684414948252347 0.04755289995767692
-0.01502230904881611 0.014999107665032874 0.047879131552905074
-0.014955205336348055 0.012420086283392473 0.04814620817881082
-0.01492068875124537 0.010708170095952152 0.04782437037562176
-0.01491377060649673 0.009726747104306877 0.046999162903686
-0.012481456148105623 -0.05499599075086192 0.09095390619019836
-0.012438490036958802 -0.05679146244637573 0.0909531349481894
-0.01239587733863874 -0.05857308091622837 0.09095127933161767
-0.012353555614938786 -0.06034253386318972 0.09094943638583805
-0.012311550805824602 -0.06209919187339302 0.09094706484362433
-0.012269801965386398 -0.06384469127586423 0.09094524868392587
-0.012231758755062298 -0.06548952104487216 0.0908789279470521
-0.012203913410518375 -0.06686608796593668 0.09062462844345692
-0.012181682963844188 -0.06809451227473462 0.09026735107367784
-0.012163567393841586 -0.06921439531203899 0.08983457659222341
-0.012158856580663355 -0.06998722634249799 0.08914807143722314
-0.012159899979203083 -0.07061171625573248 0.08835188950063125
-0.012166361755755176 -0.07109739994135028 0.087451386406286
-0.01217851379590482 -0.07143819199494994 0.08644027913300331
-0.012198802309419086 -0.07157255222652309 0.08527012837141049
-0.012223659703473694 -0.07159268186077217 0.08400865902402865
-0.01224919094267022 -0.0715983426337396 0.08273088685301305
-0.012274829057962516 -0.071604027103227 0.08144776581114493
-0.012300574721847661 -0.07160973541834315 0.08015926224168957
-0.012326457592669529 -0.07161473559292836 0.07886477200570438
-0.012352420516116389 -0.07162049052312364 0.07756539701368956
-0.012378463815199508 -0.07162700494739666 0.07626111553803458
-0.012404646512404569 -0.07163281016135203 0.0749507395866342
-0.012430940206699777 -0.07163863998553471 0.07363480851931936
-0.01245734560541441 -0.07164449457677202 0.07231328693609951
-0.012483863421900296 -0.0716503740932311 0.07098613913556562
-0.012510494375596422 -0.07165627869442426 0.06965332911166766
-0.012537239192093756 -0.0716622085412294 0.06831482055046328
-0.012564098603201252 -0.07166816379590163 0.0669705768268174
-0.012591073347012392 -0.07167414462209354 0.06562056100106595
-0.012618164167973123 -0.0716801511848622 0.06426473581562536
-0.012645371816950168 -0.07168618365068807 0.062903063691569
-0.012672666420187472 -0.07169299470169938 0.06153613482723963
-0.012700109871016904 -0.07169908109373863 0.060162659473614155
-0.012727672440819914 -0.07170519390392405 0.05878322251640744
-0.01275535490684163 -0.07171133330463159 0.05739778505646653
-0.01278315805310373 -0.0717174994697441 0.05600630785548438
-0.012818349276894632 -0.0715471201378336 0.05445742753777483
-0.012856476976019725 -0.07130931429401005 0.05284271598525242
-0.012892739357033816 -0.07112071894897837 0.05126221907315476
-0.012928569232936019 -0.0709464484472409 0.04968618194786589
-0.012963316596379424 -0.07080208864733217 0.04812838952634152
-0.012997026797991517 -0.07068637575686842 0.04658809024018784
-0.013030200296057557 -0.07058714323506693 0.04505486921316387
-0.01306198136958773 -0.07052477727654699 0.04354703161971635
-0.013093525448494913 -0.07047147327655157 0.042040192745070704
-0.013123579564661236 -0.07045703518019569 0.040561210343112886
-0.013153441966039322 -0.07045037263417464 0.0390825055683231
-0.013182081570761579 -0.07047590171847723 0.037626310983489175
-0.013210247008490349 -0.07051571607085122 0.03617669740976187
-0.013237430043530318 -0.07058173528343492 0.03474476120947484
-0.013264054013109514 -0.07066383221639388 0.033321496372876847
-0.013289909359503308 -0.0707668407301118 0.03191157457530591
-0.013315054087777015 -0.07088927754808211 0.030513875841433835
-0.013339581369634416 -0.07102884932560183 0.02912649489121194
-0.013363279481776234 -0.07119039739978483 0.027754202298719166
-0.013386515056250482 -0.07136525281323486 0.026389077223078816
-0.013408939877744918 -0.07156142952998545 0.02503890425260724
-0.013430855030598298 -0.0717718198510357 0.023697165083237326
-0.0134578835471379 -0.07186633333573272 0.022238963144846913
-0.013488837386440211 -0.07187319640535178 0.020689803930115047
-0.013519933944917129 -0.07188009111861099 0.01913350199157038
-0.013551174211904547 -0.07188701769486439 0.017570007815523758
-0.01358255918590373 -0.07189397635549744 0.01599927142958385
-0.013614089874687438 -0.07190096732395662 0.014421242397338496
-0.014078844669540002 0.027203756412988445 0.045675488599315084
-0.01397770671334959 0.02344003236972697 0.046682748020516474
-0.013900449377151292 0.020381165214428898 0.047233092939513
-0.013831919031869384 0.017584082240104715 0.04762146681064988
-0.013765835183155248 0.014865722023493733 0.047970792272460094
-0.01370549793073793 0.012320848985200472 0.048214780372998645
-0.013655884602414549 0.01009173879213937 0.048252675444935667
-0.01364898134047951 0.00909543221251935 0.047440231871342275
-0.013627076824933932 0.00766984229775125 0.04693088994377104
-0.013606821790710604 0.006294007075215213 0.0463912618315937
-0.013555433406809201 0.004031575823108535 0.04648584773440445
-0.011324065964922091 -0.06034329416905654 0.09094997936440674
-0.01128553523686991 -0.06210069906115889 0.09094814711686477
-0.01124726582531935 -0.0638461851829435 0.09094632729566249
-0.011210222482884929 -0.06555247687154037 0.09092463111533361
-0.011183250238180979 -0.06696981765686166 0.09070034295881227
-0.011166231386922514 -0.06810329264965492 0.09027379501707278
-0.01115648516860789 -0.06903009502954016 0.089698581198569
-0.011152912365890522 -0.06978237226798395 0.08899608692498695
-0.011154284258691131 -0.0703956445410886 0.08819071133636797
-0.011160371247424068 -0.07087720036576495 0.08728623761757345
-0.011172695042800034 -0.07118539443457572 0.0862496542759636
-0.011191713978310197 -0.07130855450575607 0.08506998015886297
-0.01121448627073713 -0.07132961746366001 0.08380813995133524
-0.011237929502805834 -0.07133473310743704 0.08252886701705986
-0.011261470953624302 -0.07133987018393972 0.0812442343871542
-0.01128511124174038 -0.07134502882814397 0.07995420830810174
-0.011308850990906751 -0.07135020917616025 0.07865875474236486
-0.011332690830135606 -0.07135541136525092 0.0773578393653952
-0.011356631393754497 -0.07136063553383393 0.0760514275625955
-0.011380673321462444 -0.07136588182149939 0.07473948442625306
-0.01140481725838677 -0.07137115036902625 0.07342197475243348
-0.011429063855141102 -0.07137644131838627 0.07209886303782526
-0.01145344106301661 -0.07138101212862474 0.07076951620434896
-0.011477895070188145 -0.07138634673947636 0.06943508822261352
-0.011502426194044771 -0.07139245001542271 0.06809555605830098
-0.011527062400746595 -0.07139857943570233 0.06675028580175041
-0.011551832133056494 -0.07140398615971705 0.06539862519121464
-0.011576708546643645 -0.07140941617007435 0.06404114308536224
-0.011601692332197041 -0.07141486961754034 0.0626778017939516
-0.011626784186381052 -0.0714203466541814 0.06130856330067558
-0.011651984811899973 -0.07142584743338365 0.05993338925963232
-0.011677294917563731 -0.07143137210986439 0.05855224099174333
-0.01170271521835412 -0.07143692083969266 0.05716507948113203
-0.011728246435492458 -0.07144249378029499 0.05577186537144213
-0.011762116407974182 -0.07123000537769852 0.05418565800419134
-0.01179679062254396 -0.07100020338012425 0.05257640667028457
-0.011830097190402287 -0.0708105477551243 0.050993586142756675
-0.011862713875573704 -0.07064295127478187 0.049421943320562434
-0.01189462769129547 -0.0704976342185839 0.04786192098168651
-0.011925293169777602 -0.070388773352628 0.04632624767097149
-0.011955760260551798 -0.0702886857143265 0.04479089305237244
-0.011984649799018152 -0.07023333151954236 0.04328790232456492
-0.012013348961987433 -0.07018631116830099 0.04178531879214992
-0.012040948920102544 -0.07017120472572624 0.04030439835233557
-0.012068100195740682 -0.07017095546800023 0.03883013926099094
-0.01209440017550641 -0.07019589849012348 0.03737209012300352
-0.012119989736068051 -0.07024224895759629 0.03592711067133675
-0.012144951192145792 -0.0703077628478957 0.03449340480584606
-0.012169152850908468 -0.07039571325037469 0.03307422390363984
-0.012192863396929878 -0.0704990801401355 0.03166334214042227
-0.012215734965627901 -0.07062667343689355 0.030269152406292243
-0.012238225025642684 -0.07076667385309632 0.028880895760072023
-0.012259765932598095 -0.07093346465699696 0.02751225903305554
-0.012281100353150066 -0.07110801727880306 0.02614558618092294
-0.01230143851702953 -0.07131030788086645 0.02479996209673757
-0.01232155984087523 -0.07152045735403656 0.02345674851827273
-0.012347866938470372 -0.07157693711706603 0.021960728786582617
-0.012376294156685891 -0.07158314033749408 0.020409484880875073
-0.012404852567025419 -0.07158937218591155 0.01885108195658819
-0.012433543079770511 -0.07159563286095333 0.01728547034060013
-0.012462334297896477 -0.07160273009675577 0.015713392550792404
-0.012491291629806991 -0.0716090508883016 0.014133218633079758
-0.012808217292237635 0.027500796998494503 0.04547584373242436
-0.012709297833042693 0.023513338528154404 0.04663320342619798
-0.012636041216972442 0.020357831302003915 0.047248951112074
-0.012570998583690539 0.017473428580090322 0.047697086948660705
-0.012510704690763864 0.014748371029777496 0.04805143420963115
-0.01245464218138263 0.012165327116266944 0.04832224476382002
-0.012404043275635815 0.009762500189307854 0.04848143501917268
-0.01238547733719257 0.008378470682268935 0.047941137974002734
-0.012375934739314797 0.007281399824066059 0.04720377244605228
-0.012354342892630075 0.005806329394944076 0.046735744183470374
-0.012314889256512054 0.0037730182966649872 0.04666949017579486
-0.012283762878332228 0.0020057927490030325 0.046422875926840856
-0.012267035812822196 0.0006929819902034007 0.045857600198417725
-0.0102247392571461 -0.06384767907603595 0.09094740589730055
-0.010191990956267587 -0.06552507563903498 0.09090473902263002
-0.010170472336970996 -0.06684916106035005 0.0906122731337907
-0.010156027482782335 -0.06795103014486137 0.09016204910975484
-0.010148360754265187 -0.06884119961249202 0.0895591950497652
-0.01014553288741389 -0.06958088916047978 0.08884660338705633
-0.01014699375527922 -0.07018799244285517 0.088035813764264
-0.010153289721709365 -0.07064652707398894 0.08711323358419204
-0.01016514826056258 -0.07093509076450677 0.08606090996508983
-0.010182442262374193 -0.07105865048407772 0.08488051699568852
-0.010203582670671205 -0.07106683680974979 0.08360783715999487
-0.010224930687927535 -0.07107140698364445 0.08232706436949652
-0.010246368221455035 -0.07107599632115164 0.08104092105660773
-0.010267895835474663 -0.07108060494305823 0.07974937337093368
-0.010289514098958915 -0.07108523297117258 0.0784523871770055
-0.010311223585682266 -0.07108988052832693 0.07714992805126597
-0.010333024874271766 -0.07109454773839208 0.07584196127902723
-0.010354918548258318 -0.0710992347262932 0.07452845185139029
-0.010376905196129023 -0.0711039416180122 0.07320936446211448
-0.010398985411379725 -0.07110866854060449 0.07188466350445838
-0.010421159792568493 -0.07111341562220785 0.0705543130679741
-0.010443428943369535 -0.07111818299205969 0.06921827693526661
-0.010465818542512299 -0.07112222365332327 0.06787591130054066
-0.010488279172020639 -0.07112703039994883 0.06652838934085081
-0.01051083641410894 -0.07113185782241854 0.06517507112449927
-0.010533490893477578 -0.07113670605442207 0.06381591917268564
-0.010556268745310288 -0.07114082169157593 0.06245027004734549
-0.010579119705528838 -0.07114571032902067 0.061079332215634885
-0.010602018356819825 -0.071152133743135 0.05970371625283094
-0.010625042190534395 -0.07115782661759434 0.05832149254059643
-0.01064819219234316 -0.07116278422423072 0.056932607829979
-0.010671886412439074 -0.07115481409851421 0.05552661830277139
-0.010703704410067941 -0.0709130088719529 0.053913989815433994
-0.010735000501597215 -0.07069047879646267 0.05230956865843067
-0.010765339426015081 -0.07049975904626826 0.050724418395238835
-0.010794756717182835 -0.07033963576545915 0.049157862857558854
-0.010823825721718899 -0.07019336043582958 0.04759561054435585
-0.010851488286076091 -0.07009138050281194 0.04606458947616904
-0.010878967537988551 -0.06999823130769434 0.044533995390830916
-0.01090527962092842 -0.06994212307912107 0.043028984031555306
-0.01093117228418317 -0.069901411643632 0.04153067953280676
-0.010956308929085596 -0.0698856362747412 0.04004782176557259
-0.010980788653762171 -0.06989182528218257 0.038578032150951125
-0.011004768174250022 -0.0699153931147446 0.037117413352600104
-0.01102782267546576 -0.06996830281588506 0.03567708673536851
-0.011050554716337346 -0.07003330950947145 0.03424160719717623
-0.01107237041415452 -0.07012713359858347 0.03282652656737434
-0.011093962544219682 -0.07023006570997553 0.03141394730967684
-0.011114564524780612 -0.07036362708478605 0.030024016842352064
-0.011135044511581687 -0.070503260906638 0.028634137395672332
-0.011154432411747206 -0.07067610816742931 0.027269916742033773
-0.011173859367707217 -0.07085035675932988 0.025901692861333425
-0.011192149824040805 -0.07105878096107116 0.024560634325969943
-0.011210500257735217 -0.07126788861945133 0.02321517824302749
-0.011235754731026382 -0.07128780374989246 0.021682747141767156
-0.01126164571736205 -0.07129334648115854 0.020129419240864366
-0.011287656302505679 -0.07129891481610023 0.01856891601788846
-0.011313787317073738 -0.0713045089325387 0.017001187640058923
-0.011340039599392246 -0.07131012900994116 0.015426183812066896
-0.011366413995586268 -0.07131577522944416 0.013843853770700465
-0.011392911359670622 -0.07132144777387839 0.01225414627939675
-0.011419532553642435 -0.07132714682777813 0.01065700962270072
-0.01144630843482956 -0.07133205600554998 0.009051573320704775
-0.01148627064778317 -0.0709821828999933 0.007081201353752065
-0.011567589319174718 -0.06951660149156125 0.003969852513470762
-0.011550556421808921 0.028325620458625023 0.04492146908484684
-0.011444260413087467 0.0237227613570154 0.04649166321566811
-0.011371384694089435 0.02032050265634966 0.04727432037263657
-0.011311620484613243 0.017392782148854813 0.047752200301976966
-0.011258505888035026 0.014708510234354488 0.04807882598245128
-0.011205696165336634 0.012042573843965676 0.04840706631155245
-0.011161104009851696 0.009673310179029893 0.048543405482544544
-0.01112667982238681 0.007667442698111648 0.048437898596992324
-0.011123658139403941 0.006766881772804656 0.04756522358182813
-0.011103900352941117 0.005281490412840817 0.0471064762760503
-0.011084587576575254 0.003814451521978457 0.04664006191371367
-0.011044704630745746 0.0016337701146567074 0.04668855889253409
-0.01101873819238931 -5.7535434583089184e-05 0.04639652769221708
-0.01099907413535986 -0.001526537909595782 0.0459510903724476
-0.010985215970524712 -0.0027917726163974588 0.04536311314570762
-0.01097133145950529 -0.004055937836664358 0.044778159278947516
-0.009145399233621022 -0.06777955873688868 0.09003620573098625
-0.009139001408595762 -0.06865280742421825 0.08942018023406159
-0.009136750484687158 -0.06938279055135527 0.08869963086257088
-0.009138470430519737 -0.0699764267432964 0.08787799685087413
-0.009144867512034199 -0.07041042352986554 0.08693615688357142
-0.009155577663482012 -0.07069820241381453 0.08588228162738662
-0.009171829064869973 -0.07079887836079385 0.08468357239331131
-0.00919099457739038 -0.07080288292407966 0.08340664008061272
-0.009210240354386142 -0.0708069042583403 0.08212436002142301
-0.009229566901132313 -0.07081094246915387 0.0808366985509967
-0.009248974727154 -0.07081499766298266 0.0795436217214259
-0.009268464346271002 -0.07081906994718756 0.07824509529866108
-0.009288036276643229 -0.07082315943003492 0.0769410847594876
-0.009307691040816456 -0.07082726622071178 0.07563155528847057
-0.00932742916576907 -0.07083139042932723 0.07431647177485001
-0.009347251182959067 -0.07083553216692612 0.07299579880940579
-0.009367157628371604 -0.07083969154550362 0.07166950068128303
-0.011049856721128942 -0.015548976984648688 0.02586897084949097
-0.011081994713167148 -0.015271683460502727 0.024066195142340097
-0.01111903436910069 -0.014836671346805275 0.022126020706139227
-0.01116208616468057 -0.014208298914801687 0.02001721304298748
-0.011215604206502881 -0.013241001343395509 0.01761759688276715
-0.01129031462335051 -0.011584144104307248 0.014633068070007249
-0.010029898846822862 -0.07024259443728004 0.028389951859245866
-0.010047274413120474 -0.07041832688191912 0.027027174437699364
-0.010064684524766188 -0.07059546892875085 0.025660424081584032
-0.010081095313710433 -0.07080604735295282 0.024320158391711033
-0.010098363591050949 -0.07099247435053141 0.022951757274241702
-0.010121601777132467 -0.0709973298845597 0.02140347670110354
-0.010144947160547597 -0.07100220781709582 0.019848053937563392
-0.010168400484760235 -0.07100710830348245 0.01828543944917549
-0.010191962500125175 -0.07101203150050389 0.016715583242375154
-0.010215633963968254 -0.07101697756639902 0.015138434859143013
-0.010239415640667278 -0.07102194666088524 0.013553943371605592
-0.010263308301734603 -0.07102693894516576 0.01196205737654471
-0.01028733963935676 -0.0710311383593501 0.010361911276839497
-0.010311456738990279 -0.07103617561258907 0.008755074006606134
-0.010335660015045805 -0.0710420565715491 0.007141511066657225
-0.010360004474342294 -0.07104714325748518 0.005519523306312113
-0.010384463885546265 -0.07105225396221782 0.0038898766949270747
-0.010409039064770143 -0.07105738885627422 0.0022525168577287036
-0.010182010534991083 0.02409599716845806 0.04623940859941539
-0.010110324233195363 0.020417338114057604 0.04720850914602409
-0.010054282076487193 0.017373201488408763 0.04776558162388789
-0.01000670126655942 0.014674350196278663 0.04810230027574047
-0.009960987832914237 0.012057210137129182 0.048396952747849276
-0.009919855086578095 0.009628730361505411 0.048574380161664044
-0.009883083070469189 0.007379117975550131 0.04863933703822715
-0.009872782166449469 0.006178949210955631 0.0479782487258808
-0.009859804077950427 0.004875111892337858 0.04739353109557204
-0.009843615509088166 0.0034473136467064736 0.04690082437021309
-0.00980886421498734 0.0012948183646866451 0.04693062401934328
-0.009786892169539546 -0.00035242080966357836 0.04660827738769607
-0.009770887318022819 -0.0017632898876623893 0.046122027016206546
-0.009757657974031489 -0.0030635100423474504 0.045560382595793925
-0.009746774101242058 -0.004270461161821781 0.04493474443264728
-0.009738437183502209 -0.0053768952998878294 0.04423870453869755
-0.009731333560744578 -0.0064342630587299054 0.043509043697199434
-0.009726188557948165 -0.007414851010307144 0.04272462603159044
-0.009722238724443203 -0.008348552980348312 0.041906835947507826
-0.009719994701141125 -0.009216019110477036 0.04104060173101404
-0.009718886589943304 -0.010039531616606312 0.04014192546327833
-0.009718994687322952 -0.010816289210660246 0.03920814947112772
-0.009720373138731085 -0.011544515809447764 0.038237347110553266
-0.009722887792229995 -0.012229633651969996 0.03723307416969751
-0.009726432146450739 -0.012875969599612236 0.03619812705789743
-0.009731008452923153 -0.013483686354254287 0.03513214374213641
-0.009736429766959154 -0.014060116934526135 0.034040345116988224
-0.009742563125968254 -0.014610492961293131 0.03292642532628581
-0.009749791942385726 -0.015120518263656846 0.031778790659174216
-0.009758420756864714 -0.015578989732610848 0.030588050966954772
-0.009774794780690814 -0.015747832278794005 0.029164106090600883
-0.009794900551065553 -0.015779390695897344 0.027625102864874684
-0.0098187838566174 -0.015672851417559863 0.025968591606264246
-0.009847747839337912 -0.01538047535632725 0.024154153754247343
-0.009879702901811208 -0.014981329339584959 0.022243601276500102
-0.009916815476155586 -0.014395604004957041 0.020170269512139072
-0.009963401328080133 -0.013464464199641368 0.01780117214276955
-0.010023948573338838 -0.01202408295244961 0.014996401672356552
-0.009047023799410298 -0.07071556331506634 0.01800221693916282
-0.009068007016695747 -0.07071981492801 0.016430233574198372
-0.00908908779512145 -0.07072408630877719 0.014850941297170739
-0.009110266816686372 -0.0707283775955545 0.013264289015293917
-0.009131544769761026 -0.07073268892781814 0.011670225158451397
-0.009152922349161888 -0.07073702044635471 0.010068697673613847
-0.009174400256227289 -0.07074137229326793 0.008459654019164597
-0.009195979198893936 -0.07074574461199984 0.006843041159160124
-0.009217659891774789 -0.07075013754734372 0.005218805557498873
-0.009239443056237756 -0.07075455124546631 0.0035868931720183794
-0.009261329420485978 -0.07075898585391455 0.0019472494484920055
-0.008922463019667783 0.024699359175899938 0.04583162122483203
-0.008851603251477304 0.020648531052409935 0.04705138600934222
-0.008798939507619933 0.01743886184633192 0.04772070967543768
-0.008756715978115759 0.014713065349460264 0.0480756957720071
-0.008716833172980363 0.012101125524291212 0.04836660755998973
-0.008680661561712549 0.009664393405697913 0.0485496009810476
-0.008647282026914132 0.007360352965605499 0.04865244723675405
-0.008625698317677752 0.0055938836072759734 0.048389259819534236
-0.008617362050121435 0.0044270026045756805 0.04771006340285383
-0.008597377094550714 0.0027389801309861683 0.04740392361445006
-0.008576883255401823 0.0010318412713408165 0.04711843123218207
-0.008564561830493773 -0.00030634141661417535 0.046575188946319845
-0.008559312582764097 -0.0013268834214871794 0.04580693838526084
-0.00853706892121524 -0.0031027524706442877 0.04558887087716745
-0.008526026041430181 -0.004377103987571462 0.04501258530728752
-0.008518687888458111 -0.00548523883481844 0.04431821818277737
-0.008512807498610267 -0.006527553727055435 0.04357788299028781
-0.008508804946435468 -0.0074859102477242145 0.04277734601562949
-0.008505350149414826 -0.008419406795292128 0.04195968917655041
-0.008503978474348842 -0.00926071278551599 0.04107412180604675
-0.008503505585573229 -0.010062346503231845 0.04015912928634896
-0.008503742023497365 -0.010832847760753939 0.039220703231796605
-0.008504995363719625 -0.011558978324629543 0.038248371065770725
-0.008507077197575187 -0.012249229947262186 0.03724809198948481
-0.008510438670352057 -0.012884209543343017 0.036204475888303445
-0.008514395352486579 -0.013493974153988342 0.03514011314630522
-0.008518877714530146 -0.014081698969807155 0.034057153539754526
-0.008524552648496332 -0.014618707893592153 0.032932857638967694
-0.00853042548856664 -0.01514822435189117 0.031800601097060066
-0.00853737872539475 -0.015632326550256648 0.03063026333740676
-0.008552706251275875 -0.015758103052436967 0.029172278248727257
-0.008569433326466579 -0.01582672458824652 0.02766296667514556
-0.008590736027629975 -0.01570277520963098 0.025992656546394266
-0.008615978285796569 -0.015414653802298284 0.024181787142212308
-0.008642785678961167 -0.015064534212548386 0.02231123166616511
-0.008674604717709198 -0.0145064324415618 0.02026083303699705
-0.008713927363775872 -0.013636094048114944 0.01794216646543695
-0.008765701017659855 -0.012246318550630853 0.01517994004547002
-0.008873329657942923 -0.008508598785097521 0.010449077111536642
-0.007669057983664511 0.02583131030255409 0.04506658237186867
-0.007593549847933788 0.02099230677710151 0.046817749460736524
-0.007544075168239924 0.017551801940139555 0.04764352700041746
-0.007506895717165302 0.014773430476533955 0.04803421371352046
-0.007473552260142466 0.012205886240826025 0.048294218727077565
-0.007442552743238175 0.009769191073280392 0.04847678609964845
-0.007414199060740841 0.007478492209719023 0.04856990910068487
-0.007388704467828858 0.005344148452058661 0.048564699836216196
-0.007376064316246322 0.0038895475467239926 0.04808970715085925
-0.007364584408041173 0.0024983912738630876 0.047574803672366495
-0.007350872089254645 0.0009930718360548485 0.047146118737172504
-0.0073522533951611785 0.00027757622155893946 0.046155892526366094
-0.007360717483543686 -6.972282070599745e-05 0.04489925932163319
-0.0073717085172885785 -0.0002876379375223448 0.04354522122553239
-0.00730944871108376 -0.004303199506922484 0.04495864084948542
-0.0073011427224025215 -0.0055157321106298896 0.04434059728902723
-0.007296570284307877 -0.006533841322580891 0.043582522614367736
-0.007293687514454321 -0.007463968352905637 0.04276106697314791
-0.007291009798725608 -0.008382941267148614 0.04193248780549286
-0.007289570325286897 -0.009237847589404435 0.041056973001688424
-0.0072891852105310745 -0.01003849450999389 0.040141143421317804
-0.007289631136736286 -0.010796624018693635 0.039193240429450826
-0.007290989520756635 -0.011508354594072678 0.038209783466616354
-0.007292997612117005 -0.01218733985093945 0.037200661886022224
-0.00729551435818015 -0.012840945745484111 0.036171141374828575
-0.007298540811284453 -0.013469282472246269 0.03512098583079598
-0.007303136066027968 -0.014019001309919121 0.034008323632837345
-0.007307696368243834 -0.014571467029195873 0.03289586792315535
-0.007312976322316005 -0.015088702422806244 0.031753744993586686
-0.007319265126628095 -0.015556419493609641 0.030570188197259096
-0.007331813721312183 -0.01571188004676366 0.02913549993731973
-0.007345887216402338 -0.015793797954929023 0.02763662766656383
-0.007364212015447823 -0.015666659679449635 0.025963612163599714
-0.007384957807337516 -0.015422938529162766 0.024188485371611723
-0.00740826949303517 -0.015056215418241425 0.022304470003290222
-0.007435755098542487 -0.01448761721602393 0.020245458163923757
-0.0074695913740666945 -0.013610833404421818 0.017921414787454737
-0.00751500882148109 -0.012169788986798102 0.015116736347431103
-0.007589812356205033 -0.009291472301144299 0.01109906772121172
-0.006338239724850896 0.02164874016145063 0.04637162479487633
-0.006291328035339829 0.01784482096523249 0.04744327931665854
-0.0062582554122232285 0.01493297369209795 0.04792457788038301
-0.006230109352441793 0.012342271003693117 0.04819997792635067
-0.0062049811489995 0.009949931147197777 0.048351205374905615
-0.006181261411132043 0.007653071619115104 0.048447938969965576
-0.006160222766535617 0.005531419712724472 0.048433140973121125
-0.006142382249330125 0.003616486662581131 0.04828258999003848
-0.006134241270055564 0.0023154413839591714 0.04770474521727608
-0.006124936692067459 0.0009435445024964517 0.04718148908200592
-0.006127599627596217 0.0003227321995191157 0.04612346716590354
-0.006136343437640303 8.087531382289237e-05 0.04479052637721198
-0.006145855628890439 -0.00011535707628063108 0.043420152878252904
-0.006090171402516631 -0.0043676035988187145 0.04500565077076585
-0.006084810959985396 -0.005483135668708339 0.04431667466288369
-0.006081592449285638 -0.006464666219207216 0.043531478224815956
-0.006079104673593649 -0.007400217828993805 0.04271376944047972
-0.0060771767789771225 -0.008300607258068415 0.04187107095386172
-0.006076094988043886 -0.009148438609649423 0.04098991662945284
-0.006075925993044225 -0.009939943074035062 0.040066829597391274
-0.00607609498814926 -0.010710693808435201 0.03912809298068842
-0.006077244403914668 -0.011421538946536691 0.038143608821433306
-0.006078901680028998 -0.012101691149730864 0.03713502413457043
-0.00608150779803455 -0.012724495300832694 0.036081416960687895
-0.006084421170098336 -0.013329300589758841 0.03501254940836507
-0.00608789715117333 -0.01390074282916598 0.03391622209957984
-0.0060913261512655454 -0.014475921307632533 0.03282105538251118
-0.006096425859966865 -0.014951112558814261 0.03164543323348051
-0.006101960189202141 -0.015401430721627585 0.03044752539607276
-0.006113538058588807 -0.015489847561889203 0.028958835097974922
-0.006125348867222096 -0.015567267399342666 0.027455419032505146
-0.006140206909579335 -0.015465314503359417 0.025801688848647863
-0.006157375208181593 -0.015229185334063033 0.02403183526486974
-0.00617661255691542 -0.01487414763699002 0.022156482096417518
-0.006200278963382528 -0.01426063792837634 0.020059981899989532
-0.006229007958903009 -0.01335276654199019 0.017709412255290047
-0.006265722561653318 -0.01197939101587675 0.014959491810043801
-0.006327719926676572 -0.00912151386592952 0.010957957586994194
-0.005086634043871349 0.022929032307851593 0.04550151379864342
-0.005039738871440529 0.018376577971479013 0.04707987933336505
-0.0050104224203147505 0.015236458642879536 0.04771602732995078
-0.004987430027297978 0.012607419607057135 0.04801676232244212
-0.004966637066866533 0.010159887516331567 0.04820532476066919
-0.004947879162739494 0.007879815667158452 0.048289523946823176
-0.004931557489909053 0.005797852924786573 0.04824597049995277
-0.0049155228715587074 0.0037437220503230284 0.04819271434597194
-0.004904569744900204 0.0020937528463231825 0.04786220118013168
-0.004898246407649248 0.0008100996510568836 0.04727678979925731
-0.004892733696592927 -0.0004081299063480315 0.046648280674583875
-0.0048883680042882535 -0.0015350746193249498 0.04595725393873229
-0.004881472705232961 -0.002857619685876278 0.04541091522943047
-0.004871879064459656 -0.004387659416000611 0.04502028993978724
-0.00486928642483604 -0.0053716343224120555 0.04423484349160517
-0.004866940498197597 -0.006335681127040638 0.04343629997469656
-0.004864881201949297 -0.007276835695330719 0.04262223026339507
-0.00486368977413295 -0.008150436937786776 0.04175905177268513
-0.004862783055550467 -0.0090017568793897 0.04087990592659724
-0.004862566575776227 -0.009799806674852085 0.03996115816203105
-0.004862728933873688 -0.010568770372662184 0.03902049461996754
-0.0048639063541406555 -0.011260202194004143 0.03802063096367553
-0.004865395862883744 -0.01192820878226919 0.037002074161529064
-0.004867767416951314 -0.012529560367551762 0.03593122068847493
-0.004870100569723474 -0.013134590761649911 0.034861718195088875
-0.004872911459235009 -0.013704163336665465 0.03376312295141748
-0.004875970456459998 -0.014255875094148163 0.03264875864310163
-0.004880177743691626 -0.014721910118214054 0.03146500337446506
-0.004884460554322711 -0.015183609826864841 0.03027513535280163
-0.004894186092901415 -0.015237680029921097 0.0287581926714926
-0.004904858809625379 -0.01522385034713386 0.027180709359092003
-0.004916670671749756 -0.01512821329222408 0.025530589502533563
-0.004930347094070295 -0.014897154833668103 0.023763387493973998
-0.0049459047831274345 -0.014530329146860477 0.021877020357779886
-0.004964407945595271 -0.013949526053778027 0.019805756641094296
-0.004986974609911571 -0.013073226772199409 0.017479769679416557
-0.005017125313148396 -0.011642791815196174 0.014681503629078219
-0.005068812284751546 -0.008631342503501727 0.010550986631687742
-0.0038353256249257827 0.025094484184209065 0.04402983134340971
-0.0037901327483184054 0.01947342998841195 0.04633029634725194
-0.0037629628133259976 0.015781838752736976 0.04734124985972471
-0.003744184104172574 0.012989406496303646 0.04775281237999268
-0.0037278700300265137 0.010465170710609983 0.047993209738480924
-0.0037140533926979706 0.008211002456384509 0.048058139867141914
-0.0037018750601733085 0.0061349807132815015 0.04800913678390656
-0.0036905243399487004 0.004151002573541229 0.04790502237607547
-0.003679811124249478 0.002238632566976373 0.04775929926126404
-0.0036729230229627474 0.0007305073924265826 0.047333631252886255
-0.0036687696651771418 -0.0004895217226905113 0.04670672606991849
-0.0036624753391515585 -0.0019305452801658407 0.046242786621590204
-0.0036588765960897766 -0.0030889655141839167 0.04557886215161261
-0.0036558150631251685 -0.004190175459482803 0.04487614218493635
-0.003653899112461786 -0.005171608503038494 0.04408804394497212
-0.0036519342936000556 -0.00615726351606094 0.043304645411225084
-0.003650449357248386 -0.007092657423812709 0.04248558545988029
-0.0036495345870328007 -0.00796882046914793 0.041623575414461045
-0.0036488945206311785 -0.008816419755928673 0.040740903835600084
-0.003648894520662809 -0.009598241036133048 0.039809165314441675
-0.0036491383290511515 -0.010355163465863682 0.03885854988628079
-0.0036502460355011383 -0.01102415016118019 0.03784070188452665
-0.0036515476872447422 -0.011673888045716008 0.036807172883875694
-0.003653165876120925 -0.012292060933225601 0.035748228707057905
-0.0036551014428341257 -0.012878787153680404 0.03466356092216022
-0.0036575288904820567 -0.013416636587879227 0.03353919267388383
-0.0036600311038554587 -0.013947986935247514 0.03240768143917533
-0.0036629052079288323 -0.014442988100416998 0.031245433895991603
-0.003666450347190336 -0.014871841858447254 0.03002839275437197
-0.0036741482071812152 -0.01488612747154111 0.028478472448199343
-0.003682519804445876 -0.014836350172841406 0.026870736264737072
-0.0036911894914863934 -0.014760420553977971 0.02523480779795806
-0.003701801876579894 -0.01449480366347966 0.023438085226182515
-0.0037137692665798467 -0.01409912925023682 0.021526533469289955
-0.003727329383218411 -0.013550704126544966 0.01947985905896299
-0.003744825943751032 -0.0126187332627265 0.017106402196459647
-0.0037682637559083763 -0.011107879489241135 0.014239733998705761
-0.0038160973414833655 -0.0072045195354154545 0.009366348868479368
-0.0025373866809379883 0.02116696130564122 0.04517294581842268
-0.0025139176237056813 0.01662053555889914 0.04676490931921212
-0.0025001078050622466 0.013621640531592427 0.04731594362369007
-0.002488488197952021 0.010978396987377181 0.047636612961703295
-0.002478620185093903 0.008619388158033259 0.047772820667207005
-0.0024705472290198803 0.006549778645168147 0.0477177394593028
-0.0024632000221598556 0.004599565953879836 0.04758816931005272
-0.002456559190258394 0.0027650077247237115 0.04738543731887307
-0.0024506686529583424 0.0010523060739087153 0.04710381612832387
-0.0024462367263249603 -0.0004284811073557715 0.0466628943549498
-0.0024433023895289725 -0.0016726763321802673 0.04605660337252815
-0.0024407295352365504 -0.002858681548502051 0.0454116860951127
-0.0024386860393510613 -0.003960751201663559 0.04470868052244947
-0.0024372032444094508 -0.004974533979505924 0.04394341036317695
-0.0024360142314766246 -0.005941887946154689 0.043145719526707704
-0.002435260658685268 -0.006841214061291234 0.04229903561019577
-0.0024345075519801554 -0.007739983941489503 0.04145287536931558
-0.0024344668567989718 -0.008528679606162659 0.040525099890149685
-0.002434344779375944 -0.009329841971373376 0.039606775966721464
-0.002434683913642993 -0.010060274222130572 0.03863498145977623
-0.0024353217419199893 -0.010745264417135247 0.037628123096225374
-0.002436217980015847 -0.011391245672588313 0.03659056703258656
-0.0024375363762541694 -0.011973540907666336 0.03550281081474388
-0.002438931078401817 -0.012545092613467534 0.0344050657406238
-0.002440579562788729 -0.013079072491456956 0.03327629253636155
-0.00244251016482059 -0.013571439258282358 0.03211284365966521
-0.0024445600773152043 -0.014047038597161277 0.030933739514105496
-0.0024471889915730406 -0.014436748739671212 0.029684046902453354
-0.002452236699383426 -0.014464617404360725 0.028143089054446235
-0.0024578513064573235 -0.01441071104238828 0.02653025466731329
-0.0024640057282139553 -0.014279629500671853 0.024848151992925838
-0.0024708825526740252 -0.014044627335358884 0.0230741161581291
-0.0024788733157911514 -0.013648058731220769 0.021159895388118355
-0.0024883039563046057 -0.013042534708199272 0.019064608107489722
-0.002500250875989226 -0.012069742020586027 0.016655404604698443
-0.002516545709760622 -0.010460942938810391 0.013705446589553305
-0.0012791417947348785 0.024495703044300043 0.042898100958821295
-0.0012617940817667818 0.018157881662085817 0.045708466898595146
-0.0012528462595403022 0.014507659400160189 0.04670371153941916
-0.0012465906926394502 0.011721466148346127 0.04712031814259643
-0.0012412747601075144 0.009240254254433589 0.047339051763995
-0.0012368437289285012 0.007044950443616971 0.04736987914902857
-0.0012333139573933193 0.005138996754721292 0.04720712995052073
-0.0012300812671306636 0.0033308903635466125 0.04698351488883096
-0.0012272824770902212 0.0016629435648284896 0.046667724437730596
-0.0012245684662925591 2.5113930303133358e-05 0.04633717928322456
-0.0012229061070368665 -0.001280944010762619 0.04577376979782327
-0.001221487254988301 -0.0025090083900784488 0.0451578387223005
-0.0012203340902761754 -0.0036526535622056766 0.04448379347954329
-0.0012195642531929484 -0.004675896230606769 0.0437242392267545
-0.0012189654064504384 -0.005645212661741783 0.04292680248792613
-0.001218486072690578 -0.006576836269201469 0.042102889500472696
-0.001218265230157827 -0.007428150190545324 0.041220263749533026
-0.0012181938981474544 -0.00823318185234273 0.040303477773118324
-0.0012182516424832906 -0.008998493201045843 0.03935691868217944
-0.0012184418978190207 -0.009723280853918437 0.038379492055958364
-0.001218815786706061 -0.01039217057848757 0.03735897968542323
-0.001219308990970356 -0.011025139219869584 0.03630999763679482
-0.0012199899280569072 -0.011601587465912555 0.0352162227750944
-0.0012207773575204112 -0.012146558415700004 0.03409634276980533
-0.0012216682745045087 -0.012661168377708087 0.03295082235117258
-0.0012226905030207308 -0.013137199668111943 0.031772832966801334
-0.001223741863627331 -0.01360575087393423 0.03058635454962344
-0.0012255199257104057 -0.01385674813190102 0.029225016881574695
-0.0012278377653959453 -0.013947780037559199 0.027731856479965067
-0.0012307049551285305 -0.013877016259774999 0.026103336089767448
-0.00123379457844176 -0.013743363347407611 0.024416882692517516
-0.0012373726604969733 -0.013467799001208147 0.022607748519288373
-0.0012413241332501746 -0.013085557472415299 0.020702684434418916
-0.0012462173448723752 -0.012428346247390587 0.0185627236305273
-0.0012524727463310008 -0.011373219987697192 0.016083210122657676
-0.0012614953410532625 -0.009506798810308692 0.012917444746040618
0.0 0.020643327860155714 0.044000503550355397
0.0 0.015945722874031787 0.045710020965599396
0.0 0.012783015682975518 0.04638273871696158
0.0 0.010090170852059266 0.04674525643113464
0.0 0.00775183485960107 0.04687328981772465
0.0 0.005737074897340377 0.04678466369153417
0.0 0.003924619836182641 0.04656181403416981
0.0 0.002243007859191015 0.04625346684211479
0.0 0.0006552785477020318 0.04588467408251928
0.0 -0.0007652375453106042 0.04540142599276181
0.0 -0.0020552832723598202 0.04482845419181203
0.0 -0.003286733669634223 0.04421670073996331
0.0 -0.0043408189972301 0.04347832504377147
0.0 -0.005323814514476943 0.042689642419778406
0.0 -0.006262667487603013 0.041869802659782074
0.0 -0.007090619278738386 0.040968483395788846
0.0 -0.007905815671502392 0.04005795446505783
0.0 -0.008624761513514878 0.0390751020799886
0.0 -0.009350215076979362 0.03809665458221018
0.0 -0.00997903301102937 0.0370440683449646
0.0 -0.010564669280838324 0.03595711182553729
0.0 -0.011112460365894528 0.03483935308927383
0.0 -0.011651599232702259 0.03371292455810637
0.0 -0.012149920391624547 0.032552654514978296
0.0 -0.012612686725091415 0.03136213801127574
0.0 -0.01305965963774769 0.03015646748342682
0.0 -0.013226090994974626 0.028725895751609776
0.0 -0.013308798488594453 0.02722343730537463
0.0 -0.013248937961902352 0.025600917287390834
0.0 -0.013073711353965733 0.023878343489603437
0.0 -0.012842963275361052 0.022102566743577412
0.0 -0.012422214446177693 0.020163507511864076
0.0 -0.011672066258407499 0.01794472897428101
0.0 -0.010468639043480832 0.015340094757458067
0.001364691259869276 0.05087344430910251 0.023226796620824164
0.0012638088073822042 0.017986091493038814 0.044300142263676456
0.0012543101348602022 0.014165894232974319 0.04542189540879982
0.0012477370229656592 0.011282431768424417 0.045912281796132604
0.0012419945815241625 0.008669390620197281 0.04622870296408155
0.0012377021572418524 0.006520096115915752 0.04623155863494394
0.0012342023545645357 0.004625272376477474 0.04606417026090209
0.001231249465858515 0.002906375183635568 0.04577971771550021
0.0012288288738187545 0.0013577775679450288 0.045380227384984206
0.001226662252487885 -0.0001084289198717836 0.04492720540570999
0.0012249770348741024 -0.0014218849288644697 0.04436863478169556
0.001223433459732411 -0.0026891415655295736 0.043780505508501544
0.00122225610327132 -0.0038408015187037514 0.043111360721934555
0.0012215111601649785 -0.004857077915417396 0.04234523693834674
0.0012209615784576804 -0.005812040667126761 0.04153547541892483
0.001220695499279331 -0.006678892379241297 0.040661356727459685
0.0012206954992899043 -0.007463540205522701 0.039726249659135016
0.0012208114682772107 -0.008212583604381152 0.03876429466995185
0.0012212243602169803 -0.008870806605279058 0.037733194062883835
0.0012217400139632195 -0.009498142913850594 0.036677513093048064
0.0012225262841511222 -0.010043580178967781 0.03555776990359144
0.0012233512450907308 -0.010578249021258535 0.03442774624596595
0.001224362568819113 -0.011057360858757248 0.0332526001061364
0.0012252759089587527 -0.011567477543683757 0.0320990390195941
0.00122641089573905 -0.012011716449095433 0.030891576771450047
0.001227779108743941 -0.012387009408635241 0.02962695224053652
0.001229863125942177 -0.012548438365419523 0.028189580967580452
0.0012324859400788838 -0.012550590074916601 0.026620152755962967
0.0012353434682146405 -0.012485712044721431 0.02499038982202284
0.001238445922984646 -0.012351200212304292 0.023297294559506132
0.0012419945818039067 -0.012087413253347334 0.021491702021907033
0.0012463275481728116 -0.011594450748583451 0.019490686564905546
0.0012519882290484747 -0.010712229474917623 0.017160397758717583
0.0012607345549623605 -0.008921675103692295 0.014069260256226568
0.0027437890636731197 0.05404551964954951 0.022703909374076126
0.0027294592489082595 0.050885642106965945 0.02321841446727113
0.002552342968948426 0.021908786597398422 0.04158959073379376
0.0025201819396244596 0.0159964455740218 0.04415000280023085
0.002505132207027161 0.012808497780391948 0.04484609379830473
0.002492775980460881 0.010054953394916799 0.045255339177556864
0.0024818303244492973 0.0075313260695237805 0.045517253086834186
0.002473820516693679 0.00547579108174745 0.045460082908921284
0.00246755431573877 0.003698666856867039 0.04521389622507388
0.002462256072694231 0.0020769600122855225 0.04486380074449264
0.002458252345441204 0.0006607062729169222 0.04437188422307048
0.0024547442339345367 -0.0006757777186052749 0.043826993678860005
0.0024516656430549704 -0.0019432434380026176 0.04323605854518192
0.0024490957469127227 -0.0031298238985894566 0.04258957212171327
0.0024469285862658433 -0.004252411428068037 0.04189905283129197
0.0024459012126087356 -0.005197540079099006 0.04107956761058945
0.0024450183610141576 -0.006119730097549347 0.04024425099829515
0.0024450252023951805 -0.0069044913304084354 0.03930696526991312
0.0024452715168710106 -0.00765249582578692 0.03834195415145103
0.0024462709678183077 -0.008285287916962869 0.03728928674982379
0.0024473055063563634 -0.008913358756180878 0.03623176529019456
0.0024489584712301033 -0.009447757212841357 0.035101154926271305
0.0024509092317681223 -0.009937886873172541 0.033934350804266544
0.0024528768733084526 -0.010426706209375691 0.032764065927618824
0.00245539951734311 -0.010832663014227806 0.031526754102759624
0.00245807255330003 -0.011217493262852818 0.03026969801613677
0.00246101477110795 -0.011563412133472895 0.028978610364883195
0.002465493499930188 -0.011679799281168857 0.027502113727653654
0.0024710851877614267 -0.011631793708062 0.025889093007508968
0.002476688257394973 -0.011585675438113618 0.024270423353640436
0.0024832903049229636 -0.011393660022081531 0.022527233489202603
0.002490786431550969 -0.011072375223702746 0.020671040377544803
0.0025010953237448695 -0.010336781734492151 0.018468430987038875
0.00251446740272614 -0.009152357063008654 0.015885747061848088
0.0041377186686064795 0.057272106925136845 0.022161304337115828
0.0041157223654395775 0.05404963684815045 0.022701095701881502
0.003995226928236397 0.04039751607946329 0.03042570580216508
0.003950897841988514 0.03485292794610961 0.03264529065378663
0.0038135104024522534 0.01950475869935192 0.04171237789859905
0.0037760582885510963 0.014742512488715442 0.04349489191485639
0.003754996276312532 0.01171931431778328 0.044086118497279114
0.0037374580590914647 0.009074823408503185 0.04442696822255393
0.0037225657485200447 0.006714863457766673 0.04458002236950681
0.0037105626993784928 0.004663159798795391 0.044525095809335835
0.003701404639468501 0.002913239107587118 0.044263289974105224
0.003695039598484045 0.0014578649920959363 0.04379632985130805
0.003689776331972669 0.00011962537338455759 0.04324956592850421
0.003685595156234179 -0.001104227669367519 0.042623643028166014
0.0036820439456874423 -0.002261144112397029 0.041952045430500295
0.003678644106739425 -0.003400917830467476 0.04127073471137488
0.003676353535937986 -0.00442500027936954 0.04050640798501959
0.003674982622924656 -0.005353590259236096 0.03967275086968364
0.003674632328061636 -0.006176925105858988 0.038761293552004084
0.0036748692849789973 -0.006940011115997791 0.03780469700488104
0.0036760751476729624 -0.007604249475411495 0.03677296173627198
0.0036779421874520864 -0.00820162374415584 0.03568925004989071
0.003680720465637786 -0.00870712864362988 0.03453356670534097
0.0036837824589424973 -0.009185032157503159 0.033354280470497655
0.0036877104972836586 -0.009576545483525878 0.032105492218191256
0.003691449380938642 -0.009988856790295098 0.03086958476909757
0.0036960398584663465 -0.010316896338038894 0.029564528355588482
0.0037008925399502368 -0.01062051878835274 0.028236357739295337
0.0037089982258878516 -0.010599584669241824 0.02664719921683517
0.003717171120712102 -0.01057538995632984 0.025048543034884463
0.0037260367048372123 -0.010485441033313003 0.023390312619253062
0.0037361689975300995 -0.010272914516970766 0.021625921469074494
0.0037481992094662957 -0.009875785380681013 0.019703593484402093
0.0037671265828730146 -0.008798652521139816 0.01721821240789606
0.003815264253072959 -0.004834159692007789 0.012357129435083158
0.0055165228612249 0.05723736166864335 0.022184917877062116
