# .PCD v0.7 - Point Cloud Data file format
VERSION 0.7
FIELDS x y z
SIZE 4 4 4
TYPE F F F
COUNT 1 1 1
WIDTH 772
HEIGHT 1
VIEWPOINT 0 0 0 1 0 0 0
POINTS 772
DATA ascii
-0.04402833159909608 0.024042979649930737 0.041427855743492614
-0.04409371181182187 0.02409064154234851 0.03999407606238925
-0.04408177341672037 0.024144018976831546 0.0384898481128601
-0.04411983420566934 0.024194060272249282 0.03702093833922104
-0.04418401806483968 0.0242424517465375 0.03556782962265165
-0.04419194513494856 0.024295089405892797 0.03406097170213257
-0.04421159498265925 0.024347116220983185 0.032557520124007255
-0.04422952727133245 0.024399496111149586 0.031046071343011183
-0.04399726313359986 0.024470166140990242 0.02931248593805097
-0.04413619552586684 0.024514297552739293 0.02789148360422855
-0.04435177604444274 0.024553067961294018 0.026531642836319425
-0.04449454416420989 0.024597301346483077 0.025103168369429718
-0.04458692713439244 0.024645401050816702 0.02362475339462944
-0.04465508398510043 0.024695483787893848 0.022118797621378083
-0.044724430812827065 0.02474570374868616 0.020607520014614078
-0.044882702189219525 0.024789629874175035 0.019169310263345618
-0.04495369383924652 0.024840166611331368 0.017647060932244774
-0.045005718663942984 0.024892327941097372 0.016101199752904416
-0.045070825621189525 0.02494375938181984 0.01456051142851178
-0.045140804554220426 0.024995063328676737 0.013017643794024147
-0.045160345086546594 0.025050339831307413 0.011421876945322762
-0.04523635341065568 0.025101671544325393 0.009871033884466307
-0.045276563209170784 0.025155903648834278 0.008280344900504222
-0.04523062966484326 0.025216814367970214 0.006602327532183261
-0.04520215670322514 0.025276697636275512 0.004932729880014752
-0.04506995793402507 0.02534463471742322 0.003157636830388777
0.049325655087738285 0.02583829447473576 0.06485877622190594
0.04811532514261274 0.025815546727670124 0.06409583407378056
0.04685763782191443 0.025789870138005207 0.06336393782742716
0.04560371363445648 0.025764320539271794 0.0626327331025559
0.044351012625161 0.025738745698943563 0.06190374006833421
0.04302432097574366 0.025708606899122976 0.06122289341896259
0.04167701989959105 0.025677104936331487 0.0605582029474796
0.04033177410949579 0.025645604813809328 0.05989590690171742
0.038963848757810504 0.02561260525131846 0.05925137052295326
0.03751326590342974 0.025574449957560648 0.05866232792580012
0.036068223250850684 0.025536482802495767 0.05807426820062295
0.03462868351187637 0.025498702617074244 0.0574871818284699
0.033077005493126976 0.025453914074346166 0.05697579316327828
0.031518714814408766 0.02540854376026607 0.05647390128644131
0.029965969400200243 0.025363334898987587 0.05597379541984632
0.02830075398472498 0.025311026302401844 0.055551721381228825
0.026612790470888492 0.02525710779959655 0.05515062494596268
0.02493200319709654 0.02520341852693707 0.054751233739615546
0.023099378679473093 0.025140116452184662 0.05445802335226052
0.021262014226390458 0.025076267992783206 0.05417548458217197
0.019370608185788618 0.025008805765678634 0.05393648442160448
0.017616285909207663 0.024949610330841653 0.05361392610257942
0.016252391086295503 0.02491453994702026 0.05303604833590969
0.014853808723345796 0.024877159779455805 0.05248582456906892
0.013415466017612898 0.024837138060348707 0.051967119140851725
0.011981743814276968 0.02479724490618725 0.05145007999118134
0.010553734980058738 0.02475754984255209 0.050933932826027706
0.009129181423390864 0.024717911742297562 0.05042020200983466
0.007693733753501297 0.02467742465195226 0.04991884734067026
-0.011115093704498702 0.023537246921334357 0.06156035006915889
-0.010762560648355068 0.023607576687376744 0.05987973986334966
-0.011744975808878844 0.023593362466480586 0.05913352043073222
-0.014740578508539492 0.02345089726748762 0.059818920906177464
-0.0167769576922992 0.023369053039685703 0.05983673734124406
-0.017921516476249844 0.023343893863425072 0.05922420734163819
-0.019749000269169148 0.02327487614124285 0.0591078492184095
-0.021735537045414866 0.023195362059744744 0.05911546429260167
-0.023571616779810456 0.023125198789036055 0.05902307933991985
-0.025279579782171047 0.02306300421448478 0.05884535383639111
-0.02713107762467759 0.022991278737267216 0.058781257243326834
-0.029164151230694213 0.0229075002350019 0.05886078968699776
-0.03139737871872522 0.022810388130536315 0.05910006133429935
-0.03333724258508103 0.02273194090042584 0.05913143227394241
-0.035274627925239166 0.02265332664593032 0.059170746006689756
-0.0373245880832912 0.02256703366930679 0.05930526092725491
-0.03877089955989749 0.022519866685085696 0.05899048700562598
-0.04413833356468039 0.022215452692721425 0.06168664261944046
-0.043553446131481266 0.022300780128646187 0.05983496273637773
-0.04354415239951387 0.022348576057547927 0.05841837920610293
-0.04351480466047719 0.02239789766692443 0.05698012319386048
-0.04351236405597175 0.022445649990595087 0.055556674908546544
-0.0434653352078056 0.022496559765741813 0.05409205207568696
-0.04343649381583903 0.022546479270713446 0.05263533354402111
-0.04341454981525056 0.022596153348981025 0.05117772589180386
-0.04338282657268372 0.02264669239790233 0.04970593610310692
-0.043417120216486305 0.022693037153674666 0.048280753553491984
-0.04335167058407341 0.022746260772857557 0.0467689694769729
-0.04331250430280997 0.02279795010751193 0.045271691041932405
-0.04324383917119895 0.022851846848875493 0.043743632959146295
-0.04317663032052599 0.022905878940219226 0.04220979645877293
-0.0431841101657931 0.022955100621067256 0.040730635898320655
-0.043074382717588455 0.023012470724910118 0.03914776500360084
-0.043152539178695215 0.023057344639150726 0.03771424266933893
-0.04319146899579318 0.023105081684604414 0.03624194739762121
-0.04314140520225529 0.023159091735987333 0.03468833654654646
-0.04311819577048287 0.023211505022541656 0.0331504171130349
-0.04310031098161621 0.023263784471789523 0.03161014972391696
-0.04301702417214054 0.02332078030386708 0.03000694756345179
-0.0428432275823426 0.023384249711327718 0.02831824573568892
-0.04316186265834698 0.02341407498078989 0.027047633604502408
-0.04331452360529714 0.023455492487495868 0.025628562817190337
-0.043312434195256655 0.02350780289479348 0.02406854651623258
-0.043554716828742235 0.023543398344481353 0.02271657300008606
-0.04342202148087221 0.023605217118565433 0.021028192868312978
-0.04356996450571338 0.023647762189628843 0.019581064452499963
-0.043860046792543295 0.023680573925864187 0.01825527475969385
-0.043967832530617534 0.023726289968950227 0.016761287330602948
-0.04406220321590876 0.02377315298269121 0.015249027444949992
-0.04410243804107761 0.02382403316997977 0.013681291609347668
-0.044269647403501144 0.023866198014778642 0.01222255978662512
-0.04436424853269311 0.023913681333245 0.010691496831756353
-0.04443137302063427 0.023963325288412572 0.009128641269571636
-0.04450993981834994 0.024012383940230815 0.0075696322440239605
-0.044564597487811664 0.02406336666231928 0.005981645229431898
-0.044444762337356114 0.024127017262889915 0.0042232224478188085
-0.04430553739418586 0.024192344972101872 0.002437812461045741
0.05089384063129471 0.02458818541540598 0.06541321337579592
0.049723610203960045 0.024568973495512087 0.06462264823709585
0.04855648338713148 0.024549864176837806 0.06383255585012376
0.04733267157519927 0.024527450488334643 0.06307880489935619
0.0460756254242114 0.02450305239718578 0.06234784038549668
0.044822339238627495 0.02447877497905387 0.061617562623265176
0.04357153408572423 0.024454545621030672 0.0608887305347634
0.042229340458690645 0.024424973064728624 0.06021898672249737
0.04088291459828658 0.024395041799917628 0.059555477642232235
0.03953978461907698 0.024365183803081 0.058893592748698875
0.038155489667835385 0.02433283085311883 0.058261095657781536
0.03670606012703448 0.024296580775930773 0.057673507644051325
0.03526216519542835 0.024260509446836345 0.057086895323672227
0.03381525280661951 0.02422412092475714 0.056506660118171625
0.032254093768441794 0.02418093662082156 0.056003944003231665
0.030697287995441136 0.024137835825956893 0.05550379021559415
0.029146022138504868 0.024094888405901693 0.05500541623244998
0.027461115260433044 0.024043942789242254 0.05459925434716334
0.025775047592346945 0.023992726732312147 0.05420021226781213
0.024083232231448093 0.02394096887538826 0.05381135562781603
0.02224008905199859 0.0238800876671304 0.05352900989163356
0.020405138635513187 0.023819446965097774 0.053248865914050314
0.018604772754773236 0.023760609574106948 0.05295323848242034
0.01718693725952647 0.02372421241162209 0.05240792743845657
0.015739302700953195 0.02368589894374508 0.051887355719834216
0.01429633632463373 0.023647709025179868 0.051368462687011396
0.012859141507452432 0.02360970920732478 0.05085047078456095
0.01142543812842739 0.023571764385601237 0.05033491062771961
0.009969596912330125 0.02353234021387511 0.0498394813405309
0.00846654472828745 0.023489923257200895 0.04938188734454707
-0.011671243770120299 0.022326946847122754 0.06194890514177431
0.005477732821934256 0.023405612426636396 0.04847086093851044
-0.012024450387316643 0.02239682269833148 0.059330933785214646
-0.013799233622037055 0.022335296902053978 0.05915032338605847
-0.015702275843973434 0.02226574411728073 0.059069244417066846
-0.01762476740632013 0.022194724100933018 0.059011119315509564
-0.019825424916890877 0.02210648064115049 0.05916302838304471
-0.021729782801871877 0.022035944919526398 0.05911128696308199
-0.02363058555348535 0.02196533479001361 0.05906612191821575
-0.02556921420418623 0.021892115419632832 0.05905791746243777
-0.0275248620793217 0.021817547501045635 0.059071831331528823
-0.02947834508300423 0.021742802430917134 0.05909389519156294
-0.03138452783194312 0.021670660696014032 0.05909047524429473
-0.03336271187637213 0.021593770959397077 0.05915053414431087
-0.035363855036528 0.021515138416710818 0.059238028736467274
-0.03688388299338141 0.021466012622295715 0.058971143043156315
-0.0429098591041816 0.021136653200002648 0.06214538201612141
-0.04325553050569314 0.02115965840588565 0.06101009735286972
-0.04274407634078492 0.021236252686844218 0.05921134768656383
-0.0427181902821977 0.021282803385265617 0.057778550682976326
-0.0426913160345293 0.02132961341868676 0.05633877734755327
-0.042678345973993614 0.02137574910473646 0.05490363647467611
-0.04265917137676328 0.021422471780061104 0.053457433766612494
-0.04262934861344042 0.02147006548144721 0.051996534251207205
-0.04261086400999864 0.02151714605762244 0.050538256124041225
-0.042569303774278866 0.021565890141268487 0.04905517446984298
-0.04250716234208762 0.02161615010144583 0.04754895834717743
-0.04241895005855151 0.021668284963138502 0.04601486160992513
-0.042356160816608146 0.02171902388625704 0.04449435796663187
-0.042261799545609435 0.02177199937025049 0.042941158464992135
-0.04213560858303533 0.021827242448113855 0.04135459443595951
-0.04209684824610388 0.02187711497672236 0.03983269543222617
-0.0420525065207254 0.021927563451223094 0.038299339180174086
-0.04205219406822136 0.02197539424987604 0.03679581583731739
-0.04194691472805584 0.02203021394451879 0.03519764232179212
-0.04189283980703923 0.02208195918264603 0.03363511280496029
-0.04186670878359461 0.022132118724108245 0.03208913851598155
-0.041795779848465664 0.02218541153655102 0.030498036006466667
-0.04157632332101702 0.02224861736798645 0.028772256687501274
-0.04180958130858453 0.022282538426696707 0.027427724920041252
-0.041970203142055684 0.02232136363219543 0.026015561387688235
-0.04184282051945054 0.02237925245768667 0.02434722994125771
-0.04186323544485243 0.022427682613048644 0.022800159702675904
-0.04194468919532485 0.022472307052159437 0.02130000553961897
-0.0420902768540114 0.022512895890568964 0.019850306901508463
-0.042457531405499904 0.022538996291839256 0.018591981327112983
-0.0427377650986932 0.02257098590414846 0.017252194624771233
-0.04292063523723716 0.022609592034250357 0.01582040476419294
-0.04301507896566992 0.022654263954178376 0.014303276857717762
-0.043174946152596594 0.02269476878638523 0.012839201864276562
-0.04334468903710503 0.02273479606489646 0.011378372714264895
-0.0434544766194373 0.022779026971017406 0.009856825069760988
-0.04355442564744472 0.022824120589689238 0.008319877153603661
-0.04370057647151404 0.02286630635780285 0.006819296706164046
-0.043760198059711486 0.02291452929797638 0.0052320170484177475
-0.04387354607881272 0.022959336007094523 0.0036881218462151977
0.05352341822425355 0.0233457248501634 0.06683267371750612
0.0524350766968546 0.023332080228757553 0.06598848711144006
0.05129392004044803 0.0233155479989784 0.06517719406593547
0.05012358173275022 0.02329738268310209 0.06438532380721718
0.04895378696057662 0.023279176742444636 0.0635954495954662
0.047785819053259515 0.02326099923394981 0.06280680892775659
0.04654984686660035 0.02323907258367325 0.062061553333248864
0.045294706600690515 0.023216022084967078 0.06133075326231069
0.044040794320442556 0.023192948869189035 0.06060217059931339
0.042784353955789556 0.023169648422795605 0.05987811658793829
0.0414354919545844 0.023141218467858944 0.05921416085633341
0.04008869260662945 0.023112790269788453 0.05855260499074766
0.038746436213737134 0.023084499592279074 0.05789189906925407
0.03734707370869311 0.02305296642097778 0.05727075112534308
0.0358987976472121 0.023018621828327854 0.05668461790100637
0.03445605060126822 0.022984446591454752 0.056099453190077364
0.032990872463915355 0.02294889932302268 0.05553309218981961
0.031431201220044114 0.022907988831393635 0.05503211749008485
0.029877080863160432 0.022867223940652808 0.0545329257647173
0.028311767119884257 0.022825676345983308 0.054046371264061144
0.026620397119673955 0.022776954778019994 0.05364768414075227
0.024936232222697474 0.022728440760107778 0.05325069539318539
0.023221736357051603 0.022678040131126505 0.05288017391187355
0.02137985374111967 0.022620312750709904 0.05260100470669182
0.019548479381549022 0.022562943249216014 0.05232248119094007
0.018081057610494222 0.022525783057569335 0.05180697727315947
0.0166287468966117 0.022489323853883855 0.05128621708118136
0.015182266753425988 0.02245304658568837 0.05076636727679856
0.013739314756228749 0.022416822268403244 0.05024896477708879
0.01226388897688846 0.022378613020467786 0.0497587389443222
0.010750977600337497 0.0223381224664558 0.049299553266747564
0.009243531082826717 0.022297778170298738 0.04884202623551376
0.007742625798526304 0.02225764233386031 0.0483853762198434
-0.01276417299674426 0.021132576461423597 0.06128588150598757
-0.012927104900297859 0.021166418089825556 0.059968544749125496
-0.01363425186461703 0.021169209879221697 0.05903314381090219
-0.015783046466538386 0.021089224481679724 0.05912692742473702
-0.017704859063101763 0.02102197190007238 0.05906863111514893
-0.019790602483590658 0.0209449896226459 0.05913788632694955
-0.02179402811955533 0.020872446129194363 0.059157926258074256
-0.023694288125926555 0.020805576072293743 0.05911261979821353
-0.025621995972916756 0.020736836350167518 0.0590966541708457
-0.027537942078843913 0.02066849503261578 0.05908148308108374
-0.029492234576161847 0.020597635167931286 0.059104200031351695
-0.03146620676429285 0.020525330844301443 0.05915140345962022
-0.033463642927158754 0.020451351603925572 0.05922623204364552
-0.03511408412398026 0.020397406457910397 0.05904968610638006
-0.03699662441655094 0.020329598731789744 0.0590566172675801
-0.04233560693800936 0.02005800700414155 0.06170766203494277
-0.04184147299955465 0.02012942055784479 0.05992641973904911
-0.041823220908176084 0.020172999699039657 0.05850183355213623
-0.04182944824014373 0.020215312870074376 0.057090089921536524
-0.04181460785617225 0.02025905636023918 0.05565598327985671
-0.04177767890591633 0.020304300028287665 0.05419841170283324
-0.04176884127477892 0.020348061359772858 0.05275655912788196
-0.04172102644666359 0.02039433852211031 0.051277660427687
-0.04166678297401011 0.02044119856812155 0.049787077893832854
-0.04157581877743549 0.02049046309634376 0.048260455599718255
-0.041497794788549536 0.020539161007176402 0.046737217103027306
-0.04142565887365285 0.02058771366781611 0.045211782149030766
-0.041328075772223916 0.020638012759389462 0.043658712070829775
-0.04120123981016938 0.020690299962905372 0.04207452119798094
-0.0411215541201857 0.020739953526484008 0.040521546098311545
-0.0410098407353901 0.020791769720263732 0.03893496507568289
-0.04089666097714184 0.02084390071993621 0.03733968358776524
-0.04080473537940582 0.020894961324548617 0.03575459747705828
-0.04071053485553089 0.020946384284817682 0.03416019637829132
-0.04061678375623018 0.02099800491061511 0.03255869940005868
-0.04049048067004818 0.021051852755919115 0.0309220776860471
-0.04035801040502873 0.021106317351797278 0.029272336534875265
-0.04036315396023127 0.021152527099121108 0.02773256191701734
-0.04050035018342335 0.0211907713370681 0.026299778543171948
-0.0404493962741333 0.021240850976653784 0.024698421303574636
-0.04027386002392397 0.021298894612212134 0.022981220259487234
-0.04029932988197482 0.02134467783024584 0.021431377682232744
-0.04058570294236413 0.021374379957782463 0.020104314443882942
-0.04076295582635192 0.02141104112829253 0.018676333468170825
-0.04109934174267543 0.02143788913868812 0.017384391876280436
-0.0415232552896313 0.021459357518594353 0.01616668225313178
-0.04176439230748635 0.021492433739441718 0.014781547213649049
-0.0419689340044026 0.021527969045648156 0.013358410753028793
-0.04216013390117773 0.021564508978888414 0.011917832091984715
-0.04234075494571693 0.021601885170924075 0.010462106412729932
-0.04249764184449162 0.02164093935750335 0.00897897540666881
-0.042663541580144626 0.02167959712657173 0.007498259931010998
-0.04278869303550642 0.021721032593263166 0.005973917988314814
-0.04276743976380043 0.021772025482285334 0.004306855282318445
-0.04266202773887434 0.02182864937907697 0.0025532028328664746
0.0549434559613976 0.022078298743120266 0.06748628811318952
0.05385282518796708 0.022065377591604884 0.06664058792768862
0.05276347023416145 0.022052471555251182 0.06579587704201006
0.051676678744391746 0.022039646005780695 0.06495139277978818
0.05052300778806418 0.02202337382201949 0.06414832303583023
0.04935310374987978 0.022006212808400358 0.06335714187647806
0.04818374492791033 0.021989013419832892 0.06256795901654544
0.04701621254928384 0.021971840895312855 0.06178000879597023
0.045766850960669514 0.021950412921288416 0.061044079302508714
0.044512350313595295 0.02192863824704454 0.06031420872877463
0.04325907882406893 0.021906842117828403 0.05958655695817289
0.04198825956696678 0.0218840575726107 0.058872726552779364
0.04064027523888514 0.021857203106332553 0.058209955713705186
0.039295595145717455 0.021830414466834102 0.057548809485851615
0.03795297136341641 0.02180362740694524 0.0568900583645463
0.036537370973229566 0.021772948119957038 0.05628111407230002
0.03509147845798172 0.021740573105292274 0.05569565868934917
0.033649879462415544 0.021708294226933423 0.05511194179255463
0.03216772290669079 0.021673770735333366 0.054558768353304754
0.030609532689626684 0.021635133724668933 0.05405953492153742
0.02905568985637369 0.02159657142679144 0.05356285701370095
0.027470441415328284 0.0215562067893977 0.053092087470483884
0.02578097487791503 0.021510197844737934 0.05269546254425761
0.024098704877573318 0.021464384882106544 0.052300527101555416
0.022359290244666263 0.021415370080325048 0.05195000534075528
0.02052100164553472 0.021360925337651535 0.051672464022753384
0.018979182074160772 0.021321986812824267 0.051203335890527224
0.017523315777767334 0.021287459880265463 0.050681614879015124
0.016071014892968916 0.021252983773255272 0.05016235689600207
0.014574569332072851 0.02121601295935493 0.04967815596662184
0.013051698171454629 0.02117747972042274 0.049217367496416364
0.011535471697504851 0.021139146361780395 0.04875747385106849
0.010024724349297132 0.021100951526833608 0.048299242104566986
0.008518316148941107 0.02106283473601562 0.04784343899990323
-0.013736641023614604 0.019906124112883908 0.06196904465184688
-0.013937355269335872 0.01993593779578569 0.060682158543029996
-0.01431112874986884 0.019956506667578658 0.059513900878151726
-0.015664833506987608 0.01992401230295599 0.05904250466264921
-0.017798580302471667 0.019848991057399082 0.05913592997444578
-0.019682223309267666 0.019787281353813795 0.059059635756207374
-0.021710600666072 0.019717418573420162 0.05909736157019091
-0.023777922875046653 0.019645137200613307 0.05917366660337697
-0.025679472665068426 0.019581640282920462 0.059138836498526026
-0.0276341439214271 0.01951496270204007 0.059152470552433334
-0.029584803314411434 0.019448228420582282 0.05917287827657508
-0.03151024257436741 0.019382606522133996 0.05918425187280424
-0.03315521111635672 0.019332208073663728 0.058994909373528415
-0.035095133786792354 0.01926526652003845 0.059035396386609984
-0.04112402811734861 0.01897115629618917 0.062185783285639284
-0.04061344481403745 0.019039433066385975 0.060394955149540575
-0.04097736914751743 0.019059268620273975 0.05926420480337369
-0.040865686192661954 0.019105745461540768 0.05776405822844871
-0.04074992689878487 0.01915264707576438 0.05625384267599742
-0.040645988281552636 0.01919908472404355 0.054745844042374425
-0.040777435387675365 0.019232492180658804 0.05341521829881024
-0.04068556969225112 0.01927861772196442 0.051903799485858104
-0.04049255674579011 0.01933064835580396 0.050305412096371516
-0.040471027683232075 0.019373203135673922 0.04883564967014398
-0.04043328371960481 0.019416859315598556 0.04734650705180654
-0.04036304849906114 0.019462548465341803 0.04582464530339364
-0.040272676707586275 0.01950958047249416 0.04427959196107484
-0.040175547991743055 0.019557200803277757 0.04272191689535515
-0.04007251260899308 0.01960536466617978 0.041152180829833074
-0.0399598907576314 0.01965428641190723 0.039567236671613715
-0.039845795074408996 0.019703505188610783 0.037973610976501815
-0.03975942602260202 0.01975134274019823 0.03639547967568951
-0.039681788971107856 0.01979888536606228 0.03481730598324784
-0.03960653014105764 0.019846498327063887 0.033233826386278253
-0.03946005132292291 0.019898444748775 0.031582941088888095
-0.03930264794444044 0.019951253306731927 0.029914778799383146
-0.03923977500287612 0.019998795075100745 0.028319040060402367
-0.03922670796171063 0.020043642711064184 0.026758619613665713
-0.03928795641787053 0.020084346265813943 0.025255260788504375
-0.038951370495537596 0.020148526949344152 0.023401011460390808
-0.038681970836542734 0.020209049372250442 0.021595247796529493
-0.03876232091496623 0.020249268823443283 0.02008613645460383
-0.03895577769522979 0.02028299983913423 0.018670240257725457
-0.039351053740301956 0.020304957572850432 0.0174275507660544
-0.039794152513783376 0.020324181818743195 0.016223926009626244
-0.04016108688062742 0.02034801252372805 0.014949194630391016
-0.04048378652421725 0.020374581553751082 0.01363095251335883
-0.040816729409625774 0.02040065970976406 0.01231775280639702
-0.04106964909379518 0.02043163707713519 0.01092775758582748
-0.04125460351309357 0.020466824844006182 0.009470802337478657
-0.04153068769882268 0.020496702615145856 0.008091841709997716
-0.04166890419674818 0.020535010102444545 0.006580956283512185
-0.04180102224379384 0.02057385996201612 0.005058279174640579
-0.0418010665758865 0.020620868919983045 0.0034062820723800846
0.055366474724854675 0.02076007506078148 0.06871850936519092
0.05520267910559157 0.020791874303637995 0.06733600531269629
0.05418272965242499 0.02078309663469381 0.06644821203221474
0.05309365527184201 0.02077099314643977 0.06560221621800616
0.052004556809283065 0.020758842102914923 0.06475796729268846
0.05091673184828455 0.020746705267815826 0.06391470556209666
0.04975187606328957 0.020730831773614268 0.06311915909451155
0.048581127649927225 0.02071461425250677 0.06232943512574818
0.04741220953419434 0.020698422085174605 0.06154094577735608
0.04624003738220239 0.020682010453800772 0.06075677262962709
0.04498368380124268 0.02066147140874259 0.060026382734149786
0.04372982308265799 0.020640973117350848 0.05929744208149518
0.042477192693659294 0.02062045463308354 0.058570721627278555
0.041192047890445005 0.02059827731769768 0.05786718839455368
0.039844941508570986 0.020572998804348267 0.057205602804143996
0.03850113745220218 0.0205477822592908 0.05654563903879356
0.03716062359311623 0.020522627454938613 0.055887291142137974
0.03572884358468298 0.020492907341637282 0.055290633114221055
0.034282881040691104 0.020462374701018787 0.05470741063163104
0.032842436284055254 0.020431992625242916 0.054125142296476025
0.03134337863291031 0.020398604949103637 0.05358524304690154
0.029786676080926944 0.02036224155190233 0.053087750878275664
0.028234317955923904 0.020325948469469 0.05259281082734807
0.02662922313925775 0.020286899330730954 0.05213792552889046
0.02494165959282757 0.020243602317784992 0.05174336227692855
0.02326128402040495 0.020200489723261213 0.051350479619630574
0.021498234088062895 0.020153085740380803 0.05101929865217453
0.019882496816752693 0.020112845412139306 0.05059620605248205
0.01842074527333809 0.020080145711162196 0.0500750793055777
0.0169029531676686 0.020044505535861637 0.04959695559529276
0.015371154032551904 0.020008018086132156 0.04913377395607482
0.013844921499105434 0.01997166323283546 0.04867227553206149
0.012323097849033182 0.019935383403585534 0.048213230209802505
0.010807914226270698 0.01989929178960826 0.047755070700402025
0.00926365255184397 0.019861581119650078 0.047322708610652686
0.0076798064184646075 0.019821708466371935 0.046923894370919705
-0.01527187344844444 0.018695392424667678 0.06162482643013517
-0.015458703777777083 0.018724135633256398 0.06032897495866302
-0.015831294885720826 0.01874351444315238 0.05916138443206709
-0.017825906606456388 0.018680005591662517 0.059155552304446246
-0.01976061114832839 0.01861930578676877 0.059116232359605225
-0.021677986359985135 0.018559245547478162 0.059073685008265486
-0.023541173712076424 0.018501725871264967 0.059000858288932256
-0.02555224532485184 0.018436340778267106 0.05904546394777549
-0.027432340320841464 0.01837745325217997 0.059003559399277095
-0.02933753663165245 0.018317020709559494 0.058989427122381866
-0.031247699459133582 0.01825607842436145 0.058988408428270744
-0.033265362792749276 0.018189290867076605 0.05907752270655242
-0.03921154001631377 0.017917491457043428 0.06213941986103011
-0.040236232781955705 0.01790156992820594 0.06151270665057057
-0.03977845548960318 0.017963164370284713 0.05975848996419886
-0.03974680749682996 0.018002670513632767 0.0583211511386626
-0.0397504587231477 0.018040488344503457 0.05690478148999206
-0.03978430556365531 0.018076875931564325 0.05550582765230233
-0.03967683511440695 0.01812087618211332 0.05399105236875679
-0.039543849303784684 0.018166412911525123 0.052449317029190645
-0.03939228862140265 0.01821312807383703 0.05088571877479631
-0.039353953813699716 0.018254028582240123 0.04940428706254396
-0.03917866519797919 0.01830239390868064 0.04780735386983326
-0.03922897129224284 0.01833893265133073 0.04638314090678042
-0.03911947207182914 0.018384171124081104 0.04482455145977976
-0.0390311964584113 0.018428467322255754 0.04327585075771345
-0.03890430171327347 0.018475027990091375 0.04168862520323341
-0.038856097903504305 0.018517556046616774 0.04015818654484393
-0.03867693370266562 0.018567329826046447 0.038513284166035666
-0.03862429508514792 0.01861048256015719 0.03696480688815024
-0.03859346920273016 0.01865264178933573 0.03542742906641161
-0.03841689329156833 0.018702895212169963 0.03376153346175503
-0.03840854415362249 0.018744218071795663 0.03222859673910089
-0.038200004209919036 0.018796634539544853 0.03052003197734482
-0.0381483803086381 0.01884070865155227 0.028935943581771872
-0.03808626348403549 0.018885551149071273 0.02733567067140097
-0.03804907349082959 0.018929223575530337 0.02574937849656095
-0.03772212319122431 0.01898902370686226 0.023906243123987925
-0.037293237387898304 0.019054706787592364 0.021964935896206017
-0.037054419860959587 0.01911018260382351 0.020178226528906495
-0.03716315916585905 0.019146664527563417 0.018686497050591055
-0.037531141371381804 0.019168925480224887 0.017416787573140857
-0.03800322297604575 0.01918549723043147 0.016235437119921592
-0.038431634137304105 0.019204577010757982 0.015012487826110643
-0.038839129111031434 0.019224910728977793 0.013767646731004612
-0.039250327152907216 0.019245128603919012 0.012522717774616998
-0.0395298622962138 0.019272825027301023 0.011155469220736958
-0.03982252140242615 0.019299908565678852 0.00979546365125089
-0.040110315840695576 0.01932738894083353 0.008426438725888885
-0.04031732958228884 0.019359557386085868 0.0069786442785291225
-0.04050698099607952 0.01939285521036709 0.005509373405290452
-0.04051834911541785 0.01943642208686061 0.0038691528873668335
-0.040266150892011465 0.019495179114677835 0.0019758782059441926
0.05506602213254086 0.019412300310747636 0.07036252575490637
0.054903490341806804 0.019442015856409645 0.06898536095925262
0.05474046019433193 0.019471822516199413 0.06760397348598968
0.054514434532029865 0.01949893560990172 0.06625478626772291
0.05342304325014008 0.01948751342346226 0.06540902288695072
0.052332929861281685 0.019476104611084295 0.06456424979727049
0.05124538191845618 0.019464766960605444 0.06371969995565013
0.05015138461740759 0.019453096043208003 0.0628807369324626
0.04898052477239151 0.01943792169664518 0.06208970211687487
0.0478102133206777 0.019422713442944196 0.06130067125446276
0.046641731743538306 0.01940752896855305 0.06051287410418582
0.04545605767467159 0.01939150752253209 0.05973792141426121
0.04420034533213135 0.019372247953557752 0.059008463555154156
0.04294712485184948 0.0193530266036829 0.058280453247664565
0.04169513587333257 0.019333786323025418 0.0575546645340394
0.04039571890030119 0.019312307616195852 0.056861502080525095
0.03904949073781139 0.019288605520199287 0.05620110209503221
0.037706562990467596 0.019264961532301207 0.05554232114715435
0.03636692353617388 0.019241375439076357 0.054885153290328004
0.034920259309284996 0.019212776501394507 0.054300082467230226
0.03347545073536112 0.019184150138311436 0.05371831538353172
0.03203615435202162 0.019155664942671093 0.05313749526342354
0.030519053602485247 0.01912346893007581 0.052611740466242785
0.028963838646607898 0.019089379040293338 0.05211598947967472
0.027414158540713607 0.01905541047292205 0.05162200281978757
0.025788112271092123 0.019017753938937138 0.05118388541594687
0.024102451243971645 0.018977168166314003 0.05079138331557648
0.022423969630885776 0.018936755252921416 0.0504005529243704
0.02078871584166292 0.018898203291084555 0.04998712420771051
0.019250402617589313 0.018864042287543 0.04951434813334005
0.01770842972802389 0.018829571752955823 0.0490495381861345
0.01617093705390138 0.01879517306300753 0.04858720622899976
0.014640190025943745 0.01876095353214091 0.048125778135460984
0.013115006793574191 0.018726858378766857 0.04766602719135038
0.011546963948894928 0.018690594561595664 0.047241568499808984
0.009953662213545489 0.018652984282660663 0.04684063233163949
0.008365648138530024 0.0186154721860632 0.0464420874897728
0.00678511341067739 0.018578163328859677 0.046044361867049466
-0.016986199622352538 0.01748092792888522 0.06141389075129017
-0.01715659720961521 0.017508622003369376 0.060107860040238215
-0.01768435113005462 0.017519293347481518 0.05905390488542889
-0.01977899352208856 0.017454715857559932 0.059129504570316516
-0.0218007389988632 0.01739338196827623 0.05916279806338215
-0.0237123489248377 0.017337108606220373 0.059125802764430635
-0.02559843460971678 0.017281836176501402 0.059079362411249114
-0.027516453000170416 0.01722478703857344 0.05906562626051043
-0.029473715009658674 0.01716559514093551 0.05909046006520563
-0.03144051411302712 0.01710569240853156 0.059132238084369015
-0.0334418249350138 0.01704385674351225 0.05920986863357297
-0.038671387073503094 0.01682403863454597 0.06173211132033335
-0.0380497921562698 0.01688976942997458 0.05985506998540063
-0.03852141748912141 0.016902140278392496 0.05880032091874399
-0.03806424938611086 0.016960228379803162 0.05703170530592716
-0.0380885192007992 0.016994841380849977 0.055624266069314754
-0.03763183289087613 0.017053347637798918 0.05383842259531291
-0.03757518345842986 0.017092308646212653 0.05235425312530151
-0.0377033224097596 0.017122272686244 0.05100817944915187
-0.037513608468581816 0.017168158291214167 0.049406807446892353
-0.03748080117698488 0.017206426469893326 0.047921817023559465
-0.03750148889219029 0.017242188806129124 0.04647287273833728
-0.03739013512254441 0.017284707680330517 0.04491219991847112
-0.03740250685304225 0.01732120850859791 0.043443754664821144
-0.037130934244774094 0.017372127342545503 0.04173948198963512
-0.03719885538391465 0.017406178235400235 0.04030240795065865
-0.03722011131179459 0.017442730189853515 0.03882133874520732
-0.03719810598649348 0.017481627387232926 0.03729842341076317
-0.03715935884076371 0.01752154161720719 0.03575495532408818
-0.03706573852393541 0.0175644154691527 0.0341590110690948
-0.03698560418296981 0.017606790100738713 0.03256687706786143
-0.03700478948607344 0.017644285368101503 0.03105070666026538
-0.03686341824440842 0.017690149965437323 0.029392558737304286
-0.036792522506248926 0.017732606390148484 0.02778615706269566
-0.03665552501339775 0.01777864252140253 0.02611596510911407
-0.0364282597532824 0.017829525183486523 0.02436032959594836
-0.035978125103461156 0.01789212287638339 0.022403730476255657
-0.03559430380672085 0.017951571369669937 0.020493523866700503
-0.0355001820618866 0.01799628173833658 0.018825035108624932
-0.03572204714608601 0.01802479134504277 0.017425188011904402
-0.036193977836425584 0.018040420776580867 0.01624029698774543
-0.036661956361377035 0.018056326072354145 0.015049129256314298
-0.037085925285870014 0.018074602020378406 0.01381599527623778
-0.03749358291613453 0.01809381414145646 0.012565015817466663
-0.037885891962474105 0.01811391822578881 0.011296804289364637
-0.03822469242798132 0.018136927584907644 0.009976654797293705
-0.03852330711837737 0.018162159524498855 0.008615879183898723
-0.038817977720050134 0.018187714135763762 0.0072469530601523835
-0.039069508159079835 0.01821566943211294 0.005833828428765064
-0.039065206400439145 0.018257331546430788 0.004179697769194857
-0.03890522794771861 0.018307465824067833 0.0023736785200994537
0.054930483438971334 0.018044015528657614 0.07336427983634264
0.054768411043290055 0.018071523375313037 0.07199733451047802
0.05460584373897154 0.018099115220670085 0.07062621504353567
0.054442779255649276 0.018126791450068132 0.06925090228687514
0.054277917400511244 0.01815449856858343 0.06787212942792709
0.055537424415224634 0.01824155706062714 0.06565825419240318
0.054364664942731955 0.01822758684467309 0.06485674094780458
0.05319370040097876 0.018213638010402444 0.06405645443445124
0.05202323224392702 0.018199656357750667 0.06325815989158184
0.050855849683218934 0.018185750222567264 0.06246032019207637
0.049606707248765536 0.018168356935534084 0.06171384410307973
0.04833691150312325 0.01815002742897045 0.060982704042105096
0.04706840038616927 0.01813168112204147 0.06025381183494294
0.04586976461607567 0.018116215159794218 0.05948528582817719
0.044671906290434604 0.018100721995499603 0.058718847089699044
0.04341683549711528 0.018082742463215132 0.05799032169247614
0.042164255565107 0.018064798613796874 0.05726324215444861
0.04091290830719235 0.018046837095685313 0.056538385605827024
0.03960051804478942 0.018026201549660552 0.05585488503158498
0.038255162886351834 0.018004076205267772 0.05519567002754411
0.03691310625490407 0.017982005107552584 0.05453807127954452
0.0355595875780223 0.017959355271113656 0.05389150811980414
0.03411161814103314 0.017932555589723183 0.05330946212397125
0.032667963703019165 0.017905835772311078 0.05272915064526529
0.031229815857768795 0.0178792477232231 0.05214977894498385
0.029694747814736466 0.01784836267720701 0.05163826061053589
0.028141020386003135 0.017816546188805085 0.05114425072494033
0.026592822448981646 0.01778484293069555 0.0506519989491821
0.02494710879026535 0.017748770582978742 0.050229967108318896
0.02326334981090622 0.017710895359485376 0.049839525637022875
0.02161598978728735 0.017674458113761175 0.04943110239942611
0.02006256882492302 0.01764198589734052 0.0489654384989644
0.018516001403675486 0.01760968347742633 0.04850069689620318
0.01697508715158491 0.017577499132575385 0.04803765406374311
0.015438652175333134 0.017545381889014593 0.04757708612615924
0.013848733328908625 0.017510774699570943 0.04715902777226172
0.012243617052290545 0.017475355107880917 0.04675752406992495
0.010646103531861961 0.017440128240833422 0.04635685717210647
0.009053901957812638 0.01740499358351265 0.04595858609811887
0.0074692116377844675 0.017370049531674387 0.04556113320788635
-0.018073539104775438 0.016267066129298634 0.06218618206757559
-0.019173600023984994 0.016251291146891174 0.06154831927055465
-0.019421279223892973 0.016273601178163132 0.06030114916198592
-0.019881513684887275 0.01628647021464152 0.059203524891117965
-0.021564749841080366 0.01624442886930521 0.058991480240672634
-0.023710447873679763 0.016181386978487842 0.05912441514623529
-0.025757648972644265 0.016122528786527198 0.059196210339983235
-0.027710694577279094 0.01606768402690925 0.05920895738619003
-0.029634770279452605 0.016013923833784 0.05920994957670356
-0.03133954233010805 0.01596989803975886 0.05905691841068439
-0.036730766230750944 0.015757936882378663 0.061676561937386076
-0.03581919055584504 0.01583249653590296 0.0595813797231996
-0.03541423867792837 0.015884218478435477 0.05785694114193185
-0.035863165790853246 0.01589705720420113 0.056774085839667476
-0.035872179242120494 0.015930136934511743 0.055351789649983385
-0.035870358423751025 0.015963854566063924 0.05391518517776822
-0.035876701177569637 0.015997338679542547 0.05247881625444761
-0.03583302481717959 0.016033274679046687 0.0509974326751248
-0.03581651618951737 0.01606810611413815 0.049530805030408354
-0.03584654873455678 0.01610092744903013 0.04809448532476829
-0.03575121485588634 0.016139715367678522 0.0465529697387152
-0.03577022983617961 0.01617334335153507 0.045095359512086874
-0.03570834205810952 0.016210891605681284 0.043566882487208525
-0.035707058631543276 0.016245766352085238 0.04208026200658427
-0.0358416095351074 0.016274423851339835 0.040697058369553785
-0.03561736764963458 0.01632006000387087 0.03901694645928555
-0.03558893777560457 0.01635667488832114 0.03748842393787866
-0.03539361003960906 0.016401322744196565 0.03581602537010942
-0.03541030858917704 0.01643613921221349 0.03431046161958928
-0.035379335684929625 0.016473366131022016 0.03275885347495083
-0.035362298569310224 0.01651009358876787 0.03121194994730181
-0.035288744203880285 0.016549671381112286 0.029610773629619003
-0.03519596933784963 0.01659033928362412 0.027985987016673042
-0.03506584030241933 0.016632971297428675 0.026321906226661307
-0.034892331700252466 0.01667786904204699 0.02461284155748983
-0.03460071735806525 0.01672863530204993 0.022794112765419206
-0.034306365678023365 0.016779757594381405 0.020963453850776304
-0.03413021318438797 0.01682540608923501 0.019225504576332597
-0.03405224054910333 0.01686651192552479 0.017564390158838983
-0.034417145497855295 0.01688634771745322 0.016283094808234033
-0.03489452467169063 0.016900811567970887 0.015096985511993122
-0.03528617556794017 0.016919511253565576 0.013832294694114178
-0.03568254145033467 0.016938064748427323 0.012568222920396777
-0.03604803586626215 0.016958210340595345 0.011273005497981936
-0.03638072443125279 0.016980053526979132 0.009944446048367861
-0.03668635386035374 0.017003323652906015 0.008587245084583972
-0.037016900725489466 0.0170254728401713 0.007248180564520035
-0.037364687061382074 0.01704687213025994 0.005920569915784879
-0.037096535781162565 0.017098813825248072 0.004023721623916621
-0.036984899610513655 0.01714323780890787 0.0022611362530380874
0.0546331465359326 0.016712167874938698 0.07498544893136025
0.054472327712911606 0.016737629193770726 0.07362375112712213
0.05430972740419754 0.016763118738910857 0.07225863312820549
0.05414533890024059 0.016788636413483802 0.07089009139025737
0.05566090011754671 0.01687888937728155 0.06854881058430579
0.056999264637315195 0.016995049686024985 0.06480581704146471
0.05582147576508212 0.016981990751046925 0.06400228919476342
0.05464418795995357 0.01696890117369568 0.063200766626486
0.05347001668882534 0.01695588237726113 0.062399705554640805
0.052208064054321435 0.01693939697527065 0.06165333403223383
0.050930461603189314 0.016922237727086134 0.06091927750120446
0.04965544490092022 0.016905113207629777 0.060186706632447684
0.04838172340120145 0.016887973098138175 0.05945639574543354
0.04709908381743233 0.016870416717655268 0.0587345858861722
0.04573387223134667 0.01684954713803027 0.05806662426076231
0.044370767830391955 0.016828679266658653 0.05740109538009097
0.04301229634187914 0.016807912758525657 0.05673642977481441
0.041655918248109824 0.016787147823113524 0.056074186707752105
0.04027789648273389 0.016765444327077945 0.055429280037680495
0.03883503493277035 0.01674108254078892 0.05482925855785603
0.037459475706236145 0.016719301053641115 0.054190870606041164
0.03611829593347665 0.016698803448229948 0.053534455392913016
0.03474850525437434 0.016677082800739495 0.05290014632133816
0.03330292007392388 0.016652244597116422 0.05231877207708674
0.03186041993769029 0.01662743159355336 0.05173991640950576
0.030422212256678682 0.016602692426176457 0.05116278324571144
0.02887046126899373 0.01657328618945484 0.05066480347898239
0.027319416505010352 0.01654379118368201 0.0501717446217832
0.025771505461699706 0.01651430494208539 0.049682017641007215
0.024106212676207384 0.01647994923182574 0.04927617058268463
0.02243609445942274 0.016445260004120464 0.04887989915508961
0.020879188395993786 0.016415032435843354 0.04841351901975827
0.01932683456659856 0.016384868518364952 0.04794963903660365
0.017781329511181776 0.01635486234768862 0.047486672057132195
0.016166897259819124 0.016321916577004752 0.04707664630070696
0.014552115092841877 0.01628882298733968 0.04667299635791583
0.012942734534440448 0.016255816799725997 0.04627176735482552
0.011340989383552491 0.016222990439690346 0.04587137413568665
0.009744580623727905 0.016190250238981085 0.045473381240841326
0.008111208281507964 0.016155849516086437 0.045107643979233336
0.0064515980139941975 0.016120222008323033 0.044767012862637456
0.004800389589630472 0.016084796839679102 0.04442709644408427
-0.022120339520016907 0.014999028548659504 0.06223927631783366
-0.022992221972524818 0.014993604128558963 0.061449479433959175
-0.02309509461309256 0.015020249149701575 0.06010244371373752
-0.02394602491730774 0.015015722344693928 0.05929636790552062
-0.025410775317729173 0.0149854550831173 0.05894163865835855
-0.027414578111267407 0.014932426625641997 0.05899045264051461
-0.033380492509815896 0.014712457139779382 0.0619889615276068
-0.03412602776687673 0.014711694988317828 0.061135490936164605
-0.032643600012696394 0.014805071100891996 0.0586112030163517
-0.033035361089293835 0.014819479505810983 0.05748220108747931
-0.033313719742593506 0.014838760238468966 0.05626444548383347
-0.03332568709356515 0.014869449271941707 0.054839909195595615
-0.033331282495647874 0.014900539134756266 0.05340454711477616
-0.033353447761351906 0.014931052737503689 0.05197591911403393
-0.03336741453276071 0.014962046282926926 0.050535006563433904
-0.033499537362998766 0.014988104533880059 0.04918007607906244
-0.03347873841430987 0.015020844991330147 0.04770031865361696
-0.033444877233243686 0.015054287393938852 0.04620387122323377
-0.03353155478585673 0.015082670532322035 0.044796263164967876
-0.033546037153503905 0.015114297389924357 0.04332563312279947
-0.03352982544586958 0.015147390116336467 0.04182422078005815
-0.03347804171948354 0.015182170025461857 0.04028766925374144
-0.03352340078227678 0.015212871243808624 0.038822778335895924
-0.033492021328847155 0.015247052353406355 0.03728942699012733
-0.03349341430141756 0.015279948556167688 0.035776065193772966
-0.03345523079701579 0.01531472114696679 0.03422364185923171
-0.03337151678911471 0.01535164376173718 0.0326266781392105
-0.03339065145089948 0.01538420157483525 0.03110772287422603
-0.03336146384595401 0.015419032238245615 0.029541909994491522
-0.033327386435012374 0.015454231220022782 0.02796499897226362
-0.0332511829741623 0.015491450142879386 0.026345468083186052
-0.03314208779660943 0.015530292417944411 0.024690536998028534
-0.032983509145660284 0.015571506843218995 0.022985568974110637
-0.03274416955060888 0.015616503554965163 0.021203038090309045
-0.03251600716010339 0.015661199672553087 0.019421000142813727
-0.03246393134752601 0.015698208459521405 0.017782371562500454
-0.03269694708188203 0.015722586599628153 0.016384408888983515
-0.03311597579176895 0.01573870635238632 0.015144267924109944
-0.03349417492537188 0.015756738565708753 0.013864901141057318
-0.033842208433837284 0.015776214251445684 0.012555151471996595
-0.0341290055875903 0.015798550047172073 0.011186947852054152
-0.03439039632857338 0.015822139118256123 0.009791429793566953
-0.03466714658203729 0.01584513565859001 0.008404835953207401
-0.03492233470220185 0.015869218849649907 0.00699400325647187
-0.03520749745137125 0.015892041284377833 0.0056053845888826
-0.03502641603510381 0.01593631852534383 0.003786486649151266
0.05433861508882171 0.015387182243219893 0.07659760187839773
0.0541764753484093 0.015410519607657418 0.07524256357278913
0.054013843034132314 0.015433927870048257 0.07388340871653742
0.05385071589794671 0.015457407353961486 0.07252011852223794
0.057286702594370575 0.01572802229688565 0.06314290126760025
0.056105670206359815 0.01571590593143527 0.06233859270981257
0.05483071863257016 0.01570037530042503 0.061592328554555764
0.053545223963648025 0.01568440611597236 0.06085533220398598
0.052262341645444355 0.0156684693837057 0.06011983355924988
0.05098206372290881 0.01565256500480263 0.05938582805958026
0.04968373401241355 0.015635946750346165 0.05866584825771809
0.04830848891641659 0.015616479289788206 0.05799604675275105
0.046937943123763426 0.015597106644105428 0.05732712547512525
0.04556952008281018 0.015577735718897165 0.05666064834363327
0.04420575966883278 0.015558459019450745 0.05599503705821446
0.04281003145976847 0.015537940512513131 0.055353149139339364
0.04135643426148128 0.015515225958252618 0.054751621820299745
0.0399083305558654 0.015492623498658842 0.05415106096392652
0.03846568355054503 0.015470132444470461 0.05355145703638298
0.037025981507088024 0.01544766108256461 0.05295438243346329
0.03555597389674381 0.015423984296981922 0.05238120086219927
0.034035338415544736 0.01539834460805462 0.05184540287549283
0.03251975012788505 0.015372790020702142 0.051311383274255384
0.031052819433389778 0.015348937592572226 0.05075061266893188
0.02960370108650201 0.015325651836484799 0.0501828592675615
0.02804739341567719 0.015298284104307688 0.04969057627379936
0.02649663417938941 0.015271013941573444 0.04920004833137964
0.02495020757819555 0.015243796506059918 0.048712058894479104
0.02326424515182335 0.015211245722158307 0.04832328807365027
0.02169795146821224 0.01518305348177188 0.04786015083655454
0.020136287573001732 0.015154921743936012 0.04739951915800017
0.018503940176828437 0.015124014100162566 0.046992843532970396
0.016877086177162826 0.015093188818821998 0.046588614420499275
0.015257994516570617 0.015062532209446578 0.046185239079771345
0.013644329494958696 0.015031956786210051 0.04578428925271377
0.012038332736452773 0.01500154816522307 0.045384174162382274
0.010380405455938324 0.014969039622063104 0.04502671144750503
0.00870955994397099 0.014935905746716554 0.04468498439599955
0.0070460949075583645 0.014902918230657671 0.044344766824596815
0.005389961552804412 0.014870076106274102 0.044006048753798765
0.003742206049367869 0.014837420404021043 0.04366803433433408
0.0020744861097368172 0.014803862743129356 0.04335112957737841
