# .PCD v0.7 - Point Cloud Data file format
VERSION 0.7
FIELDS x y z
SIZE 4 4 4
TYPE F F F
COUNT 1 1 1
WIDTH 782
HEIGHT 1
VIEWPOINT 0 0 0 1 0 0 0
POINTS 782
DATA ascii
0.004780346877664987 0.045871778915967394 0.031524241930206864
0.007197183434825394 0.04567490587262668 0.031822658801589576
0.009598616277481153 0.0454790757501074 0.0321225942198925
0.019376178738309102 0.044382175286201385 0.03818058306308414
0.02137343250686613 0.04423220013084887 0.03822183109784344
0.02285043185954888 0.04414535256394947 0.037863843117602825
0.02409077555851724 0.04408720254057896 0.037324542988579124
0.025054865390709613 0.04406280837475806 0.0365694510430562
0.025913796033699643 0.044051281617512456 0.03573192717873808
0.026634410070880687 0.044056804104626646 0.03478396740651091
0.027193236344177918 0.04408239367675518 0.03370481784091783
0.014892891965275656 0.04570460686151978 0.022171722279744843
0.015858182598248283 0.04568329572738488 0.02136542098804911
0.031231847897934317 0.043865289573680515 0.03239712711481668
0.03309155922705381 0.043728124065298274 0.03239546869536697
0.034939676282589927 0.043591813708149185 0.03239382061519497
0.036777237922593575 0.043456233711773234 0.03239295966449779
0.03860248158345758 0.043321610561814695 0.032391329572549976
0.04041645131808369 0.04318781893451867 0.03238970954908715
0.04222015893111697 0.043054736479951394 0.03238886922083173
0.04401188438560488 0.0429225856540985 0.03238726669818981
0.04579264456731874 0.042791243584885626 0.032385673982858076
0.04756342509281797 0.042660590290929626 0.032384853668946445
0.04932254724757673 0.042530844303756234 0.03238327798460788
0.05107187230784721 0.042401773912913644 0.03238246991859006
0.05280974846215386 0.042273595089927896 0.03238091097071227
0.054538005629192754 0.04214607900946287 0.03238011491744175
0.05625501839623531 0.04201943912719702 0.03237857241839476
0.05796258596325965 0.04189344944889604 0.032377788148522546
0.05965910882377223 0.041768320957547865 0.0323762618173814
0.061345527422905444 0.04164393771462331 0.03237474457681666
0.06302275365435106 0.04152018644081091 0.03237397866951869
0.06468922596865484 0.04139727448938927 0.03237247717449315
0.06634586090903288 0.04127508810107499 0.03237098454291748
0.06799354730553064 0.04115351610418345 0.032370236474153824
0.06963076052086242 0.04103276231403735 0.032368759180445406
0.07125839393248307 0.04091271508892528 0.0323672905307642
0.07287653137638289 0.04079336824546598 0.03236583044946256
0.07448603202440296 0.04067461333038373 0.032365106090043116
0.08199130623662299 0.03977628370764605 0.03792499965243212
0.08412819833943253 0.039584795795324305 0.03847009358165954
0.08560825314743586 0.039479615242055996 0.03840446661621322
0.08686838805310865 0.03940320875424183 0.038136347097020074
0.08793700912843189 0.03935198814315444 0.03768981648529013
0.0888583953351898 0.0393202101975278 0.037104834424975086
0.08969916491720492 0.03929908524397986 0.03644392548166525
0.09039825528639267 0.03929688802443361 0.03564625814376815
0.09104403818432905 0.03930185600515015 0.03479643164314944
0.09154469558400907 0.03932642774687784 0.03380303881358926
0.09199568122099416 0.0393578324556473 0.03275851815361075
0.09225609830545634 0.03941521787192934 0.031521626613223996
0.0945794889113758 0.0391925647573044 0.032347650196350664
0.09591259039718614 0.03910373331120169 0.032193184497534555
0.09713616628504157 0.03902943303461559 0.0319346276632661
0.09835304325374777 0.03895569619687153 0.031674957068357545
0.0995741937407213 0.03888102171915273 0.031425332524083804
0.10079270403932883 0.03880635351181208 0.031178753192731112
0.10200721647904137 0.03873187874559627 0.030933815044802193
0.10321640710228769 0.03865778173047544 0.030689120063045083
0.10441965008794551 0.038584151864069466 0.03044397066792426
0.10530737240873161 0.03855396923110937 0.029873349920501446
0.1057476929721643 0.03858590169863351 0.028833018265045085
0.10614641251476581 0.03862379222510438 0.027746066613286435
0.10622949190683173 0.03870600518208303 0.026319655172000966
0.10607436363090933 0.03882201004549668 0.024631528181981166
0.10366545691607887 0.03925528280868785 0.020506777238201046
0.13946744921078097 0.03430813106979004 0.057715790504428766
0.14040228075371486 0.03426028798275961 0.05737417090868019
0.14133450866056768 0.034212578145392185 0.05703350277109015
0.1422641437934473 0.03416500100178355 0.05669378212227122
0.14319119695412472 0.03411755599911743 0.05635500501488533
0.14411567888445234 0.03407024258764407 0.05601716752349056
0.14503760026677898 0.03402306022065901 0.05568026574438989
0.14595697172436098 0.033976008354482064 0.055344295795480225
0.146873803821771 0.03392908644843633 0.05500925381610433
0.14778810706530177 0.033882293964827614 0.054675135966901656
0.14870038235058416 0.033835559549420906 0.054342497381310195
0.14960965659905362 0.03378902450409823 0.05401021628461039
0.15051643317912874 0.03374261728501975 0.05367884792462507
0.15088410350130724 0.03377441151787079 0.052727329370851894
0.15068691785802107 0.03388875757853892 0.0511161072411232
0.15048790337648496 0.03400395205134746 0.04949336626748507
0.15028802251973022 0.03411986031744487 0.04786013297228697
0.15008726766786123 0.03423648896461196 0.046216310070987976
0.14988513566655026 0.0343539176675691 0.04456121078032682
-0.03875667048536863 0.05020709110072919 0.034744747718186586
-0.03566004101268283 0.04993903424284557 0.035268449804904345
-0.032987128125212706 0.049720535211720006 0.03551801916038538
-0.030417631855123695 0.04951353608105268 0.03571004572897085
-0.028196745505384646 0.049347530826755366 0.035673064775468666
-0.02620769935341949 0.04920872837241784 0.03548472504766009
-0.02450081810827104 0.04910335878713057 0.03510705829505739
-0.022909051384419787 0.04901145753316239 0.034654844077433855
-0.021614145149488895 0.04895509591049827 0.03399769594294144
-0.02063250720079346 0.04893648173971603 0.033120458800357966
-0.01975723599003998 0.04893071277956865 0.03216804506980914
-0.018981680328104655 0.04893705871349558 0.031144009477961976
-0.018254423870433467 0.04894932256525901 0.03008449906220717
-0.01759059940947727 0.04896939081910582 0.02897789096737885
-0.016998231358980376 0.048998294892634776 0.027817533403474037
-0.01641577940545713 0.049028536130764216 0.02664797182191686
-0.016030706090847002 0.04908318061778917 0.025329993516949922
-0.01567191334405682 0.049141292191893275 0.023988829104440723
-0.015353588595090839 0.049204644918201874 0.02261349643091165
-0.0025956996776693164 0.04772859655590193 0.03061418979987557
-0.00011527700243751937 0.047521083161603035 0.030920454874883763
0.0023425854940207214 0.04731550124393774 0.031223241383254996
0.00478034687757084 0.04711155672451877 0.031524241930134755
0.007196121568443292 0.04690949532710565 0.03182184063928062
0.00959126225026713 0.04670915980948104 0.03211689744969842
0.011809004916784382 0.046530210941305786 0.032287149510030644
0.011680254516413802 0.04664525084232221 0.03063204628274807
0.011643957898995305 0.046749142563108595 0.029042021446022193
0.011909122029240604 0.0468154487727521 0.027683611423005072
0.012184463851245164 0.04688075191593577 0.026328841305182538
0.012753731003330493 0.046909097721920846 0.025204790840561597
0.013324732147562857 0.04693734512928853 0.0240802208091086
0.014081149826934092 0.046942122701263064 0.02310364918910579
0.014935559657300368 0.04693442598424777 0.022206403342287795
0.015888270036432506 0.046914134678713075 0.021390006963103614
0.031230893320029762 0.045050960185310955 0.03239634292662397
0.03309155922703849 0.04490996525625425 0.03239546869535431
0.03493967628257966 0.04476997083539778 0.03239382061518642
0.03677630715344288 0.04463084649026148 0.03239218277790623
0.038602481583457526 0.044492464901323206 0.032391329572549976
0.04041645131808874 0.044355057284099594 0.03238970954909143
0.04222015893112696 0.04421837800643527 0.03238886922084022
0.04401188438561987 0.04408265553663975 0.03238726669820263
0.045793537224416425 0.043947647350686764 0.03238643899633953
0.04756342509284256 0.04381357921770829 0.03238485366896765
0.049323425185674785 0.043680211662665946 0.03238403834904652
0.051071872307881294 0.04354776780244738 0.03238246991861976
0.05281061197097309 0.04341601115336501 0.03238166674227183
0.05453800562923622 0.04328516222592912 0.032380114917479996
0.056255018396283274 0.043155099644141964 0.03237857241843711
0.05796258596331211 0.0430257048393998 0.032377788148569175
0.05965910882382919 0.042897194496933494 0.032376261817432306
0.061345527422966784 0.042769449544740115 0.03237474457687178
0.06302275365441673 0.042642353641905155 0.032373978669577974
0.06468922596872484 0.0425161197458499 0.03237247717455671
0.0663458609091071 0.04239063102271572 0.032370984542985204
0.06799274532591149 0.042265880893660714 0.03236950069661215
0.06963076052094497 0.04214175589008132 0.03236875918052151
0.07125839393256966 0.042018464145371054 0.03236729053084447
0.07287653137647354 0.04189589171154741 0.032365830449546995
0.07448525571325887 0.04177403231199537 0.032364378861862886
0.07574699627792092 0.04169870079262601 0.03204498172545367
0.07556276664577721 0.041819699095311365 0.030362324051027012
0.08532398305565769 0.04058538658952892 0.038133983659640325
0.08664805634138145 0.04049826773270777 0.03792560998393962
0.0877177580363695 0.040445584528837245 0.037479021738512086
0.07638418032527916 0.04209538343478294 0.025049368669965155
0.07688977710519806 0.042123793155453976 0.02400019279222515
0.07741623019649296 0.04214945891403216 0.02296929915275231
0.07816558331634066 0.04214443024200471 0.022155310681450657
0.07891552951182934 0.042139295815242526 0.021342277980067603
0.07973687306724225 0.04212422066676582 0.02060043528326816
0.0807400982664625 0.04208375293099189 0.0200410312944867
0.09457948891151768 0.040251823264238776 0.03234765019649283
0.09594731111556931 0.040155734270921666 0.03222815808511936
0.09716998329126014 0.040079541070094656 0.031968867330214645
0.09839488238472449 0.04000267261080849 0.03171753837462482
0.09961781814143333 0.03992571438423201 0.03146996046382888
0.1008367347913538 0.039848956053610524 0.031224029773892326
0.10205030054634062 0.0397725875742748 0.030978347180776578
0.10325922372558294 0.03969651124758926 0.03073360446258433
0.10446353091893984 0.039620725400280624 0.03048979623628245
0.10556477938433118 0.03955926788242668 0.030143552982611954
0.10609933790767673 0.039578505939155614 0.02920404954921274
0.10645037916841049 0.0396241295484189 0.02806844625847288
0.1066245784636366 0.039695372323683455 0.026740836162228554
0.10644631454099085 0.0398177050356227 0.025030090588345266
0.10450949680872818 0.040194426166655015 0.021415868049024955
0.13959505438783135 0.0352169170524356 0.05785393882062445
0.14052921897514473 0.03516783234725696 0.057512305410863884
0.14146078314329244 0.035118884278395095 0.05717162300060863
0.14238975773530071 0.03507007227611452 0.056831887624454014
0.1433161535339969 0.03502139577384279 0.056493095339011534
0.14423998126242613 0.03497285420814864 0.05615524222275603
0.1451612515842649 0.03492444701872026 0.05581832437587392
0.14607997510423137 0.03487617364834376 0.055482337920113145
0.14699616236849236 0.03482803354288175 0.05514727899863475
0.1479098238650668 0.03478002615125218 0.054813143775864936
0.1488209700242258 0.03473215092540729 0.05447992843734867
0.1490732319946546 0.03478199345727653 0.053395720041768235
0.14886886597265028 0.034900146919198564 0.05178178371447556
0.1486636010880679 0.035019031981327546 0.050157417124965464
0.1484569329808174 0.035138729760252244 0.048521946112475234
0.14824884721257567 0.03525924861834358 0.04687525641911705
0.14803982989957415 0.0353805216363203 0.045217820752003146
-0.039327581266668576 0.051598077973569745 0.03435674573756797
-0.03618332641941374 0.05131727762565484 0.03491083916835208
-0.03354851264137637 0.05109783147911085 0.0351322435811669
-0.030970750491257026 0.05088450852949211 0.03532784498563957
-0.028670303026790855 0.05070447388980559 0.03534403031147343
-0.026643602185850213 0.050557490348883405 0.035180180883812695
-0.024895325100522447 0.05044433838772127 0.03482991536547714
-0.023280871435117978 0.050347307050559315 0.03439220035548085
-0.021959252548718777 0.050286239630005336 0.03375258073106924
-0.020970687411627054 0.0502663615819539 0.032878944607747485
-0.020118425459358713 0.05026339605809927 0.03190868401740943
-0.01933865999105605 0.050269475763029044 0.03088626750360396
-0.018614402685348808 0.050282529851570584 0.02982317016314978
-0.017945395332615688 0.0503025691929898 0.02871891777955332
-0.017336155552281685 0.05033020512986943 0.02756952976027016
-0.016817234391921565 0.05036933361440083 0.02635173763778309
-0.016401488867614333 0.050421649398580855 0.025054903773382486
-0.016045166302268987 0.050481700287903226 0.023710401902289735
-0.015745951588975626 0.050549241293804135 0.022319225696759593
-0.0025956996777850017 0.048984612254756144 0.030614189799788305
-0.00011637364637401282 0.0487717775793657 0.030919623460951784
0.0023415005989541604 0.04856078440601273 0.031222414429042056
0.004779273576164145 0.04835147173509586 0.03152341939448661
0.007195059696058548 0.04814409175809056 0.03182102247234658
0.009591262250182975 0.047938348225530815 0.0321168974496332
0.011889095015905182 0.047744386993081776 0.03234952493427201
0.011916930287836913 0.04784224561637761 0.030817364057560193
0.013412169223312786 0.047750943052724884 0.030433970870587468
0.014901711975035647 0.04765998831052869 0.03005203823812469
0.01638968515346123 0.047568848212848916 0.029674815405939303
0.01787096085934675 0.04747818831464621 0.02929821866510174
0.01934558967199357 0.04738800511915406 0.02892224130065363
0.020813621676152916 0.04729829516408233 0.028546876658912645
0.022277105400537567 0.047208793431542745 0.028173742914720024
0.02373903505792907 0.047119108588114314 0.027805266108646753
0.031230893320008613 0.04623651176913771 0.03239634292660659
0.033090612664605557 0.046091931125544536 0.03239468695482167
0.034939676282569165 0.045948127962646475 0.032393820615177704
0.036776307153437604 0.04580534245053222 0.03239218277790179
0.038602481583457526 0.04566331924083171 0.032391329572549976
0.04041645131809396 0.045522295633680473 0.03238970954909581
0.04222015893113723 0.045382019532919045 0.03238886922084894
0.044011884385635136 0.04524272541918087 0.03238726669821562
0.04579353722443674 0.04510416438622843 0.03238643899635696
0.04756342509286782 0.0449665681444867 0.032384853668989466
0.04932342518570498 0.044829690916942576 0.03238403834907261
0.05107187230791632 0.04469376169198075 0.032382469918650236
0.05281061197101289 0.04455853776265872 0.032381666742306636
0.05453800562928063 0.04442424544239493 0.032380114917519076
0.0562550183963324 0.04429076016108641 0.03237857241848063
0.057961743568857194 0.04415807466559246 0.03237703916138057
0.059659108823887474 0.04402606803631855 0.032376261817484375
0.06134552742302962 0.043894961374856274 0.03237474457692824
0.06302193176220061 0.04376463324856769 0.032373236345975165
0.06468922596879656 0.04363496500230981 0.03237247717462177
0.06634586090918326 0.04350617394435568 0.032370984543054704
0.06799274532599187 0.04337814091716703 0.03236950069668587
0.06962996505021135 0.04325085924802224 0.032368025558180746
0.07125839393265848 0.04312421320181589 0.03236729053092685
0.07287653137656652 0.04299841517762787 0.03236583044963365
0.0744852557133559 0.04287334895177123 0.03236437886195381
0.07582260860911993 0.04278550404807937 0.032116182845495944
0.07563864379484891 0.04290962531945343 0.030434146985272137
0.0755452418251446 0.043021647665071536 0.02882951260872557
0.07576558065706607 0.04309018833511386 0.027517024261518697
0.07598662268244655 0.04315894774711321 0.026200347214760278
0.07643004421830957 0.04319669478106125 0.025093692949399227
0.07693637275130238 0.043225733746592845 0.024045458325061164
0.07745191508551208 0.043253603990315685 0.023004145478465077
0.07820195013035275 0.04324833442030967 0.02219100730030993
0.07895103077007315 0.04324317587702196 0.02137730584221914
0.07976072558413538 0.04322935265837796 0.020624091814426482
0.0807646151376622 0.043187717049499905 0.02006547279116716
0.0945787896019274 0.04131118192707317 0.03234694942390992
0.09598202343728546 0.041207480820417426 0.03226312321488467
0.09721138097595555 0.04112830868956936 0.03201078242249855
0.09843876595919382 0.04104904464267306 0.031762200390325346
0.09966142911608794 0.04097008552949499 0.031514574668662476
0.10088007472616323 0.040891331462837625 0.031268595991494286
0.10209337140472297 0.04081297733745463 0.031022865663878352
0.10330202724706083 0.04073492291508026 0.03077807524996934
0.10450673338077276 0.04065706946967576 0.03053491337110209
0.10570618295304907 0.040579609686926955 0.030291985934640275
0.10611188016021528 0.04061820582635825 0.029217283261960436
0.10668252935186012 0.040632734649520066 0.028314659100812933
0.10697635890895618 0.04068813625151758 0.027115850785607798
0.10682586729927712 0.04080945846943513 0.025436798722629828
0.10501898594267306 0.04117671076061201 0.021964623971485076
0.1406560244384388 0.036074427557892474 0.057650295445299427
0.14158692574576795 0.036024243871119535 0.05730959897825688
0.14251524066901686 0.03597419961297128 0.05696984909051844
0.1434409799721134 0.03592429420317823 0.05663104184264234
0.14436415435933878 0.03587452706468638 0.056293173317016276
0.14528477447574012 0.03582489762363497 0.05595623961770663
0.1462028509075399 0.03577540530933441 0.05562023687030909
0.14711839418254155 0.035726049554244355 0.05528516122179966
0.14725243935898488 0.035795095584264 0.05406777259040879
0.14704130942241458 0.0359170247484613 0.05245168932707428
0.14682923578649837 0.036039711182185456 0.05082513094582458
0.14661520664004696 0.036163315390500356 0.04918684467651718
0.14640071217284137 0.036287615801329526 0.04753844859800149
0.14618473810086127 0.036412773649132216 0.04587868171433879
-0.039892345407128715 0.05299187146419022 0.03397292113264111
-0.03670918717828048 0.05269912939483058 0.03455146854899738
-0.0340775973299694 0.05247459550192246 0.03476866399120526
-0.03151791358107736 0.052258216595924514 0.03494975947921963
-0.029163371798262117 0.052066872560176856 0.035001439154960734
-0.027106016353201035 0.05191236676300882 0.034857114536292644
-0.02530995680885717 0.05179037232853366 0.03453863473268287
-0.02367742909262127 0.05168866332930093 0.034112082650854525
-0.02236960839730523 0.05162789046351745 0.03346112230104509
-0.0213500270876969 0.0516036517878686 0.03260803604285745
-0.020480263298019996 0.051598471629462996 0.03164885738733014
-0.01971411214997798 0.051606547039102106 0.030615188249627834
-0.01899521360742712 0.051620723207175784 0.029546718064047406
-0.018344699644541107 0.05164375702153834 0.028427456959888076
-0.01774810683520417 0.05167383867992782 0.027267197399899024
-0.01722897190739714 0.05171405312128729 0.026047915961414536
-0.01678835564445419 0.051764600934664035 0.024767881049825857
-0.016443994894843827 0.05182784798062791 0.02341289661338236
-0.016150941717911482 0.05189803000225857 0.02201548465995501
-0.0026034597546747973 0.050241638983211344 0.030608338224534015
-0.00012295364128761532 0.05002319505887364 0.030914634877819314
0.002336076031271783 0.049806642441314386 0.03121827958758444
0.004773906978142839 0.04959195667375649 0.03151930664651642
0.007190812146782355 0.049379113719285196 0.03181774975858348
0.009587059818829624 0.04916808995187776 0.032113642051607105
0.011970190018491145 0.04895790208599518 0.03241268299307931
0.013952117016421184 0.04879986963909748 0.03241092081920299
0.01592129015848537 0.04864285414340924 0.03240916998499549
0.017877832157943863 0.04848684581417214 0.032407430381349245
0.01982186415882181 0.04833183499175329 0.03240570190055625
0.021753505760902125 0.048177812139652956 0.03240398443627729
0.0236728750442583 0.04802476784254815 0.032402277883523956
0.02558008859332217 0.04787269280437319 0.03240058213864244
0.027475261520478023 0.04772157784643901 0.03239889709928323
0.029359470170119806 0.04757128441508479 0.032398009319873355
0.031230893319986797 0.0474220633529647 0.03239634292658866
0.033091559227006406 0.0472736476381667 0.03239546869532778
0.03493967628255845 0.047126285089895276 0.03239382061516882
0.036776307153432275 0.04697983841080299 0.03239218277789735
0.03860248158345758 0.046834173580340206 0.032391329572549976
0.04041645131809918 0.04668953398326131 0.0323897095491002
0.04222015893114772 0.046545661059402714 0.03238886922085782
0.0440127845108097 0.04640267209508404 0.03238803405556617
0.04579353722445756 0.046260681421769895 0.03238643899637483
0.04756431035145681 0.04611943536411759 0.03238561634885462
0.04932342518573579 0.04597917017121891 0.03238403834909931
0.051071872307952126 0.04583975558151377 0.032382469918681434
0.05280974846227321 0.045701183880986616 0.03238091097081669
0.05453800562932626 0.04556332865886026 0.03238011491755921
0.05625501839638275 0.045426420678030335 0.03237857241852515
0.05796174356891237 0.04529033299034355 0.03237703916142959
0.05965827332895207 0.045155058245559605 0.032375515063458926
0.061345527423094126 0.04502047320497177 0.03237474457698619
0.06302193176226967 0.044886803331854616 0.032373236346037504
0.06468841077716186 0.04475392486497014 0.032371737044681714
0.06634586090926126 0.04462171686599484 0.032370984543125925
0.06799274532607424 0.044490400940672505 0.03236950069676142
0.06962996505029811 0.04435985563898488 0.03236802555826074
0.07125760490848038 0.04423007419720475 0.03236655905119851
0.07287653137666178 0.044100938643707344 0.03236583044972241
0.07448525571345538 0.04397266559154606 0.03236437886204696
0.07589818373707519 0.04387177256785981 0.03218734893272568
0.0757144835020998 0.0439990137159918 0.030505934478261776
0.07560345496605858 0.044116412905560475 0.02888490240498348
0.07582384474151083 0.044186684391591645 0.027572751169170406
0.07604493773941623 0.044257180100743254 0.026256413105021748
0.07647667139708347 0.04429756444864493 0.025138754891695037
0.07755474870141144 0.04424451908506076 0.02464618219552772
0.078790260000622 0.04416836995819947 0.024311040472673906
0.08002229019500584 0.044092371257524986 0.02397780076152739
0.081249327811312 0.04401674450504674 0.02364495594608107
0.08245931633701264 0.043943255022961106 0.023300509423309634
0.08366151392007476 0.04387056115252483 0.022953465365638137
0.09457878960207655 0.042370443002104415 0.03234694942405936
0.09601672736538008 0.04225897305196557 0.032298079889898135
0.09724862864158418 0.04217738331657428 0.03204849562683998
0.0984764675961824 0.042096006627887074 0.031800570808493966
0.09969889657542208 0.04201504435746471 0.03155290403228178
0.10091663244235116 0.041934392914940194 0.0313061880908323
0.10213037487503013 0.041853950278409165 0.031061112832136584
0.10333880106023707 0.04177391552867082 0.0308162814622302
0.10454327884453546 0.041694086814743694 0.03057307847896107
0.1057458029471337 0.04161416625614816 0.03033357549800597
0.10650341841635308 0.04160079342027151 0.029630407204052467
0.10676026522766491 0.04166287634625501 0.0283971038813825
0.10718120580256929 0.04170045392710392 0.027334227280608636
0.10712387591687728 0.04181069347113327 0.025756128581836013
0.1069112593245472 0.04194506144200896 0.024002736574941508
0.14078269735175464 0.03698007510289463 0.057788141238504454
0.14171293667448748 0.036928658405632524 0.05744743092989918
0.14264059279943894 0.03687738448829329 0.0571076667456783
0.14356567647168067 0.036826252756969394 0.05676884475034244
0.14448819837677326 0.03677526262104265 0.05643096103018902
0.1454081691411774 0.03672441349316149 0.05609401169316097
0.14542164383876977 0.03681376338819722 0.05474351719264753
0.14520367853497457 0.03693950807875861 0.0531252877693047
0.14498472397878512 0.037066036111165004 0.05149653812172483
0.14476375724478258 0.037193513065149744 0.049856014400258164
0.14454177466232113 0.03732179017610798 0.04820475101744831
0.14431876711141578 0.03745087492701633 0.04654264708420752
-0.04043805027809694 0.054386755386443275 0.033602049574940285
-0.03724525107276505 0.054085595445791716 0.0341851251576597
-0.034575385508260725 0.053850651892533935 0.034426590924921285
-0.03205782519469713 0.053634436519079794 0.03457668468734271
-0.029669932963108103 0.05343413238262118 0.03464947329269136
-0.027573138665143493 0.05327078053879279 0.03453075883653334
-0.025744833708643777 0.05314166770919455 0.03423313176218845
-0.02408922468258029 0.053034524642263436 0.033821201278998514
-0.022777196677518763 0.05297179303095413 0.03317162955796249
-0.021738453791657786 0.05294455107566425 0.032330637901895165
-0.02085826690463971 0.052937979629854304 0.03137742252681586
-0.020103372256100815 0.05294783741420472 0.03033413955497266
-0.019404112458535072 0.05296505822170019 0.029249875355092436
-0.01875311919260425 0.052988715944163996 0.028129342732992335
-0.018170406403766992 0.05302149562976668 0.0269572703996927
-0.01763918466001796 0.05306123060419207 0.02574521940964397
-0.0171997044051167 0.05311330590246675 0.02446269474620627
-0.016860240461110454 0.05317889914875767 0.02310239917224083
-0.016586452402296836 0.053253518723080186 0.02168885332411913
-0.0026101114977621354 0.05149856825272527 0.03060332240113428
-0.00013830784156354525 0.051275829686039456 0.030902994184245136
0.002320886419464041 0.05105384550098161 0.031206701404712434
0.004758879693673779 0.050833775066238915 0.03150779033144091
0.007177006948739795 0.05061545072209944 0.031807112928096404
0.00957340126386974 0.05039913550377173 0.03210306150213055
0.011951478932707538 0.05018438016437903 0.03239811050626035
0.013952117016345522 0.050019866380085175 0.03241092081914371
0.015921290158415813 0.049858925497003916 0.032409169984940756
0.017877832157880413 0.04969901695953508 0.03240743038129901
0.01982186415876447 0.04954013086655494 0.03240570190051062
0.021753505760850722 0.049382257443151306 0.032403984436236155
0.023672875044212893 0.049225387038618076 0.03240227788348743
0.025580088593282646 0.049069510124487944 0.03240058213861052
0.027475261520444327 0.04891461729260462 0.03239889709925586
0.029359470170091884 0.04876056652546576 0.03239800931985054
0.031230893319964537 0.04860761493679189 0.0323963429265704
0.03309155922698975 0.04845548882912318 0.03239546869531401
0.034939676282547405 0.04830444221714418 0.03239382061515966
0.03677723792257254 0.04815420492385976 0.03239295966448019
0.038602481583457526 0.048005027919848724 0.032391329572549976
0.040417366610853045 0.047856644480479923 0.03239048164166547
0.04222015893115855 0.047709302585886265 0.03238886922086698
0.0440127845108258 0.047562738897458885 0.032388034055579884
0.045793537224478875 0.04741719845731115 0.0323864389963931
0.047563425092920275 0.04727254599804273 0.0323848536690346
0.049323425185767544 0.0471286494254949 0.03238403834912679
0.05107187230798893 0.046985749471046404 0.032382469918713463
0.052809748462314954 0.04684371347800537 0.032380910970853216
0.054537149226624115 0.04670253363482615 0.032379361419808184
0.05625501839643443 0.04656208119497373 0.032378572418570895
0.057961743568968827 0.04642259131509408 0.03237703916147977
0.059658273329013356 0.04628393470168982 0.03237551506351377
0.06134469876055465 0.04614610391050778 0.03237400004284563
0.06302193176234028 0.04600897341514083 0.032373236346101286
0.06468841077723714 0.045872772986583536 0.032371737044750104
0.06634505235353633 0.045737376566565215 0.03237024659392185
0.06799274532615862 0.045602660964177096 0.032369500696838915
0.06962996505038699 0.04546885202994661 0.03236802555834273
0.07125760490857364 0.04533582605212131 0.03236655905128494
0.072875748737466 0.04520357617877681 0.03236510110012791
0.07448447939841041 0.045072095637707636 0.03236365163021249
0.07608464884259175 0.0449412649857297 0.03236293569418447
0.07767479171587588 0.04481130375686558 0.03236150087289841
0.07925576435172949 0.04468209200488801 0.03236007432608118
0.08082764584820629 0.04455362326517025 0.032358655982360096
0.08239051439629036 0.04442589114721935 0.03235724577118543
0.08394444729285211 0.04429888933361797 0.03235584362280963
0.08548952095339846 0.04417261157898184 0.032354449468282254
0.08702653874683913 0.04404694340213576 0.03235377395849992
0.08855411391037415 0.043922095925413664 0.032352393576845995
0.09007305397437165 0.04379795418836192 0.0323510209981972
0.09158343195139718 0.04367451222372285 0.03234965615657687
0.09308532003320164 0.04355176413132335 0.03234829898674885
0.09457878960222926 0.04342970407713403 0.03234694942421246
0.09604517832525977 0.04331115350204388 0.032326738056651594
0.09727759233689498 0.0432274362727608 0.032077821323935496
0.09850456595462331 0.04314414596946545 0.03182916759763482
0.09972682041784897 0.04306117601520294 0.03158147023690433
0.1009450596725826 0.04297842144957791 0.03133541965599007
0.10215795293895413 0.042896087068328904 0.03108961780322117
0.10336954991600983 0.042813555906459494 0.03084822803532028
0.10458114311551964 0.0427306281898469 0.030612620841742266
0.10578739175854468 0.04264812264230194 0.03037723175155782
0.10665078186000193 0.04261808895251428 0.029785894862809026
0.10685375382709861 0.042689996829359464 0.028496255617775468
0.1073588007706644 0.042715446033425704 0.027523551931709522
0.10737578862636021 0.042816830593912426 0.026026064567913343
0.10716219117724618 0.04295461496989748 0.024273007972559435
0.10457596431978894 0.04346342381005626 0.019941461917781178
0.14183830676684475 0.03783220926069088 0.057584561928636924
0.14276530762424694 0.03777970805312102 0.05724478371896652
0.14369024323548224 0.03772727290200347 0.0569065042862093
0.14358076277772197 0.03783804285962726 0.05542298435682086
0.14335588977848474 0.037967643388368236 0.05380260966043776
0.143129981245722 0.038098053740876846 0.05217166938147888
0.14290200302688374 0.03822944462824828 0.050528908598068356
0.14267296159572043 0.038361662769985094 0.04887536124272007
-0.040981298319000437 0.055784734956387846 0.03323284772634699
-0.037782685996316845 0.05547560750175841 0.033817844811896924
-0.03507436327784208 0.05522999671938874 0.034083700388159
-0.03259166895865662 0.05501325641040677 0.034207802733130455
-0.030201189217230084 0.054807867052100806 0.034280348933099114
-0.02806825197519819 0.05463587077308767 0.034184847184205946
-0.026186714147977463 0.05449665364777406 0.033922708773784005
-0.02451634847623596 0.05438504828347724 0.0335194924747268
-0.023167570011973726 0.05431598898430926 0.03289436386386929
-0.022146806080029946 0.0542905987296123 0.032039009740141566
-0.021274052510828145 0.05428497751855141 0.031078857364888357
-0.020517264075629538 0.05429493589222387 0.030035306579855814
-0.019835306363343463 0.054315024369785234 0.02893684741079433
-0.01918976326845029 0.05434011565092767 0.027810626815214234
-0.018607877284140817 0.054373929005855026 0.02663620912536252
-0.018087108871483182 0.054416174238154806 0.025414695520762365
-0.017634494810394252 0.054467860602913816 0.02414011670702071
-0.017309476124305334 0.05453714479670046 0.02276729284271861
-0.017044345823224893 0.05461489413291063 0.02134543502208769
-0.002611220144023818 0.052754782556212486 0.030602486413666308
-0.00014488858990324704 0.05252736181570594 0.03089800502990725
0.002306780694510846 0.05230099902686515 0.031195949407550327
0.004744924717474341 0.05207554435040834 0.031497095790912644
0.0071621386781267615 0.05185202507251425 0.03179565700593873
0.009558690933422986 0.05163041637827027 0.032091666198632796
0.011934845272147276 0.05141069387518187 0.032385155950759414
0.013952117016267973 0.05123986312107363 0.03241092081908303
0.015921290158344592 0.05107499685059929 0.03240916998488469
0.01787783215781541 0.050911188104898655 0.032407430381247604
0.019821864158705682 0.05074842674135717 0.03240570190046388
0.021753505760798153 0.05058670274665016 0.03240398443619413
0.02367287504416643 0.05042600623468845 0.032402277883450015
0.025580088593242123 0.05026632744460311 0.032400582138577716
0.027475261520409744 0.05010765673877058 0.032398897099227775
0.029359470170063184 0.049949848635847026 0.03239800931982706
0.031230893319941833 0.0497931665206193 0.03239634292655169
0.033091559226972767 0.049637330020079806 0.03239546869530002
0.03493967628253619 0.049482599344393204 0.03239382061515034
0.036777237922566874 0.04932869772688153 0.03239295966447553
0.038602481583457526 0.04917588225935723 0.032391329572549976
0.040417366610858596 0.04902387971171035 0.03239048164167019
0.04222015893116954 0.04887294411236972 0.032388869220876304
0.04401278451084223 0.04872280569983357 0.03238803405559393
0.04579353722450075 0.04857371549285217 0.032386438996411804
0.04756342509294742 0.048425534924820345 0.03238485366905802
0.049322547247731274 0.048278255696133365 0.032383277984741776
0.05107187230802651 0.048131743360578676 0.032382469918746215
0.0528097484623577 0.047986243075023666 0.032380910970890686
0.054537149226671966 0.04784161982103446 0.03237936141985032
0.0562541690300859 0.0476978656927175 0.032377821180921806
0.057961743569026614 0.04755484963984402 0.032377039161531174
0.05965827332907603 0.04741281115781941 0.03237551506356978
0.06134469876062226 0.04727161864002243 0.03237400004290636
0.06302193176241261 0.047131143498426294 0.03237323634616662
0.0646884107773143 0.04699162110819614 0.032371737044820104
0.06634505235361804 0.04685292233646936 0.032370246593996455
0.06799194334246256 0.04671503991182019 0.03236876491555685
0.06962916957562143 0.04657796664816678 0.03236729193228349
0.07125681588040605 0.046441695443524014 0.03236582756785811
0.07287574873756586 0.046306102427024744 0.03236510110022095
0.07448447939851471 0.046171415043489775 0.032363651630310186
0.07608387879161038 0.046037508899529116 0.032362210567852656
0.077674027869585 0.04590437721755601 0.03236077783990893
0.07925500665147323 0.045772013298155355 0.032359353374382616
0.08082689423603151 0.04564041051896038 0.032357937100004786
0.08238976881493609 0.045509562333547283 0.03235652894632812
0.08394444729298162 0.045379350049052414 0.03235584362293481
0.08548952095353196 0.04524999234918061 0.03235444946841193
0.08702581092473322 0.04512137004327988 0.03235306323956927
0.08855339189673012 0.044993476878091285 0.03235168486901552
0.09007233771524259 0.04486630667105365 0.03235031429011753
0.09158343195154606 0.04473974422915665 0.03234965615672453
0.09308532003335429 0.04461400228084433 0.03234829898690106
0.09457878960238564 0.044488965152161955 0.032346949424369165
0.09606321747492624 0.044364734192264055 0.032344908584514886
0.097305860757946 0.044277383237513596 0.03210644305690902
0.0985333438854668 0.04419197190245375 0.031858456013966086
0.09975541962291873 0.044106995466963436 0.031610727340263434
0.10097618768524652 0.044021817163045374 0.03136742842093154
0.10219628417783427 0.04393633601939017 0.031129237366760043
0.10341165151003434 0.043851186205300256 0.03089196955405027
0.10462231712438858 0.043766365798124374 0.030655619625385433
0.10582896809598413 0.043681768907825026 0.030420874911038287
0.1067979883203482 0.04363430078033321 0.02994121688370055
0.10700635970138678 0.04370705115728655 0.028658105699080394
0.10753551071203465 0.04372923622195256 0.027711933102385844
0.10762789938304212 0.04382102741229078 0.02629621277061933
0.10741200705782655 0.043962440505515836 0.024542077389077988
0.10511539573920609 0.04443725232818696 0.02052546284954687
0.14195947586123553 0.038735475860683315 0.05771709783586593
0.14172920151987095 0.03886806282426075 0.05610564301732013
0.14149785869505846 0.039001477670828455 0.054483685959186345
0.14126492222900075 0.03913581156646599 0.052850555795729004
0.1410298577141714 0.0392711580840216 0.05120555845131097
0.14079368186111174 0.03940735938199944 0.04954972735704094
-0.04149363738451306 0.05718195460389398 0.03288465221370562
-0.03832532349935075 0.056869695621295624 0.03344700904926906
-0.03561364150737967 0.05661793071195699 0.03371311593958631
-0.03309316192878847 0.05639105709221747 0.033861274929801066
-0.030712780549568608 0.056182286752281936 0.03392488803930793
-0.028564560784132054 0.05600425714950397 0.033838100294804
-0.026645384301878183 0.05585673107615948 0.03360049093567263
-0.02496010485049921 0.05574055857136527 0.033206034861136546
-0.023608090588060848 0.05566953608475786 0.03258148070175043
-0.02256319014750957 0.05564035380363364 0.03174164561695608
-0.021706275955892196 0.05563689353066206 0.030768488605259048
-0.02094397153409694 0.0556464515284048 0.029727220618013084
-0.020259060614919555 0.05566673194424255 0.02862922032984705
-0.01962377653069708 0.05569396060666873 0.027493831184959017
-0.019045110593317816 0.05572914974662896 0.02631532220529137
-0.018518154722144853 0.055771667243980985 0.02509662619742542
-0.018063080076177074 0.05582436632861668 0.023822142361262566
-0.01773706668965702 0.055895285781547455 0.02244833262510293
-0.01746152411946883 0.05597355562268962 0.021032552906747104
-0.0026112201441508276 0.054010848807568665 0.03060248641357055
-0.00014598540337013022 0.05377816722673768 0.030897173487446805
0.002299184871128346 0.0535473292337726 0.031190159540547824
0.004729895130015982 0.0533175565747482 0.03148557771091737
0.007147269231102538 0.053088697263470076 0.03178420017736261
0.009543979444032291 0.052861794258094716 0.03208026999736341
0.01192028959580943 0.0526368225814096 0.03237381976193382
0.013951086450421202 0.05246000634733883 0.03241011388321302
0.015921290158271817 0.05229106820419535 0.0324091699848274
0.01787783215774902 0.05212335925026286 0.032407430381195035
0.019821864158645675 0.05195672261615998 0.032405701900416084
0.021753505760744307 0.051791148050149546 0.032403984436151057
0.023672875044118746 0.051626625430759306 0.03240227788341171
0.02558008859320071 0.05146314476471867 0.03240058213854424
0.02747623238247543 0.05130055610245089 0.03239968623326395
0.029359470170033986 0.05113913074622856 0.03239800931980319
0.031231847897802312 0.050978579774837024 0.03239712711470821
0.03309155922695545 0.05081917121103661 0.0323954686952857
0.03493967628252459 0.050660756471642344 0.032393820615140734
0.03677723792256121 0.05050319052990335 0.032392959664470755
0.03860340457283212 0.0503466016777277 0.03239210405262993
0.040417366610864314 0.050191114942940714 0.03239048164167496
0.04222015893118086 0.050036585638853055 0.03238886922088591
0.044011884385700306 0.049883004949343675 0.03238726669827119
0.04579353722452306 0.049730232528392974 0.032386438996430955
0.047563425092975176 0.049578523851597674 0.03238485366908195
0.049322547247764414 0.04942773797460782 0.032383277984770475
0.0510710016181149 0.04927786650326851 0.032381711855778705
0.052809748462401385 0.04912877267204154 0.03238091097092888
0.05453714922672087 0.04898070600724227 0.03237936141989334
0.05625416903013991 0.04883352916158365 0.0323778211809696
0.057960901170210966 0.04868723413793054 0.03237629017046534
0.059658273329140254 0.04854168761394833 0.03237551506362718
0.06134469876069132 0.048397133369536376 0.03237400004296842
0.0630211098659813 0.04825343751669291 0.03237249401875669
0.06468759558150972 0.04811059243210521 0.03237099691109413
0.06634424379376808 0.04796859058246335 0.03236950864102761
0.06799114135468676 0.0478274245231363 0.03236802913053188
0.06962916957571447 0.047686965854061354 0.03236729193236931
0.07125681588050375 0.04754745009692636 0.032365827567948646
0.07287496609442462 0.04740874830920744 0.03236437174694967
0.07448370307956953 0.047270853388275816 0.03236292439482208
0.07608310873676766 0.04713375831389831 0.032361485437884696
0.07767326401947516 0.04699745614704729 0.03236005480330456
0.07925500665159302 0.046861823138569146 0.03235935337449658
0.08082689423615563 0.04672708695986881 0.032357937100123524
0.08238976881506443 0.04659312334146899 0.032356528946451524
0.08394370768587223 0.04645992565771979 0.032355128843834624
0.08548878726475673 0.04632748735851938 0.032353736723421234
0.08702581092487377 0.046195688377621745 0.03235306323970649
0.08855339189687478 0.04606475013707083 0.03235168486915746
0.09007233771539108 0.04593455206796022 0.03235031429026408
0.09158272139362117 0.04580508791188536 0.032348951437144446
0.09308461512394511 0.04567635148079879 0.03234759624466105
0.09457878960254562 0.045548226227188175 0.032346949424529425
0.09606391124324237 0.04542092757484836 0.0323456074055099
0.09733481285384665 0.045327013123669886 0.032135757009619514
0.09856417092333325 0.04523925908038357 0.031889829885986376
0.09979354291527515 0.045151084576123 0.03164972762373769
0.10101813196418369 0.04506325311988658 0.03141055949324373
0.10223863811324257 0.044975655043631414 0.031173014830887413
0.10345374042921485 0.044888504121542216 0.03093569790423073
0.1046641427587851 0.044801690297115594 0.03069929891369272
0.10587053196506074 0.04471510519222133 0.03046450498233494
0.10694503804810762 0.04464943063447869 0.030096373531264875
0.10715879701413916 0.044722982093034463 0.02881977700811722
0.10769166752163606 0.04474503086695596 0.027878403660712592
0.10787823648712375 0.04482360288417995 0.026564460423469882
0.10766202998084373 0.04496833470576795 0.02481136980498122
0.10580617391624075 0.045382196947752695 0.02127331528177534
-0.04202534987702777 0.058585054370161156 0.03252329014633387
-0.038879592426949605 0.058268796681755705 0.03306822442911689
-0.036147988385950125 0.058008574541815495 0.0333459202463513
-0.03361965633130182 0.05777548569613418 0.033497471328087225
-0.03124672683637547 0.05756304387889376 0.03355389460695779
-0.029079288764276567 0.05737834912990695 0.03347848482397109
-0.027111187572055218 0.057220712444571144 0.033273262051418395
-0.025413320557347407 0.05710021121094366 0.03288589542844417
-0.024036285297383664 0.05702416155685551 0.032277352082276
-0.022979227258118906 0.05699271699991385 0.03144452927588709
-0.022134620039577446 0.056991027416188424 0.030460905517237902
-0.021382374162787876 0.0570023495529565 0.029410690656198557
-0.020687299649002955 0.05702179356115014 0.02831833749265361
-0.020056335054970065 0.05705039188125426 0.027178097399291
-0.019474930213157382 0.057086137766472984 0.025999876215469453
-0.01893937706951032 0.05712854873265298 0.02478580565061983
-0.01848900025122746 0.057183266998899085 0.023506145289455938
-0.018154817980744586 0.05725479637331018 0.022136711991928015
-0.017921426299988386 0.05734103922503663 0.020687628042759088
-0.0026123287967925735 0.05526707394505471 0.030601650421291537
-0.00014598540349275435 0.0550288222785399 0.030897173487353824
0.0022991848710128826 0.054792615960156034 0.031190159540459783
0.004722379888358552 0.054558583602648994 0.03147981832764529
0.00713346083393579 0.05432531378833314 0.03177356088196759
0.009530317737461602 0.054093116945992135 0.03206968700650309
0.011906772588150705 0.05386289656384387 0.032363292504551944
0.013951086450340155 0.05368000649496315 0.03241011388314957
0.015920268389213565 0.05350728848668696 0.03240836564044103
0.01787681909401434 0.05333567837075743 0.03240662861170501
0.019820859709973937 0.05316516552146112 0.03240490268938784
0.021752509838069922 0.052995739448531816 0.032403187767308494
0.02367287504407012 0.05282724462683063 0.03240227788337263
0.025580088593158357 0.052659962084834644 0.03240058213851005
0.027476232382439347 0.052493592290885314 0.03239968623323458
0.029359470170004065 0.0523284128566104 0.032398009319778764
0.031231847897778553 0.05216412814169722 0.03239712711468873
0.033091559226937683 0.05200101240199359 0.03239546869527099
0.03494061490563971 0.05183877381249838 0.03239459991902488
0.03677723792255533 0.05167768333292523 0.03239295966446587
0.038602481583457526 0.051517590938374234 0.032391329572549976
0.04041736661087009 0.05135835017417102 0.03239048164167985
0.042220158931192464 0.051200227165336266 0.03238886922089573
0.044011884385717515 0.05104307483188396 0.032387266698285844
0.04579264456746812 0.050886884263084686 0.032385673982986085
0.0475634250930036 0.05073151277837472 0.03238485366910637
0.04932254724779833 0.05057722025308193 0.03238327798479984
0.051071001618154144 0.050423863398687395 0.0323817118558129
0.05280888494914959 0.05027143372968453 0.03238015519548976
0.05453714922677083 0.05011979219344958 0.0323793614199373
0.056254169030195145 0.049969192630449244 0.03237782118101845
0.05796090117027136 0.04981949539694293 0.03237629017051902
0.05965743782989308 0.049670692407582075 0.032374768305747925
0.06134387009388875 0.04952277567332937 0.03237325550499753
0.06302028796532971 0.04937573730002795 0.03237175168753503
0.06468678038153186 0.049229569486998526 0.032370256773579076
0.06634424379385351 0.04908413920064693 0.03236950864110555
0.06799114135477718 0.04893969020970682 0.03236802913061482
0.06962837409691486 0.04879608891771259 0.032366558302589665
0.07125602684834681 0.04865332788441364 0.03236509608082344
0.0728741834473342 0.04851139975637622 0.032363642389998004
0.07448370307967861 0.04837017556007908 0.032362924394924275
0.07608310873688129 0.048229892228157156 0.03236148543799172
0.07767326401959324 0.04809042024347166 0.03236005480341636
0.07925424894756078 0.04795175258751761 0.032358632419205224
0.08082614262024751 0.04781388232250742 0.03235721821419746
0.08238976881519561 0.047676684349389334 0.03235652894657759
0.08394370768600756 0.0475403890450871 0.032355128843965464
0.08548878726489628 0.04740487078543945 0.03235373672355685
0.08702508309919466 0.04727012294422234 0.03235235251728669
0.08855266987969657 0.04713613897033868 0.03235097615785787
0.0900723377155429 0.047002797464865166 0.03235031429041385
0.09158272139377699 0.04687032251446229 0.032348951437298934
0.09308461512410476 0.04673859221288465 0.032347596244820254
0.09457809028958247 0.046607600299162326 0.03234624864856661
0.0960632174752572 0.04647734058231826 0.03234490858484823
0.09736720467172766 0.046375870921328374 0.03216855367556143
0.09860183934253947 0.04628520489554359 0.03192816649712954
0.09983097544750968 0.04619500369206883 0.031688021256791765
0.1010560063979159 0.04610504280153092 0.03144950556602116
0.10227627533211997 0.04601543161254141 0.03121191704819909
0.1034918099630624 0.04592616808998391 0.030975250307564095
0.10470197417185745 0.04583735950752413 0.0307388069623451
0.10590812663140148 0.045748784853390484 0.03050396853587939
0.1070866877978468 0.04566434798386812 0.030245832497512115
0.10738648193131622 0.04572528073668681 0.029061254097573375
0.10782734070433736 0.0457630514452772 0.028023037702173237
0.10811108097370786 0.04582719749201524 0.026813963936880403
0.10788396518179949 0.04597702341301126 0.025050409752671365
0.10638353920456428 0.046340880048899524 0.02189838429743335
-0.04263372671678811 0.06000229229374545 0.032109825509614165
-0.03944557911720886 0.05967303240653281 0.03268143194841655
-0.036723015215818 0.059408337241199205 0.03295076986016976
-0.03415627227443957 0.0591646683229827 0.03312667381928441
-0.03177583486134533 0.05894648582365676 0.033186262867365535
-0.02953859161465905 0.05874780629533232 0.03315759220269021
-0.027578051310137797 0.058587799112041136 0.03294528818370929
-0.02586389678684753 0.05846236648550403 0.0325676204518332
-0.024469012793364442 0.05838216304661042 0.03197000401585687
-0.023399737171484802 0.058348376951344504 0.031144218645762
-0.022554242710432937 0.05834664538672001 0.030159585055904603
-0.02179649465439354 0.0583575559721316 0.029111692578139725
-0.021109249165714383 0.05837869601195582 0.02801202057040386
-0.020467048601744864 0.05840644387960772 0.02687830873331498
-0.01989489006628553 0.058444466561710096 0.02569166633988268
-0.01935909004471492 0.058487932007813444 0.024476098871598184
-0.018900267379827085 0.058542790605818615 0.023201019549985102
-0.018573441108136135 0.058617144229040415 0.021824441014428986
-0.018362009537940538 0.05870868681364571 0.020357192311286076
-0.002612328796925356 0.056523143807461776 0.030601650421191395
