# .PCD v0.7 - Point Cloud Data file format
VERSION 0.7
FIELDS x y z
SIZE 4 4 4
TYPE F F F
COUNT 1 1 1
WIDTH 781
HEIGHT 1
VIEWPOINT 0 0 0 1 0 0 0
POINTS 781
DATA ascii
0.0791799433683114 -0.026262598709949958 0.029867391504286134
0.0789626893254652 -0.028010510156077695 0.02975078297885969
0.07873974342411155 -0.02977972467535861 0.02966030620465615
0.07850522718573322 -0.03159639076531873 0.029618007567957017
0.077109007792688 -0.038597497650578794 0.033912270087025354
0.07698384612957229 -0.039906321854397686 0.03348537269859431
0.07582094746089353 -0.045827780713541044 0.03695441092161178
0.0756042643687456 -0.047527749322781754 0.03688977050472603
0.07555652262037563 -0.04847546414359072 0.03619246143297383
0.0755648384210811 -0.04917458514165707 0.03528401095381517
0.07522656234394773 -0.051401745630216156 0.03569168463897787
0.07476373080293924 -0.054170180574446336 0.036581704294216866
0.0744931428696326 -0.05608587932114534 0.036747885505063804
0.07435906143557337 -0.05739853560284813 0.03639715839380808
0.07421610106572983 -0.05874737522025886 0.03608367720508382
0.07410700315318723 -0.05994580363189661 0.03564294363275461
0.07396178429552218 -0.061299227855472094 0.035344441390104286
0.07381335438991897 -0.06266375976581967 0.0350617662705231
0.07368038888258932 -0.06395843383281391 0.03472236873896234
0.07357398544750082 -0.06513575286669504 0.034282403327087985
0.07348698615423285 -0.0662273500554954 0.03376896095959442
0.07291724724460115 -0.06939359236376347 0.03515256257750338
0.07288075745542918 -0.07026034136347736 0.03444989789700442
0.07284853676964594 -0.0711081006640587 0.03373122253917232
0.07283602441671559 -0.07187103951899654 0.032935242598985726
0.07283179327045801 -0.07259843847808706 0.03210666025028225
0.07282572335370396 -0.07333357432418469 0.031285501039876484
0.0728855469639479 -0.07378902392073855 0.030201224736955967
0.07302175825067925 -0.07392229094915864 0.02880948885836765
0.07316646153970885 -0.07402234734958035 0.027380466643962487
0.07321420386351743 -0.0745337679401093 0.026338840273898934
0.0732834199507504 -0.07495584778342085 0.025209316640346147
0.07328602741327764 -0.07565863424992841 0.024348166761087697
0.07344599542768658 -0.07570302958995662 0.022847310400217036
0.07365648714460811 -0.07553962717601992 0.02113678328801666
0.07362921670092805 -0.07637055900336776 0.020393355095137455
0.07411386000940688 -0.07507392182206563 0.01755188591974366
0.07459990751056993 -0.07378090387751018 0.01469339347637505
0.07481416339755187 -0.07362137266483126 0.012944181517281217
0.07500818526059222 -0.07354949742584976 0.011273653173963616
0.07520910033634957 -0.07345302817576188 0.009570041028060527
0.07545154479770408 -0.07318993721520378 0.007689098345219358
0.08972888314307466 0.053110567660153374 0.04109918381069483
0.08952088569898092 0.051240733777280056 0.04072538800380543
0.08920906012867658 0.04887222004176428 0.04068306042163633
0.08902132684289787 0.0471092762175796 0.040255968155532784
0.08888914135067913 0.04561779639847413 0.039657108482435754
0.08867050815743721 0.04371281531515525 0.03933625833009824
0.08850884340747942 0.04208564868037151 0.03883854187205038
0.08835923403729551 0.04051937033929903 0.038305898828830676
0.08821650946135673 0.03898889821346352 0.037754540483635524
0.08808113550861754 0.03749625811673846 0.03718272759624852
0.08796150384438936 0.03608122161478755 0.03656303473925704
0.08789125291161601 0.03490328742267812 0.03578561171128969
0.08788755860303973 0.034042541388217995 0.03479275420581479
0.08789547536115752 0.03323685441886404 0.03376198477737785
0.087876741342139 0.03230505735306044 0.032818551825515074
0.08778871933195787 0.031046812232156717 0.032103871760340075
0.08760350207053011 0.029332752103703508 0.03171260297721118
0.08731268083451793 0.027126174696706418 0.031675980843238305
0.08694959851566797 0.024586426697232378 0.03188660922504316
0.08662949833335916 0.022254727841258648 0.03196193556794896
0.08627206406727085 0.01975486987872177 0.0321697428248649
0.08591504559516472 0.017263807475233317 0.032384324842614276
0.08559599573765886 0.014956130413999291 0.032478914148269866
0.08529347009400494 0.012731245943985281 0.032524835541072494
0.08500220699377255 0.010564315308123795 0.03253940243176129
0.08471881035813503 0.008439322037073593 0.032533807887844046
0.08443924562901918 0.006337435881426934 0.032521584572293816
0.08416635956358606 0.004271645987002914 0.03249282955825272
0.08390172399479186 0.002248977885723036 0.032441900477925445
0.08364782926835282 0.00028060572825627794 0.03235990927972793
0.08339522894270798 -0.0016769758094534737 0.03227923646442177
0.0831519434494603 -0.0035872055254215773 0.032171940705115976
0.0829159443545474 -0.005459588109353153 0.03204478105639974
0.082687119792405 -0.007294841588193157 0.0318978992436742
0.08250440940139592 -0.008916605669345823 0.031594272400327916
0.08227067914544696 -0.010765717505888783 0.03147461590579098
0.08203803952405331 -0.01260542018392169 0.031356448291236905
0.08181082720617984 -0.014416205841363494 0.03122435070328
0.08160602176643278 -0.01612189058257385 0.031017719117565234
0.08134636597705214 -0.018069726315179335 0.031011570154904522
0.08114387652522251 -0.019756657111067777 0.030806638408788445
0.08093903560662634 -0.02145020710938872 0.030614784792723726
0.08073210905618253 -0.02314912364007682 0.030435131893801648
0.08052025733962064 -0.024865977000312567 0.030278017401259794
0.08030731136516324 -0.026583622206532542 0.030129716051157107
0.08008518985801873 -0.028337818431117767 0.03001966749372198
0.07986647265110211 -0.03007270821966379 0.029902273394030232
0.0796335629398996 -0.03186598532925672 0.029841841854578444
0.07827209352191239 -0.038620521263402374 0.03393148723809236
0.0781707199010753 -0.03981652870038177 0.033410027312492985
0.07694850542948035 -0.045920849079871984 0.037032918453223485
0.07676769691823411 -0.04744944493760289 0.036823367300307774
0.07672966609046761 -0.04835182060021559 0.036087055252095435
0.07673871763207955 -0.04904855990190421 0.03517600645534025
0.07628595797193542 -0.0517508855476187 0.03599248026946078
0.07586740267786721 -0.054296319657816505 0.03669095077575635
0.07554201062922312 -0.056430949353796944 0.037048319380650285
0.07530725045355233 -0.05816837563087457 0.03707094774457809
0.07512037460810704 -0.05969519753515895 0.03691760941315009
0.07503180328765643 -0.06079626244300118 0.03639514733433885
0.07494171382302574 -0.06190213301599201 0.0358804944481223
0.07487500674824467 -0.06290630736698605 0.035278551965719385
0.07478701275010595 -0.06400000632667502 0.03475972065420829
0.07470475366920322 -0.06506760821682261 0.03422085587856072
0.07461791995505064 -0.06615305818265221 0.03370150979500486
0.0739640743410586 -0.06963925008521882 0.03537676836494602
0.073944083080481 -0.07043336026780184 0.034608634338738786
0.07392634288496952 -0.07121759237911907 0.03383220117244823
0.07391626277854137 -0.07196924905711694 0.03302628957785064
0.07390618542065086 -0.0727207007812124 0.03222059773082564
0.07391607613706065 -0.07338831301789472 0.031336778817642796
0.0740265465655135 -0.07363575225699781 0.030056894954551605
0.07419014621335915 -0.07366377265948698 0.02856478360056741
0.0743571147502815 -0.07368091686938577 0.02705559566886523
0.07450586843085286 -0.07377686772566078 0.02561490033953695
0.07463694515866173 -0.0739488735052391 0.024241180832043574
0.07473908580244468 -0.07424294175190321 0.022979998261826173
0.07487404918870214 -0.07440367987207458 0.021585052076100064
0.07502180402741415 -0.07451440607446069 0.020135654232805777
0.07520335885744414 -0.07448929786521824 0.018546763735606486
0.07549252737542131 -0.07402720456173012 0.016519126511182314
0.07576058834099703 -0.07365685159734175 0.014570360511390323
0.07598556248520691 -0.07346717208324582 0.01279045504858134
0.07620493280887436 -0.07330458476012286 0.011028228201137913
0.07641978749400695 -0.07316451611234859 0.009279427820919783
0.0766394686542244 -0.07300904652473311 0.007505946845560607
0.07682975394871451 -0.07297641888091094 0.005848173455146655
0.091250487607876 0.05398394034970039 0.04053788317710777
0.09136526005751677 0.05366994151781801 0.03915536752197396
0.09057448960383649 0.04903417218551648 0.04057779929295319
0.09038298666708958 0.047266300660121 0.04015333558345918
0.09022543405404933 0.04566335682901318 0.03962716250982129
0.09001603453639323 0.043817542945710664 0.039267036894798546
0.08984915909850548 0.04217692741082385 0.03877787190667831
0.08969698078995444 0.04060888002037083 0.0382460721132184
0.08954639666685893 0.03905122377064718 0.03771265066057777
0.08940707822466373 0.03754940825020209 0.03714680562383965
0.08930736995935881 0.03623617880053592 0.03645772287614518
0.08927302084509238 0.03523104874138955 0.03556162132405488
0.08927570341891573 0.034399715291216826 0.03454730936949385
0.08927623995361711 0.0335583172832577 0.0335398564610796
0.08922931762506835 0.032495905320792384 0.03268594799514135
0.08910781734483403 0.031087794933394364 0.03207523914298577
0.08889984314909735 0.029280929455550386 0.031749008609604334
0.08859128074760612 0.027012434748379444 0.0317563236731177
0.08821302925260219 0.024427884270294464 0.031999215184526586
0.08784033132238135 0.02187608388259854 0.032232347205819856
0.08748880007691597 0.01942869688760912 0.03240395936246948
0.08721399770154477 0.017340185437036415 0.032329179400728714
0.08682175809861596 0.014718874922309166 0.032651151226810116
0.08650777709388814 0.012462752377598196 0.03272081472575683
0.08620406205002067 0.010259401348226116 0.032763179698192535
0.08590868198084164 0.008099739384192617 0.03278438632391911
0.08562691657296874 0.006007517381637906 0.03276635638065101
0.08534748375602566 0.003931197937378672 0.03274678594377911
0.08507303551124032 0.0018827135432555875 0.032716597249462354
0.08480881903832492 -0.00011438629261856237 0.03265775747652072
0.08454984774959245 -0.0020828587994484726 0.032586954101963994
0.08429484482557256 -0.004028593363025801 0.03250838562455827
0.08404874573998763 -0.005929559047165245 0.032404948054502114
0.08382252189230495 -0.007736887832379857 0.032238493394271595
0.08365636039470856 -0.00927159980406761 0.03186926723015271
0.08337253820862223 -0.011327729620029425 0.0319123196298029
0.08314993502942969 -0.013106143489510724 0.03174851590073241
0.08297460669054697 -0.01467048025296408 0.031424517403582986
0.08270090852667811 -0.016667268720651107 0.03144934786890535
0.08248668172318846 -0.01839599404872716 0.03127117197291418
0.08227925815583595 -0.020090660417618922 0.031073817742695742
0.08206607400525813 -0.021806760660925517 0.030901527858258226
0.08185106010694139 -0.02352686692362599 0.030740538602881118
0.0816405349260701 -0.025223235918500286 0.0305684037571039
0.08143510758382767 -0.02689333115221204 0.030382794905827015
0.08120806409378398 -0.02865386926002883 0.030279303990211892
0.08099332152117134 -0.03035655364425055 0.030136693657348557
0.08076060788800836 -0.032133258940278686 0.030063749140771256
0.07942950216078089 -0.03866747989029656 0.03397068226077804
0.07938090270548182 -0.03962854401782706 0.03325228946885156
0.07807113267774175 -0.04603246332662431 0.03712707030471368
0.07792165733046814 -0.047414240048512246 0.03679351306619982
0.07790000026827068 -0.04824388667744539 0.03599504153042532
0.0778985705092729 -0.04898638742898154 0.035122724217828694
0.07735561064310646 -0.05204587050591458 0.03624661960469833
0.07693196080670141 -0.0545857324556977 0.036941605283750734
0.07662520978464986 -0.0566196278286733 0.03721259155755091
0.0763905594494391 -0.05834127608609507 0.037222275918263104
0.07619073892336377 -0.0599107810888152 0.03710728849761252
0.07601295900080003 -0.061383246419140225 0.03691431594527833
0.07587648553514502 -0.06267795825970546 0.036570293643109264
0.07579344422544493 -0.06374500890604345 0.03602817181490536
0.07573895657072023 -0.06469047824889168 0.03538009355761168
0.07568416159882438 -0.06563620622742794 0.034734406932912576
0.0756710534390199 -0.06640647620303775 0.03393159338219687
0.07494417356262896 -0.07015624837510653 0.03584862004542266
0.07493377732458921 -0.07090797990652525 0.03504407480648619
0.07492470660095674 -0.07165400638710417 0.03423468358899001
0.07491960528417145 -0.072383403045989 0.03341023873587856
0.07492810786645962 -0.07305642606644386 0.03253346352981823
0.07503218446734038 -0.07333513855554163 0.031286966370933145
0.07517000910760328 -0.07347684634812351 0.02990725962933327
0.07533660340241993 -0.07350296009860657 0.028412563503421695
0.07550317023557918 -0.07353233596627884 0.026914220994742222
0.07566893343431105 -0.0735681473924431 0.025415269025599874
0.07579963218401875 -0.07375016004529533 0.024050131646049855
0.07590149160596595 -0.07405203911989194 0.02279550412350989
0.07604350452833318 -0.07419277166043248 0.021380164475705732
0.07618565913383664 -0.07433561496120705 0.01996106459743885
0.07638741693272874 -0.07424021085679094 0.01830226715392208
0.07666811839240102 -0.07383025214084094 0.01632480042770207
0.07695726884653302 -0.07339160646211335 0.014307294847537788
0.0771894022273529 -0.07318729141400798 0.012511434914565467
0.07740357603791694 -0.07305928414605506 0.010782414468462953
0.07761873888803016 -0.07293137468021355 0.009044588492163275
0.07785590615504512 -0.07271983219837119 0.007213117858849594
0.0780623120958717 -0.07263508501539745 0.005500784831388605
0.09267865584758564 0.054391009149305 0.04027626751421126
0.09270886682310145 0.053669941517973274 0.039155367521873596
0.09285907350029513 0.053512416179979594 0.03766715540486304
0.09175569364345668 0.04747060391424074 0.040019801159684454
0.09160986768522002 0.04593301238706177 0.03944992322869262
0.0913713594502257 0.04396502450180256 0.03916955655519028
0.09119611931712877 0.042296549007577566 0.03869836337170157
0.09103914187764119 0.040716341590222804 0.03817424666705643
0.09088434784081105 0.039149201134894895 0.03764679879117677
0.09075192948367888 0.037688674675464384 0.03705268121888067
0.09067277261046908 0.036477030623723816 0.03629403537684461
0.0906640465180301 0.035592054594004 0.03531491179457463
0.09066731860689188 0.03476252741061431 0.034297990030894066
0.09064550914699596 0.033817599969665046 0.03336069415974946
0.09058204883224115 0.032681932450335405 0.032556693750393606
0.09043639964515762 0.031171027196835233 0.032017088814220995
0.09020449463239803 0.02926859264969245 0.03175767526858403
0.08987881729223454 0.026942754342540676 0.03180554403126429
0.0895102796828084 0.02442788427038961 0.03199921518445903
0.08912182450795333 0.021829401551239414 0.03226568576937999
0.08874769792825578 0.019303113039270903 0.032494137933161304
0.08843503074038733 0.017061840150324192 0.0325301467147307
0.08815496663828601 0.014973586842785824 0.03246624154678651
0.08780091389749108 0.012557202120516864 0.03265187384251733
0.08744791803612188 0.010152165773298027 0.03284188020711526
0.08712065403000942 0.007869159508971935 0.032954531483081306
0.0868303294493853 0.005757645712755111 0.03295174016570329
0.08654367249504728 0.003667928612654081 0.032943171049232944
0.08626606015329127 0.001623880803244937 0.032910720754824596
0.08598727993283917 -0.0004201911643869072 0.032888353095705425
0.08571858173564 -0.002414302797286383 0.03283823628551513
0.08546003589941578 -0.004358424202064837 0.03275979696990122
0.08520497152883348 -0.006282334953448543 0.03267530145073633
0.08497058037861428 -0.008110277922439402 0.03252618836337895
0.08477512474266413 -0.009762423076883131 0.03224948157506774
0.08450469813098523 -0.011740320925018533 0.03223365211738605
0.08427979311775836 -0.013513599563339529 0.032067555032838646
0.08413678166865637 -0.014924404095673971 0.03162440813345846
0.0838482451267909 -0.016967859716056133 0.03168724467288836
0.08362913605310687 -0.01870348830216373 0.03151583627468757
0.08341993985609557 -0.020391942822984732 0.031314822639368245
0.08320030511412349 -0.022121779291088772 0.03115486822557234
0.08298616398325537 -0.02382374500442974 0.030980565524880155
0.08277039522116231 -0.025528750842268078 0.030816731680781695
0.08255145037056298 -0.027243424831346508 0.030668874170176663
0.08233703381531068 -0.028934545759524255 0.030509880392201205
0.08211768835030027 -0.03064282247846839 0.03037311534917214
0.08190640638000567 -0.03231248589914726 0.030212554583639584
0.08059564382415005 -0.03867576537754969 0.03397759791999394
0.08059413558320196 -0.039433005081806416 0.03308821285528574
0.0792082060698203 -0.046079390096095296 0.03716665523547935
0.0790746154053656 -0.04738431008449234 0.03676813204169521
0.07906735668299116 -0.04815169286536308 0.035916446260774004
0.07903191178886629 -0.04903805350362894 0.03516700239965487
0.07851199990196688 -0.05196656949198153 0.03617829914835696
0.07809040930671003 -0.05447173062961819 0.0368428706326378
0.07773921923721025 -0.05667349592890131 0.03725949160852787
0.07749581754157513 -0.058417227238619474 0.03728875086875488
0.07728542531115531 -0.06001846509371078 0.03720203321776128
0.07713158599829889 -0.061379954729888886 0.03691140455109093
0.07697206850741237 -0.06276220347490047 0.03664519747241096
0.07684238244329963 -0.06401763753671996 0.03627184351871693
0.07672758074874632 -0.06520900281545855 0.03584597577598542
0.07663240163996841 -0.06631713326760597 0.035349412249318535
0.0766205208526579 -0.06708001245721695 0.03454311121044634
0.07585590189911103 -0.07093954941087088 0.03656351972163785
0.07583147846485298 -0.07174645906710514 0.035813338714025755
0.07583910909927115 -0.07242163558764458 0.03494262891152433
0.07588970086257882 -0.07292140631734823 0.03390900467464747
0.07598917169937418 -0.07322284510095922 0.03268855111628144
0.07615367752732391 -0.07326160260054354 0.031218079810026167
0.07633087785642036 -0.07325190754235078 0.02969544377179556
0.07649764456090456 -0.07328775913197805 0.028208861057128387
0.076666116391251 -0.07331982976880624 0.02671202142677226
0.07682652056372462 -0.07338755445451123 0.025242540260120627
0.07695261717284617 -0.07359621822880053 0.023902127284694263
0.07705745624007487 -0.0738925097982237 0.022641330111201785
0.07719577595932087 -0.07405675296561154 0.02124802858695285
0.07735245178044318 -0.07415027646316602 0.01978008143667881
0.07758137363922277 -0.07395891027569518 0.018026150663792817
0.0778602878095475 -0.07357311903625052 0.016071096162872
0.0781564083862234 -0.07312429927614861 0.014042184076447473
0.07837911513534872 -0.07297140593121765 0.012296213204169182
0.07859694685073673 -0.07284190111742361 0.010564576719090946
0.07882423586589515 -0.07267922000967375 0.008790597457493388
0.07905698941195917 -0.07249930985760772 0.006989839384352159
0.07928966177375349 -0.07232405438066786 0.005184236972937073
0.09385793308810284 0.052766676414580715 0.039739156503435125
0.09396491726726833 0.05240056175949809 0.03838980747058829
0.09314275157717919 0.047735438867316904 0.03984670267915952
0.0929553426253941 0.04601514881834429 0.03939593657200979
0.09278866945116579 0.04439381662232006 0.03888613941045016
0.09254607792264628 0.042426536897640255 0.03861196470303241
0.09238728633638882 0.04084818437813181 0.03808612523836491
0.09222931685806433 0.03927651238325702 0.03756123123417221
0.09211209542500912 0.03789394415894487 0.03691394808235876
0.09206301774183544 0.03682429324892594 0.036058029064052255
0.09206911494735333 0.03600665798913816 0.03503157398219919
0.09206689768930212 0.03515114595766067 0.034030936881517204
0.09202534385213129 0.03411736675039956 0.03315355766697825
0.09193709728087433 0.0328731270123519 0.03242384910147583
0.09178782400997741 0.03135500217435172 0.03188855445765282
0.09152851214160058 0.02934385865212419 0.031704800579352876
0.09118874925599145 0.026975757898344055 0.03178223121014623
0.0908471816093555 0.02460579911342775 0.03187284981971977
0.09040382390868068 0.021786319721624092 0.032296453005571935
0.09002541578053717 0.019265216334540813 0.032521350593959
0.08967802683648733 0.01688938999773104 0.03265465697454234
0.08932965561755503 0.014515572230586082 0.03279874006208766
0.08901609577829103 0.012302751529783773 0.032837602759546336
0.08872994992126773 0.010217184620585573 0.03279416268077634
0.08844666094499759 0.00814950796720737 0.032747662028400126
0.08810041255374965 0.005809162467387496 0.03291351906200607
0.08776013819530228 0.003501487495548239 0.03306732739129403
0.08746698594939668 0.0014071699418372607 0.03307325302205166
0.08718647184000207 -0.0006263334719018854 0.03304379703211724
0.0869060225612125 -0.0026544013949208467 0.033020265528086234
0.08663620589248991 -0.004630879892306372 0.032967474492808235
0.08638025625403215 -0.0065419649530700785 0.032874271536027844
0.08617750556845441 -0.008216975245766533 0.032608398052269005
0.08589746782931917 -0.010223690953867104 0.03260680094721524
0.08565353372425698 -0.01206890393391874 0.03248955764508554
0.08543603377010474 -0.013795397142893018 0.03228820324741932
0.08526596525265973 -0.015313348136227367 0.031930587763213614
0.08499181094261822 -0.017276089253228433 0.03193118684982427
0.08478070956741839 -0.018963038061337034 0.03172235252627231
0.08455849549709295 -0.020693727207110213 0.03155622908401351
0.08433883867835788 -0.022409401111436855 0.031386175871017885
0.08412055147639143 -0.024115197360397744 0.031216205730189184
0.08390477241055155 -0.02580630655513161 0.031042333864237326
0.08368528854682648 -0.02750919166628235 0.030886045702136322
0.0834635332325589 -0.029217674628931933 0.030742471421819628
0.0832420437855802 -0.03092096039739972 0.030602821937853686
0.08305644797519084 -0.03246868336439368 0.030342239498998447
0.0817665383998056 -0.03866379732352371 0.03396760852762715
0.08178993583184274 -0.03931631012916248 0.032990294184765734
0.08033884226489897 -0.04615196803014765 0.03722787812652767
0.08023472474696784 -0.047325314821818565 0.036718103240905964
0.08023661921193083 -0.04805417560599107 0.035833312749718405
0.08016091035606106 -0.049106333278941094 0.035225518637378606
0.07958622376214061 -0.05223104547556179 0.036406153988961965
0.07920820242774562 -0.05452959219127068 0.03689298334836422
0.07891776809560808 -0.05645875943582657 0.03707253211990302
0.07863754280343362 -0.058340441260652576 0.03722154525153698
0.0784061069517715 -0.060015980887316966 0.03719984751302452
0.0782176156819901 -0.06151074751046026 0.03702708659518483
0.07806827103710044 -0.06284150069827144 0.03671570195945778
0.07796518165476919 -0.0639802295434399 0.036238408771104014
0.07786276063025585 -0.06511433625952623 0.03576092008542181
0.07776495820806169 -0.06622774697517131 0.03526867959836266
0.077288201443202 -0.06887964453116874 0.036177035280134495
0.07693687179471362 -0.07101413187838057 0.03663158931358218
0.07685006893213972 -0.07207183982005966 0.03611185975214293
0.0768765336675452 -0.07267069084225336 0.03517231989048758
0.07698102497633581 -0.07295575010866578 0.03394084372513151
0.07714607872675379 -0.07299934928830304 0.032480273101267
0.07731223264676584 -0.0730415686477685 0.031011957753273922
0.07749029345061657 -0.0730392085881374 0.029495153691881104
0.07765478011860762 -0.07309429440573445 0.02802573345029319
0.07782768980073299 -0.07311886133812434 0.02652080003961843
0.0779828745568867 -0.0732170202372982 0.025079432194276552
0.07810455639083824 -0.07345081971644796 0.023762336716720067
0.07822061641673832 -0.07370908462828613 0.022464062420774422
0.07837014341987264 -0.07383744757031546 0.021034983509921945
0.07852689627422164 -0.073940115654068 0.019574859273445322
0.07875985810038288 -0.07374640358810547 0.017817560263880705
0.07906302513464768 -0.07328193135324546 0.015783791433432226
0.07935350210355215 -0.07287262544379797 0.013792578202527772
0.0795764911675826 -0.07273180799382672 0.012057351946681172
0.0798015698831483 -0.0725869568851506 0.010309099195738025
0.08003253268958856 -0.07242340381601775 0.008532918233971953
0.08026715349486148 -0.07224992969707317 0.0067373424190954045
0.08052328966770526 -0.07199766046224954 0.0048520533088526885
0.09517714624769963 0.052667732473969886 0.03980310493020811
0.09483438444855133 0.05024011214711299 0.039793996136411436
0.0945701346607409 0.04817667892999289 0.03955830425021806
0.09434578793259052 0.046299609846244094 0.03920896594748813
0.0941285007806541 0.04445866372913798 0.03884327765768092
0.09398676065118612 0.04296406186393964 0.03825468956423067
0.09374901779272071 0.04103777208835985 0.0379594081069039
0.09359429580106242 0.039490568225753975 0.03741736149963848
0.09349359149230983 0.03818952890205318 0.03671417460495652
0.09348006794293305 0.0372822946285718 0.03574676257863335
0.09348513881650956 0.03645874101752844 0.034722622782620394
0.0934758426373357 0.03557075866965209 0.033742584981929336
0.09342826389250262 0.03451185854932959 0.03288096693008219
0.09333184750093602 0.03323600495282891 0.032171716446162624
0.09316226778523827 0.031636252485492344 0.031692058563129344
0.0928841521239718 0.02955746753228561 0.031554739425702694
0.0925350383449297 0.02716899639820952 0.03164573274897048
0.0922181373163815 0.024929348277435648 0.03164304657552297
0.09171835179857477 0.02188805544561223 0.03222379761751043
0.0913262785295221 0.019330355706524804 0.0324745756659805
0.09095167420391527 0.016856559203637045 0.03267836104578259
0.09059494448764964 0.014467971360879461 0.03283329620523878
0.09025360470873649 0.012153227565042557 0.03294674349276783
0.08992290745713774 0.009891166266383533 0.03303342852525987
0.08960445907441741 0.007688502695698207 0.03308783835654017
0.08931473731198775 0.005616604483937082 0.03305638090774343
0.08904119335121569 0.00362020083836162 0.0329787734651138
0.08877109804098827 0.001643693978548466 0.032895860953695455
0.0884398085597244 -0.0005925370013225573 0.03301831242157316
0.08811323508476758 -0.0028024192573084528 0.03313248434003624
0.08783480216398663 -0.004799091560120761 0.0330956927086391
0.08761475482986267 -0.006539838292844824 0.03287264174837995
0.0873633178407694 -0.008411198510672957 0.03275804598799292
0.08705880051397087 -0.010505132234521375 0.03282481834386841
0.08681952943452342 -0.012314959775783119 0.03268118973910833
0.08662267117424988 -0.013939742061551852 0.03240122568230447
0.08638819385230691 -0.015720906888624486 0.032251421032017225
0.08615258975810731 -0.017502606664669185 0.03211045957938702
0.08592731103967645 -0.01923632643175266 0.03193980019426368
0.08570675923115943 -0.02094599787206286 0.03175802800906724
0.08547885640827449 -0.022682664348076975 0.031605936234739784
0.08526270689540814 -0.024365764110108934 0.03141878978599294
0.08504018698042462 -0.0260716894612541 0.03125804177547198
0.08482021704041445 -0.02776290544767801 0.031093368074012584
0.08460622774033227 -0.02942514345557945 0.03091290754903131
0.08438252580982188 -0.03112401115374802 0.03077051606869785
0.0842077514405972 -0.0326152299808507 0.030463911675441047
0.0839341098026873 -0.034513797644952326 0.030503722500603236
0.08372320686039786 -0.03614747701044374 0.030331328059370888
0.08148439954243936 -0.04616081685876178 0.037235342528445736
0.08139438770273053 -0.04726982274228103 0.03667104518799219
0.08140656293836303 -0.04795660153430453 0.03575013080613709
0.08126942860131019 -0.04925680032258861 0.03535446993013569
0.08066523464312192 -0.05246845495234259 0.03661069013533602
0.08030085791431497 -0.05468860645132584 0.037030702348387734
0.07998201127663673 -0.05671640934327893 0.03729685400507399
0.07977611528260356 -0.058278652259527886 0.03716746548244615
0.07958638353673196 -0.05977151382615303 0.03698475555653541
0.07938637669459699 -0.06130258063168731 0.03684296962830097
0.07921123275707265 -0.06272949214966805 0.036616113286255525
0.07905861453827415 -0.06406235297230456 0.03631180955731145
0.07897910721603636 -0.06509814829784244 0.03574637557974841
0.0788983549286139 -0.06613750424590503 0.0351871734237052
0.07827087052468515 -0.06936632508140095 0.03661890285783742
0.0780351847385899 -0.07101727141076547 0.03663445468791837
0.07797261391803093 -0.07197335883448819 0.036021508230792476
0.07800202343194931 -0.0725622174519494 0.03507228040627952
0.07813897119832626 -0.0727245634008965 0.03372651778796737
0.07830505151994623 -0.07277396447136869 0.0322702347040032
0.07846370138401178 -0.07285574525744198 0.030837883257389398
0.07863714632555115 -0.07288204776701812 0.029347161645856212
0.07881035863944912 -0.0729124061539358 0.027853563768976852
0.07898232466535761 -0.07295079356176043 0.026360883612828845
0.07914555093474163 -0.07302652641002821 0.02489723368755442
0.07926588217347788 -0.07327283680662305 0.02359121851439766
0.07938312626126111 -0.07353336179719616 0.022294238506023356
0.0795355736715569 -0.07365908213910333 0.02086170971982232
0.07971154195465446 -0.07369628848189685 0.019336761885341225
0.0799455267943743 -0.0735120691505961 0.01758754437785065
0.0802655358054964 -0.07299982158318047 0.015505443564029275
0.08055693465252674 -0.07260361491867562 0.013525778088310125
0.08078034684479433 -0.07247404924903172 0.011800385719923479
0.08100986716739648 -0.07232510232234773 0.010046696886860051
0.08124112100156461 -0.07217367840624717 0.008281374151622833
0.08148268727202433 -0.07198707716859781 0.006471204705462419
0.08173818433244921 -0.07175179949818322 0.004601831134693923
0.09640201982167532 0.05128503997617545 0.03911484314632946
0.09607579698747805 0.04895762461459752 0.03904787120575992
0.09580134718835576 0.04686835582909149 0.0388351404277244
0.0955563181350506 0.04491574483244409 0.03854116244843375
0.09536223620465706 0.043195214882275124 0.038101049767220285
0.09514073371634128 0.041355840086616025 0.03774681698324878
0.09498445767220762 0.039810782453741256 0.03720214132420646
0.09491052080019605 0.03863432131954336 0.036413557844328925
0.09490593935890655 0.03776668478355788 0.03541756177746841
0.09490851636642234 0.03693080489400441 0.034400016774970954
0.09489305642566152 0.036015229777783875 0.03343715074536041
0.09484842265200677 0.03497136266232409 0.032563453194416
0.09475071846053688 0.03369488684784516 0.031852878903948
0.09457154729539707 0.03206258812831325 0.03139419861352216
0.09428695686451505 0.029971733032453263 0.03126371613666307
0.093910623936646 0.027484929613126374 0.03142256605237287
0.09352504721384214 0.024964521247369587 0.03161806470723827
0.09305142811560402 0.022067713875132622 0.032095493100634365
0.09264584006717923 0.019474921997700456 0.03237076628538771
0.09226352226718598 0.01699026115279928 0.032581827269632324
0.09188381012396604 0.014523700347942592 0.03279283940546829
0.09153090727769497 0.012179673568959382 0.03292743999006004
0.09118493371615831 0.009871804573312715 0.033047638129668655
0.09085757055761123 0.007650134633425121 0.033116150194492044
0.0905351550568157 0.005455539762608208 0.03317587739892969
0.09021864194362195 0.0032919755807174766 0.03322361228901588
0.08992849326865562 0.0012467193751753425 0.033193590296372144
0.089654000487384 -0.0007265975147858206 0.03311940226664828
0.08939184592516346 -0.002642511750641452 0.033011251469012404
0.08912339188517991 -0.0045804944291630845 0.0329290685113921
0.0888171577331043 -0.006673770977521476 0.03297528242061459
0.08851127753350382 -0.008760082994183349 0.03302685952476769
0.0882495639554913 -0.010654573076583185 0.032940582112652494
0.08799874680467486 -0.012498510180688926 0.03282414163240338
0.08782186380298597 -0.014027324998539259 0.03246980334256905
0.08753862010955078 -0.015998920195304966 0.03247027516636858
0.08731823289901174 -0.01770248068672675 0.03226864592486506
0.08708737858524682 -0.019445804668519973 0.03210647598076244
0.08685414452868716 -0.021194920513984528 0.03195714874936717
0.08663718604418204 -0.022872214504180755 0.03175837390532105
0.08640896472387057 -0.024592353616376794 0.03160198816021953
0.08618879023252728 -0.0262751108685203 0.031423386286552
0.08596949997728794 -0.027950284779626577 0.031246485209890984
0.08574875157153435 -0.02962755266536593 0.031079187189136437
0.08551727588600971 -0.03134499340704766 0.030953019338153698
0.08537129673033907 -0.032707472440901164 0.030540497141186396
0.08508520080049141 -0.03464105285682323 0.030609938786002377
0.08299549078803956 -0.043938317512384806 0.036868618035496625
0.08263402069139361 -0.0461528529339339 0.037228624584370595
0.0825557340262071 -0.047209024648757536 0.036619487561643904
0.08256981901227663 -0.047888881615390455 0.0356923995423179
0.08225653831219737 -0.04989477530666897 0.03590121888558523
0.08177457155456659 -0.05257672427911814 0.03670396775495538
0.0814076215446026 -0.054786319543958795 0.037115329660441065
0.0811344583577233 -0.056612051200896574 0.03720599499618238
0.08088079438437328 -0.05835463271006791 0.03723396607552626
0.08064028616435025 -0.060039993282194004 0.037220974584170674
0.08049955043906279 -0.06132233925933667 0.03686044550445389
0.08036443741977536 -0.06257975257903092 0.03648297733054873
0.08021341102774043 -0.06389806381471108 0.03616497017786241
0.080068860940349 -0.0651879706757505 0.03582707888944209
0.08003402649605217 -0.0660407585367851 0.03509979383391437
0.07935525664544782 -0.06943753593177188 0.03668355669687934
0.07913785525227866 -0.07100314301766358 0.03662156004946804
0.07908891012796092 -0.07190219487456384 0.03595621875377136
0.07913685983085916 -0.07242007285188845 0.03494118767991394
0.07928305655541948 -0.0725540769452035 0.03356846514842432
0.0794588860965774 -0.0725749154506532 0.032084738902392884
0.07962420933065095 -0.07263984796865047 0.030635636319352344
0.0797916386520274 -0.07269954145021207 0.02917530276242558
0.0799713601616711 -0.07271452783040905 0.027666258390184495
0.08014127497789005 -0.07277068790662927 0.02618951314886314
0.08031765484125274 -0.07280491137587775 0.024685269190499293
0.0804199083940811 -0.07312792638439097 0.02345189721116392
0.08054675147608564 -0.0733582320866148 0.022124987801059925
0.08070524796257525 -0.07346939287609344 0.020677435349393314
0.08090929400452535 -0.07340908053597328 0.019056303144183606
0.08117465610024938 -0.07311832258242607 0.017201054168765217
0.08148416701322114 -0.07266414805629812 0.015174246204217312
0.08174885815501201 -0.0723858099864439 0.01330976281987345
0.08198470856868918 -0.07222153206684662 0.01154864493980301
0.08221182443632423 -0.07209449963809267 0.009815611829054438
0.08245122210191058 -0.07192518190499764 0.008031067927553703
0.08269875712373743 -0.07172950821987739 0.0062104166068547295
0.09771458542672995 0.05030754197547854 0.03816555321378562
0.09734774725992405 0.04782356689082762 0.03820729903208081
0.09706570591647588 0.04572060279124246 0.03800917845505081
0.09680233169946359 0.04370489463918531 0.03776228242186663
0.09660003151451287 0.04196251540086843 0.037341325744086606
0.09639624431224872 0.04021716986348828 0.036929003024984475
0.09635401810817662 0.03918334373523974 0.03604249634771023
0.0963479056563164 0.0383081870663774 0.03504954648338804
0.09634674146833679 0.03745473328216081 0.03404196682872401
0.09634586834601401 0.03660256770743919 0.03303354045692958
0.09629002136445204 0.03551146841195396 0.03219024436043588
0.09620637218035995 0.034300752511113364 0.03143191498907877
0.09602852108177666 0.03268371111539675 0.03096025023330129
0.09574888718617353 0.030630081886130034 0.030801223245860043
0.09535698849441211 0.02809736169488014 0.030989960558166274
0.09488635074253714 0.025232762891677307 0.03142754404779036
0.09448578924029388 0.022677343121927263 0.03166012145571734
0.0941430288348748 0.020376652745432156 0.0317232563463678
0.0937090418443659 0.01769189980610436 0.03207523907760562
0.09326376316467766 0.014966604087908786 0.03247131072049292
0.09283674566888314 0.012326916017433132 0.032819964584257566
0.09246425621427459 0.009926477796551203 0.03300751328773821
0.09212932670161825 0.00769188847493435 0.033085339986088425
0.09179892851509443 0.005482374611365248 0.03315596819571298
0.09147272799215392 0.003296407342754659 0.03322030642702106
0.09116160317819932 0.0011797214725807748 0.0332438384516211
0.09085465805895952 -0.0009139067139104506 0.033260644884862245
0.09056442861141745 -0.00293197532687417 0.033230706459806525
0.09027604749864805 -0.004937191810537256 0.03320095869847367
0.08999203622111712 -0.006919066898470216 0.03316326743923331
0.08972091012376446 -0.008842202873682647 0.033090132431105146
0.08945341985541434 -0.010745432981720371 0.03301096638581996
0.08919724738265922 -0.012596950995327594 0.03290080886088115
0.08903316091671777 -0.014062346535739012 0.032497225294408516
0.08872357233955722 -0.01612654256560281 0.032570740441606294
0.08849978823396158 -0.017831217640887853 0.03237053224354258
0.08826296118567425 -0.01958565810291446 0.03221775332170235
0.08802375413783163 -0.021345706959465527 0.032077767381804845
0.08779381435322005 -0.023063547024220865 0.031912244966473824
0.08756266876018375 -0.024782270960343578 0.03175553696848171
0.08734373857371044 -0.02644705566861494 0.03156314605562677
0.08712518642841646 -0.02810644488121855 0.031374091532560544
0.08690014800498387 -0.029788350841532696 0.031211283267624013
0.0866767402085272 -0.031459679881185365 0.031047735796964182
0.08650794228568039 -0.03290605670340524 0.03070537422951697
0.08623451884722336 -0.03477198152630917 0.030719221201398972
0.08404177560459782 -0.044367189588827405 0.03722848435873477
0.08379316119997604 -0.04610683177190095 0.03718980357594903
0.0837364032524293 -0.04707236890214472 0.036503601593616264
0.08375729355172994 -0.04772606596889334 0.03555359912447126
0.08336781717829202 -0.050019292414032634 0.03600793090421528
0.08288232046731366 -0.05268835641447822 0.03680014254581743
0.0825090305494004 -0.0549026496900597 0.037216080821928454
0.0822284532672164 -0.05674248845323865 0.0373195596802578
0.08200013296215121 -0.05837049227372154 0.037247846888044
0.08180726509900321 -0.05985442546494257 0.037057704552273585
0.08161572006928847 -0.061329748119032246 0.036866998404623486
0.08146083997067347 -0.06265750370724399 0.03655210715854201
0.08135175643081387 -0.06380282880764993 0.036079850444195705
0.08120635182994894 -0.06508843472953174 0.0357376481653795
0.08119064119819762 -0.06586485261029029 0.03494091766422469
0.08041075863551041 -0.06961937239784638 0.036848649875072026
0.08024870126406775 -0.07095760949005397 0.03658000271370726
0.08022326853278017 -0.0717629008571895 0.03582842325790214
0.0802775849406279 -0.07225902678719992 0.0347926630952205
0.08044057061270106 -0.07233639564297062 0.033366659648643104
0.0806168510731714 -0.07236540334125402 0.03188949244229805
0.08078735713066741 -0.0724197162500348 0.030429422678115492
0.08095612004932665 -0.07248371835932049 0.02897207080822095
0.08113735305754105 -0.07250296843599247 0.027466002941270162
0.0813158747828804 -0.07253576256517857 0.0259659817737245
0.0814720765960848 -0.07265672763227593 0.02454353831558498
0.08159254445943477 -0.07291625631041554 0.023248391140947622
0.08171441586459527 -0.07317258446722191 0.021945572267552116
0.08187467608651784 -0.07328583184282278 0.020499114271518293
0.08209553479040455 -0.07317318768745767 0.018825953628156034
0.08235903807656104 -0.0729038571799675 0.016990541151158334
0.0826807841159189 -0.07242037011534325 0.014933719013483782
0.08295345730432659 -0.07212646609324253 0.013052549908607936
0.08318170103291395 -0.07200348703651871 0.01133127032172282
0.08341905797284817 -0.07185053317915646 0.009571135042290124
0.08366764890513419 -0.0716599529424316 0.007763907384850499
0.08390712900318988 -0.07150757554430331 0.005985710170891112
0.09914426530260637 0.05070618360141238 0.037904997501929494
0.09917376458074557 0.049973779856112066 0.036794006448762684
0.09916007716722865 0.0490526841995802 0.03580678490907546
0.09834539034237662 0.04464855113221139 0.037135065035392156
0.09815758680443923 0.042979229147890874 0.03666177194081155
0.097871741210016 0.04088852135126886 0.036477778899545454
0.0978222888703056 0.03982461350003219 0.03560908869101487
0.0978178494899441 0.03895574689625225 0.034609452454633205
0.0978302807735268 0.03815958950104348 0.03356027174025816
0.097831760899416 0.03731616401667498 0.03254316720219552
0.09781341051410797 0.03638768241948975 0.03158478735818471
0.09773860040659937 0.03521791882070102 0.03079465504239759
0.09759256327911837 0.033745280985196524 0.030218583067424976
0.09728539857113525 0.03158848696826927 0.030127939568789286
0.09691794906623764 0.029180631226310205 0.030224768196490337
0.09636218410608863 0.025979868119819283 0.030896906901161092
0.09593813679889793 0.023346681746480302 0.031182107876955523
0.09541350838484694 0.02029570053098545 0.03178138607475045
0.09493833449827827 0.01746245082084169 0.03224090290763981
0.09457674799343886 0.015115622694960473 0.03236312974923755
0.09423905145008486 0.012875437863743011 0.032419586781288645
0.09388276197622232 0.01056317242672461 0.03254024119583576
0.09345751198511716 0.0079685919859378 0.03288116014222575
0.09308109547906242 0.0055852758848665696 0.033079624096145066
0.09274093985934694 0.0033595710010146385 0.033173189651448276
0.09242439324610001 0.0012379314338715197 0.0332001812167122
0.09211052501138059 -0.00086709662375406 0.03322534720742076
0.09180634064271598 -0.002926578920001477 0.033226615207857024
0.0915075255203083 -0.004958593672756417 0.03321727212443781
0.09122197257685644 -0.006930739681002329 0.033172212994598216
0.09094049833382686 -0.008881144575028477 0.0331201367934702
0.09067550308074503 -0.010759005941424649 0.033021480626420074
0.09045656761623569 -0.012443567827469693 0.0327813516782281
0.090197652181045 -0.014287767219601955 0.03267373025766168
0.08991670228878107 -0.016217355613304563 0.03264222914543813
0.08969742962785372 -0.017890993710640846 0.03241784083284255
0.08944234075639579 -0.01970630837250953 0.032313751258702283
0.0891960802826054 -0.02148140708957974 0.032186318014879145
0.08896757174493004 -0.023180427417907323 0.03200624106395222
0.08872756741705902 -0.02492187443028243 0.031868406841188635
0.08850266136853914 -0.026598347123512 0.03168611842110547
0.08828491902761636 -0.02824212466457493 0.03148496235063897
0.08806032978533473 -0.029909574802649053 0.031310869035721334
0.08783783485419763 -0.03156474345777266 0.03113450496481185
0.08769583689551005 -0.03289466082873915 0.030695912660859692
0.08739998105693601 -0.03483505588507824 0.03077186756451361
0.08521503781821238 -0.04427971636571615 0.03715508562537834
0.08496891648612027 -0.04599615251818545 0.0370964404349336
0.08495418101598133 -0.0467925392359948 0.0362663021565387
0.08495752953854048 -0.04751725463154893 0.035375587357801
0.08447318907232525 -0.05016372005306674 0.03613170638562191
0.08398430324862953 -0.05281964226850161 0.03691324966782239
0.08362739261529649 -0.05494932838040578 0.037256508281419465
0.08334369711284474 -0.05678622469732886 0.03735763847027801
0.08310974735207202 -0.05842390256391494 0.03729459333333618
0.0829028210274149 -0.059952206509862715 0.037143736249792614
0.08274348342096864 -0.061291877028356534 0.03683350263243873
0.08256809561171317 -0.0626910478028384 0.036581931774749166
0.08247457860778296 -0.0637702567912527 0.03605073802591302
0.08233176431207746 -0.06503823850239315 0.03569254802710031
0.08231834842893582 -0.0658050970316702 0.034886947126460954
0.08151638617382935 -0.06960356890314534 0.03683430154757167
0.08136232845371721 -0.07090263753109288 0.036529831152751935
0.08135495815483332 -0.07163758626179134 0.03571345320275965
0.08141436798750977 -0.0721173872527745 0.03466203616517172
0.08160115060952004 -0.07211291605330977 0.03315947873866221
0.08177679373952011 -0.07215403568528916 0.031692516779535385
0.08195153279369011 -0.07220163562324172 0.03022513044609637
0.08212639436203369 -0.07225180763926287 0.02875368977844517
0.08229907076024318 -0.07231326727511317 0.027286437806683606
0.08247478900193922 -0.07236626910993305 0.025804708814008537
0.08263224768960704 -0.07249094288729918 0.024384972899555657
0.08275597912767692 -0.07274480589750848 0.023083553480562402
0.08288518100110683 -0.07298035563378258 0.02175979644764181
0.08305338509656618 -0.07307259627523505 0.020291965752161856
0.08327092901497225 -0.07298405474264358 0.018641265187718137
0.0835467875567644 -0.07268267934390871 0.016773439403451107
0.08390496870433621 -0.07208101914288467 0.014598893246400568
0.08416094582201372 -0.07186344895772223 0.012791693937392268
0.08438786236610488 -0.07175751573078087 0.011086055291767705
0.08462818748532858 -0.07160618356772702 0.009326274301556081
0.08488058028230276 -0.07141472448869907 0.007516893008473136
0.08511386398039385 -0.07129763610912593 0.00577314686931818
0.10020289870084355 0.04863382424501633 0.037674732850152715
0.1003139428960236 0.0482524420032564 0.03633571803897756
0.10034927089781481 0.04754428245544218 0.03521036781144282
0.09976906679362335 0.044199741953130145 0.03584600238799951
0.09945384667739209 0.041997565929267455 0.03573237551713149
0.09934770943371764 0.040692524795296114 0.03502250341699753
0.09936608630605821 0.03991928449678217 0.033954613897775876
0.0993995436349516 0.03920978836654082 0.03284257127614876
0.09942849787796049 0.03848062900937865 0.03174296338793042
0.0994532429883337 0.037733165830202864 0.030655068881393854
0.09942306767436583 0.036753398135781656 0.029727782593824803
0.09934861306024462 0.03558757486523817 0.028931462059573143
0.09909204406939051 0.03365724156277239 0.02867463060131681
0.09861015454741638 0.03078577019550116 0.029090941348215715
0.09796335809816961 0.027231956189270545 0.030007601866909706
0.09739875846147149 0.02403275099526636 0.03069214598791975
0.09683376135637733 0.020841565885552416 0.03138941403283235
0.09633953401886168 0.017954617777861615 0.031885554798242566
0.09592075080581144 0.015389502255989784 0.03216430520305935
0.09549056374180576 0.012784296355089542 0.032486112913728826
0.09511802772851694 0.010424932685885957 0.03264169575477893
0.09478949919727621 0.00825361048876 0.03267084465619097
0.09446513850899685 0.006105088066538533 0.03269396712996919
0.09410000476442297 0.003794519760978776 0.032848740693401435
0.09372803051178932 0.0014621495720009703 0.033032018522388074
0.09338293031829956 -0.0007538340940560495 0.033139940317023275
0.09306361511000649 -0.002858571062730464 0.0331750554783547
0.09276170409743845 -0.004886887894952285 0.033162614876137086
0.0924646155925612 -0.006890412450724304 0.03314130781237856
0.09219743153908533 -0.008767454199044789 0.03303253899674985
0.09197126512350469 -0.010473765785787958 0.03280052044599352
0.09170589393217957 -0.012334671638787209 0.03269654164278979
0.09138849442169561 -0.014400888330200423 0.03276230437218913
0.09113888990235267 -0.01618879006347923 0.032619742133021545
0.0908873678656678 -0.017980114886734955 0.03248837402673088
0.0906404895441274 -0.01974851704431424 0.03234733548052254
0.09039295391654074 -0.021515316212846747 0.032213442946848914
0.09014379076401748 -0.023284367355894564 0.03208983034898799
0.0899043832702488 -0.02501029918247355 0.03193989854929824
0.08966648942476868 -0.02672611273658665 0.031789968567019655
0.0894527994997833 -0.028341880002355158 0.031566477486009825
0.08922676083168589 -0.030002841343138686 0.03138748771726657
0.08901104861058914 -0.031619160796120704 0.03117944677355583
0.08884260043917719 -0.033045595988572596 0.030821228480785445
0.08857555471435058 -0.03485670300935151 0.03078993579996009
0.08630653877425054 -0.044515255490908845 0.03735272637565734
0.08613978314166328 -0.04590755674453478 0.03702170574499819
0.08612529341670992 -0.046702400249118814 0.03618986304577998
0.08613638667623684 -0.04739731291829641 0.03527333698890306
0.08557737906074353 -0.050308891378702814 0.03625611921156868
0.08508938738442999 -0.052935396096830456 0.037012975434019546
0.08473141205795254 -0.055050278651811335 0.037343939247832525
0.0844719230500756 -0.05677865580188418 0.03735104864103417
0.0842161828948546 -0.058488138533239975 0.03735081476959812
0.08401989781697627 -0.05996463206492486 0.037154668753075715
0.08386035089558123 -0.06129681724153191 0.03683787209347389
