# .PCD v0.7 - Point Cloud Data file format
VERSION 0.7
FIELDS x y z
SIZE 4 4 4
TYPE F F F
COUNT 1 1 1
WIDTH 763
HEIGHT 1
VIEWPOINT 0 0 0 1 0 0 0
POINTS 763
DATA ascii
-0.015599802070042579 0.013038315709350117 0.01754677308329039
-0.013337601912781216 0.012991637002285476 0.017639364245019273
-0.012426083818305178 0.012989126480013383 0.0167030374292082
-0.01813615078630998 0.014165364383660861 0.030170360156197895
-0.0146372480252015 0.014070848101943768 0.03113360576812768
-0.01242222462127135 0.014021463277208001 0.031175879342515644
-0.01127962395800669 0.014009977738547176 0.03043794795836785
-0.016051942551221277 0.01420904525089158 0.025314237843265253
-0.019260676146654887 0.014353155292386519 0.021311799587790503
-0.019320739083619864 0.014385290558814014 0.01963814884475773
-0.018569081832304712 0.014388477540280081 0.01856927722096413
-0.017333947093547575 0.014374319201744933 0.017866224847697565
-0.015881929528292593 0.014352298032990046 0.01733172326199267
-0.013710384670721165 0.014304241429395865 0.01735367831793061
-0.012713149716222949 0.014298411176024869 0.01648185470619623
-0.014979832119040415 0.015363240167965192 0.03088354625759271
-0.012995289353463002 0.015318308408988828 0.030755305307887504
-0.01162705608648451 0.015297078964180004 0.030181577315103736
-0.016271518425014064 0.015509305369344044 0.025151330948447015
-0.02025791416638928 0.015696802914765728 0.02056791213665493
-0.019958816241578525 0.01571793190182685 0.019159593433965616
-0.01910843634675974 0.01571760206066866 0.018162570744354456
-0.017849502613186186 0.01570126867505893 0.017475359565446602
-0.016232465890035797 0.015670811008566588 0.017064529198646983
-0.014241274137754611 0.015625508413708866 0.016946825676973754
-0.013044262898875558 0.015611317862431197 0.016226733788332115
-0.015441037019719217 0.016662796686742715 0.0305469028646444
-0.013348503374743304 0.016609635293942097 0.030496080411166082
-0.011952032708713256 0.01658548173490584 0.029941776620644067
-0.01652208253692855 0.01681229088682761 0.024965433378191182
-0.020626501446205592 0.017020411821560746 0.020292965286777875
-0.020211469099668977 0.01703843527888023 0.01897010476353883
-0.019360550756882866 0.017038077502762216 0.01797246097295979
-0.018240048571419698 0.017026279298346346 0.017179269522023255
-0.01685397297343061 0.017003139034045194 0.016590789463959865
-0.014629994350085385 0.016944197714683612 0.01664892591666428
-0.013461002530729682 0.0169300560337572 0.01590563815409235
-0.015824825318292268 0.017961833950531938 0.030266767517393434
-0.013760415635064527 0.017905888200753832 0.03019377668960649
-0.012260216988029704 0.017875224546305704 0.02971436701900937
-0.016907998130043955 0.018123031984462818 0.02467911635323561
-0.02101757670498472 0.018347432983190724 0.020001243579724604
-0.020675287701333978 0.01837019013738705 0.018622242598776595
-0.01973750169341587 0.018365887853569525 0.01768821678264837
-0.018703681130849803 0.01835717914287838 0.01682776931632396
-0.017160657019744674 0.018325116437433765 0.0163570215430216
-0.01505394862254078 0.018267052094102 0.016324024169494133
-0.013635987266758298 0.018240414747879713 0.015770813360617808
-0.016229303669860307 0.019264338628907727 0.029971530054726414
-0.014169693123253557 0.01920466923533113 0.029893406635717767
-0.012549215339685171 0.019166028702777 0.02950111473966266
-0.01701348503433614 0.019422655901521146 0.024600853911531995
-0.02142641117813232 0.019677855152476526 0.019696274426776406
-0.0210138330898324 0.019698852418781495 0.018368334861375457
-0.02006306847306144 0.019693643287250696 0.017442719406985163
-0.018932881873347907 0.019679627839324015 0.016654002167110937
-0.017496631788997796 0.019650537155920276 0.01610092695890497
-0.015114587325152029 0.019574822896215607 0.016277553071773088
-0.014029083014566013 0.019562669295209372 0.015467935211261885
-0.016644011245379564 0.02056997198892067 0.029668826061124698
-0.014639307256091694 0.020509200639168827 0.029548755325889686
-0.012818942520443688 0.02045770388142451 0.029302082683704433
-0.017373032198827687 0.020736120261829312 0.024334100050571406
-0.021738749458309448 0.02100592161449794 0.01946328639128725
-0.021300644837404792 0.02102702504380033 0.018153227155406737
-0.020423135158413708 0.021025317503411516 0.01717120698052088
-0.019381181253192548 0.021015014903721138 0.016314126718277144
-0.017847606924886683 0.020978940740844727 0.015833398442818614
-0.015831760385467686 0.020917422377130342 0.01572794006994993
-0.014286437403982777 0.02088037238894481 0.015269645044985847
-0.01708904531560651 0.02187993175648127 0.029343986105698605
-0.015009486995993526 0.021811310759987535 0.029277079234163228
-0.013069318802015784 0.02175005896081141 0.029117329682748716
-0.017747504710661555 0.022052733482698438 0.024056272832836068
-0.021489569123237517 0.02230505174432924 0.01964916190010424
-0.02115597278202347 0.02233322012785496 0.018261730639710483
-0.02037824329222565 0.022336914114577285 0.01720505820867685
-0.019409006318471866 0.022329997285059345 0.01629303131423282
-0.018200402857868447 0.02230974154190797 0.015564482035982874
-0.016217621970622986 0.022246262080657192 0.015432231048180423
-0.014800958516252238 0.02221412610813709 0.014873209308507274
-0.017340255345071054 0.023181531968171926 0.029160622493262733
-0.015315960570934983 0.02311211104447579 0.02905215730007893
-0.013429209119284524 0.02305039886394432 0.028851766124919576
-0.013468352337002387 0.0231006378408821 0.027231045241141782
-0.021380269766239857 0.023610732251672387 0.019730693508886454
-0.021542806966527994 0.02366957116552967 0.01797160649129831
-0.020424348590873553 0.023653553333322336 0.017170291977814667
-0.019242113623955004 0.02363372130431672 0.0164195599957484
-0.018342659959747543 0.023630454701081948 0.015456047484708857
-0.016772033981390266 0.023587575645489814 0.015007351662233437
-0.015061697532375351 0.02353625530410219 0.014672311305644892
-0.017747814758921565 0.024494304113439832 0.028863136096859032
-0.015765996943914007 0.024423679573111468 0.028721874170650696
-0.013881739703406892 0.024358749239428438 0.02851784318734779
-0.014149670208160825 0.02442590737790156 0.02672556448472979
-0.01833172921430859 0.024734564722121304 0.022004745456347896
-0.022073167749953493 0.02501730060292742 0.017573837946515736
-0.02078992378617739 0.024990263566635692 0.016894625796048945
-0.01937634250434561 0.02495503011975211 0.016317795186292228
-0.018463295818191394 0.024950754786902816 0.015364093585711003
-0.017003593741311385 0.024912417367543103 0.014829893442183106
-0.015505380921103429 0.024871514663492383 0.01433045565234059
-0.01831979394386679 0.02582027620637572 0.028445636167364896
-0.016103016841400586 0.025730863440255294 0.028474534193029366
-0.01428044860820038 0.02566654606488274 0.028223635340638653
-0.013979121317817367 0.02570044072787853 0.026852097466977087
-0.018447762462013295 0.026043911154762883 0.02191819071698381
-0.023020290512823338 0.02639557016188254 0.016863499522388803
-0.02231275884861955 0.026404742664247072 0.01574631449781244
-0.02123203107731425 0.026389591529692585 0.014910916178670075
-0.019232240388384503 0.026314254405352924 0.014777970585016287
-0.01716332218832084 0.02623406818943473 0.014707483892668294
-0.015816069858841042 0.026200951892547505 0.014091071504808761
-0.018745988471100594 0.02714008013350351 0.028134547600238147
-0.016531276974314335 0.027046396205281455 0.02816023271563589
-0.014509309744008492 0.026965397499054404 0.028054758395198
-0.01427826276950478 0.027005796374482603 0.02663015958207171
-0.01867523860615089 0.027361601238120033 0.02174850540043144
-0.023453719111555416 0.02774493331803115 0.01653842974277331
-0.022657226331711577 0.02774854143051081 0.015486564829272909
-0.021470238162968225 0.027725398694753104 0.014730320925158746
-0.01988500314203706 0.02767480395217619 0.014280406418828773
-0.017939757926428435 0.027599215612507503 0.01411245432399455
-0.016188338492796717 0.02753667776953995 0.013804240534123935
-0.01906474095544447 0.02845502248261997 0.02790188329488863
-0.016926230413610244 0.028362327941111196 0.027870375126913483
-0.014849585218933425 0.028273644769668427 0.027803668656388558
-0.014596594908973803 0.02831445512520521 0.026393983815280964
-0.018731548796571684 0.028668552842060626 0.02170650094091814
-0.023844966218839803 0.029094097762300913 0.016244995919273475
-0.023231001206273527 0.029111015714231796 0.015053903284136805
-0.021754009452845724 0.029066032727015415 0.014515181447279757
-0.020455778114521983 0.029033723944539208 0.013845336905937478
-0.01837442891130009 0.028944808203605805 0.013779339713281769
-0.016524094948715262 0.028872210736404433 0.013545541999301136
-0.01935896477841831 0.029770200766132543 0.02768712298790499
-0.01733142540118665 0.029681565160145584 0.02757300123324463
-0.015334693602254645 0.029594850257349682 0.027445706516186552
-0.01474891918155341 0.02961281587790606 0.026280971971936073
-0.01907694352976319 0.029997436047709502 0.02144885451887546
-0.02415554642435852 0.030439775091022372 0.01601206196139382
-0.023459980450993845 0.030451397559453693 0.014881238850371847
-0.022218441592847527 0.030422081716049806 0.014163075044432094
-0.02074726459757198 0.0303753670449415 0.013623153228817186
-0.01870589396487654 0.03028546978364424 0.013525318036818612
-0.016936167085679354 0.030215714825839284 0.013228042644650495
-0.019774230199796794 0.031096616565022713 0.02738401181059269
-0.01771492996911439 0.03100173658675354 0.027291546007733147
-0.015590612905251822 0.03090142235514109 0.027256863312132396
-0.014910745009700632 0.03091290083912536 0.026160910770723578
-0.019350802496944597 0.03132299112809707 0.02124457004010938
-0.024607472565670807 0.031798497561362306 0.015673119096090038
-0.024116337604179028 0.0318266798672816 0.014386305187974957
-0.022760192772358245 0.03178721933900887 0.013752349681938225
-0.02115042839008785 0.03172768366556609 0.013315844248429298
-0.019080356848923785 0.03163168673006446 0.01323834452768824
-0.01736475699464546 0.03156322807359242 0.012897816435936127
-0.017203679815384343 0.031617284838487435 0.01136029390856269
-0.020167612059986573 0.03242394412316885 0.027096873916039266
-0.018145470772909844 0.032328170819731064 0.02697557073870588
-0.016161155899492963 0.032235054391529745 0.02683585885556622
-0.015265345370690686 0.03222963281613327 0.025897827023349584
-0.01962142400837913 0.03265006024658681 0.02104270053415419
-0.025214083207572235 0.03317272731642193 0.015218163451141464
-0.024397045401346906 0.03317564921882928 0.014174634244127626
-0.02318625530012286 0.03314645334785297 0.013429332967292262
-0.021538468868094462 0.033081401009080004 0.013020062916228536
-0.019560056961124506 0.032988981960935505 0.012870721378924865
-0.017681974227207187 0.03290441133402236 0.012653402272521874
-0.020568958365141277 0.03375446860614902 0.02680392260152442
-0.018613827749383305 0.03366054998942913 0.02663184205994329
-0.01642993467890541 0.033547029307150755 0.026637526626259733
-0.015579376432546421 0.03354524614459496 0.025664842295657353
-0.019891204597057066 0.03397881400676467 0.02084145831263229
-0.0260004029376249 0.03456608749303488 0.014628426682263607
-0.024941011618398012 0.03454874146707012 0.013764450260120187
-0.023723183150217098 0.034517877109432014 0.013022264382666071
-0.02201443593372121 0.03444513424891687 0.012657260114113777
-0.020059185599766938 0.03435107757668229 0.01248820897772085
-0.01824164434906489 0.034268384243880255 0.012222179468145467
-0.024743967300223546 0.035342248910313824 0.02537337393588307
-0.02105162990227366 0.03509463840673 0.026451610248163338
-0.018900849494332905 0.03498016660264117 0.026421195885927673
-0.016838510382597704 0.034872932654191675 0.026336038055134736
-0.01589154523267805 0.03486272964656834 0.025433239210080782
-0.020167381043030952 0.03530987799672091 0.02063544511578891
-0.026701068553688034 0.03595704234359525 0.014102930168964578
-0.025608388298136442 0.03593623037031303 0.013261207196952118
-0.02413269395804213 0.03588157696376815 0.012711796253845442
-0.02236599528131744 0.03580099431757261 0.012389286286450696
-0.020310434740984484 0.035694508148169046 0.0122956615964106
-0.018510550795437286 0.03561024720064948 0.012014988504413626
-0.01875311749301445 0.03570714927284383 0.010160027697593887
-0.019198440690698038 0.03582252013730449 0.0081380649709894
-0.01934877337800256 0.03591205305385518 0.0063362327763646364
-0.024314397742291327 0.03661261012007265 0.02568522267528567
-0.021461966163863477 0.036431398316925594 0.026152096970771865
-0.019325583179100658 0.03631406283835252 0.02610948248007544
-0.0173296688652389 0.036208944499413136 0.025973611538361474
-0.016229001014497313 0.03618452580092983 0.025182875303495444
-0.0248913419016068 0.037046681050456116 0.017111617170193605
-0.027672490680937467 0.0373771934680672 0.013374367315146629
-0.026480374376364135 0.03734672718893248 0.012603676062931557
-0.02454427112657842 0.037248138939839956 0.01239976152621658
-0.022726792665350548 0.03716000023343819 0.012114270825558437
-0.020603547502300312 0.037043427880993705 0.012071031596297965
-0.01898990267297579 0.03697323144789711 0.011645650473237124
-0.01896970615143867 0.0370495981833376 0.009992248088166011
-0.019263186174804936 0.03715526006427957 0.008087640173377542
-0.019424733169983055 0.03724915968016276 0.006276756051981802
-0.027881274697016123 0.03817348698402633 0.024718436086288986
-0.023980642842846456 0.03788913308094379 0.025927514156931508
-0.021805555704896562 0.03776457161621194 0.02590130356266912
-0.019781139243516765 0.03765357849269093 0.02577514843149764
-0.01771277984138253 0.03753800820362671 0.025690913424557815
-0.016580040689305353 0.0375097816128433 0.024922433286833134
-0.023926403513498617 0.03827901132120127 0.01783141078398287
-0.026744783725651866 0.038624647554803035 0.014070143958369086
-0.026494126362037518 0.038681837850680745 0.012593306219925327
-0.02462370698489197 0.03858594866099202 0.01233953771326557
-0.022941358692902147 0.03850749566459368 0.011950719265679255
-0.02120331084762439 0.03842341759666148 0.011611396745454639
-0.01949475997695871 0.038341794231521786 0.011256660648819083
-0.01936210647959441 0.03841025533496783 0.009688276613960822
-0.01960558402658258 0.03851498708608236 0.007820975360892324
-0.019722723232712736 0.03860805282168796 0.006043429019776003
-0.034923807265824613 0.040001894444370995 0.022914208741986963
-0.029819459376315194 0.03959455126752243 0.024942616122870742
-0.02685508961023847 0.03939119276880606 0.02545934935887184
-0.0243168359220165 0.03922803136159209 0.025683452663282536
-0.02220533517820744 0.03910537784936489 0.025609495912472025
-0.020248526156840307 0.03899717510177408 0.025432131685174553
-0.018087108869864643 0.03886869588423945 0.025414695521956687
-0.017161734797715045 0.0388597075387877 0.024490865012512963
-0.023109237047834796 0.03951946115608566 0.01844097426558583
-0.023847429276562304 0.03967400984953419 0.01624314863546855
-0.02561710222532687 0.03992999633314194 0.013254636359905037
-0.024806278514015234 0.03993437593365374 0.012201122218632177
-0.02322532893421919 0.03986320503753073 0.011734264794966365
-0.021093016643629392 0.039737517565472086 0.011695921850893909
-0.019854406184594553 0.03969936451679775 0.010979555189400803
-0.019611104585934624 0.039759335024838194 0.009495391144638488
-0.019598240818921142 0.039842363422679834 0.007826694366090237
-0.01926059798330393 0.03989353700335667 0.0064052743510069066
-0.0188498286455262 0.03993766127183688 0.005037080379463377
-0.036873778972293714 0.041358515565864666 0.024790534654497653
-0.034070103935779195 0.04116643790657871 0.025150754429123234
-0.03144658178282733 0.040991389756939806 0.025397498059776036
-0.029061364186530936 0.04083923917918196 0.025486985167218645
-0.026735640239213987 0.040692370209770075 0.02554559269404988
-0.0246657963668242 0.0405703585942821 0.025430122619742035
-0.02268223613649878 0.040456446535681596 0.025261395628925154
-0.020626823541564532 0.040334882540813716 0.025154498028023387
-0.017605956984215854 0.04011613985212218 0.02576973815710948
-0.017478764597217422 0.040186842347594946 0.024255655472823212
-0.02226485784636656 0.04075187366153938 0.01907083702607243
-0.02218551420330689 0.040829021092740475 0.01748957853922467
-0.022374009205355594 0.04093353568061926 0.015700127961663035
-0.023870314214901656 0.04117081763832555 0.012910717860642407
-0.021591162672017716 0.041026280205454686 0.01297989740668376
-0.020204286469716837 0.04097179771603973 0.01237700942336889
-0.019666578530952883 0.04100355122640638 0.011124275381491744
-0.020010877426254847 0.0411254389552316 0.009185708580940088
-0.01962516722358748 0.04117319559552057 0.0078057236601878355
-0.018617598302053506 0.041157431152959986 0.006908744855899374
-0.01791405145591679 0.041172820113679294 0.005773731311783825
-0.017720598587271097 0.04124076893595881 0.00423374822632705
-0.0383644276131217 0.04275689767377357 0.025367810504280053
-0.03577270935597232 0.04258071066925316 0.025568300731439897
-0.03361169639752537 0.04244768383360841 0.025476341945107006
-0.031380110207733736 0.04230690647736148 0.025444969284513563
-0.02924658494383303 0.042175582292178014 0.025353982810780218
-0.027115163439666135 0.04204393293047934 0.025271574117780082
-0.025085094196605484 0.041922151518166424 0.025125730706402172
-0.022884713251768052 0.04178233533225835 0.02511360322043532
-0.017298317487414172 0.041292675608354396 0.027597299236753192
-0.017585785727851244 0.04140812391407433 0.02578462255479691
-0.017940363455501818 0.04153100370395685 0.023913187808430714
-0.020969105227723828 0.04193195861738126 0.020037400768839808
-0.020034941419382446 0.041922402932057866 0.019102499843823395
-0.019362964863365473 0.04194013470320327 0.017970640588193587
-0.019128512329090075 0.042003639169574225 0.016505686126669472
-0.018765202968219874 0.04205392359698442 0.0151339668229179
-0.017884284456043287 0.042050129119710816 0.0141549669925079
-0.017262341681123505 0.042073539319402664 0.012976726881541889
-0.018711773171125545 0.042315229465424244 0.010192054924822946
-0.01808151218948917 0.04233842300128402 0.009007946390478194
-0.017398390663448893 0.042356123560485924 0.007863387763627272
-0.016978982753057204 0.04240185428179619 0.00650982451793769
-0.01672858190422538 0.04246573387679123 0.005018860438734507
-0.040336739359144225 0.04420932281687292 0.025613450180012654
-0.03812744447100397 0.04406825328697637 0.025534292223381716
-0.03599731301516268 0.04393490795192302 0.02540964672420376
-0.03386990151093128 0.04380130260312664 0.02529294975699342
-0.03173654670759474 0.04366652355885111 0.025190417212206828
-0.029639953658542217 0.04353506888483636 0.025071514653498383
-0.027515161640834784 0.043400091773574866 0.02498277243855701
-0.022791384213030064 0.042989238123814964 0.026790863986274838
-0.018311492732719092 0.04260257454625079 0.028451695400218247
-0.017498230659622138 0.04260433697277116 0.027450582322087635
-0.018032401349316884 0.04274973401770974 0.025455064276267536
-0.01820853095415209 0.04285749190069057 0.0237142300006275
-0.01872316117300099 0.043001931470529185 0.02171275766979891
-0.018606663311252047 0.04307927890456719 0.020173702923633463
-0.017310621187128783 0.04303016575106369 0.019518233948374875
-0.017292041629444088 0.04311844390542132 0.01789799522049107
-0.016531026056521958 0.043126956244433176 0.016836953652304476
-0.016190121073035302 0.04318094586506509 0.015453306645846265
-0.015451656968355654 0.04319207054948277 0.014371849667602965
-0.015040827115396393 0.043238830948170236 0.013035739815537517
-0.017079512460634938 0.04355242765819346 0.009788319481074115
-0.016435101566173838 0.04357467234277881 0.008617645755200964
-0.016077247072045997 0.04362833723180389 0.007219677715364747
-0.01596873480511085 0.043709546643789954 0.005620226572261189
-0.015982216732549737 0.04380449644644545 0.0039174206058723016
-0.04293496539965724 0.045735513544688175 0.02543274113166788
-0.04063941812096844 0.04558156433725772 0.025401983211743362
-0.03853331190647791 0.04544741099743266 0.025249168531539024
-0.036379436803660015 0.045307549256794505 0.025139724717928746
-0.03421594184331683 0.04516607370469838 0.02504717192209832
-0.032089822023515846 0.04502807205852993 0.024938122725537692
-0.029889309338340553 0.04488141711123492 0.024892458626044667
-0.02341546176396031 0.04426871160667981 0.027942786271851705
-0.020513741340044966 0.044043352252405334 0.028444333245522924
-0.018287776874781447 0.04389096786843581 0.02846900611584824
-0.01810510537475729 0.043961888434877354 0.02700519503314719
-0.018327523026790193 0.04407759176803736 0.02523729358641652
-0.017539377996748207 0.044082562226432455 0.024210685410623878
-0.017150107829729033 0.04413154186672395 0.02288617326253628
-0.01718013127862289 0.04422706304384197 0.021243596453542957
-0.016264347607587604 0.04421824256088337 0.020307188577845248
-0.015160511112529806 0.04418851581569192 0.01951400212059029
-0.014886150866050385 0.044250909123502324 0.018090749074990586
-0.014298112546686281 0.044278608087139494 0.01690326697366995
-0.014100207557686262 0.04434999347698496 0.015413134135152051
-0.013991891530871936 0.04443170726202645 0.013848293916786159
-0.013779729315990197 0.044502121006315676 0.01235824230313659
-0.015517290040021947 0.04479196387203168 0.00933629468449626
-0.015292609412031255 0.044862034641363194 0.00783735045862205
-0.015432405943173855 0.044973542962740067 0.006044693566183645
-0.015580157828593844 0.045086428029401604 0.00423732735582294
-0.04314621152851755 0.047104024557963885 0.0252859643334149
-0.04101805016342608 0.04696413357571018 0.0251374513707065
-0.038897324112057985 0.04682449751568846 0.0249934483262223
-0.03672253520169988 0.046678278952948994 0.024897369201898667
-0.03457272302234543 0.046534245165806454 0.02479376531741595
-0.03242353384970037 0.046389690198859336 0.02469979966675534
-0.030192682290015038 0.046235403769417024 0.024674614157421837
-0.02276487468234001 0.045497787208392905 0.02841251498839059
-0.02193772554390594 0.04549873481298255 0.027410582900082192
-0.02085818262315514 0.045471270335232836 0.026592811584712994
-0.019226477964009114 0.04538139757158927 0.026182216113506906
-0.018175147945921677 0.045356764990295895 0.025349731367202144
-0.01692814301731227 0.045309862149528306 0.02466417053530645
-0.01625927489012524 0.04532839666067191 0.023550688084189364
-0.016000454663012142 0.04539365652887777 0.02212834937149971
-0.0156697751795275 0.04545099768541887 0.020755532757461337
-0.01452310990431327 0.04541536167896439 0.01999724397072372
-0.013459425884474352 0.0453890754901083 0.01917826091886432
-0.013611222113405097 0.04550211944581789 0.017429672570658084
-0.01363598726804538 0.045601036869847254 0.015770813359626157
-0.013309078342715441 0.04565985780829691 0.014377232647256155
-0.013489891505552909 0.04577754498090069 0.012583972531787557
-0.014777212076021506 0.046023750611438805 0.009915777749667454
-0.014563778497940494 0.046097003972832076 0.00841109170635762
-0.014683482627645572 0.04620927710569647 0.006637414284723087
-0.015408440164860648 0.046392504965237516 0.004373958180743098
-0.015828168456756997 0.046540901669509374 0.0023412600201555556
-0.0457746083456822 0.04864991383510182 0.025098492534806338
-0.04356670231670823 0.04849765821018246 0.024993801386247683
-0.04138040001381271 0.0483472442591056 0.024884295107438226
-0.039234789642986156 0.04820086217173887 0.02475637727878649
-0.03704694583447454 0.04804905134359041 0.02466821422256643
-0.03490338474240673 0.04790169473192645 0.02455891026141971
-0.032717391985431554 0.047748860349906413 0.024489938450399096
-0.025078159626215624 0.046967790928480864 0.028347223946148525
-0.02387502882402809 0.04692575340790498 0.02761097543301433
-0.023098952901702607 0.04693289447831549 0.026567582550076407
-0.01862124185060232 0.04651140565933676 0.028225602846011888
-0.01719784485271192 0.04644260094757063 0.02767103642379809
-0.016333226959213076 0.04643848736540916 0.026708887385020752
-0.016035425109201973 0.046500405208251466 0.025326492400850387
-0.015397145250985123 0.046522824139339544 0.0241937917436138
-0.015186006335676294 0.0465953175549117 0.022739182479997233
-0.015170329890728973 0.0466910339495168 0.021132145223330512
-0.014281219922255284 0.04668452053638185 0.020180631389749015
-0.013150161292429685 0.046649490162498315 0.019413995844012877
-0.013310496340860845 0.046766694789423996 0.017660136880765953
-0.012968800503378786 0.04682503033200613 0.016284877156255817
-0.013108002280096231 0.04694059808372601 0.014532995481270627
-0.013027504373639254 0.04703056676006159 0.012944086875926075
-0.012880278026686343 0.04711297698447198 0.011401082286225273
-0.014055062272702423 0.047353394348556545 0.008811556994215874
-0.014000835782549015 0.04744795949837345 0.007177681786274814
-0.014325924305861493 0.04758835771148197 0.005235285033139914
-0.015976319545930096 0.04788842304056766 0.0022227494572688578
-0.013258380660786329 0.0476643570042467 0.0027018745478341044
-0.04604932601874784 0.05003333471138165 0.024908664725738217
-0.0438812980776524 0.049881574348621636 0.024775215801818462
-0.04176950652798922 0.049735780924762635 0.02461244526111661
-0.03960779244302404 0.04958353621312935 0.024494341140582243
-0.037432272915865206 0.0494290466477147 0.024396029496014715
-0.035237120146603074 0.049271611922025234 0.02432187209738329
-0.03305337812071241 0.04911487844711097 0.024249991174978558
-0.025246399790723628 0.0482923521985249 0.028226414925318022
-0.02479728785945723 0.04833856127739167 0.026945097543232654
-0.02039413287683267 0.0479153240314611 0.028531163766414958
-0.01837672579846572 0.047774286980575294 0.02840408038018477
-0.016657341472263 0.04766820948338656 0.028067713578534437
-0.015148244010752876 0.0475868236559429 0.027583287925018962
-0.014661025554993101 0.047627481803730144 0.026346181676125957
-0.014341700991618744 0.047688458780243345 0.024981098007894498
-0.01439484960312748 0.047794485215933186 0.02333254698211662
-0.014396420659956277 0.04789473977017282 0.021715720382205983
-0.014201048247141412 0.04797163064683936 0.02024141305773286
-0.013097293629266926 0.04793891121863965 0.019454293876633
-0.01272333462528219 0.04799456083785034 0.018110114342151318
-0.012634282745124403 0.04808507088428288 0.016542621281222414
-0.012833921581037522 0.04821112343336409 0.014745311088996182
-0.012897282405520405 0.04832107809612337 0.013045505785330924
-0.01381337178284403 0.04853579474441428 0.010670467329136735
-0.013632324286901532 0.04861695247918127 0.00914433955701538
-0.01310341754539418 0.048655729357970835 0.007887925907839599
-0.012752490110059411 0.04871657985435489 0.0064872215401732825
-0.011985910511918663 0.04872641818433552 0.005414799029150874
-0.010654079487563917 0.04866642216377002 0.004796273824968611
-0.0464414407215325 0.051432546638288286 0.024637716467832638
-0.044297961982083855 0.05127972594693591 0.024485711827615553
-0.042167183274530506 0.05112781071250656 0.024334607809174347
-0.039921728296467396 0.05096145861695816 0.024273799797000395
-0.03776808297739426 0.05080551196832876 0.024158822265625657
-0.03553181022764096 0.05063893030902008 0.02411256617751195
-0.033496293404897626 0.050496003771565254 0.02393367956410347
-0.02573361457627965 0.04965673904650953 0.027876558270402696
-0.02284215877411916 0.04940700554912953 0.028356715298747392
-0.02086699989791757 0.04926801499101067 0.028187882959599397
-0.018627180409618027 0.04909609854733167 0.02822126816384929
-0.01694039248752993 0.048991210239644034 0.0278599815356968
-0.014810967998650837 0.04883155548704215 0.027832164356104916
-0.013890400399176717 0.048819924783158414 0.026917920952551855
-0.013424805678459106 0.04886432354490457 0.025665053998306986
-0.013689940672295342 0.048999162547633215 0.023861225965148447
-0.013862577879096116 0.049123117552344185 0.0221182706726889
-0.013960727237792125 0.04923835385164908 0.020423610969639627
-0.01300099327149734 0.04922258808646069 0.019527698198416155
-0.012192976372319142 0.049225652862857516 0.01851655988170403
-0.012591919443028898 0.04937937973333943 0.016575261976551348
-0.012837463307603658 0.04951456977250291 0.01474256750350883
-0.01328346238411754 0.04967545941963031 0.012744742766394035
-0.013677592274869532 0.04983051735597412 0.010776783054365469
-0.013505916785960637 0.049915011975570356 0.009243848504716157
-0.012520068853215383 0.04989716036910752 0.008349605827289441
-0.011203301277410926 0.04983739804975369 0.007719866706431655
-0.009208790354872542 0.04969151668051335 0.00763630192091147
-0.007589615879345868 0.04959266199390437 0.007260739314540021
-0.0059432439884650745 0.04948992133412841 0.006913855466483931
-0.04691159208799006 0.05284382173064481 0.02431284547271584
-0.0447194073289332 0.05268109806104366 0.024192885639590767
-0.042511827198521535 0.05251581245328082 0.024093821817783412
-0.04033496536516212 0.05235365180036468 0.02398349890480167
-0.03830055793774245 0.052208481100325214 0.023782696219787014
-0.03716584686344154 0.05217443081774153 0.022951978960069064
-0.041472578220696776 0.052817286215315465 0.018237349839278216
-0.02612765416472279 0.05101262401766026 0.02759360837560504
-0.023204820717040164 0.050752499543635844 0.028094870675946848
-0.02076395219276639 0.05055164073801326 0.028262691093361048
-0.018896976067186655 0.05042194780123474 0.028024338501061785
-0.016934491502444193 0.05027971078452916 0.02786431228747116
-0.015320615844946539 0.050180798745574344 0.027456094512577633
-0.013374039027214568 0.05003947625402394 0.02730101781222699
-0.012924875089057264 0.05008698598234888 0.026037976093669812
-0.013009695927042708 0.05020238400197919 0.024371406903994475
-0.013277473202284618 0.05034150598044884 0.022559475585554656
-0.013658383498324655 0.05049561304061192 0.02065283103724086
-0.012929385566612772 0.050508784856367436 0.019582280706033406
-0.012048899177144468 0.05050264713493458 0.018626974932290763
-0.012526039001561684 0.05067039769928956 0.01662602250067713
-0.012685226275283845 0.05079804168435497 0.014860497361927627
-0.013040531282303813 0.05095145650221446 0.01293394131532083
-0.013388477422993539 0.05110457457836194 0.011003160772256104
-0.014360135669977958 0.051338923818966174 0.008571400891861036
-0.013197628747654067 0.05129796616025169 0.007813364293399072
-0.011411685884292089 0.051175945448154354 0.007554061045442262
-0.009538946415835303 0.051042116167802416 0.007372200044620636
-0.0075394511050395074 0.050891195446576984 0.007301082216553456
-0.005512407179932788 0.050736027710273586 0.0072621885607365155
-0.003720407258564873 0.050610949576657766 0.0070425000537223115
-0.0019417835898072888 0.05048708498325404 0.0068201638614366344
-0.0003905628471969069 0.05039257169370966 0.00641923572067471
0.0007339439146873405 0.050353853514710833 0.0056721818321627815
-0.047378765240490006 0.054257684817173246 0.0239900324006449
-0.045157586117567594 0.05408724575460738 0.023888432819531513
-0.04296608900598581 0.05391987036208539 0.023776451128654008
-0.04074640413990421 0.053748237523049344 0.023694461322161686
-0.039555181560578245 0.053706613936602775 0.022896463706685632
-0.04242618045351548 0.05418215632522992 0.01921578615363656
-0.04225164487260802 0.054270995594383815 0.01768097295086629
-0.026469688376305534 0.052364378144492525 0.027348002230885182
-0.02342999678620722 0.052082699698960705 0.027932291877576454
-0.021373415809879115 0.05192609433709111 0.02782024712311504
-0.019579617036290076 0.05180265345960465 0.0275260641512744
-0.017537290263349825 0.051646656773423366 0.027421916354339215
-0.015447351509083662 0.05148386064709457 0.027362576092500313
-0.013717741831168861 0.05136703991759154 0.027046019138805555
-0.01264690547845615 0.051335203130514366 0.0262453268976216
-0.012358526469084807 0.05140496358456924 0.024859781489358523
-0.01246541664825479 0.05152651420103662 0.023171816172396664
-0.012617244829449814 0.05165444193329666 0.021442163988146745
-0.012356284535135875 0.05172890087644818 0.020019123242272507
-0.011999726142311096 0.0517911397518005 0.018664659196771738
-0.012193442824935563 0.051925940070953 0.016882286057383622
-0.012359902774480236 0.052057722072994084 0.015112508017977977
-0.012468156829002042 0.05218238301814967 0.013379715508904766
-0.012634957209309183 0.05231531494211478 0.01159316915560804
-0.013502340387694933 0.052541643976951005 0.009246663872675531
-0.012975886443371332 0.05258385387662366 0.007988857905628699
-0.011463816462643384 0.052495086303281764 0.007512582237911014
-0.009851990993993531 0.05239263515000252 0.007121786163944932
-0.008247615358279947 0.052290739569035224 0.00673157101127142
-0.006206616833875134 0.05212992790615647 0.00670091758288871
-0.0041171173419705664 0.05196191273263638 0.0067200470087800945
-0.0019406429685098203 0.051781472198531006 0.006821095921075437
-0.00025907533960739526 0.05166696417908666 0.0065272530448242105
0.001640075925447182 0.05152256466791149 0.006420531963212572
0.0034438311575103464 0.05139045233358167 0.006243991098861645
0.005125304542607179 0.05127435550852893 0.005973989266183366
0.006293012923094254 0.05122761303630833 0.0052804650694688315
0.007471792142760558 0.05117915712883426 0.004599337226689149
-0.047786701922467645 0.05566683834684127 0.023708151276237488
-0.04561791067333226 0.055499028330528194 0.023568592807234556
-0.04341473627217057 0.05532607476916234 0.023463003047161257
-0.04156383543394526 0.0551982134305893 0.023120212175731514
-0.04258302005504744 0.05544371667498114 0.020757679716509103
-0.04287908465326595 0.055595830938340904 0.018894107426587037
-0.043053459788094384 0.05573265155003328 0.017108350202008737
-0.0444512870653318 0.05603039648196666 0.014435869524992762
-0.048263327093857666 0.056646458248241084 0.010002442511758303
-0.021785965282046127 0.05327854410378334 0.02752075422269684
-0.019935555386050574 0.053144663235173514 0.027266257081645595
-0.017936608244719043 0.05299059693600952 0.02712885561426942
-0.01573750401012608 0.05280938324731636 0.027148472164740867
-0.013976786050891754 0.05268559357972653 0.026853830039307747
-0.01231942611973419 0.05257503293198653 0.026489609386494306
-0.01154496380859904 0.05258166891983872 0.025469950351129866
-0.011161441808702766 0.05264054010754005 0.024155093401693195
-0.010870922829384455 0.05271210430132956 0.02276612739355277
-0.009602019827270991 0.05265276350163357 0.02211854361385518
-0.008660264546880514 0.05263713714002628 0.021223890173922122
-0.007260476820176109 0.05255976110556796 0.020683109705794844
-0.00569169235888245 0.05245925053306235 0.020278012745934104
-0.00434175571409634 0.05238791117197275 0.01970868404137427
-0.011639029359423902 0.05348822026610333 0.012372983379532854
-0.011383402244102114 0.053567395068912685 0.010914708121177286
-0.011085707710604353 0.05364118206251529 0.00948480291551701
-0.010636097132749656 0.053694563450212354 0.008171174792614533
-0.00977780374468945 0.053692310283898516 0.007181130801389823
-0.008212497307992506 0.05359319742023771 0.006759813220695077
-0.0061195599294642244 0.05342122496741741 0.006771303400184114
-0.004383195832874276 0.053297566482407056 0.00650377365659055
-0.0022797048701915235 0.05312275650650551 0.006544031207036338
-0.0005266793760450583 0.05299561359537877 0.006307415643708902
0.0013227430127490392 0.05285457040841227 0.006158455219444359
0.003074018476679652 0.052726533639574184 0.005936949375793199
0.004829045148495692 0.05259741682907636 0.005726709958809306
0.00680580556509075 0.05243683061421128 0.005710749206341681
0.008594606423004192 0.05230179611897044 0.0055464839775727914
0.010354682808337234 0.05217019006507518 0.005366496516735431
0.011737041436513773 0.05209099854055068 0.004872940163449302
0.012890599506635736 0.05204362916197883 0.0041883873602690525
-0.05064180714551347 0.05728643513649914 0.023385970931632416
-0.04822089895561138 0.05708203914926434 0.023408124450202683
-0.046064586989494505 0.05691190805976919 0.023258235784857695
-0.043902608507372876 0.05674033175788096 0.023122150382576534
-0.042057645584935244 0.05661027479249116 0.022773308332226017
-0.042196087984282704 0.05674436728701134 0.021030998164553505
-0.04348666833935255 0.05703307333978113 0.018462566392469737
-0.0439381569110423 0.057210529451553575 0.016476536439675005
-0.04808941943365275 0.05788548460540633 0.011823418387929496
-0.048719328498013026 0.05808943269929924 0.009673206103035958
-0.022396105071053662 0.05466028252056633 0.0270778193811842
-0.020001317515458028 0.05444975920604248 0.027218255886648224
-0.017998294989591657 0.054291401862798676 0.027083583515470133
-0.01608812947644611 0.05414498430684205 0.0268897451531111
-0.014436194767053656 0.05403306304443749 0.02651298727680551
-0.01240646876857121 0.053869208619290766 0.026424680118955268
-0.01058946321069143 0.05373370894631501 0.026186572119266283
-0.009196290870602863 0.05365562241885698 0.025636938074576676
-0.008323627419818236 0.05364856341487666 0.024697343918854697
-0.00835042534489916 0.05376503874445866 0.023072563373012167
-0.008462404310537575 0.05389373132342627 0.021375522415085835
-0.007004135591089644 0.05380634277519386 0.020880619237511555
-0.005188057313393668 0.053669118139235465 0.02066815178572079
-0.0033406422884205145 0.05352697017691296 0.02048836686516614
-0.001628320684357476 0.05340297384442808 0.020211395587087566
6.27430346025748e-05 0.05328140707974946 0.019925200880199445
0.0013370030731414961 0.053217435418066464 0.01931651453308786
0.0024571850254395122 0.05317471882856058 0.01858912425275694
-0.008122387389699448 0.054770078917766814 0.008505348700405646
-0.003632746276411525 0.054257691068215 0.010442884652149764
-0.0030306559121018317 0.05428979566401445 0.009268693300277797
-0.004503108184083782 0.054614406518984186 0.006406306754711599
-0.002685765320478206 0.054475783775490214 0.006212218573463435
-0.0008117025073576256 0.054328532214919595 0.006073268411553423
0.0017434888574739404 0.054084023875622014 0.0065059379309032606
0.0032070552151571285 0.053993634463893124 0.006047404834815806
0.004595705588695709 0.05391352398547025 0.005531948051247293
0.00646961537569285 0.0537637785785534 0.005428652129232714
0.008210492546113446 0.053632413155688646 0.0052224658234864
0.010159218565520045 0.05347066440381296 0.005200740084935096
0.012003529971818805 0.053323210677103015 0.00510012182904912
0.013840906908441142 0.05317610567601514 0.005002807562382694
0.015431283668498219 0.053064006669448736 0.004701939778435804
0.016752852133299134 0.05299030129298147 0.004175323465713698
0.017939155290253805 0.0529358818364257 0.0035355917731961783
-0.05086259314219582 0.058680257828802436 0.023234249886072533
-0.048684201575875 0.05850392108927681 0.023087985886277307
-0.04649752659335865 0.05832574362596336 0.022957423224481188
-0.044325453182794294 0.058148828147110594 0.022826729319594563
-0.042619651711149065 0.05803476602876893 0.022378496510584878
-0.043868617843562274 0.0583239329347155 0.0198495678826367
-0.0442196571425264 0.05849135315341533 0.01794195539951271
-0.04531497986794514 0.05876156477754599 0.01549326694562525
-0.04918011725295207 0.05941364560616402 0.01104021578017611
-0.04904074614221321 0.059516789797282976 0.00944114017097486
-0.022587000026091653 0.05598806790936924 0.02693923798036646
-0.020812551274884128 0.05585839183041684 0.026626118888872452
-0.018609067363673737 0.0556687113159092 0.026635335722197784
-0.01683023611869061 0.0555372249789913 0.026342143645799898
-0.014816916900856847 0.05537255469975656 0.026230523363374947
-0.012708513591829229 0.05519393606228317 0.026199370464433713
-0.010981732209455752 0.055067908391854783 0.025892371881092502
-0.009834969533185578 0.05502258896422845 0.025155335081400165
-0.00949298257923098 0.05509003071512194 0.02381080441529959
-0.010200724831305796 0.05530539670100902 0.021662184615952762
-0.009461798916978237 0.055317772816558385 0.020609626008701087
-0.007573348640055655 0.05516784200640359 0.020442043659369136
-0.005531251457294273 0.05499552969437885 0.0204022977015757
-0.0037535668326090788 0.05485999075906163 0.020166774759447892
-0.0017716586510524435 0.05469484737175378 0.02009916156805691
5.607120415479505e-05 0.05455096236777434 0.019919948764445583
0.0018201156469930813 0.054415554219487676 0.019698864536047467
0.0035907720426203715 0.0542786210937405 0.019491086962410864
0.005283957771722969 0.05415220719281873 0.019229492007088622
0.006904378785162868 0.05403570420075609 0.018916922654724833
0.008285533468885276 0.05395314837211084 0.018417872720801087
0.00012250156529131084 0.05524733557808092 0.010166085017960957
0.0015093254207551032 0.05516622208841142 0.009640240450362048
0.0026277465080228324 0.05512365191042579 0.0088987845841621
0.002488200658989692 0.05526358691316972 0.007120975439390831
0.0035375664018142405 0.05523109380946108 0.006321815988096557
0.004772403429621708 0.055171406223638426 0.005679432723757705
0.006340491107470758 0.05506274372756203 0.005320303998329445
0.007950687573160309 0.05494743642614879 0.0050033080871396685
0.009793802839701382 0.054797425827062866 0.004890862401106866
0.011679809794005125 0.05464044409640656 0.004824150147566431
0.013347056519235956 0.05451503025669145 0.004579574266476261
0.015269640622085134 0.05435132514046741 0.004562678890847827
0.017126888811484997 0.05419657266067689 0.004499269071272627
0.018824825900332798 0.05406478295162218 0.00430669763065844
0.020575914747399615 0.05392449915272111 0.004168790567786185
0.021958221500079977 0.05383857940279662 0.0037151025235977464
0.02350893872477494 0.053727107831370954 0.0034157015083789988
0.024868243367940635 0.053643806607723804 0.0029530471905949707
-0.05132385265690703 0.06010874826219677 0.022917278805940633
-0.04912559885529383 0.05992568569682049 0.02278298374518578
-0.046939357848479024 0.05974354912006349 0.022650432619046035
-0.04476238993013376 0.05956196272341552 0.022521462809554527
-0.04333744494559094 0.05948455633652053 0.021874243547435057
-0.04411658601883334 0.059714969979224694 0.0196744098072269
-0.04531852831256805 0.060005556249139155 0.01716147361249204
-0.050236795125383094 0.06081901581264459 0.011978311900952221
-0.049723427535975806 0.06087178255377154 0.010650078362686055
-0.04983608418021024 0.06101300707797804 0.008866900186263738
-0.023068659710434314 0.05735814783461739 0.026589574084008583
-0.02114301103250732 0.057204196368621785 0.026384909192541328
-0.019171573207450943 0.05704311266714867 0.02622251088945249
-0.017070328945589852 0.05686291139841413 0.026164978820126084
-0.015166651380824459 0.056710097748731716 0.02597104969189057
-0.013172934677890824 0.056543796770122626 0.025852936602981047
-0.01180920713893141 0.05646689892421182 0.025271768871164557
-0.010955362231146015 0.05646275272550989 0.024310490077985025
-0.01173400324042001 0.05669303910779636 0.022111788228100393
-0.011598222933092539 0.056792692815261045 0.020596950771231415
-0.009951247178439815 0.05667482111170893 0.020234532264799765
-0.007936127587940933 0.05650324569509884 0.020162524440518304
-0.00603691831229497 0.05634773161755029 0.02001058472800682
-0.004058749470207401 0.05618009804835358 0.01992909373894386
-0.0021495520232518994 0.056021783734486214 0.019803270026513997
-0.00033575013504710816 0.05587669968570468 0.019611504021368853
0.0014653628242312644 0.05573284989082523 0.019418102348983002
0.0032912657429225445 0.055584756134000296 0.01925277838129663
0.005141271903406963 0.05543249186734075 0.019115353240613864
0.006920604946101805 0.05528996310829223 0.018929971859667216
0.008785285881584393 0.055134247007960636 0.018821924326486106
0.010421042930437774 0.055011658013406364 0.018536923472952382
0.012170253870537329 0.05487175226773489 0.018351826970933904
0.013655046835016116 0.05477044877587436 0.017957740037434222
0.014801374551513757 0.054719002648730426 0.017290095597039812
0.006721383603803588 0.056041381280553346 0.008965221069387574
0.005436597253274167 0.056355330064977505 0.006233816456187535
0.0066339275834723654 0.05629938103115576 0.005566526448619991
0.00796165708608032 0.05622363939462598 0.005012561388156367
0.009856931692552307 0.05606230043556856 0.0049443965577454785
0.011571777497597135 0.055927417976197755 0.004732052538157283
0.013298779075690714 0.0557901065727056 0.004538200153999639
0.014985357402307997 0.055658301664660646 0.004317759394519116
0.016780349772141046 0.05550948129153664 0.0041991386148303445
0.018564719197056156 0.0553616140646184 0.004080236686624272
0.020194756021989002 0.05523658459498985 0.0038351878089871727
0.02208854719382236 0.055070754476959256 0.0038297683424858286
0.023767840234190485 0.054936984377220735 0.003644691698070135
0.025375781163748334 0.05481355081792846 0.003404307647725535
0.02759433034222386 0.05459577034640671 0.0037171983204111747
0.029154683364903455 0.05447834038320657 0.0034520151507060337
-0.051757515235992146 0.06153623429580671 0.022619271953569275
-0.049594898519881025 0.06135418964396263 0.02245870126954147
-0.047404862622738686 0.061167509415560734 0.02232699331766841
-0.045271951511187625 0.0609882042098299 0.0221654568511499
-0.04387771128094414 0.06091356768344581 0.02149470402627507
-0.045295377926104274 0.06124067156366165 0.01884174278630546
-0.048892519736956463 0.0618813724859796 0.01462301843253
-0.04954433124381391 0.06210185189831261 0.012472840705156585
-0.05008273376763528 0.06230692231995091 0.010392069615773492
-0.05069503442309253 0.06252349024201678 0.008246731716033684
-0.021323489865812395 0.05853041666562597 0.026253173803976015
-0.01939247694549251 0.05837158986776533 0.026060388931576473
-0.017419746709975814 0.0582060397365559 0.025907142973406905
-0.015495821725250214 0.058046909544501535 0.025726832885415496
-0.013868690206816359 0.05793043595607377 0.02533393933574518
-0.012807942145641626 0.057896318065848405 0.024522721462951813
-0.012675413940599511 0.057998108154034674 0.0230134652981977
-0.013515019596317124 0.05824311170355623 0.02076152150778815
-0.012218238600102571 0.058174694766143904 0.02012434785898981
-0.010304917156436166 0.05801505091872707 0.01996349361455302
-0.008315699050830239 0.05784351468924644 0.019870066679605336
-0.0064033222987040506 0.05768263450880775 0.01972675122453621
-0.004466409604889143 0.05751743007504901 0.01961160163784509
-0.0025664304021090767 0.0573570175141516 0.019476853118384596
-0.0007060443325543897 0.057201823905478705 0.019320005608225777
0.0010855662904689645 0.057056242107049335 0.01911751980638776
0.0029615921755800634 0.05689740019537986 0.018990466569680287
0.004899222088051602 0.05672863522048494 0.018921730230317457
0.0067063068262421255 0.05657877271636828 0.018757631643435635
0.008466243105744398 0.0564353691203896 0.01856397710585317
0.010235425485977112 0.05628995077663216 0.018386050297138634
0.011959486425069166 0.056150731739233954 0.018179598178144907
0.013769717024916917 0.05599784175096874 0.0180519418920429
0.015494952941299323 0.05585720552479116 0.017862903391848983
0.017333831062305294 0.055698648302824984 0.01777634173272502
0.01885470315807375 0.05558794131984664 0.01743352860155989
0.01989000312960537 0.055551032087189645 0.016689695069919686
0.011942452367188938 0.05689114394854157 0.008370549777488967
0.010377473621651756 0.05725646292170275 0.005385823447525362
0.0120121547839796 0.05713068333181236 0.005107474487541286
0.013396393765433223 0.05704299902293004 0.004621856637363142
0.0150460839717097 0.05691387065236303 0.004370077363913483
0.016574016786062185 0.05680304403629311 0.004020437786755704
0.018352583378801912 0.05665278865704194 0.0038955414171054636
0.019902617498928632 0.056537447264656926 0.0035794984839181976
0.021912688766291044 0.05634980458946858 0.003675040981961586
0.023251722994541646 0.05626627030744302 0.0031882023370120582
0.02553886766946345 0.05603375033194367 0.003549310624309243
