# .PCD v0.7 - Point Cloud Data file format
VERSION 0.7
FIELDS x y z
SIZE 4 4 4
TYPE F F F
COUNT 1 1 1
WIDTH 757
HEIGHT 1
VIEWPOINT 0 0 0 1 0 0 0
POINTS 757
DATA ascii
-0.06106675022410187 0.03138087161345149 0.02219170223720679
-0.06087420269230763 0.02922359667075297 0.022121359561319165
-0.06068304879849582 0.027081121282226006 0.022050555255877013
-0.06049309164906666 0.024952059145879446 0.021980194230188654
-0.060304320040524474 0.022836284691612585 0.021910272334426606
-0.06011654308860197 0.02073246620357616 0.021841681488465603
-0.059930110620405014 0.018642906605225995 0.021772623036025618
-0.05974483090014446 0.0165662671571854 0.021703991585305726
-0.05956069326927707 0.014502428397104528 0.02163578318816428
-0.05937768720025827 0.012451272330879226 0.021567993944978936
-0.05919562794143367 0.010411523601632 0.021501503297935765
-0.05901485499073538 0.008385394190014384 0.021434538353398203
-0.05883501054039583 0.0063704620634837394 0.021368859463093137
-0.05865643008178449 0.004368904021226749 0.02130270383861821
-0.0584791005811553 0.0023805811774584296 0.021236075230430307
-0.05830267091759492 0.0004031319570315106 0.02117071919899588
-0.05812730261776783 -0.001562421344976861 0.021105756335676962
-0.057952986132984476 -0.0035161857516635697 0.021041183103286287
-0.0577797120287531 -0.005458267006175188 0.020976996006945414
-0.057607470983079626 -0.007388769590772726 0.02091319159344357
-0.0574362537847946 -0.009307796745577246 0.02084976645062525
-0.05726588816113819 -0.011216509893049231 0.02078757374013901
-0.0570966924220141 -0.013112882514196955 0.020724894710782427
-0.056928493536948156 -0.014998082237313859 0.020662584968749065
-0.05677811999068111 -0.016763595334616632 0.02051141610035434
-0.05692962233316245 -0.016581813224812614 0.01876050790072631
-0.05706297318112361 -0.01652084776576601 0.01710134787183859
-0.05719695021274516 -0.016459596027531276 0.015434396824610397
-0.05733155784901988 -0.016398055988915194 0.013759599752757756
-0.057466800552656336 -0.01633622560965281 0.012076901130967155
-0.05760268282857196 -0.016274102830182324 0.010386244908758724
-0.057739043346103976 -0.016212739377132523 0.008688472874148756
-0.05787621766356163 -0.016150028224415858 0.006981738217034739
-0.05801404532069787 -0.016087018388365903 0.005266874651424169
-0.05811973838386408 -0.016230660732898528 0.003723061728828414
-0.06070311741458289 0.04240282383850863 0.02253082157685954
-0.06050882426075514 0.04017684284757411 0.022457341073477632
-0.06031577089132516 0.03796506583884113 0.022384329449085028
-0.06012394547743858 0.03576735729129754 0.022311782230080235
-0.0599333363402437 0.03358358340248385 0.022239694999592052
-0.05974393194852155 0.031413612061340246 0.02216806339658134
-0.05955554051487465 0.029256063976880242 0.02209778972141535
-0.059368512730671064 0.02711331842291248 0.022027053875691927
-0.05918265595043235 0.024983988862439577 0.02195676091578036
-0.05899795921078016 0.02286794968989858 0.0218869066952177
-0.05881423574635695 0.020763868966669763 0.021818383276589803
-0.05863182783098389 0.01867404995973576 0.021749391727304113
-0.058450547866138874 0.01659715370587883 0.021680826799040043
-0.05827021272310706 0.014531882456325862 0.02161357302197442
-0.05809115855704151 0.012480484372268619 0.021545847019422304
-0.05791320142422174 0.010441654841879588 0.02147853596210514
-0.05773633127344536 0.008415278709964391 0.02141163604822538
-0.05756036965925341 0.006400102131094654 0.0213460219573246
-0.05738564482826955 0.004398302222720585 0.02127993063583483
-0.0572119775435468 0.002408618485780112 0.021214239341212082
-0.057039192753802655 0.0004298288007903439 0.021149815503088865
-0.05686761295349489 -0.001535941252425066 0.021084911010673724
-0.056697225816630836 -0.0034888258213491286 0.021019529627039513
-0.05652769413566014 -0.005431128478251279 0.020955402663618006
-0.05635917327338933 -0.007361850315375784 0.02089165805192239
-0.05619165421630456 -0.009281094599390749 0.020828292382505942
-0.056025128057739584 -0.011188963372825322 0.020765302286338105
-0.05585958599629751 -0.013085557472152676 0.020702684434205476
-0.05569501933429888 -0.014970976545564008 0.02064043553613243
-0.05553722336545475 -0.016807047937679342 0.020547112515584276
-0.055674043695464075 -0.016700105247647534 0.01885820208474137
-0.055804411303611634 -0.016639436510466288 0.017199807672672818
-0.05593539088829332 -0.016578482979828557 0.01553362836310529
-0.056066986768791925 -0.01651724264568427 0.013859609210837509
-0.05619920330513292 -0.016455713479023415 0.012177694752383783
-0.05633204489856615 -0.016393893431650985 0.010487828999848126
-0.056465515992053995 -0.016331780435960896 0.008789955434711949
-0.05659962107076687 -0.016269372404704607 0.007084017001532716
-0.056734364662585565 -0.016206667230757532 0.005369956101553053
-0.05684426578104988 -0.016308075415744416 0.003790109003110498
-0.059358924270764474 0.04243697745822422 0.02250682851265745
-0.05916891828726369 0.04021070901035012 0.022433418930074167
-0.05897994387605286 0.037997355810234223 0.022361395252348926
-0.0587923525214737 0.03579937653196624 0.022288915431034395
-0.05860612935283456 0.03361660484337675 0.022215983141886497
-0.058420904634530445 0.03144635768303855 0.022144420820427946
-0.058236847033293834 0.029289785438886218 0.022073309419363585
-0.05805394555261042 0.02714675926659421 0.022002644690145734
-0.05787201511576591 0.025015923577289045 0.021933323933112647
-0.05769139452113092 0.02289961962956416 0.021863537409758993
-0.05751172580967318 0.020795276614959057 0.021795081440309172
-0.05733334369964455 0.018705198144057078 0.021726156815796482
-0.057156064731156676 0.016628045029748684 0.02165765843141143
-0.05697970981583604 0.014562519308368382 0.02159047095749206
-0.056804607687904185 0.012510869473605413 0.021522810745840226
-0.056630578461947134 0.010471790697701155 0.021455565108084274
-0.05645761230710693 0.008445167793715569 0.02138873024553717
-0.05628553471532088 0.006429746711374584 0.021323180974569866
-0.05611466668632161 0.004427704886474038 0.021257153976379284
-0.055944832938006374 0.0024377816141056274 0.021191526645968073
-0.05577586228187174 0.0004587545771170265 0.02112716654736696
-0.05560807009208086 -0.0015072503364892964 0.02106232530912644
-0.05544128442284411 -0.0034614619458019358 0.020997873028416214
-0.05527549624465094 -0.005403986048722553 0.020933806215896245
-0.055110696635674854 -0.0073349271814334704 0.020870121423834265
-0.0549468767801717 -0.009254388637158883 0.020806815245494104
-0.054784027966907976 -0.011162472484581798 0.02074388431452656
-0.05462214158761701 -0.013059279585934391 0.020681325304370612
-0.054461209135480866 -0.014944909614779012 0.02061913492767453
-0.05430137558575775 -0.016818426677615905 0.02055646017710372
-0.05442312693802097 -0.01679240296431056 0.018934428273961523
-0.05454697317212997 -0.016755870038933807 0.01729647807804985
-0.054674649619439845 -0.016697292840123446 0.015632795555110934
-0.05480323762568786 -0.01663635183434048 0.013959553665466251
-0.05493243190394895 -0.01657512350141438 0.01227842270622237
-0.055062236752069206 -0.01651360580449074 0.010589346751975537
-0.05519265650861403 -0.01645179668741764 0.008892269347465231
-0.05532385476612324 -0.01638863896450099 0.007186229264734112
-0.05545535830774274 -0.016327295870346425 0.0054738816794971945
-0.05557093780362195 -0.01637485908223779 0.0038479489714515758
-0.058014694431343494 0.042472450483398705 0.022481908560466668
-0.05782897585018975 0.04024588345526742 0.022408572651474112
-0.0576442656626706 0.0380322345433739 0.022336622367975845
-0.0574609074199753 0.03583396281172252 0.022264215360313977
-0.057278537319913704 0.03364836116584946 0.022193179733574764
-0.0570974947028277 0.031477848738037884 0.022121684050522283
-0.056917592937426986 0.02932101393374953 0.022050638902090636
-0.05673882127385675 0.027177727873420765 0.02198004004304621
-0.0565611690968955 0.025047863291601746 0.021909883281323872
-0.05638462592385433 0.022931294511768674 0.021840164477195112
-0.056209181402513735 0.020827897421594466 0.021770879542460708
-0.056034825309101984 0.01873754944870265 0.021702024439641254
-0.055861381448789695 0.01665894112990224 0.021634486481589332
-0.055689173066320846 0.014594339499146014 0.021566476583064598
-0.05551785912110884 0.012541259244065406 0.021499770932391693
-0.05534775900946851 0.010501931170157186 0.02143259073506465
-0.055178698046989966 0.008475061442308862 0.02136582094453593
-0.05501050566427637 0.006459395805356205 0.02130033651403329
-0.05484349561202046 0.004457112013503239 0.021234373859464473
-0.05467749656423904 0.0024669491559465295 0.02116881051341002
-0.054512499368378646 0.000488797502707472 0.021103642860957672
-0.05434833776039925 -0.0014785551046415657 0.021039736210061222
-0.05418531819141496 -0.003432999329212205 0.02097534685290464
-0.054023273662541456 -0.00537575378228522 0.02091134261640404
-0.05386204103146276 -0.007308000188116226 0.020848581708515557
-0.05370192143826425 -0.009227678858063804 0.020785335038931985
-0.05354275102162247 -0.01113597782143566 0.02072246329069366
-0.053384521366511714 -0.013032997966231807 0.020659963139893878
-0.053227224157084765 -0.014918838991394179 0.020597831301806424
-0.05308149741089974 -0.01672013241878023 0.020475711213156722
-0.05321425837371937 -0.016599458109928522 0.01877508033437081
-0.05333556904405471 -0.016561426237622245 0.017135038659840618
-0.053457281964961946 -0.016524263410564843 0.015488372839512432
-0.05357955165946686 -0.01648693058282802 0.013834174375582375
-0.053702535463282186 -0.01644837874864208 0.012171507563331574
-0.05382593093398192 -0.01641069988566557 0.010502081105894678
-0.05394989477670602 -0.016372847470047747 0.008824965101249582
-0.05407443092748794 -0.01633482029991906 0.0071401062985079755
-0.05419954335878876 -0.016296617162285087 0.005447450953952104
-0.05431047386320435 -0.016357900455513108 0.003833261451517911
-0.05667006540917599 0.042506615283897264 0.022457907641716623
-0.05648863677955837 0.04027976066922684 0.022384642701812896
-0.05630836612646559 0.038067119055945675 0.022311845378717332
-0.05612924239890746 0.03586855480422263 0.02223951120979145
-0.05595108408725043 0.03368266343192866 0.0221685481478458
-0.05577422269308567 0.03151186445277704 0.022097124457989836
-0.05559847589353419 0.02935474602192767 0.02202615088590404
-0.05542366578759868 0.027209940185625003 0.02195652758884653
-0.055250117845634134 0.02507980800655163 0.021886438959552557
-0.05507748805812827 0.022961755791392258 0.02181768706339271
-0.05490626224970052 0.02085931503169869 0.021747570315350406
-0.05473593449197728 0.0187687074818933 0.021678782181393796
-0.054566660232487615 0.016691030598160572 0.021610419510528167
-0.0543984297273399 0.01462616478370904 0.02154247836761075
-0.05423107308128622 0.012572822794957028 0.02147584122468721
-0.05406490231116421 0.01053323577908799 0.02140872900682339
-0.05389958844835169 0.00850495965679221 0.021342908144418526
-0.05373543981586773 0.0064901900276587154 0.02127660973855139
-0.053572131561432534 0.004486523604824488 0.02121159028430314
-0.053409968378708525 0.00249612111230485 0.0211460909427576
-0.053248783971198275 0.0005177321766842713 0.021080986938353363
-0.05308841591569476 -0.0014498555559056547 0.021017143712709685
-0.0529291635803248 -0.003404532443575803 0.020952817298740434
-0.0527708638239966 -0.0053475172940153914 0.020888875657721462
-0.05261350812531799 -0.007278914699525851 0.02082531534762766
-0.052456938107907775 -0.009199896637996252 0.020762992367220567
-0.05230144625187491 -0.011108419366479494 0.020700182187621763
-0.052146873483494546 -0.013005661120405576 0.02063774326899459
-0.05199306436196948 -0.014892764674624692 0.020576524657886786
-0.05186506842109565 -0.016592788805560477 0.020371098136517496
-0.05200617875119976 -0.01639176356412475 0.01860355102334532
-0.05212376633780176 -0.016360526983596302 0.016968239520604167
-0.05224188686777929 -0.01632914882922215 0.015325516279433293
-0.05236129100966467 -0.01629239601155641 0.01367094052392448
-0.05248139231784924 -0.016254425858735155 0.012007899204918904
-0.05260219663348955 -0.01621522964832328 0.010336319634193236
-0.05272340689549866 -0.01617690658559151 0.008657925401927835
-0.05284517705276066 -0.016138406500724345 0.006971778319785793
-0.05296751099366335 -0.016099728164334137 0.00527782454539244
-0.05306692231330777 -0.016223235689705462 0.0037166310507035227
-0.05532522043756767 0.04254078557131541 0.02243390286838204
-0.05514808313766817 0.040313643306499336 0.022360708921269734
-0.0549719078183978 0.03809942468492322 0.02228890006106332
-0.05479702215309056 0.03590058952179792 0.022216633357787896
-0.05462324570897592 0.03371570058208051 0.022144825009720537
-0.054450567966477244 0.03154462560327137 0.02207347066993315
-0.0542789785386184 0.029387233990056938 0.022002566046293248
-0.05410846716894146 0.027243396788127094 0.021932106900601045
-0.05393902372946323 0.02511298665848144 0.02186208904774395
-0.05377047681545183 0.022994659108411253 0.021793407667344777
-0.05360314035935674 0.020890737530463832 0.02172425746126444
-0.05343684219116874 0.01879987034831293 0.021655536317811086
-0.05327141425619719 0.01672074766349263 0.02158813183204089
-0.05310716485707616 0.014655637182631576 0.021520254372161984
-0.052943925190532884 0.01260322208657838 0.021452794192830082
-0.05278168597401612 0.010563385665662006 0.021385747457955573
-0.05262043803840813 0.008536012636408463 0.02131911037832135
-0.052460172326296226 0.006520989119814524 0.021252879210874875
-0.05230072718999817 0.004517071137436768 0.021187926756625786
-0.05214240011413687 0.0025264197405280853 0.021122493902636763
-0.05198487787311248 0.000546671217049266 0.021058327596856052
-0.05182845446930621 -0.0014200476081996372 0.020993678675478633
-0.05167282054718849 -0.003376061287931942 0.0209302843651632
-0.05151826668700993 -0.005319276582965882 0.020866405339095118
-0.051364634613668636 -0.0072509021947880226 0.020802907298934414
-0.05121176969743182 -0.009172110287803681 0.020740646374031335
-0.05105995749589616 -0.01108085682680593 0.020677897782042154
-0.05090904269846457 -0.012978320234686813 0.02061552011439932
-0.05075901737137914 -0.01486460026319869 0.020553510091838312
-0.050657246351783855 -0.016396941828391576 0.020210209385883693
-0.0508072462079006 -0.016107880172913314 0.018369099404418
-0.05092221212154903 -0.016075976983754736 0.016731988294717837
-0.05103769950162854 -0.016043929087005193 0.015087451518899009
-0.051153711904133 -0.016011735495868318 0.013435438439721226
-0.05127025291746099 -0.01597939521456271 0.011775897958493431
-0.05138732616278794 -0.015946907238204022 0.01010877850979186
-0.05150493529443904 -0.01591427055271627 0.00843402805613247
-0.05162308400027162 -0.015881484134710744 0.006751594082543222
-0.051741776002058454 -0.01584854695139487 0.005061423591088465
-0.051829504180418116 -0.01603857367542122 0.00355669905504008
-0.05397982600536212 0.04257233224627199 0.022411741194044155
-0.053807149208939156 0.04034622788106662 0.02233769205718933
-0.05363540903784132 0.038133027797788766 0.022265033195651096
-0.05346476168976343 0.035933910826112636 0.022192836679484573
-0.05329519676695342 0.03374874297114411 0.022121098109665893
-0.05312670400314881 0.03157739193248571 0.022049813142803132
-0.052959273261505145 0.02941972707753815 0.021978977490257512
-0.05279273505609477 0.027274379989892072 0.021909491600344444
-0.05262739945311558 0.02514371244306368 0.021839539302612287
-0.05246309620880619 0.02302634882516713 0.02177002378834808
-0.05229981568415901 0.020922164919031316 0.021700940979355987
-0.05213754835979152 0.018831038049086035 0.02163228684805424
-0.051976284834096526 0.016752847057522835 0.021564057416691096
-0.05181601582142664 0.01468747228089734 0.021496248756574632
-0.05165673215031079 0.012634795527151133 0.021428856987325995
-0.05149827301000012 0.010593540172095128 0.021362762387631018
-0.051340933881432675 0.008565920161523521 0.021296190442906815
-0.05118455323928833 0.006550652108577026 0.021230024044487594
-0.0510291223517301 0.004547623486589603 0.021164259497834015
-0.05087463259266208 0.002556723131578731 0.021098893153152276
-0.05072092823511588 0.000576727920008846 0.021034793122732043
-0.05056829615438271 -0.001390235003011553 0.02097020997184318
-0.050416434491654775 -0.003346490567297522 0.020906881202600314
-0.050265626782807264 -0.005289945220181225 0.02084306722036422
-0.050115574875516676 -0.007222885512948918 0.02078049590885156
-0.04996655902357901 -0.009143250859388163 0.020717437403211192
-0.04981842672500835 -0.011052229865087582 0.0206547527876767
-0.04967102897087438 -0.012950975308179846 0.020593293675380098
-0.04952464119731127 -0.014837474904746295 0.020531344588563705
-0.04945624856795479 -0.016140677866438025 0.01999968794068613
-0.04960941266700816 -0.015801667536943953 0.018116206665844403
-0.049720913278333424 -0.01577531325619308 0.016482358443178302
-0.049833058325146395 -0.0157477929836764 0.01484027518399117
-0.04994556766089965 -0.01572119799228605 0.01319164858041355
-0.050059016335596236 -0.0156913261517031 0.011532898194444807
-0.05017341369615362 -0.01565815430949985 0.009863912022336274
-0.05028833510740208 -0.015624830508152665 0.008187280277332953
-0.05040378417859859 -0.015591353701080335 0.006502950302630428
-0.050519764552218925 -0.01555772283207707 0.00481086895677274
-0.05060153262691073 -0.015776118982529896 0.003329392410692966
-0.052634719849963735 0.042607827846626034 0.022386805382693054
-0.052465847292025324 0.04037751379217691 0.02231559253392662
-0.05229853643263297 0.03816534354087725 0.022242080694373167
-0.05213212977465482 0.035965955541070016 0.022169951687769973
-0.05196677872349813 0.03378051944078986 0.022098280234181034
-0.05180263075348381 0.03161016344164824 0.02202615187571294
-0.05163920351722443 0.029450975259801615 0.02195629268079574
-0.05147695971348904 0.027306607484342105 0.021885968064299488
-0.051315732215408694 0.025175672166973695 0.021816083965720323
-0.051155511503492714 0.023058043489090074 0.021746636258831054
-0.05099628817676915 0.020953597198542173 0.02167762086877839
-0.05083790127424331 0.018861011552207485 0.021609928187099392
-0.050680645916809194 0.016782573315516858 0.021541762843744594
-0.050524360425894144 0.014716953768680985 0.021474017907567422
-0.05036903585665803 0.012664034688082082 0.021406689501259346
-0.05021466337391914 0.01062369929944934 0.021339773795040373
-0.05006123425047782 0.00859583225570848 0.021273267005939178
-0.049908739865472146 0.0065803196152465215 0.021207165397078398
-0.049757171702763406 0.00457704882057236 0.021141465276973248
-0.04960652134934973 0.0025859086773550866 0.02107616299885101
-0.0494566369472543 0.0006056758641430071 0.02101212680956105
-0.049307798240924676 -0.0013615221654402765 0.020947607013421965
-0.049159852700532 -0.003316915239764684 0.02088347439399868
-0.04901279231043019 -0.0052606093014561095 0.02081972547660299
-0.04886646900950107 -0.007193786844242045 0.02075721900479044
-0.04872115608636205 -0.009114386975012934 0.02069422484887451
-0.04857656634404898 -0.01102465899606797 0.02063246164779292
-0.04843296992509657 -0.012922574375870521 0.020570208896201703
-0.04829008311550103 -0.014810345548879611 0.02050917581879952
-0.04827708546230611 -0.015705142606227296 0.01964189470391925
-0.0484190697191852 -0.015422882829586537 0.01780337861526382
-0.04852800745660071 -0.015395649078322637 0.016167137471479187
-0.048637436495948164 -0.0153682925046702 0.014523516989221608
-0.04874736016834731 -0.015340812275872195 0.01287246713518253
-0.04885778183510102 -0.0153132075516203 0.011213937422710374
-0.0489687048880364 -0.015285477483981125 0.009547876906673913
-0.04908013274985308 -0.01525762121730162 0.007874234178239625
-0.049192068874475074 -0.015229637888122483 0.006192957359585194
-0.04930465941227156 -0.015200462319083674 0.00450307716358006
-0.049400430817854286 -0.01530019472132782 0.002917204137031393
-0.051124976837815556 0.0404140198664269 0.02228980562830396
-0.05096161507785116 0.03819895717488564 0.022218206356239556
-0.050799449417683426 0.03599928724509566 0.022146147582429165
-0.05063815809562526 0.0338123007563646 0.022075458878957732
-0.05047804122254696 0.03164041866413675 0.02200430738583542
-0.050319086236933534 0.029483478392606288 0.021932696832295873
-0.05016097765471465 0.027338840041922885 0.02186244083256733
-0.050003859552412065 0.025207636896220853 0.021792624955396356
-0.049847722651714096 0.02308974310133871 0.021723245077938658
-0.04969240905771352 0.02098382515767888 0.0216551942627361
-0.04953820810723142 0.01889218873901921 0.021586671641255384
-0.04938496120089423 0.016813493313716066 0.02151857297048526
-0.0492326595119737 0.014747619152897906 0.02145089432807651
-0.049081294322293016 0.012694448000119263 0.021383631839912154
-0.048930712813100526 0.0106527028191023 0.021317666056671014
-0.048781195773244725 0.008624598194555633 0.021251221936747444
-0.04863258970488779 0.006608850325527382 0.021185182644907485
-0.048484886307818977 0.004605346624876716 0.02111954449260539
-0.0483380773823566 0.0026139758690812975 0.021054303835975285
-0.0481921548278323 0.0006346281776674068 0.02098945707514649
-0.04804711064109994 -0.0013328050070093855 0.0209250006535881
-0.04790293691507274 -0.003288430939608955 0.020860931057457288
-0.0477596258372866 -0.005232355591295257 0.02079724481495887
-0.047617169688487865 -0.00716468366888684 0.020733938495725135
-0.047475560841248966 -0.009085518633643652 0.02067100871018951
-0.04733465680544189 -0.010996023382681686 0.020609309658524977
-0.04719472083630612 -0.012894169083996099 0.02054712057349184
-0.047055476450924005 -0.014782168524310302 0.020486150945913273
-0.04712519642577319 -0.015033708245470345 0.019090309803317773
-0.04723029898721764 -0.015011911650441079 0.01746396862769123
-0.047336006373759544 -0.014988968310104156 0.01582948563493186
-0.04744205242847609 -0.014966973761611768 0.014188547713527233
-0.04754871087211059 -0.0149438262967026 0.012539356418612091
-0.04765584997187111 -0.014920574517791385 0.010882733045430137
-0.047763335575610105 -0.01489827676058797 0.009219525324222322
-0.04787172122719509 -0.014872693671347914 0.007546083258051617
-0.047981015886920705 -0.014843802168147402 0.005862293490098869
-0.048090950043386226 -0.01481371189489783 0.004169878832813556
-0.04978356851381107 0.04044792400116659 0.02226585666253017
-0.0496246326497934 0.038233869320137115 0.022193409740660974
-0.04946670837337092 0.03603390655134836 0.022121423925569872
-0.04930963564969389 0.033846630021414414 0.022050807905953984
-0.04915370673861921 0.031674461067627724 0.021979728523830733
-0.04899876088820937 0.02951598664834565 0.021909097264770194
-0.04884464124667165 0.027369837661634144 0.021839815008344032
-0.04869163475465466 0.025238376934168305 0.02177006474967741
-0.04853958385898784 0.02312022816531467 0.02170075011363487
-0.04838847963532735 0.021015267034280638 0.02163186703192338
-0.04823845721318184 0.01892457016878124 0.021562516793343645
-0.048089076058843876 0.0168444180948491 0.021495379510044876
-0.0479407594044172 0.014778289266034916 0.02142776718268996
-0.04779321351648947 0.01272369597870976 0.021361457668792383
-0.047646713470654974 0.010682871013656725 0.021294670552667816
-0.04750110881037461 0.008654519254188697 0.02122829162901768
-0.0473563913519709 0.006638526697245795 0.021162317167027822
-0.04721255301119264 0.004634780724834253 0.021096743481216262
-0.04706944874991571 0.0026420471469488227 0.021032441490749565
-0.04692734560811882 0.0006624710621340735 0.0209676560264786
-0.04678609790538976 -0.0013051882789892333 0.02090326056072478
-0.04664569794049115 -0.0032610381589563975 0.020839251582459473
-0.04650613810435154 -0.00520518457638125 0.020775625622671212
-0.04636754387272938 -0.007136654128566233 0.02071151681975464
-0.046229641038802005 -0.009057715276699463 0.020648649040041822
-0.046092556052804684 -0.01096738336033376 0.020586154104596743
-0.04595628166074229 -0.012865759431550716 0.02052402870643283
-0.04583029364520716 -0.0146767273314804 0.020399989610605795
-0.04594413482606638 -0.014559937964466918 0.01870110640738115
-0.046046866664391416 -0.014536005635214622 0.017070930714303767
-0.04615005895243535 -0.014511966039969015 0.015433448484579504
-0.046253582450932786 -0.014488872912487516 0.013789490610139732
-0.04635770437763113 -0.014464619053666583 0.012137253884796195
-0.046462162603774115 -0.014441315100559848 0.010478455251246799
-0.04656722678834535 -0.014416844080107127 0.008811263735518438
-0.04667263245920281 -0.014393326422573238 0.007137422445264885
-0.046778651750300125 -0.01436863528983412 0.005455072202642741
-0.04687794794739123 -0.014400494447106948 0.0038138782824912454
-0.048442094555230755 0.0404831378881601 0.022240982523111852
-0.048287428576704074 0.03826878725312782 0.022168609014296847
-0.04813359979043335 0.03606724906807601 0.02209761209825073
-0.04798089435935258 0.03388096494144577 0.02202615287225168
-0.04782915479006862 0.03170850906111361 0.021955145625809247
-0.047678227421856685 0.02954850002823295 0.021885493977337855
-0.04752839319377207 0.027403320351257365 0.021815375278551985
-0.04737949775748465 0.02527158137543184 0.02174569591099973
-0.04723139048778249 0.02315193748726113 0.021677351767945108
-0.04708434723985961 0.021046713805208783 0.021608536169931747
-0.04693821671593915 0.018954557626830126 0.021540147722744984
-0.04679299044414966 0.01687534766002774 0.021472182461589717
-0.046648660057144534 0.014808964109186085 0.021404636470582827
-0.04650521729049392 0.012755288652154084 0.021337505882007557
-0.04636265398110755 0.01071420441766302 0.021270786875573378
-0.04622082624023753 0.008684444885995846 0.021205357817355885
-0.04607999858017085 0.006668207589926922 0.021139448205771683
-0.04593989229392275 0.0046630869598437985 0.021074816166035293
-0.045800768778805796 0.0026712456114697525 0.021009701275130188
-0.045662485357695994 0.0006914319492594689 0.020944979578912837
-0.04552503444416732 -0.0012764626421926106 0.020880647526658636
-0.04538840854286494 -0.0032325454744205895 0.02081670161026611
-0.04525247005434504 -0.00517800965285431 0.020754003320412995
-0.04511747282455626 -0.007110776995884693 0.020690816919670785
-0.044983278646940114 -0.009032046969565777 0.02062800639311585
-0.044849880377123785 -0.010941921860518067 0.02056556839677459
-0.044717398087641115 -0.012839450308909262 0.020502644187081864
-0.04463238107381009 -0.014340164784632237 0.020124967319292086
-0.04476678007682232 -0.014029293167925783 0.018265180463667374
-0.04486625591570764 -0.01401045377720811 0.01663689164137988
-0.04496617482778251 -0.013991530474381841 0.01500135029293198
-0.045066539779878775 -0.013972522697565104 0.013358507855187773
-0.04516735376537454 -0.013953429879856427 0.011708315330474506
-0.045268619804493725 -0.01393425144926197 0.010050723281698037
-0.04537034094460571 -0.013914986828655218 0.008385681827419278
-0.045472520260533014 -0.013895635435702158 0.006713140636836756
-0.045575160854859124 -0.013876196682819197 0.0050330489247291665
-0.0456506902719382 -0.014079532143323692 0.0035373586016539393
-0.04710025240309381 0.04051705309267656 0.022217025737946483
-0.0469498586553922 0.0383024174008505 0.022144722947172624
-0.04680042228208728 0.03610187960563832 0.022072880420461072
-0.04665193417052247 0.03391530551785804 0.022001493776845904
-0.046504243898577755 0.03174130130235708 0.021931469390006397
-0.04635762632220387 0.029582269347594004 0.021860978932945807
-0.04621193034569287 0.027436808504836874 0.02179093156050166
-0.046067008528983544 0.025303561127748397 0.021722225875200285
-0.045923130739390264 0.023184871639630178 0.021653049618456433
-0.045780148878010386 0.021079375248866272 0.021584304122827025
-0.04563805460238878 0.0189869491076457 0.021515985377274505
-0.045496704310288516 0.016906282010362483 0.021448981824286895
-0.045356361424061326 0.014839643683445702 0.02138150219092988
-0.04521674799943988 0.012784545625406762 0.02131532489164123
-0.04507812432076904 0.010743221276032888 0.0212486689698565
-0.044940480090694804 0.008715526344096725 0.021181538226483
-0.044803542614111784 0.006699034841645413 0.021115695981310134
-0.0446673066500259 0.004693662337075466 0.021051131068631546
-0.0445320263736666 0.002701571773769895 0.02098608279104458
-0.04439743414715293 0.0007203972087060917 0.020922299707808623
-0.04426378116917484 -0.001247732681644742 0.020858031088903384
-0.04413093046752664 -0.003204048514073188 0.020794148254066114
-0.043998748243868596 -0.0051497435852226325 0.020731512826286047
-0.04386748132878741 -0.0070827394145174805 0.020668388811424077
-0.04373699533358515 -0.009004235660188153 0.020605640327561014
-0.043607283310274386 -0.01091433463614 0.02054326403352874
-0.043478214774521066 -0.01281419003245865 0.02048211218843138
-0.04346227387707937 -0.013748123700022319 0.0196411805843566
-0.04359112338550896 -0.013453929568343348 0.017792517918474526
-0.04368826299731314 -0.013432724329998036 0.016159760507986065
-0.04378571113971968 -0.013412482689537597 0.01452058856707561
-0.043883594976684745 -0.013392150547905324 0.01287408782256444
-0.043981917436767444 -0.013371727296785985 0.011220209013261984
-0.04408068147483097 -0.013351212322408157 0.00955890243550861
-0.0441798900723405 -0.013330605005466956 0.007890117938183006
-0.04427954623766126 -0.01330990472107807 0.006213804917668875
-0.04437965300636466 -0.013289110838697549 0.004529912312726425
-0.044455127559646784 -0.01347675602501136 0.003018046963223553
-0.0457580543688391 0.040549668989279364 0.022193986748825556
-0.045611935119190844 0.03833475914510176 0.022121751978371906
-0.04546674610457388 0.0361339500216053 0.02204997707416312
-0.04532247846997915 0.03394710739249007 0.021978657658685896
-0.04517912347243199 0.03177409872969472 0.021907789409805978
-0.04503667247922476 0.02961479317661314 0.021837368059902218
-0.04489511696618426 0.027469061521829985 0.021767389395007886
-0.04475444851597168 0.02533677617334834 0.021697849253968393
-0.044614658816412994 0.02321781113328908 0.021628743527623673
-0.04447560649907205 0.02111083200022984 0.021560965856190828
-0.04433755060220351 0.019018145838178013 0.021492714252840217
-0.044200349126590564 0.016938411209355853 0.021424885055335574
-0.044063994164745095 0.014871508250061394 0.02135747435440033
-0.04392834800348708 0.012816148015326656 0.021291365738371537
-0.04379366352967157 0.010774564287230004 0.021224777969745312
-0.04365980241759575 0.008745461299344393 0.021158597269707924
-0.0435266296021857 0.00672758294231679 0.021093699829940915
-0.043394393497417263 0.004723109851396512 0.02102831966585772
-0.043262958438996496 0.0027307792524925434 0.020963335555025553
-0.043132317170158314 0.0007504811454615568 0.02089874390955382
-0.04300246252152616 -0.0012178931451751196 0.020834541184763633
-0.04287326367200183 -0.0031755472769496307 0.0207715915130961
-0.04274496183816108 -0.005120385884580192 0.020708153751281932
-0.04261730335638735 -0.007054697650438424 0.020645957357299904
-0.04249052664987382 -0.008976420214196812 0.02058327093531015
-0.04236450196952834 -0.010886743320646375 0.02052095636260237
-0.04223934274873511 -0.012784715352467613 0.02045815464818107
-0.04232756384476763 -0.012811661600881152 0.018875950006426556
-0.042421120442118286 -0.012795378427059634 0.017251516612857065
-0.04251496985356438 -0.012780082749242916 0.015620761468505884
-0.04260935765543709 -0.012763657212919333 0.013981893032643189
-0.04270404272901786 -0.012748223022272298 0.012336619935524928
-0.04279927286209364 -0.012731653228039541 0.01068312321455367
-0.0428948048091732 -0.012716078655900354 0.00902313740205224
-0.04299088859961508 -0.012699362674462422 0.007354815688539962
-0.04308727883300922 -0.012683645818499345 0.005679918898553293
-0.04318410227240487 -0.012667858326384784 0.003997494630758769
-0.04427407807010503 0.03836969380631716 0.02209693937065943
-0.0441330009003371 0.03616730846093841 0.022026153875586763
-0.04399295417832094 0.03398018648885237 0.02195490440005271
-0.04385366007721412 0.03180563960939564 0.021885016666104706
-0.04371537782483991 0.02964607092490268 0.02181466178680258
-0.04357796491263893 0.02750007881860156 0.02174474920807823
-0.04344154405708805 0.025368766139691912 0.02167437172206399
-0.043305844594170695 0.023249535695123946 0.021605333936402515
-0.04317099026705389 0.021143503810650166 0.02153672611781904
-0.04303684474284828 0.01904934741094655 0.021469439516351663
-0.0429036579664073 0.016969355317486723 0.021401677099725236
-0.04277129299698641 0.01490219747189625 0.02133433279988428
-0.04263974225174259 0.012847755452110088 0.021267402758854026
-0.04250887291128567 0.010804751162429793 0.021201768226545403
-0.04237892900152255 0.008775400829949542 0.02113565280656121
-0.04224977711278609 0.006758419589138753 0.021069940366604867
-0.042121410025906914 0.004753694697324118 0.021004627233565387
-0.04199369829902492 0.0027599911548026324 0.020940584873848256
-0.04186688024453351 0.0007794553207836064 0.02087605705729667
-0.04174082584729904 -0.001189154367809142 0.02081191780634395
-0.04161552823028234 -0.0031459453106890134 0.020748163621799764
-0.041490861200187815 -0.005092111194439697 0.02068565639647363
-0.041367057552046976 -0.007025572928852031 0.020622659612753502
-0.04124387255444549 -0.008948600630668546 0.020560898215620793
-0.04112153631389114 -0.01085914791313114 0.020498645383262792
-0.04103749986489381 -0.012419049978616759 0.020160935376764166
-0.041159335860826644 -0.012120486689428167 0.01831115600416322
-0.04124989046238346 -0.012107948465954421 0.01668679128909023
-0.04134131855165495 -0.012091100674183397 0.015051749797127978
-0.04143315283177996 -0.012074178032134841 0.013409444247634683
-0.04152551561311091 -0.012056111622188503 0.011758934346710714
-0.04161817097223607 -0.01203903534213474 0.010101947927794508
-0.04171124073748639 -0.012021882687507424 0.008437550547120864
-0.0418048489071248 -0.012003577387749265 0.006764780117488545
-0.04189875641407357 -0.011986267971957065 0.005085403945110201
-0.04196949492213438 -0.012177339521773967 0.0035771166367282725
-0.04293599915947549 0.03840463426086943 0.022072122648185588
-0.04279930542173046 0.03620323887258614 0.02200049388223202
-0.04266334910813234 0.03401454341376586 0.021930233565203572
-0.04252838318130901 0.03184097108979539 0.021859507081230745
-0.042394139944300795 0.029679856219356926 0.02179013514519368
-0.04226086927488414 0.027533582764461384 0.021720293962905424
-0.04212830693959139 0.02539953044967097 0.0216517937030285
-0.041996699786743266 0.023280044754598606 0.021582821265792196
-0.0418659123441623 0.021173760197500502 0.021514278420801614
-0.0417359369773217 0.019080553827078517 0.021446161166968125
-0.04160676614620873 0.017000304214149164 0.021378465552735593
-0.041478392403866866 0.014932891428164285 0.02131118767531537
-0.041350808394963724 0.01287819701415377 0.021244323679941945
-0.041224006854387596 0.010836103970114475 0.021177869759127277
-0.041097980605867473 0.00880649672479239 0.021111822151944626
-0.040972602487620136 0.006788118750077232 0.021047057329758978
-0.040848106371599635 0.004783151331768598 0.020981808765923315
-0.040724364531840675 0.0027903312749632536 0.02091695551916506
-0.04060137013422178 0.0008095485184680395 0.020852494007711164
-0.040478999229587365 -0.001160411263726846 0.02078929102190108
-0.040357480244500164 -0.0031174353525396103 0.020725599978746234
-0.04023668868184161 -0.0050627445376049685 0.02066229019528587
-0.040116618029489126 -0.006996443694559429 0.02059935825835707
-0.03999714742904621 -0.008919706682865458 0.020537661484047787
-0.03987850004763491 -0.010830486811683582 0.020475472786811943
-0.0399106021291937 -0.011332562131060375 0.019277818873133568
-0.03999829169728414 -0.01131935432401604 0.01765651020104425
-0.04008636744809345 -0.01130608835012481 0.01602806132509571
-0.04017483193836041 -0.011292763824291174 0.014392424973270368
-0.040263687747443086 -0.011279380358011959 0.012749553455338958
-0.04035293747756967 -0.011265937559337857 0.011099398658224291
-0.04044258375409169 -0.011252435032842456 0.009441912041310507
-0.04053262922574272 -0.011238872379571607 0.007777044631673835
-0.04062307656489839 -0.011225249197012066 0.006104747019265888
-0.040713928467840985 -0.01121156507905019 0.004424969352023633
-0.041597570575747055 0.03843828610131683 0.022048221173639304
-0.04146512740176156 0.03623660834194381 0.021976662806474645
-0.04133352492696662 0.03404890600049676 0.02190555866474725
-0.04120262983007117 0.03187378428243104 0.021835815718370954
-0.04107268570566731 0.02971364704629459 0.021765604487244572
-0.0409434348654862 0.027565850992487928 0.02169674069455363
-0.040815117941978646 0.02543276111088888 0.02162740562144788
-0.040687602797416136 0.023312999685942748 0.02155850378347346
-0.04056076047329332 0.021205231645696043 0.021490929250350843
-0.04043482725860786 0.019111765087702015 0.021422879203848
-0.040309553652208514 0.0170300672854779 0.021356143369937408
-0.04018529233923503 0.014963590119963455 0.021288038979865698
-0.040061676290391264 0.01290864325834118 0.021221241051291972
-0.03993881843263679 0.010866300281182462 0.02115485282350016
-0.03981671181182356 0.00883644558533686 0.02108887053870423
-0.039695349558589325 0.006818964977100106 0.021023290484931845
-0.03957472488706861 0.004813745650791068 0.02095810899533479
-0.0394547161607246 0.0028195521976990823 0.02089419781274071
-0.039335547315962845 0.000838531613782667 0.020829800171077273
-0.03921709617751694 -0.0011305580750584077 0.020765790370649295
-0.039099243409942086 -0.003088921114687504 0.020703032948606537
-0.03898220904355631 -0.005034461221007536 0.020639785976654723
-0.038865873215824874 -0.006968389054725577 0.020576916504527698
-0.03875022969134411 -0.008890808271105055 0.020514421162526553
-0.03865015612390153 -0.010658427455395303 0.02033636222135965
-0.038752336238477854 -0.010477535346525735 0.018582838007800362
-0.038837009036104604 -0.010468823845950104 0.016961498699912037
-0.038922164509995784 -0.010459003559288249 0.015332179184616879
-0.039007581891987296 -0.010450213128380792 0.013696585129165384
-0.03909348784459879 -0.010440308629709849 0.01205290357121186
-0.039179773011747764 -0.010430360409634798 0.010401966311831101
-0.039266326071987316 -0.010421448393960475 0.008744631610103637
-0.03935337673473594 -0.01041141428201453 0.007079044921220856
-0.03944081422535575 -0.01040133558140477 0.005406056848655361
-0.039521028592529754 -0.01046297431416443 0.003786795360778361
-0.04025868091456728 0.03846935410913005 0.022026154885790572
-0.040130614101381336 0.03626869938028665 0.02195374473254058
-0.04000323740147464 0.03408072825990721 0.021882707908795818
-0.0398766667439666 0.03190660266613454 0.021812120607522523
-0.039750894502008645 0.029746191591304205 0.021741978575300636
-0.039625913144671614 0.027599365675370857 0.021672277612198476
-0.03950171523544174 0.025465997180079636 0.02160301357093991
-0.039378175127084206 0.02334473911724949 0.021535083220051654
-0.03925540534352526 0.021236707995124504 0.02146757644359698
-0.03913351553967619 0.019142981193945086 0.021399593626149904
-0.03901238033942688 0.01706221637751737 0.02133203168128217
-0.038891992756924995 0.01499429354838977 0.02126488671270882
-0.038772231201483744 0.012937922909624977 0.021199042867718898
-0.03865331894188511 0.010895339562470352 0.02113271782606435
-0.038535133846585 0.008865246884401823 0.021066798370850626
-0.03841766926585589 0.00684753065151239 0.02100128079309388
-0.03830091863080319 0.004842078028385932 0.020936161428901534
-0.03818487545214208 0.002848777547077075 0.020871436658778997
-0.038069533318994285 0.0008675190864489424 0.020807102906966135
-0.03795488589770762 -0.0011018061481044006 0.020743156640776472
-0.0378409269306969 -0.0030593056445700206 0.020679594369949483
-0.03772765023530459 -0.005005085603881465 0.020616412646021764
-0.03761494175638828 -0.006940330228361935 0.020554471401766694
-0.037503011991874856 -0.008862975950902463 0.020492038199907248
-0.03747995570426162 -0.009896058366022087 0.01971998426090521
-0.037596276368606414 -0.00954359232682539 0.017823712633316835
-0.03767862959430998 -0.009532813172340782 0.01619663700463192
-0.037761344395300045 -0.009521986691542417 0.01456241763223709
-0.03784453242551691 -0.009510034140947365 0.012920116718158348
-0.037927978040038245 -0.009499109658158533 0.011271461255429716
-0.0380117924559445 -0.009488136892865595 0.009615519293311448
-0.03809597812361681 -0.009477115524269275 0.007952242419024647
-0.038180648732159476 -0.009464957088251125 0.006280663892437033
-0.03826558483714463 -0.009453835086112083 0.004602563290387607
-0.03832253120592579 -0.009719003362468226 0.0031525597625245982
-0.03891983294530868 0.03850301628682434 0.022002246069136422
-0.03879589649192103 0.03630079533165115 0.021930823149932444
-0.038672746860336886 0.03411255537572522 0.02185985366558152
-0.03855037658145135 0.031938163700874767 0.021789333311736825
-0.03842889483339244 0.02977874126904484 0.02171834893721919
-0.03830806049624362 0.027631644245240505 0.021648716795114653
-0.03818798367087995 0.02549800739621516 0.02157952117765266
-0.03806865725628507 0.023377704544497835 0.02151075799279295
-0.03795007423992082 0.0212706110847794 0.02144242319948053
-0.037832114734579966 0.019175403049630668 0.02137540862261983
-0.03771488625963785 0.01709317964644519 0.02130880935515178
-0.037598493610756595 0.015025001714539632 0.021241730873017894
-0.03748281715488532 0.012969549797468893 0.021175065141502136
-0.0373677400962641 0.010925544957513633 0.021109693966237963
-0.03725347700967357 0.008895204726930506 0.021043839874175463
-0.03713991058024612 0.006877243394076693 0.020978387291681555
-0.0370269262515528 0.004870414545784241 0.020914210655585574
-0.03691473481255209 0.0028768830200250894 0.020849547681895897
-0.03680332810000189 0.0008965109374584612 0.02078440221460115
-0.036692485544580995 -0.0010730498914639508 0.020720519502542445
-0.0365823086452979 -0.0030307826797237314 0.02065702043300266
-0.03647279142378608 -0.004976793656882916 0.020593901560429617
-0.036363927973056244 -0.0069111877842071845 0.020531159480402517
-0.03626951562548156 -0.008691608941590545 0.02035422355363664
-0.036366015372677245 -0.008501709645192479 0.018592648653143695
-0.03644520000481687 -0.008494026563185375 0.016970607051325415
-0.03652473022822559 -0.008486309949355952 0.01534148625494891
-0.03660460831028502 -0.008478559583706413 0.013705239818293025
-0.03668473032446998 -0.008471859685005856 0.012062716498702719
-0.036765310538583604 -0.008464043552711631 0.010412084567953173
-0.03684624553054937 -0.008456193007635282 0.008754185249557345
-0.03692764527300267 -0.008447216134995217 0.007088054408470268
-0.03700929736247758 -0.008439293642021561 0.005415468675175783
-0.037083386629621934 -0.008511368917411 0.0038033389108766413
-0.037580886553097735 0.03853797885513338 0.02197741364019934
-0.037461089238340545 0.03633418033401736 0.021906980981151736
-0.03734216724179893 0.03414566072904934 0.021836081552491116
-0.037223997902898744 0.03197099227062894 0.021765630846486028
-0.037106461547827346 0.02980879168214745 0.021696533655621908
-0.0369898887963422 0.02766268611776812 0.02162605866981615
-0.036873935050426215 0.025528791181637533 0.021556928865531122
-0.036758706002849535 0.023408232857466293 0.021488231115007084
-0.03664430464501891 0.02130209761735058 0.02141906283769035
-0.03653050407926377 0.019207830133322612 0.02135121971927123
-0.03641729974186905 0.017125338883390906 0.021284690057858047
-0.036304902594839226 0.015056895979737417 0.021217680641936965
-0.03619309003242652 0.013000010094570746 0.021151971858723417
-0.03608207050228341 0.010956917001854749 0.02108578083580742
-0.03597162420524875 0.008925167150067359 0.02102087786710477
-0.035861957118787896 0.006906960665919948 0.020955490300485213
-0.03575295668639957 0.00490102263544917 0.020890500217622232
-0.03564451299077832 0.0029061170553541515 0.020826779763181202
-0.03553682838527879 0.0009243918471835699 0.020762571392060114
-0.035429792465738554 -0.0010453955606847254 0.020698749808508665
-0.03532339938828822 -0.0030033527132745097 0.020635311528040823
-0.035217643379042464 -0.004949585867684125 0.020572253107905003
-0.03511251873305674 -0.006884200012296282 0.0205095711464508
-0.0351421729775461 -0.007373281197737669 0.019294014401260384
-0.03521825169459881 -0.007368539610180802 0.0176764768870471
-0.0352946605294639 -0.007363777448126774 0.01605192061689631
-0.03537129936453234 -0.007360080749517994 0.014421187374445366
-0.03544837446757238 -0.007355279415400817 0.01278246252806936
-0.035525786201979756 -0.007350457111105713 0.011136580426429399
-0.03560353677797587 -0.0073456136989469845 0.009483494077118682
-0.03568162842517291 -0.007340749040036898 0.007823156075448534
-0.0357599588620003 -0.007336961168875555 0.006156440077622394
-0.03583873895799499 -0.007332056028568457 0.0044814618222913105
-0.03589731483698764 -0.007542100814812491 0.0029813861197789393
-0.03624171803001262 0.03857294722372551 0.021952577091567338
-0.036126180055991594 0.03636885500201714 0.021882217787254132
-0.036011486339066145 0.03418004492742649 0.021811391133260694
-0.035897409341385175 0.03200382603509816 0.021741924630613307
-0.03578416135489486 0.029842603626958897 0.02167198766702294
-0.03567151779668069 0.027693732683644334 0.021603397118742373
-0.035559688376443646 0.025559579606796057 0.02153433314829334
-0.03544855793046377 0.02343876575728654 0.021465700852577985
-0.035338119925895334 0.021331166462261908 0.021397496197018973
-0.03522847311439379 0.01923785987337534 0.02132881910851575
-0.035119400067041874 0.017156311923802015 0.021261460403154853
-0.035011000350522924 0.015087613806950895 0.021194517517211853
-0.03490326774910364 0.013031646901885185 0.02112798661212245
-0.034796196123321355 0.01098829404321977 0.021061863896428945
-0.03468977940881888 0.008957439498877173 0.020996145625050255
-0.034583910225773014 0.006937825704801559 0.02093170896122648
-0.0344786852775328 0.004930501657949837 0.02086766440715926
-0.03437409870149246 0.0029353555203054937 0.020804008394608164
-0.03427024426400496 0.0009533922893637525 0.020739863972786876
-0.03416701548687375 -0.0010166308083542908 0.020676105982404547
-0.03406440673323827 -0.002974821346971579 0.02061273094192717
-0.03396231465623025 -0.004922374161934362 0.02055060153909377
-0.03389361871500375 -0.0064940643878352855 0.020197489875898977
-0.033998726786004775 -0.006135812324824408 0.018298832565058543
-0.0340725730668286 -0.006128367263065704 0.01667379339347158
-0.034146740838728575 -0.0061208897891136815 0.015041679585390988
-0.03422113293223466 -0.006114473077932281 0.013403338302629464
-0.034295949582150556 -0.006106932553740896 0.011756942656211022
-0.034371094087700435 -0.006099358986069614 0.010103332304374935
-0.034446468023521686 -0.00609285280708477 0.008443373547827593
-0.034522274295509116 -0.006085214942067818 0.006775197676592848
-0.03459841495680168 -0.0060775433856525285 0.005099663309061031
-0.03465126213553099 -0.006326721744692343 0.0036334152068485115
-0.0349021128492082 0.038605330515765146 0.021929576613135215
-0.03479105010030018 0.03640353540467467 0.02185745049790444
-0.034680586061033206 0.034214434794361925 0.021786696643582626
-0.03457082126386564 0.03203919128464794 0.021716390664168306
-0.034461644544514204 0.02987642111079941 0.021647437657331736
-0.03435315522751451 0.027727268247589476 0.02157891879485424
-0.03424545007880842 0.025592836318530432 0.02150992594816087
-0.03413831558747372 0.023470524839946216 0.02144226578839986
-0.0340319512855255 0.02136266242807583 0.021374128836555206
-0.033926247720649505 0.019267894097691418 0.02130641515273507
-0.033821198755142556 0.017186098215560996 0.02123912080512813
