# .PCD v0.7 - Point Cloud Data file format
VERSION 0.7
FIELDS x y z
SIZE 4 4 4
TYPE F F F
COUNT 1 1 1
WIDTH 762
HEIGHT 1
VIEWPOINT 0 0 0 1 0 0 0
POINTS 762
DATA ascii
0.05200354509828409 -0.017359880493567893 0.06771422893041407
0.05317932356884697 -0.017334740573192932 0.06725164928263566
0.054297979609138625 -0.017312502665078233 0.06674879199046929
0.055305963993355245 -0.01729601141739175 0.0661632628548155
0.05624256376905573 -0.017283225587715684 0.06552445601920653
0.057178584839395086 -0.017270415980409477 0.06488722665188129
0.058048236177337564 -0.017261076950636087 0.06419951141383545
0.058738483697985344 -0.017261247436482257 0.06337054101578299
0.059336830278382935 -0.017266320916721374 0.062468028977427426
0.05995149271061867 -0.017270543984523063 0.06157782462793121
0.060522623909022466 -0.017277117308461796 0.060651746399683515
0.061083046429918686 -0.017284293916363984 0.05971590523978748
0.06153021775597295 -0.01729759493043228 0.05868636237896957
0.06196138180011046 -0.017311816693809354 0.05764151789632105
0.0624568168212844 -0.017322627148118 0.0566474475549647
0.06284251887975134 -0.017339427263257882 0.05556051368341319
0.06297310200104039 -0.017370146806631792 0.05425790387938578
0.0631224634467728 -0.017399979213824704 0.052966038271794524
0.06332255745895055 -0.017427176795970167 0.05171208938380928
0.06352487345418295 -0.01745437237319885 0.05045556729803724
0.0637653457426135 -0.017479598496757006 0.049227106533364595
0.06396656723480154 -0.01750708959187049 0.047960854965275246
0.06395713813009635 -0.017546286427742693 0.04650858542910963
0.06383444987970044 -0.01759189907172145 0.04495174348584369
0.06360232285009049 -0.017643759210613143 0.04329206057205326
0.06309346849365555 -0.017711169577349608 0.041381563833977175
0.06233113368080284 -0.017792944346844128 0.03923682432045461
0.06020879708646765 -0.01795071020254015 0.03587556451518531
0.05851847964931933 -0.01845702851268429 0.018985412931655732
0.061144929973777074 -0.01834957113884296 0.019867507104417148
0.06298846467449859 -0.018286355311648145 0.02003078078952847
0.06490641603668201 -0.018218586727428696 0.020275356123869492
0.06673136300329047 -0.018155844254108634 0.02044310801829452
0.06857064161556808 -0.018091987159661767 0.020635397143439316
0.07041637640433263 -0.01802746186236946 0.020844941033467068
0.07223621448731032 -0.017964133776956402 0.021040646672400187
0.07386914434822472 -0.017911339755157563 0.021065786626029648
0.07527551275390959 -0.017871456265975944 0.02087888667526483
0.07648171284460481 -0.01784303759569739 0.020502471848280135
0.07760391545935358 -0.0178193864680021 0.02004815381380226
0.07869680667773221 -0.01779733837435231 0.019568914665951787
0.07976694802596435 -0.017776520009962795 0.019070872901150393
0.08044417313639424 -0.017778690085375096 0.01818276259370899
0.08048594403787807 -0.017818296393120794 0.016654186668249804
0.08059434335849269 -0.01785415709085233 0.015186057311791956
0.0807078219494381 -0.01788988772358971 0.013716731001706728
0.08077447782332692 -0.01792856605516184 0.012193146511395692
0.08086705064851069 -0.01796588817075825 0.010689312939065887
-0.08567661026205314 -0.020808209876893635 0.05124857240731712
-0.08295478505018755 -0.020726804615383145 0.05124691645488516
-0.08025563280101955 -0.020646098855729763 0.051244422356145014
-0.07757741886980296 -0.020566019160375527 0.05124194760497297
-0.07491846904999239 -0.02048649423239824 0.05124033646859655
-0.07228142111828206 -0.020407645499061593 0.05123789650052629
-0.06966319015483785 -0.020329338325693735 0.051236313268035016
-0.06706636629874968 -0.02025169238797019 0.05123390731202354
-0.06448792599731551 -0.020174575210871903 0.0512323513227908
-0.061930412812018 -0.020098104755173336 0.05122997863076301
-0.05939221459970245 -0.02002221182329711 0.051227623857819427
-0.05687311337631079 -0.019946889897450658 0.051225286801731384
-0.054371568153071426 -0.019872072301129813 0.05122378647727566
-0.05189003241432738 -0.019797873672115142 0.05122148120843484
-0.04942565741277655 -0.01972416770695314 0.051220006218438474
-0.046980853063501304 -0.0196510674327824 0.05121773205372543
-0.04455282597014859 -0.01957844850682567 0.051216281815288756
-0.04214394342734307 -0.0195064223785083 0.05121403809132469
-0.0397514660067419 -0.01943486661986849 0.051212612038943894
-0.03737771930570116 -0.01936389113468074 0.05121039811138123
-0.03502001652557235 -0.019293375365371252 0.051208995696312654
-0.032676984437216505 -0.019223258542409444 0.051209188482406354
-0.03035454536580734 -0.01915381745321446 0.05120701094001834
-0.028050021895245747 -0.019084931826023336 0.05120406225565832
-0.02754663216017922 -0.019099559842540637 0.05002156268629637
-0.0275549899967949 -0.019138100218117717 0.04849659388224342
-0.027564583056826686 -0.019176852560629294 0.04696465525332022
-0.02757301115408828 -0.019215705817531615 0.045427309206280686
-0.027582679832253154 -0.019254773401978082 0.043882905704292485
-0.027591179059057724 -0.019293943365814692 0.042333031089057505
-0.027600924271946048 -0.019333330054539154 0.04077600998264452
-0.027609495511494442 -0.019372820613542056 0.03921345299699741
-0.027618101838174924 -0.01941247283080244 0.03764449953970478
-0.027627962340742163 -0.01945234543855229 0.036068263363281006
-0.027636642021986235 -0.019492324202115812 0.03448639212158605
-0.027646581406306048 -0.019532525848570285 0.032897145484113266
-0.02765533536224879 -0.0195728352089012 0.0313021962386687
-0.02766535459847691 -0.019613369983895197 0.02969977741241575
-0.027674183764619498 -0.019654014058724828 0.02809158728317296
-0.02768428383897059 -0.019694886120155426 0.026475831848866982
-0.027693189166501986 -0.019735869095884408 0.024854235239613554
-0.027703371081584605 -0.01977708267113265 0.023224976030214173
-0.027712353537710288 -0.019818408804268328 0.021589804571718496
0.03478860525921218 -0.016837481238300835 0.0658240579610822
0.03767944577926219 -0.016732374810517644 0.06656491254609231
0.04097009763944981 -0.01660741925385642 0.06761981241850251
0.043539095535537364 -0.016517053666668332 0.06815714760310593
0.04533964556991732 -0.01646377629867794 0.06813318828300685
0.046913999386394734 -0.016421327169471388 0.06794754796171038
0.048374037728146746 -0.016384296778517073 0.06768233398658646
0.04969613743390944 -0.016353878319982973 0.06731817856395389
0.05089421321543264 -0.016329429453981414 0.06686408095374058
0.052075538176301006 -0.01630570265924203 0.06640118860264888
0.05324442280388175 -0.01628248969251444 0.06593265807753895
0.05428275244718128 -0.016265637994709314 0.06536636966849269
0.05520433381582068 -0.016254503523918096 0.06471151913293438
0.05614085796217855 -0.016242579135900995 0.06407032014883368
0.057071972829954576 -0.01623087321585622 0.06342686687100091
0.05780294585424378 -0.01622910471728699 0.06262616035886315
0.058442139735457255 -0.016231918420151283 0.06175233879625269
0.05908396267251581 -0.01623461244974321 0.060880150217852536
0.05969315452093987 -0.016238956947372114 0.059981117445015275
0.060177845689186715 -0.016249586625142604 0.05898014190191808
0.060616776642051284 -0.016262570463546625 0.057939943215492395
0.06102442322150842 -0.016277191998526088 0.05687180402498121
0.06147117217632436 -0.01628989607705489 0.055833430071346835
0.061759586347553186 -0.016310694185536007 0.054661395054203143
0.06196233015550778 -0.016335942008817675 0.05341424130920419
0.06212003794719262 -0.016363596670902855 0.05212490336551573
0.06234645406711142 -0.016387861176682204 0.05088870018011449
0.06266099046081974 -0.016407718996386624 0.04972298234843714
0.0629177160185111 -0.016430631543753266 0.04850450159160574
0.0630273380516666 -0.01646121242498438 0.047155928875352526
0.06293116347629668 -0.016502538431583356 0.04562467397048875
0.06265577480475493 -0.0165533074224583 0.04393091683118949
0.06215187113934678 -0.016616135288501234 0.04202923012765042
0.06162286032320369 -0.016680545672000145 0.04009443878588448
0.06076366111627096 -0.01676241808769375 0.03785769853155274
0.05823978755179099 -0.017318324887567835 0.018725696871654818
0.06065244816304166 -0.017229043619627366 0.019406162895001022
0.06251224863916655 -0.017168967881503384 0.01958234712057444
0.06446640550608668 -0.01710354962015237 0.01985885592858333
0.06637197407378298 -0.01704044440299539 0.020101149497070203
0.06813872589025455 -0.01698453511164841 0.020222289686809114
0.06999176279954733 -0.016923701837447052 0.020436704447472087
0.07190762363461989 -0.01685918162926871 0.02072308634745218
0.0736868503088639 -0.016801782457875003 0.020888696328665246
0.07520153986670991 -0.016758517515907637 0.020806652085439026
0.07649423115992754 -0.016727164624262682 0.020514759466620514
0.07773154086031275 -0.016698693999497933 0.0201740773774442
0.07880291498200154 -0.016679187211259355 0.019674151124533856
0.07978853884880777 -0.016664300978971414 0.019092397345299772
0.08024550467953828 -0.016678465613749083 0.017983678511941492
0.0802899487661472 -0.01671547482032883 0.016456763973061173
0.08054567366772175 -0.016740965961322893 0.015136779324505967
0.08064668998821439 -0.016775161214072215 0.013654514633851644
0.08071167620298603 -0.016811523081842968 0.012128900197802384
0.08077849876339321 -0.016847956303308785 0.010598255520577415
-0.08567661026188012 -0.019420995885093557 0.051248572407416815
-0.08295478505001769 -0.019345017641017218 0.05124691645498364
-0.08025563280085296 -0.019269692265340848 0.05124442235624216
-0.07757741886963954 -0.01919495121634368 0.05124194760506884
-0.07491846904983218 -0.019120727950231668 0.05124033646869108
-0.07228142111812508 -0.019047135799117588 0.051237896500619384
-0.06966319015468397 -0.01897404910397437 0.05123631326812689
-0.06706636629859886 -0.018901579562099178 0.05123390731211408
-0.06448792599716774 -0.018829603530140893 0.05123235132288001
-0.06193041281187334 -0.018758231104822345 0.051229978630850825
-0.05939221459956073 -0.01868739770173798 0.05122762385790597
-0.056873113376172124 -0.018617097237614746 0.051225286801816594
-0.05437156815293587 -0.01854726748104874 0.05122378647735942
-0.051890032414194764 -0.01847801542730183 0.05122148120851722
-0.04942565741264687 -0.018409223193150744 0.051220006218519465
-0.04698085306337463 -0.018340996270591506 0.051217732053804976
-0.044552825970024856 -0.018273218606365334 0.05121628181536697
-0.04214394342722211 -0.0182059942199359 0.05121403809140157
-0.03975146600662388 -0.018139208845205524 0.051212612039019334
-0.03737771930558598 -0.018072965059030405 0.051210398111455224
-0.03502001652546011 -0.018007150341008332 0.05120899569638521
-0.03267698443710698 -0.01794170797291075 0.05120918848247752
-0.03035454536570059 -0.01787689628966221 0.051207010940088116
-0.02805002189514194 -0.01781260303761728 0.0512040622557266
-0.02726683400173413 -0.017814107455646714 0.05020649989473702
-0.027274621921112407 -0.01785002941245457 0.048682945359687035
-0.027282441312438788 -0.017886096534467346 0.04715323394658599
-0.02729149460068714 -0.017922362216573756 0.04561652022146134
-0.027299379973135696 -0.017958722534626135 0.04407437639179784
-0.027308504581202153 -0.01799528362726255 0.04252514211738412
-0.02731645675247174 -0.01803194073110557 0.04097041366638793
-0.02732565354542482 -0.018068800858531797 0.03940850522183492
-0.027333673346698506 -0.018105758396758178 0.03784103744995643
-0.027342943203734038 -0.01814292124276329 0.036266298691059906
-0.027351031479957377 -0.01818018292401798 0.03468593435264511
-0.027360375294689154 -0.01821765223314762 0.033098206559823484
-0.027368532904855747 -0.018255221827368436 0.03150478581051541
-0.02737672423079851 -0.01829294669859479 0.029904779373788104
-0.027386179403056266 -0.01833088274587163 0.02829726797832599
-0.027394441367679545 -0.018368921301276344 0.026683960420627262
-0.02740397278588208 -0.018407173445760705 0.02506305161963185
-0.0274123062844589 -0.018445529614122696 0.023436276361888164
-0.027421914894936172 -0.018484101823097253 0.02180180199412851
-0.027430320837841415 -0.018522779599079102 0.020161389663923557
0.03535560741663352 -0.01572197037707644 0.06485014903680175
0.038219524295249774 -0.015624901536979752 0.06557911753370688
0.04156755174468402 -0.015505444490116344 0.06668647895995622
0.04378435207899206 -0.015436964592359432 0.06696672415532484
0.04546173443612034 -0.015392795467363675 0.06685245086842534
0.04706463247403736 -0.015351844623622712 0.06668961635534648
0.04846725096915755 -0.015319892756761185 0.06638146784363169
0.04968825321892023 -0.015296140318703683 0.06593988102148152
0.05086069032706103 -0.015274520860509878 0.06546515489997223
0.05209005927104121 -0.015250186354996352 0.06503843460301867
0.05322603549245619 -0.015230061553837704 0.06454338194494619
0.054250286287561234 -0.01521502169855872 0.06396449731511616
0.05521467990946477 -0.015202693783394568 0.06334122573020268
0.056127179590620135 -0.01519272507107921 0.06267912873002113
0.056862804477463946 -0.0151909517093182 0.06187811680260663
0.05747538074072339 -0.015194914047209476 0.060978998868202516
0.058115725729583234 -0.015197594514120168 0.06010148653093966
0.0587071349234739 -0.01520258043131451 0.05918391708846016
0.05918943624282763 -0.015212713424154256 0.05817674504118786
0.05963213964026254 -0.015224754437714065 0.05713534627322381
0.059967710898053916 -0.015241902175792724 0.05600371214562383
0.06022753961422861 -0.01526270570248523 0.05480634728454442
0.060585562590175945 -0.01527894672942039 0.05368664676656015
0.060926629200069415 -0.015296063824293429 0.052549771118560684
0.061232208987625936 -0.015314944649724096 0.051379926378189
0.061499855481946475 -0.015335717482928451 0.05017455438294166
0.061723056938657095 -0.01535870605500778 0.048927601507118834
0.06187586111713622 -0.015385168281788295 0.04761631954828904
0.061775037513134956 -0.015423924515293397 0.046082698407232
0.061632269249903726 -0.015464870319567288 0.04450563317743095
0.06111581253521281 -0.015524018668069418 0.042597186640973006
0.06055102594558143 -0.015585765421315201 0.04063546015069175
0.06010646806545228 -0.015641962977966727 0.038767241986015
0.04292061223793592 -0.016511163183721488 0.022158662122517825
0.04342844307304189 -0.01652333953278234 0.02103387256331507
0.043906771154019475 -0.016537009112536038 0.01988052495245607
0.05774037719987202 -0.016188624546151005 0.018260291178151478
0.0602910154713322 -0.016098469687992736 0.019067582107286485
0.062221464058561826 -0.016038908227935238 0.019308526865309594
0.06413601451631823 -0.015979869370350303 0.01954611815939128
0.06601836903055347 -0.015922175322238132 0.019764694342911948
0.0678291370796194 -0.01586781845255326 0.01992618227819415
0.06970615606999431 -0.01580986670749985 0.020162113348892285
0.07158796129542583 -0.015751403742563237 0.020414154813062302
0.07338122434539135 -0.015697157243796545 0.02059179472429351
0.07517083854902884 -0.01564284303998975 0.020776672221548942
0.0764926664263661 -0.015612100010665854 0.020513223569152528
0.07762726954299387 -0.015590770906098585 0.020071196479411746
0.07875490433267623 -0.015569698155697791 0.019626534957787933
0.0797846835701449 -0.0155535453238728 0.01908855391928216
0.08014761466802317 -0.015571600695808482 0.01788558370934873
0.08049057077912569 -0.015590770907892171 0.01665884710581539
0.08117562146154822 -0.015592360620073837 0.01577460049992946
0.08166028895926053 -0.015604333607794311 0.014686093617705231
0.08094182131708444 -0.015678809707228625 0.012364339587615514
0.08073264889352838 -0.01572714463625193 0.010551108350504323
-0.08567661026171897 -0.018033781893294958 0.051248572407509685
-0.08295478504985954 -0.017963230666652747 0.05124691645507534
-0.08025563280069781 -0.017893285674953366 0.05124442235633264
-0.07757741886948727 -0.01782388327231324 0.051241947605158156
-0.07491846904968291 -0.017754961668066477 0.051240336468779124
-0.0722814211179787 -0.01768662609917493 0.05123789650070626
-0.06966319015454053 -0.017618759882256335 0.05123631326821243
-0.06706636629845836 -0.01755146673622947 0.0512339073121984
-0.06448792599703018 -0.01748463184941117 0.051232351322963054
-0.06193041281173861 -0.017418357454472618 0.05122997863093265
-0.05939221459942884 -0.017352583580180096 0.051227623857986515
-0.05687311337604306 -0.01728730457778005 0.051225286801895864
-0.05437156815280958 -0.01722246266096886 0.051223786477437416
-0.05189003241407125 -0.017158157182489683 0.05122148120859393
-0.049425657412526136 -0.01709427867934949 0.05122000621859496
-0.046980853063256556 -0.017030925108401724 0.051217732053879195
-0.04455282596990956 -0.016967988705906094 0.0512162818154398
-0.042143943427109476 -0.016905566061364573 0.051214038091473124
-0.039751466006513914 -0.016843551070543607 0.05121261203908961
-0.03737771930547862 -0.01678203898338109 0.051210398111524225
-0.03502001652535541 -0.016720925316646408 0.051208995696452875
-0.03268064246463592 -0.016660304007774133 0.05120681093928425
-0.030354545365601115 -0.016599975126110916 0.051207010940153175
-0.028050021895045074 -0.016540274249212148 0.05120406225579027
-0.02698622366900011 -0.016530357809569636 0.050391973923171685
-0.026994636490237367 -0.016563716558711427 0.04886904250565938
-0.027001885193293107 -0.01659716171901023 0.04734075283518929
-0.027010363815386795 -0.016630790911740835 0.04580547195677692
-0.027017673816529253 -0.016664507766838078 0.04426476996152284
-0.027026219033137067 -0.016698410705319983 0.042716988821522195
-0.02703359109218967 -0.01673240257942044 0.04116372264755014
-0.027040993226081333 -0.01676653312592303 0.03960411980758388
-0.02704963859917664 -0.016800852891555366 0.038037303286149626
-0.027057103943984195 -0.016835263544571506 0.0364649038517198
-0.02706581794233409 -0.01686986554869868 0.03488519921598421
-0.027073347289556293 -0.016904559770648277 0.03329984501941108
-0.027082130752984213 -0.01693944750924612 0.031707092617266786
-0.02708972490730288 -0.0169744288198508 0.030108622873356028
-0.027098578689475017 -0.017009605846872142 0.028502660404936542
-0.02710623846902943 -0.017044877824345574 0.026890911656607452
-0.027115163437741785 -0.01708034775292709 0.02527157411916947
-0.027122889674411566 -0.017115914035195134 0.023646380181720883
-0.027130648154756964 -0.017151628745346925 0.022014403862674614
-0.02713968025157748 -0.017187544824845954 0.020374691717121307
-0.027147506452220582 -0.017223559410026405 0.018729015741580646
0.03587223124129174 -0.014607608099979753 0.06383762282372968
0.03886131066565096 -0.014512025174051873 0.06466776453210432
0.04188253476972292 -0.01441468459160095 0.06554036849858802
0.043801388643386396 -0.014363614032245902 0.06560044802202503
0.045408073539144334 -0.014325575066713754 0.06543370627197426
0.046841365675382496 -0.014294748985423173 0.06514214734627322
0.04802536896032611 -0.0142744153563105 0.0646655124490646
0.04930232157022452 -0.014250026876545103 0.0642644401944149
0.05066814843076356 -0.014221732184433716 0.06393695658861681
0.051951621033703765 -0.014196848991680262 0.06355084799385013
0.053103014609919896 -0.014177535854636304 0.06306618046110529
0.05412666327044657 -0.01416364170934861 0.0624847307435622
0.05502410566854948 -0.014155134843650826 0.06180612243667244
0.055807187640358136 -0.014151537504607814 0.06103819273121058
0.05648250568184715 -0.014152595356223645 0.06018476790601157
0.0571205673003109 -0.014155275954300453 0.05930117237513738
0.057698051316142585 -0.014160604893176724 0.0583680693977795
0.05819171463763284 -0.014169613209197567 0.05736577909134899
0.05854101561605346 -0.014184971391307455 0.05624373337230748
0.058847308682519806 -0.014202280312031438 0.05508329885684943
0.059139754895950025 -0.014220272340638017 0.05390797505311301
0.0595059325697061 -0.014235098386592104 0.0527902700900848
0.05985828065500104 -0.014250598930719838 0.05165805091150727
0.06020328863503355 -0.01426649160183216 0.05051655964948093
0.060474448368628086 -0.0142857246390022 0.04930957516705414
0.06064566166571156 -0.014309478468530942 0.048013955136263164
0.060539940562197636 -0.01434565624907706 0.046477446326472605
0.06043695081931061 -0.014381871759224129 0.04493594859389821
0.06008422744737402 -0.014429405804078818 0.04317194341948949
0.05960881069424856 -0.014482644629846468 0.041292002811629314
0.059153909914914427 -0.014535198983838827 0.03941906621987623
0.05775752876308027 -0.014630334684622113 0.03671137239867045
0.04402053684730051 -0.015282209738363311 0.023126420301478767
0.0444728383113579 -0.015295914436083385 0.021957607091840747
0.04491774968408957 -0.015310015140128122 0.020779403099851157
0.04536348210645108 -0.0153241418659332 0.019599024823324096
0.05730331847072073 -0.015052492076226076 0.017852991609448643
0.05994749876385369 -0.01496449033825875 0.018745784549735578
0.0619107678954699 -0.014907696089140311 0.0190159566660551
0.06388505941745293 -0.014850127601598168 0.019308571918068285
0.06581689845851119 -0.014794273556444205 0.019572995118953607
0.06759019932433269 -0.014745572526513744 0.01969764934319207
0.06948005256498146 -0.014691184713907884 0.01994473048143891
0.07134557425567845 -0.014637687021892026 0.020179904509150526
0.07319039849889392 -0.014584914595442831 0.02040641616765204
0.07507948560127908 -0.014529807457850265 0.020687465987212383
0.07645589058953095 -0.014498689279295146 0.020477125465252155
0.07770975870885483 -0.01447323404176332 0.020152585682885304
0.07885632837765422 -0.014452757590228384 0.019727125645595533
0.07979547810315751 -0.014442063679416067 0.019099315265648342
0.08011677005935813 -0.014460816036060073 0.0178546745721323
0.0807479030377461 -0.014464830211004774 0.01691805350200626
0.08155371377551307 -0.014460484690859185 0.016157418388133837
0.08213619132622829 -0.014466856558828203 0.015170437913776702
0.08200890848485304 -0.014507466002995482 0.013455974109778168
0.08079947626853162 -0.014600548694600316 0.01061982657422239
-0.08567661026156964 -0.016646567901497735 0.05124857240759573
-0.0829562587661169 -0.01658149613338728 0.051246062078406984
-0.08025563280055409 -0.016516879084567216 0.05124442235641641
-0.07757741886934633 -0.01645281532828411 0.05124194760524081
-0.0749184690495448 -0.016389195385902573 0.051240336468860614
-0.07228142111784319 -0.01632611639923354 0.05123789650078664
-0.06966319015440775 -0.01626347066053954 0.0512363132682917
-0.0670663662983283 -0.016201353910360983 0.051233907312276505
-0.06448792599690267 -0.016139660168682634 0.05123235132304005
-0.061930412811613766 -0.01607848380412406 0.05122997863100842
-0.05939221459930666 -0.016017769458623356 0.05122762385806112
-0.05687311337592349 -0.015957511917946476 0.051225286801969305
-0.05437156815269245 -0.015897657840890075 0.05122378647750975
-0.05189003241395673 -0.015838298937678616 0.0512214812086651
-0.049425657412414226 -0.015779334165549292 0.05122000621866485
-0.0469808530631472 -0.015720853946212976 0.05121773205394786
-0.04455282596980281 -0.015662758805447867 0.05121628181550725
-0.04214394342700528 -0.015605137902794242 0.05121403809153935
-0.03975146600641222 -0.015547893295882666 0.051212612039154615
-0.037377719305379364 -0.015491112907732732 0.05121039811158806
-0.03502001652525849 -0.015434700292285414 0.05120899569651549
-0.03268064246454139 -0.015378742161018777 0.051206810939345704
-0.03035454536550919 -0.015323053962560514 0.05120701094021324
-0.028050021894955368 -0.015267945460807883 0.051204062255849225
-0.026707188554167927 -0.015248407309446307 0.050576406785349026
-0.02671383885262235 -0.015279113533491685 0.04905567949885081
-0.026721712486575344 -0.01530998838221959 0.04752801545751478
-0.026728419062354236 -0.015340943374515052 0.04599497077061804
-0.026736354205081914 -0.015372068865262501 0.04445490228132126
-0.026743117754624568 -0.015403275661216147 0.04290938991180887
-0.026751115148349547 -0.01543465485848656 0.041356765298440124
-0.02675793637955176 -0.015466116543091168 0.03979863250926635
-0.026765996778565393 -0.015497752561550341 0.038233297612855544
-0.02677287641101539 -0.015529472270400017 0.03666238916181552
-0.026781000581925174 -0.015561368275906732 0.035084187289521784
-0.026787939347144796 -0.015593349196238632 0.03350034537767843
-0.026794906691449683 -0.015625461838348363 0.03190997999898337
-0.026803126710820135 -0.0156577537786627 0.030312181469346167
-0.02681015429751815 -0.01569013251109297 0.028708641068266705
-0.026818440050185632 -0.0157226925828642 0.02709757244583555
-0.026825528641597707 -0.01575534072666907 0.025480692598311372
-0.02683388093917516 -0.015788172283402322 0.02385618790225319
-0.026841031310446017 -0.015821093215133024 0.022225801436682013
-0.026849450978052136 -0.015854199666490387 0.020587691906588435
-0.02685666391742797 -0.015887396819359748 0.01894362884618911
-0.026865151793959652 -0.015920781632340297 0.017291742883655703
0.03632790705712141 -0.013494322776039245 0.06277797782546773
0.03947089432094786 -0.01339992668071255 0.06373164745090354
0.04202930376057473 -0.013327984016741857 0.06426418702925318
0.043704134932398275 -0.013290347302806888 0.06414187557849055
0.044969618841378844 -0.01326861927584286 0.06371542048791001
0.0461194606509151 -0.013251348226009128 0.0632048998785451
0.04751021836885755 -0.013224508328158403 0.0628836343624718
0.04892562984140719 -0.013196581048303534 0.06258712095793284
0.05032504813049754 -0.013169168399484605 0.06228404752774008
0.05174274562576381 -0.013140914173972522 0.06200108613491395
0.05287362988542871 -0.013123940914302155 0.06149833331738919
0.05388063996027914 -0.013111829924331546 0.06090114885369202
0.0547110687314078 -0.013106716551039817 0.06016604232172684
0.05537546070244326 -0.013108223926428105 0.05929920895141788
0.055993395371584265 -0.013111600393735124 0.05839469193539226
0.056521808467306645 -0.013118588317425428 0.05741707286495468
0.05698956885957118 -0.01312804863039183 0.05638865352077449
0.05737232438276957 -0.013140980050302953 0.055288736362193
0.05771829172605214 -0.013155455227438282 0.054155808536340666
0.05800705624454017 -0.01317231158676174 0.05297250960861155
0.05837822971003159 -0.013185894132217855 0.051853980322070614
0.05877384275159919 -0.01319854109442384 0.05075290137372579
0.0590387785778142 -0.013216574171570943 0.049539419644313354
0.059236601197484196 -0.013237430041957814 0.04826539275250108
0.059281137689025765 -0.01326465805857554 0.046856819579285836
0.0591567171570474 -0.013298943766081527 0.045298247391257596
0.05892532773711351 -0.013337782798416553 0.043640476861505295
0.058585800631888396 -0.013381253541066578 0.04188099863132405
0.05818915662999785 -0.01342727776851796 0.04006246912589967
0.05659437801343592 -0.013523142176136843 0.037190619188744056
0.042475992141935426 -0.014139410642203936 0.023336464687952585
0.04465782004758451 -0.014080136294350412 0.023687127848285472
0.0450898573071562 -0.014093572667065155 0.02250334086222272
0.04552181181784459 -0.014107072665925771 0.021316484981959594
0.04595277901252104 -0.014120674613822869 0.020125730394028263
0.05702339903295106 -0.0139065489521273 0.017592131778330522
0.05973541233942936 -0.013822443659396003 0.018547107478479208
0.06169908300485605 -0.013770021806875369 0.018816621437677317
0.06362702320660063 -0.013718893451737683 0.019064322917787535
0.06559779790907633 -0.013665685181492634 0.019364520973723598
0.06737222131690285 -0.0136207037484157 0.0194891634396393
0.0693202057589406 -0.013568007157746875 0.019791048843250947
0.07119770968070693 -0.01351812127720899 0.020037003627729755
0.07309171296100314 -0.013467286231281602 0.02031054769432228
0.07497231307703284 -0.013416797750482651 0.020582811922424726
0.07653569077766859 -0.013379921745660134 0.020555455035169867
0.07767863595729663 -0.013361270220265441 0.02012187794165904
0.0788160765454971 -0.013342772490238708 0.019687204545198844
0.07981012659737419 -0.01333049169404044 0.019113918724623757
0.0803040542713162 -0.013340192325994055 0.01804235059255982
0.0807648377002751 -0.013351402921055622 0.01693511149880922
0.08151993921247752 -0.01334963515306307 0.016123221694842982
0.08209940095712143 -0.013355654281033648 0.01513299492827358
0.08202889722303591 -0.01339061781891597 0.013476422670415045
0.08091907009487176 -0.013472096354189002 0.01074280425086066
-0.08295625876598217 -0.015199704788933947 0.05124606207848509
-0.08025563280042186 -0.015140472494182293 0.05124442235649357
-0.07757741886921665 -0.015081747384256189 0.05124194760531686
-0.07491846904941751 -0.015023429103739851 0.051240336468935666
-0.07228142111771851 -0.014965606699293314 0.051237896500860636
-0.06966319015428551 -0.014908181438823883 0.05123631326836464
-0.06706636629820856 -0.014851241084493618 0.05123390731234834
-0.06448792599678549 -0.014794688487955206 0.05123235132311077
-0.06193041281149886 -0.014738610153776583 0.0512299786310782
-0.059392214599194304 -0.014682955337067682 0.051227623858129734
-0.05687311337581347 -0.014627719258113944 0.05122528680203686
-0.054371568152584926 -0.014572853020812319 0.051223786477576194
-0.05189003241385143 -0.014518440692868548 0.05122148120873049
-0.04942565741231131 -0.014464389651750077 0.05122000621872913
-0.04698085306304656 -0.014410782784025189 0.051217732054011145
-0.044552825969704446 -0.014357528904990577 0.051216281815569364
-0.042143943426909136 -0.014304709744224821 0.05121403809160041
-0.03975146600631846 -0.014252235521222617 0.05121261203921451
-0.03737771930528799 -0.014200186832085251 0.05121039811164674
-0.03502001652516934 -0.014148475267925278 0.05120899569657317
-0.03268064246445451 -0.014097180314264265 0.05120681093940216
-0.030354545365424423 -0.014046132799010926 0.05120701094026864
-0.028050021894872934 -0.01399561667240442 0.051204062255903404
-0.026428532981003006 -0.013968200509652513 0.05076058878320033
-0.02643461799193736 -0.013996309570353674 0.04924126846005861
-0.026441922406856 -0.014024572915664207 0.04771502233853009
-0.026448059078361175 -0.014052909547573838 0.046183404440135745
-0.026455420343738156 -0.01408140217725373 0.044644773888538436
-0.02646160931546765 -0.014109969155229366 0.043100708477741445
-0.026467823449381533 -0.01413865227663258 0.041550365432315106
-0.02647527003823974 -0.01416749401491483 0.03999287686123104
-0.026481537441502057 -0.01419641172885542 0.03842985683717165
-0.02648904260352014 -0.014225489840274688 0.03685960090588325
-0.02649536394236912 -0.014254645036583352 0.03528374775365711
-0.026502928390460034 -0.014283962438895067 0.03370056685169415
-0.02650930434220472 -0.014313358055062717 0.03211172184658778
-0.02651692880098 -0.014342917714242462 0.03051545575863812
-0.02652336005422795 -0.014372556736406722 0.028913457547453447
-0.026531045260241193 -0.014402361667650578 0.027303943399326402
-0.026537532515141682 -0.014432247131607262 0.025688627945738562
-0.026544046748605665 -0.014462256880472785 0.024066594867308944
-0.026551823185608003 -0.014492435392596223 0.02243690067754084
-0.026558394482236125 -0.014522696231196534 0.020801299197132972
-0.026566233550760265 -0.014553127774359466 0.019157937811373926
-0.026572862640474648 -0.01458364286720835 0.01750859693761353
-0.026580765120713945 -0.01461433063710366 0.015851395731097673
0.036752175628498196 -0.01238047065449556 0.061692618903234075
0.0397710827845954 -0.012298227710000697 0.06256134952269282
0.04188991312841933 -0.012247955869768366 0.06276643434962897
0.04332243441549716 -0.012222165570261864 0.062459864865542
0.04451699422629307 -0.012204846325595663 0.061976833138880305
0.04587232902324462 -0.012181644947117811 0.061621649472999585
0.04723951024468509 -0.012157916457780386 0.06128097459992432
0.04861404033191641 -0.012133820696193552 0.06095148784198118
0.05009638154170459 -0.01210570235698137 0.060711978564866376
0.05145521476297954 -0.01208196477746967 0.06038174612764824
0.052477824107619586 -0.012070403692259242 0.05979091766856681
0.05330985695829554 -0.012065767276039028 0.059051138261852876
0.053905029573457774 -0.012069797423006297 0.05812296636181008
0.05449977459076183 -0.012073860595443053 0.05719351047610777
0.05502568046753742 -0.012080476679657417 0.05620744804823363
0.05557604521806819 -0.012086218513535162 0.055239716245503945
0.05604548861702374 -0.012094978477633836 0.05420451141627658
0.05652712469153476 -0.012103324405643186 0.05317726176758303
0.05689600751172558 -0.012115895459840712 0.052054924251366264
0.05716121972535265 -0.012132381054346148 0.05084354216768405
0.0571157418614987 -0.012160531301514751 0.04936893162353412
0.05741523250360819 -0.012175904655363385 0.04817710266859948
0.057621381598066346 -0.012194843445421754 0.04690287891341788
0.05757922537748916 -0.012223191373420024 0.0454135739608984
0.0574273104052575 -0.012255795463488674 0.043823926907183064
0.057248760635684404 -0.012289548076830388 0.0422036469315174
0.056763034183486494 -0.01233506342964592 0.04031062440797922
0.0546648136406761 -0.012441879793692828 0.037010106909951546
0.039219844950330596 -0.013056017750182454 0.022063545914361493
0.0426944317520514 -0.012952812650850678 0.023527650279958068
0.04514508554808516 -0.012888205031130695 0.024115843752466837
0.04557424700353546 -0.012900590125853486 0.022931768215577075
0.04600423406938581 -0.012912999046719609 0.02174541478296882
0.0464341439021812 -0.012925466624614843 0.020555967794418317
0.0560616272226504 -0.012785278443066095 0.016695846639976808
0.059533288138057305 -0.012678495204233843 0.01835776275984563
0.06154119203242325 -0.012628722412470636 0.01866794179900577
0.06345476712605774 -0.012582434626203202 0.0189012707038137
0.06546453612293274 -0.012532137143263213 0.019237722400968937
0.06734761842491943 -0.012486618278637458 0.01946563190897871
0.06919026095115055 -0.012442491814812528 0.019666115906335713
0.07107867328293421 -0.01239634156467454 0.019921963185039915
0.07296826759911201 -0.012349929398752606 0.02019062618771561
0.07487058782551487 -0.012302792598703885 0.020483477124277782
0.07643945598019325 -0.012268779375400994 0.02046099372532484
0.07771131467980003 -0.012246520238180694 0.020154120905535866
0.0788733547923734 -0.012228571860562816 0.019744012161686197
0.07994112911675055 -0.01221433791119657 0.01924451849065384
0.08050649202720656 -0.012220332018999133 0.018245211858934463
0.08068553633058068 -0.012241997024343332 0.016855232581328372
0.08125792953186173 -0.012247799824291116 0.015857937294928515
0.0816741266971826 -0.01225998486296341 0.014700176820265864
0.08148749630542801 -0.012296811735416953 0.012922567324907264
0.08123545899841489 -0.012336488260944451 0.01106814522758659
-0.08295625876585899 -0.013817913444481753 0.05124606207855653
-0.08025563280030101 -0.013764065903798495 0.05124442235656401
-0.07757741886909819 -0.013710679440229372 0.05124194760538636
-0.07491846904930138 -0.013657662821578218 0.05124033646900422
-0.07228142111760455 -0.013605096999354152 0.05123789650092825
-0.06966319015417394 -0.01355289221710928 0.051236313268431255
-0.06706636629809914 -0.01350112825862728 0.051233907312414007
-0.0644879259966783 -0.013449716807228786 0.05123235132317544
-0.06193041281139394 -0.0133987365034301 0.05122997863114187
-0.05939221459909155 -0.013348141215512973 0.05122762385819246
-0.05687311337571288 -0.013297926598282364 0.051225286802098646
-0.054371568152486505 -0.01324804820073549 0.05122378647763698
-0.05189003241375528 -0.013198582448059399 0.05122148120879022
-0.04942565741221733 -0.013149445137951757 0.05122000621878786
-0.04698085306295474 -0.013100711621838283 0.05121773205406882
-0.04455282596961463 -0.013052299004534145 0.05121628181562615
-0.042143943426821595 -0.01300428158565625 0.05121403809165603
-0.039751466006232805 -0.012956577746563391 0.051212612039269245
-0.03737771930520439 -0.012909260756438572 0.05121039811170047
-0.03502001652508796 -0.01286225024356593 0.051208995696625736
-0.032680642464375076 -0.01281561846751052 0.051206810939453784
-0.030354545365347096 -0.012769211635462088 0.05120701094031921
-0.028048824814716544 -0.012723250832620011 0.051204849073310466
-0.026175214284479553 -0.012690507884921765 0.050928023954472434
-0.026155777430692306 -0.012715252789066515 0.049426604648684036
-0.026161320936830768 -0.012740874566665006 0.04790257153888189
-0.026168082488415623 -0.012766637114990202 0.046371580425421166
-0.02617367333761994 -0.012792466604571036 0.044835195066763145
-0.026180487402891806 -0.012818438430230584 0.04329176435275289
-0.02618612618298627 -0.012844478167906757 0.041742875938923674
-0.026192993394591024 -0.012870661831336588 0.04018685341841788
-0.026198680703088284 -0.012896914394676875 0.03862530867808911
-0.026205601703953918 -0.01292331249825199 0.03705653965196454
-0.026211338148252883 -0.012949780507131406 0.03548218279822396
-0.026217098138166695 -0.012976357155839507 0.033901363884545566
-0.02622409978939899 -0.013003081813499703 0.03231318270144534
-0.026229909834781573 -0.013029877917817689 0.030719313209588317
-0.026236966918449844 -0.013056823709766829 0.02911798757239531
-0.026242827652199263 -0.013083841999179842 0.027510905197750013
-0.026249940848777242 -0.0131110116814948 0.025896271269968407
-0.026255852914417344 -0.013138254930940452 0.02427581100526771
-0.026263022915647416 -0.013165651305689112 0.022647702216338106
-0.0262689869675502 -0.013193122336507521 0.021013696295166973
-0.026274975960259406 -0.013220708247394618 0.01937285718615772
-0.026282231180292714 -0.013248449933619913 0.017724221122078387
-0.026289516912308297 -0.013276308288244647 0.016068651675126333
-0.02629558694439632 -0.013304243536333648 0.014407039814142986
0.03636115442617349 -0.011291273516722197 0.05999005381462491
0.039546644262516806 -0.011210989267011374 0.06098989930777182
0.041522975485420444 -0.011169917154571316 0.061088238992095034
0.04287577676652721 -0.011149109652017108 0.06071906914212699
0.04384775211591041 -0.011140723117647928 0.06006172390692055
0.04483463841889462 -0.011131810284557654 0.059418049465289724
0.04659762353875707 -0.011097259357979965 0.059381070845355155
0.048228474167440916 -0.01106692943681003 0.05924940199409101
0.0495640371523976 -0.011046252152964684 0.058892996705790346
0.050692504257411786 -0.011032361593519257 0.058377961171557025
0.051531392212859406 -0.01102804535276397 0.05763606482108008
0.052194334064691816 -0.011029576535866921 0.05675452898613392
0.05287996565371755 -0.011030356210765603 0.055890847519256326
0.05362224770753454 -0.011029242424009121 0.05507276766302549
0.05428472189592909 -0.011030801789235252 0.054190105573513836
0.05479322569735251 -0.0110375455466698 0.053181223733350325
0.0552302636952372 -0.011046726948725492 0.05211188713860082
0.05539029284691194 -0.01106530379607901 0.05081139488328673
0.055471920091372584 -0.011086615150949563 0.04944097947234599
0.055607969446270444 -0.01110617339512312 0.04811043678446386
0.05578783084802075 -0.011124327725081247 0.04681155047581936
0.055843120506355315 -0.011146805657249178 0.0454028318932897
0.05572124820393076 -0.011175431310409132 0.04383798314072207
0.05550384049611706 -0.01120745204749138 0.042184167443649334
0.05475738941575742 -0.011257757364633992 0.0400685240769354
0.03158088404632675 -0.012079217327964733 0.018615360322738972
0.0358795680942004 -0.01195788785850098 0.020740585499265773
0.03951659171097904 -0.011858862441935226 0.02232190738951373
0.04263480169604278 -0.011777347417960219 0.023475460077122257
0.04547276762853014 -0.011705187011661008 0.02440415170625715
0.04605544362591696 -0.011711085494862801 0.02335737139605537
0.04648437621126367 -0.011722365617991554 0.022172317299827993
0.046915038537654496 -0.011733635980299814 0.02098578488800318
0.047345627416830016 -0.011744959607530123 0.019796157971919304
0.056181615704715526 -0.011618714984229523 0.016807665152535456
0.05946500349148942 -0.011528337711839075 0.018293795470903373
0.061487963867523365 -0.011482557610632865 0.018617818956625787
0.06346062353749232 -0.01143836730889565 0.018906814199563415
0.06536596634289821 -0.011396388285191638 0.019143933267663726
0.06729101721593034 -0.011353506508258723 0.019411495464952022
0.0691593832376125 -0.011312469111949967 0.019636429122360688
0.07105050949468283 -0.011270418879082762 0.019894744832259725
0.07298260823603708 -0.01122668926268999 0.020204557458679606
0.0748358754729248 -0.011185616792012777 0.020449580481248786
0.07645745569839241 -0.011152780968720076 0.020478661731103853
0.07771053669622685 -0.011133228585795966 0.020153353296084697
0.07880988301026459 -0.011119203453850326 0.019681061899545826
0.07987333018324827 -0.011106427496585067 0.019176927997779092
0.0807171089849158 -0.011101658183020509 0.018456269438450412
0.08096713706325831 -0.01111872241119985 0.017138884197621718
0.08110327637920484 -0.011140069799327539 0.015701351214975123
0.08128387691289979 -0.01115987427844767 0.014303004479508608
0.08140723743340628 -0.01118189522936765 0.012840462171687272
0.08163542271322544 -0.011200125890139313 0.011479425725019143
-0.08295625876574758 -0.012436122100030604 0.05124606207862109
-0.08025563280019177 -0.012387659313415723 0.05124442235662774
-0.07757741886899094 -0.012339611496203563 0.051241947605449256
-0.07491846904919636 -0.012291896539417578 0.05124033646906617
-0.07228142111750147 -0.012244587299415964 0.05123789650098942
-0.06966319015407285 -0.012197602995395629 0.05123631326849154
-0.06706636629800028 -0.012151015432761883 0.0512339073124734
-0.06448930360036781 -0.012104782389441139 0.0512315196650846
-0.06193041281129902 -0.012058862853084516 0.051229978631199546
-0.05939221459899863 -0.012013327093959152 0.05122762385824925
-0.05687311337562201 -0.011968133938451654 0.051225286802154435
-0.05437156815239752 -0.011923243380659516 0.051223786477691935
-0.05189003241366824 -0.011878724203251081 0.051221481208844344
-0.04942565741213223 -0.011834500624154252 0.05122000621884104
-0.04698085306287153 -0.011790640459652174 0.05121773205412111
-0.044552825969533416 -0.0117470691040785 0.051216281815677445
-0.04214394342674227 -0.011703853427088441 0.05121403809170649
-0.03975146600615542 -0.011660919971904918 0.051212612039318706
-0.03737771930512879 -0.011618334680792625 0.051210398111749045
-0.035020016525014186 -0.011576025219207295 0.05120899569667342
-0.03268064246430319 -0.011534056620757474 0.051206810939500524
-0.030354545365276986 -0.01149229047191393 0.051207010940365005
-0.028048824814648265 -0.011450925749356107 0.051204849073355374
-0.02597563462431901 -0.011415886459028796 0.05105993942316861
-0.025877316392462935 -0.011435939622560976 0.04961168858079085
-0.025882295390186938 -0.011458967815648204 0.04808906741912827
-0.02588848850661407 -0.011482122466156059 0.04655949925469044
-0.02589351024006792 -0.011505337217470794 0.04502454574653064
-0.025898552320682333 -0.011528646030922525 0.04348337287353454
-0.025904816221731686 -0.011552083417166884 0.041935121763131133
-0.02590990182813019 -0.011575582216300997 0.04038138997915097
-0.025916214450515784 -0.011599211026263797 0.038820490696279464
-0.02592134412696534 -0.011622902143388297 0.037254045837070204
-0.02592770606002548 -0.011646724731849217 0.03568034277958454
-0.02593288035982222 -0.011670610537604924 0.034101028147223544
-0.02593929220251945 -0.01169462929812543 0.03251436315020817
-0.025944511688173855 -0.011718712202276693 0.030922019460830064
-0.02594975271526634 -0.011742894499592104 0.02932310396941079
-0.02595623929272084 -0.011767212020246826 0.027716697073853214
-0.025961526356555686 -0.01179159510483891 0.026104508680593053
-0.025968064373791122 -0.011816114955528272 0.024484732917799845
-0.02597339806063126 -0.011840701338545197 0.022859105637531796
-0.025979988151749622 -0.011865426054997408 0.021225793447785635
-0.025985369057763386 -0.011890218289636871 0.019586558516002828
-0.025992011867417786 -0.011915150450130306 0.01793953952778521
-0.0259986825936962 -0.011940187388985316 0.01628559887899722
-0.02600413678250446 -0.011965293358782852 0.014625626312985529
-0.02600961395604201 -0.011990505128900217 0.01295865837372201
0.03546478148933169 -0.010209798569021952 0.057895259867059234
0.03843343550783057 -0.01014387414729123 0.05873325722536449
0.040729677810419695 -0.01009750784033581 0.05907438398209525
0.0419544520413801 -0.01008262040434871 0.05860294643108338
0.04321042143586484 -0.010066745830221017 0.05815985573981247
0.04443388225529016 -0.010051769030044221 0.05769591522703982
0.04571225436769649 -0.010035094953495353 0.057279195025194574
0.047049735751285626 -0.01001658760111487 0.05691371948913054
0.048484365803472707 -0.009995098721286528 0.056630373155646396
0.04968372688118233 -0.009980562177502058 0.05616593045659374
0.05048179527894564 -0.009978004272159008 0.05538461711713011
0.05114390406036856 -0.009979523662240133 0.054494693271215866
0.051884383084801866 -0.009978687940892409 0.05366769792562115
0.052693470537412634 -0.009975776671390251 0.05289670803388691
0.05326205655428673 -0.00998013154860701 0.051930027598766026
0.05357935009608883 -0.009992127089102265 0.050755657389849274
0.053651881670875035 -0.010011614551989002 0.04937568770601275
0.05379776479971882 -0.010028952349450428 0.04805099056153078
0.05401308190312076 -0.010044246019057634 0.046779229420753354
0.0540649528918587 -0.010064607239975541 0.045365884150697866
0.053909389129003726 -0.010091418106156656 0.043771638361672915
0.05325149001345941 -0.010133783315437553 0.041743593398834544
0.05202524572388806 -0.01019383843596335 0.039218662929928816
0.032442540724580804 -0.010844641574935796 0.019357706352911674
0.03625255628927565 -0.010750535711310757 0.02106362303479853
0.03960980245811918 -0.010670080070264496 0.022403060983502587
0.04248425756456953 -0.010604300597642594 0.023343698859990547
0.04532439375570846 -0.010539298949146621 0.024273606369108802
0.04653346854267104 -0.010525024813679952 0.0237801693033049
0.04696405256803632 -0.010535091676062775 0.02259880567925493
0.0473936609186737 -0.010545234373543799 0.021413571071419113
0.04782499706687532 -0.01055536828538733 0.02022686052381162
0.059379607133009105 -0.010378242344287103 0.018213798373282075
0.06148711883388008 -0.010334329009452562 0.018617023222108398
0.0634639699619301 -0.010294422774474005 0.018909981820188215
0.06543555136183071 -0.010254502637668325 0.01921014340442595
0.06733859640350004 -0.010216616030036957 0.01945700276189327
0.06921869557590665 -0.010179298200756491 0.019693453829576157
0.07109878716134371 -0.010141807302134214 0.019941401856906127
0.07303677200585956 -0.01010225516896211 0.020257175076556
0.0749171216637467 -0.010064401166917914 0.020528917458499496
0.07642849859498979 -0.010038450981492138 0.020450238271102983
0.07770742472240438 -0.010020007857878705 0.020150282819277276
0.07888728407756196 -0.010004736944809675 0.019757826996009642
0.07998656824014144 -0.009992050927394856 0.019289817916280982
0.08088523805664355 -0.009985935527334233 0.018624750245081922
0.08145293165013834 -0.009990756172872145 0.01762821680142851
0.08149767456697354 -0.010012965724615469 0.016100678775405997
0.08168335114984887 -0.01003058965406945 0.014709564903501837
0.08188199496563409 -0.010047864914762167 0.013326141062307229
0.08207439120358045 -0.010065431662202372 0.01193081461952411
0.08184192668204932 -0.010097326354436293 0.010090763692077398
-0.08295625876564788 -0.011054330755580394 0.05124606207867888
-0.08025563280009396 -0.011011252723033875 0.05124442235668475
-0.07757741886889502 -0.01096854355217866 0.05124194760550549
-0.0749184690491021 -0.01092613025725782 0.051240336469121794
-0.07228142111740932 -0.010884077599478653 0.0512378965010441
-0.06966319015398242 -0.010842313773682838 0.0512363132685455
-0.06706636629791157 -0.010800902606897323 0.05123390731252658
-0.06448930360028116 -0.01075980656839004 0.05123151966513689
-0.06193177735012062 -0.010719022074728272 0.05122915011818435
-0.059392214598915416 -0.010678512972406127 0.05122762385830004
-0.056873113375540574 -0.010638341278621724 0.05122528680220445
-0.05437156815231786 -0.010598438560584308 0.05122378647774112
-0.051890032413590415 -0.010558865958443516 0.05122148120889264
