# .PCD v0.7 - Point Cloud Data file format
VERSION 0.7
FIELDS x y z
SIZE 4 4 4
TYPE F F F
COUNT 1 1 1
WIDTH 792
HEIGHT 1
VIEWPOINT 0 0 0 1 0 0 0
POINTS 792
DATA ascii
0.033686454924138305 0.07065168016065754 0.06478060751092718
0.03360887798341009 0.07204614622816602 0.06456700469497406
0.03353173794768529 0.07343346189694483 0.06435376696248418
0.033454951208384 0.0748144237488988 0.06414150584504164
0.03337843565638385 0.07618980786432261 0.06393082931423277
0.03330234863019357 0.0775581874074423 0.06372050050600059
0.033229608604883776 0.07889287729144762 0.06348783742045938
0.03316599504650609 0.08014129959735761 0.06318760503656423
0.03310254620559717 0.08138566534959446 0.06288913201339241
0.03303941774139632 0.08262456920633732 0.06259118722110746
0.03296393406543347 0.08397302345541241 0.06239334073207187
0.03288090501217603 0.0853867453373841 0.0622585734720858
0.032798293171966024 0.0867933634022664 0.06212448340458243
0.03270201512652303 0.08831981892593199 0.06210270649931021
0.03260113054612877 0.0898838269356863 0.06212217417245908
0.03252498555555154 0.09122182908243137 0.06194912990652324
0.032449195432347415 0.0925535955819306 0.06177689209884807
0.03237375770153855 0.09387916992391754 0.06160545512489568
0.032298669911109544 0.09519859519464041 0.061434813412306166
0.03222392963174059 0.0965119140815408 0.06126496144030236
0.032149534456546586 0.0978191688778472 0.061095893739085805
0.03207555558846786 0.09911975015948449 0.06092700732772105
0.03200184315158364 0.1004150065616462 0.06075949294951266
0.03192854164721801 0.10170368095721505 0.060592151142576545
0.03185361558356409 0.10300369167883011 0.06044162759561178
0.03177810134219993 0.10430585103952544 0.06029952390141058
0.03170301617953868 0.1056012219807172 0.06015750000675257
0.03162821345195227 0.1068911106347763 0.06001673696525006
0.03155383409761313 0.10817430638865244 0.05987604640099137
0.03147973287488412 0.10945209695582397 0.05973660514507384
0.03140590832822727 0.11072451171672681 0.05959840535618782
0.03133249944711512 0.11199036506097026 0.059460265241034815
0.031358782908076345 0.11239291562001424 0.05848984580440908
0.03143054848819842 0.11240492102682242 0.05713576923963021
0.03150271428002937 0.11241637177397568 0.05577488226684357
0.03157514091566451 0.11242848633749003 0.0544083345763946
0.031647829706495274 0.11244126922409803 0.05303609631540629
0.031720997880863716 0.11245288334940484 0.05165630147132061
0.0318065844998638 0.11236176138368353 0.05016710686966813
0.031895326222133945 0.11224729261104144 0.04864683431787398
0.0319844181748368 0.1121334227266243 0.04711930969599731
0.03207202267894304 0.11203569994433793 0.045600310389751764
0.03215922070282251 0.11194492291194735 0.04408062190078488
0.03224681979450833 0.11185427635829848 0.04255329050427464
0.03233332705675187 0.11177630843093289 0.04103123230825895
0.032419021728355944 0.11170861639773522 0.03951209776005238
0.031813425833489645 0.054096669070314574 0.1003185747952473
0.03170343833780922 0.05589122423097104 0.10029946224068231
0.03175792721316426 0.05598748567537315 0.09913469240697209
0.03707482880107236 0.01661047203246585 0.043600973550546096
0.03691527277024892 0.01895280882303879 0.0438842696525078
0.03345068291840947 0.05381519936860818 0.06910259806298286
0.03337657705263964 0.05523658188007696 0.06883674466350875
0.03330279880531424 0.0566516805283927 0.06857206658891274
0.03322926448411833 0.05806133414947878 0.06830917697833039
0.03315613534784075 0.0594639842544496 0.0680468255670354
0.03308324657170617 0.06086126109164003 0.06778624581981962
0.03301075801755484 0.062251626212110334 0.06752619050970254
0.032938586427030486 0.06363591181880052 0.06726727231793828
0.032865692941397316 0.06502418928707315 0.06701750837315656
0.032789469455182595 0.06644159481082312 0.06679720302479358
0.03271367772552541 0.06785167971100559 0.06657730173078646
0.03263823556717362 0.06925526093045592 0.06635841467901743
0.03256306227883699 0.07065313436029746 0.0661411485485765
0.03248831240554615 0.07204383742074694 0.06592426815472202
0.03241390492858848 0.0734281702814833 0.06570838119456784
0.032339837500788934 0.07480617661112232 0.06549348085798545
0.032266030929730086 0.0761786306660116 0.06528017053008561
0.032192636993388334 0.0775441084426366 0.06506722237628138
0.03211957618976151 0.07890338835967142 0.06485524078718491
0.03205010709261538 0.08022570547525387 0.0646180943936221
0.03198901989936111 0.08146612672243714 0.06431702099727377
0.03192808986091697 0.08270253646341247 0.06401769982011157
0.03185105447688569 0.08408757427641889 0.06385161486726693
0.03177103590597339 0.08549735392324848 0.06371353240140332
0.03169141838394143 0.08690006782851961 0.06357614199751249
0.03161227268626411 0.08829508108715084 0.06343883639994607
0.03153836751914369 0.08963806243008754 0.06326255036948747
0.031464807105745826 0.09097477901740086 0.0630870866801514
0.03139158903936708 0.09230527458294635 0.06291243959122578
0.03131871093565283 0.09362959245445879 0.06273860341531284
0.03124617043233959 0.09494777555824518 0.06256557251770323
0.031173893437835373 0.0962605264461393 0.0623939374402418
0.031102021466087794 0.09756656269005143 0.06222249942215652
0.031030480135680362 0.09886659061725711 0.062051850091068894
0.0309592671702153 0.10016065159378534 0.06188198401702927
0.030888450757027112 0.10144814446160882 0.06171230360194341
0.03081788745393093 0.10273039850828491 0.06154398892043167
0.030747715615361253 0.10400617400091655 0.0613758512161624
0.030677793124892404 0.10527678195909218 0.06120906678613175
0.03060825710039475 0.10654099932321676 0.06104245083321613
0.030538966732820826 0.10780011912606874 0.06087717589593222
0.030470057919887807 0.10905293473564193 0.06071206111294147
0.03040145938106133 0.11030010932162532 0.06054768978835723
0.03033072363086593 0.11156356705099169 0.06040509892979784
0.03032909353391448 0.11220703230951751 0.05966965919602013
0.030398388762233452 0.11221859331781131 0.05832049979386922
0.030468069902448932 0.11222959812302702 0.05696456637963304
0.030537933524333843 0.11224187454818246 0.05560360091926836
0.030608187448960975 0.11225359550281916 0.05423577595823259
0.030678765363618764 0.11226537051109214 0.0528616429985686
0.030763847777603867 0.11215236314917726 0.05135670532192432
0.03084947369265923 0.11203811001610864 0.049842778544225586
0.030935506930083463 0.11192383829964059 0.04832102444420677
0.031019676778061382 0.11182942525547085 0.046811512859204374
0.031103877316640802 0.1117382350666416 0.04529756898351933
0.03118846439276921 0.1116471733728665 0.043776023046192214
0.03127156323602302 0.11157253796054639 0.042263580588786986
0.03135430763756848 0.11150441801165573 0.04075020370410598
0.03143734514478535 0.11143719736702284 0.039230106658277364
0.03076875688670668 0.05495282269520385 0.09966523552618578
0.03074018106983662 0.05591615610429118 0.09908621552369198
0.030793189256690983 0.05601187903313298 0.09791657114726954
0.03580467395864333 0.01736816053196283 0.0441754104628056
0.03227001300507821 0.0541571636883843 0.07071855595159876
0.03219993318754397 0.05556127274917527 0.07044071933093748
0.03212897571684935 0.05697128530430845 0.07017332412863514
0.03205833028919025 0.058375097179148294 0.06990710482508877
0.031987916785207224 0.05977353806373975 0.06964266807070746
0.0319178896414846 0.06116506554254747 0.06937877671097331
0.03184809104625477 0.0625512924272314 0.06911665121635946
0.031778674105073956 0.06393069606820528 0.0688550573812865
0.03170955911119505 0.06530409962917766 0.06859460141750084
0.03164066771898356 0.06667230583393136 0.06833588679194658
0.031572151069701626 0.06803382115363282 0.06807768370973677
0.031503854798296614 0.06939020643341959 0.06782120593738133
0.0314359287570957 0.07073998721818231 0.06756522661568348
0.03136829499832044 0.07208395996248984 0.06731034876034309
0.03130087689137933 0.0734229014120259 0.06705717264573857
0.031229431749479064 0.07479869921582633 0.06684026418449246
0.03115838608413138 0.07616750129404631 0.06662373803475896
0.031087662936368016 0.07753008958383989 0.0664081948230068
0.031017186715687463 0.07888722600829418 0.06619423177693734
0.03094710238071175 0.08023750817391295 0.06598063360718132
0.030880971413029944 0.0815461922781604 0.06573788570291689
0.030821209134476765 0.08279000459066316 0.0654456277152961
0.030743855916972967 0.08420223381391284 0.06530295098608718
0.030669760293753973 0.08557955536975109 0.06513700632124592
0.030601235470902124 0.08689979421210842 0.06492815746696373
0.030532945046688943 0.08821483339441716 0.0647208376935674
0.03046502954920406 0.08952333414280433 0.064513844119022
0.03039741551422274 0.09082602673369411 0.0643077693449981
0.03033003075582268 0.09212362288694509 0.06410320263287927
0.030263013965115704 0.09341481011167657 0.06389894635795723
0.03019629267953095 0.09470030395077739 0.06369559073447473
0.030126817829714797 0.09600917133256331 0.0635192120183633
0.030057455154255383 0.09731399528903023 0.06334541831861745
0.02998841113973665 0.09861282471859639 0.06317242304910808
0.02991968359523764 0.09990570083601952 0.06300022072031336
0.029851270349876658 0.1011926644790917 0.06282880589291501
0.02978316925258156 0.10247375611295068 0.06265817317723532
0.029715378171865373 0.10374901583431007 0.06248831723266285
0.029647894995602858 0.10501848337565306 0.06231923276710438
0.029580784389029183 0.1062815735588678 0.062150329473798394
0.029513910460153087 0.1075395787458388 0.061982773226664345
0.029447404372937816 0.1087912926779333 0.06181538968823935
0.029381131477980688 0.11003799004476889 0.06164934104946784
0.02931522177866691 0.11127848074258484 0.0614834568311281
0.02930276964851635 0.11202175654952484 0.06084561642602976
0.029369610294467087 0.1120328760009563 0.05950134928230938
0.029436756569177314 0.11204404629616826 0.058150935478842924
0.029504210573680797 0.11205526778468738 0.05679433276063811
0.029571974428313937 0.11206654081924777 0.05543149848450235
0.02964219526466112 0.11205825806970543 0.05404304339270549
0.029724340021565696 0.11194424162216954 0.0525431528216172
0.029806941324227745 0.11182959149186922 0.05103492612886812
0.02989000298935233 0.11171430238123936 0.049518293624802034
0.029970718883366512 0.11162381466386995 0.048018815887077515
0.030051940794775994 0.11153221445208927 0.04651058751224574
0.03013353485512586 0.11144074077358262 0.044994797640332096
0.03021327477636194 0.11136943447095665 0.043491895151978266
0.030293087770864927 0.11130088977265679 0.041984246379401235
0.03037318279218647 0.11123324159423859 0.04046991309970133
0.030452004417100945 0.11118039314906553 0.038963299637491955
0.029855054408466152 0.053718304175678966 0.09883087559357981
0.029725337866940683 0.0558079519480808 0.09901267796537602
0.029773254494935012 0.055940416177722774 0.0978677338581597
0.029824625058759432 0.05603713704718244 0.09669423626323081
0.031128896267089246 0.05346721284255884 0.07288906318193158
0.03106570091816595 0.054824821384599876 0.07257294546925253
0.031002761636982495 0.05617692889294407 0.07225810866634305
0.030940001317389925 0.05752436357325191 0.07194515413576738
0.030877569829117844 0.05886556397566395 0.07163285543815373
0.030815314839334685 0.060202147797237426 0.07132242271969375
0.030753385023375157 0.06153257255401756 0.07101263154274479
0.030691629284702652 0.06285843605036556 0.07070469029313908
0.030625975005584845 0.06422214359895112 0.07043195784350353
0.030559569094697602 0.06559074810795407 0.07016887297557717
0.030493377146949715 0.06695419108414696 0.06990753176716075
0.030427544392613828 0.06831098464391583 0.06964671567839104
0.030361922524579428 0.06966268331934966 0.06938762720308794
0.03029665553822498 0.07100781817803176 0.06912905065492725
0.03023159641675317 0.07234792363101389 0.06887218592672523
0.030166816112272114 0.07368228593599557 0.06861642201638574
0.030102384353436942 0.07501021015984188 0.06836115070893128
0.030038156027803988 0.0763332010729903 0.06810756799199258
0.0299742721109272 0.07764983597113928 0.06785446529480677
0.029910588739142117 0.07896160022215326 0.0676030360033637
0.029847245706631505 0.08026708916235625 0.06735207438304908
0.02978410038239932 0.08156776903530155 0.06710277121847363
0.029718015009254146 0.08289534165523443 0.06688198327433786
0.02965145893045385 0.0842247279984703 0.06666873031861165
0.029585131220322927 0.08554886770179781 0.06645702569635009
0.029519168358656745 0.08686640669648904 0.06624567165227707
0.0294534305158289 0.08817876900565347 0.06603585157943292
0.02938805297544036 0.08948461833595223 0.06582637118014417
0.02932289716602448 0.09078535967052909 0.06561841062043261
0.0292580971905655 0.09207967423459545 0.06541077904541742
0.02919351571877906 0.09336894825648212 0.06520465340400461
0.029129285688342537 0.09465188022774179 0.06499884626929492
0.029065337667915886 0.09592917932524425 0.06479394275654732
0.029001603421613672 0.09720153678846272 0.06459052473173094
0.028938214167582972 0.09846767654259475 0.06438740987946318
0.028875101410402233 0.09972829353653423 0.06418518099141657
0.028812197826523 0.10098406517508446 0.06398441762702678
0.028749632947547784 0.10223374027480614 0.06378394254919151
0.028685975275367363 0.10349129059851742 0.0635965935925063
0.02862091785202757 0.10475962783035714 0.0634252240535223
0.028556154850105854 0.10602222512319381 0.06325463005796522
0.02849162020693143 0.1072797414097918 0.063085387205434
0.028427504151997907 0.10853035504840253 0.06291574773339159
0.02836361252126993 0.10977596438724929 0.06274744904029428
0.028300070652170908 0.11101537966694047 0.06257932708638625
0.028279794778903626 0.1118370853662709 0.06201773636909902
0.028344196497044984 0.11184776608177915 0.060678336744770855
0.028408828512555693 0.1118591035416005 0.059333410332346126
0.028473819944887 0.11186988347365423 0.057981744395695645
0.02853917370559943 0.11188010211560151 0.05662328344066675
0.028608961783879044 0.11185118711141134 0.05522011359557466
0.028688182893853865 0.11173616368432743 0.05372524415161817
0.02876771333163315 0.11162173388109792 0.052223295122362845
0.028847357554363254 0.11150975872561414 0.05071607679130108
0.028925132659729427 0.11141886496761966 0.049222238274365615
0.02900339466673244 0.11132685784255775 0.04771969647956692
0.02908201457433233 0.11123497531067417 0.04620963347327017
0.029158444642343292 0.11116699469277536 0.04471619577019176
0.029235344955186003 0.11109802838716615 0.04321424575567978
0.02931251633524554 0.11102995583972686 0.041705646634544846
0.0293880511618768 0.11098045367898163 0.04020862903783484
0.029463496677858633 0.11093512474542261 0.03870847776780861
0.02953939942790017 0.1108889280332504 0.03719994168851748
0.028808192212567325 0.054578164088140424 0.0981768906177437
0.028752873855633517 0.05586892208139732 0.09781887521919466
0.02880256253707548 0.05596477072418854 0.09664450720970857
0.028852355205093997 0.056061722346456344 0.0954666060980758
0.029924914230738547 0.05421193807602753 0.07478736266083844
0.029871062331149632 0.055489394157479555 0.07441391208225545
0.02981093716980501 0.05683301924543527 0.07409544828288042
0.029750908859850857 0.05817282627428505 0.07377946829012533
0.02969112181364344 0.05950724839629257 0.07346475827330398
0.029631502807108193 0.06083709839622842 0.07315191187421385
0.029572194232233912 0.06216084288071427 0.07283971849858686
0.02951305139953092 0.06348006980191018 0.07252937273861429
0.029454215575130803 0.06479326430985971 0.07221966592168705
0.029395613868151184 0.06610123340102109 0.07191119147898742
0.029337174530249154 0.06740476508678545 0.07160454109044442
0.029279037163889087 0.06870237187386774 0.07129850897639062
0.029221059964593076 0.0699955936185836 0.0709942854939315
0.029163381441713408 0.07128296077031487 0.07069066680237379
0.029101845061365404 0.07260882931503138 0.0704234737235227
0.02903974058969424 0.07393791899350854 0.07016456243306718
0.02897783197894804 0.07526207710663518 0.06990734954460648
0.0289162551159661 0.07657987707313657 0.06965063596148907
0.02885487133530359 0.07789280807381688 0.06939560546036
0.02879381538600548 0.07919946158066837 0.0691410617050579
0.028735581962331298 0.0804735942856874 0.06886505440272778
0.028681147007861046 0.0817051475640182 0.06855874859363009
0.028618078178948337 0.08302470861395672 0.06833176827873005
0.02855182055474855 0.08437472822211711 0.06813652379907142
0.02849197267197325 0.08565480807066583 0.06788787447492861
0.028432375159887578 0.08692953276788074 0.06764026536296491
0.02837309225610566 0.08819825206632942 0.06739310084850159
0.02831399052107799 0.08946237113467115 0.06714755333229738
0.0282529158422153 0.09074418684391417 0.06692300976718979
0.028190609875700795 0.09203590787603222 0.06671293178969978
0.028128513433644267 0.09332261031709355 0.06650436440734003
0.028066754345924542 0.09460299499468133 0.06629612858366102
0.02800520175023025 0.09587842690235504 0.06608938961129207
0.02794398237258714 0.09714762382065528 0.06588297180141567
0.027882966509828425 0.09841193261820991 0.06567803731605654
0.02782227979829298 0.09967008778668784 0.06547341379998461
0.027761856679297387 0.10092277816224166 0.0652696790654182
0.027701632711211416 0.10217067523581835 0.06506740776277425
0.027641731922159057 0.10341253811897672 0.06486543250822807
0.027582089627255103 0.10464904190271185 0.06466432885182044
0.027522642236870967 0.10588084470946474 0.06446466919795851
0.027463512201451254 0.1071067297504883 0.0642652911026742
0.027404635692429017 0.10832735867739124 0.0640667678623727
0.02734594995526226 0.10954337653962265 0.06386966964416418
0.027287575892487023 0.11075359014160685 0.06367283891240877
0.027260152559429 0.11165301580536963 0.06318603777691278
0.02732206986965381 0.11166386663318412 0.06185206075341887
0.027384330390618 0.11167415946221781 0.060511426107015154
0.0274468753134976 0.11168449930831459 0.059164667530660464
0.02750970659144704 0.11169488649436832 0.05781174296774266
0.027579042182231766 0.11164415603992539 0.05639288200934983
0.02765522849279583 0.11152935520505108 0.05490421278553781
0.02773183689413809 0.11141391834560138 0.05340729597031579
0.027808049140250243 0.111305869718765 0.051910026413621024
0.027882965428472118 0.1112139534732971 0.05042118109405591
0.027958222568011983 0.1111221620330789 0.04892491475586136
0.028033565846070942 0.11103299016225571 0.04742368871082325
0.028107120487210917 0.11096459031263989 0.045935869209206004
0.0281810621298222 0.11089583058315916 0.044440221672036984
0.028255328575584594 0.11082733680727047 0.0429373272998429
0.028327691471328596 0.11078054679295535 0.04144918080893567
0.028400294102147422 0.11073478074771975 0.039954699095763935
0.02847326984378896 0.11068877950717193 0.03845253711942237
0.028544756537556473 0.11066033667197223 0.03696121960676313
0.027884324365553124 0.053336759518556154 0.09733320833196843
0.02776265678322987 0.055436216948039185 0.09752316680235196
0.027779982102967175 0.05589314272585849 0.09659528552249697
0.027828017512583795 0.0559899917632708 0.09541704088503034
0.02880367608547809 0.052752881245369365 0.07768761055720588
0.02875193604514996 0.054030638626828664 0.07730962838530547
0.02870045137884404 0.05530301645857538 0.07693240695472148
0.02864908118753878 0.05657163849417446 0.07655712865860828
0.028597894559597613 0.05783572730696657 0.07618319136080262
0.02854695959448417 0.05909452327063058 0.07580999359173696
0.028496136908067227 0.0603496226569083 0.07543871697794657
0.02844556345254137 0.06159948598510673 0.07506816602051
0.028395100839915855 0.06284569148443353 0.07469952180779862
0.02834365918181198 0.0641005104380335 0.07434227467574303
0.028287383175699406 0.06540716080016284 0.07403022122925051
0.02823133019699351 0.06670863277711642 0.07371940448146283
0.028175498922496406 0.06800495709170079 0.07340981709518096
0.028119888039457117 0.06929616422416401 0.07310145179112892
0.028064496245467772 0.0705822844145953 0.07279430134739145
0.028009322248363014 0.07186334766527375 0.07248835859884062
0.027954298522805263 0.07314011806995147 0.07218420698793146
0.027899556542628996 0.07441115206432042 0.07188065792022452
0.02784502854177503 0.07567721775125091 0.07157829538645588
0.0277907132680642 0.07693834420462914 0.07127711244318635
0.02774659103551485 0.07808486225322037 0.07088698501252216
0.027693958980011844 0.07932260044723499 0.07057643252547569
0.02764146145084096 0.0805563605830038 0.07026764440225591
0.027589227100628833 0.08178474755537618 0.06995943671857158
0.027524981804938495 0.08314150483006172 0.06976399538138922
0.027456305310897076 0.08454337486567481 0.06961283468700952
0.0273940126984183 0.08587272752294511 0.06940684818111736
0.027336942477462475 0.0871425900413702 0.0691562095320084
0.027280046465251836 0.08840785384461058 0.0689071969110076
0.02722344961896386 0.08966718486003883 0.06865863542292466
0.027167024559841674 0.0909219740309859 0.06841168576647177
0.027110832916770067 0.09217157245986818 0.06816575767754224
0.027054935293519728 0.09341534809109309 0.06792026350201252
0.026999205902944284 0.09465466540364709 0.06767636026189128
0.026943767169731434 0.095888231760478 0.06743287971439688
0.02688849435104233 0.09711739430713007 0.06719097643257343
0.026832105084333653 0.09835576968405019 0.06696279606967726
0.026773824836998746 0.09961147685564387 0.06675579999637565
0.0267157367104591 0.10086237999266606 0.06655027832238536
0.026657960333756333 0.10210723219672668 0.06634507015166313
0.026600373333703686 0.10334734235674153 0.06614132321923843
0.02654309432133204 0.10458147975338705 0.0659378798719269
0.026486061458022903 0.10581031360609122 0.06573531079569994
0.026429213947992004 0.10703449635572793 0.06553418359887087
0.02637266889959094 0.1082528211228796 0.06533334546496988
0.026316365289273037 0.10946594384315278 0.0651333648768802
0.026260243116194747 0.11067450403447893 0.06493480725516565
0.02624376834644362 0.11147014905230873 0.06435111112078745
0.02630327980319686 0.11148056749359303 0.06302195333699112
0.02636317960773051 0.11148981965006499 0.061685592955039725
0.026423293665549425 0.11149972222924048 0.06034371689219331
0.02648368249731206 0.1115096700719902 0.05899570727924641
0.026552294377392628 0.11143838586089688 0.05756256449099412
0.026625528770912038 0.11132319834733262 0.05607946667215924
0.026699168259893775 0.11120737367506095 0.05458816510947262
0.02677206175224321 0.11110263222287758 0.0531001608664331
0.026844071494210753 0.11101031657310001 0.05161690183179102
0.0269164082392637 0.11091812383927246 0.05012626109025481
0.02698845668000585 0.11083228300305614 0.048634429416954617
0.027059153832920096 0.11076346879091803 0.04715220456027441
0.02713022234549647 0.11069429310998308 0.04566219383798947
0.02720135153427569 0.11062789366361425 0.04416753201003998
0.027270774084913386 0.11058193057649618 0.04268627585532103
0.027340551898782057 0.11053573227780877 0.0411974395144547
0.027410751401895875 0.11048866369558275 0.03970031010601727
0.027479071787253666 0.11046357610151619 0.03821856180867045
0.02754747627719998 0.11044090929307682 0.0367320676409858
0.02683533269604661 0.05419957817285681 0.09667805424090872
0.026756953666001997 0.055821483346565226 0.09654604227075764
0.026803230271183927 0.05591822969982707 0.09536745391939846
0.026849730687938195 0.05601453836886172 0.0941842446971379
0.0275976555869442 0.053046003923720886 0.08053705882157453
0.02755634951812117 0.05422115061000571 0.08008565417450172
0.027515166911743837 0.05539278482262805 0.07963559876053761
0.02747417366318291 0.05656013271711152 0.0791863007455878
0.02743323612898411 0.057724793051272594 0.07873892550572667
0.027391825942317177 0.058893022148121366 0.07829815723463873
0.027343233013319472 0.060144019886637035 0.07792378571385025
0.02729474660238951 0.06139135977930377 0.07755132600262774
0.027246497195151726 0.06263351536126754 0.07717959912631114
0.0271984180691604 0.06387128714232099 0.07680918414402604
0.027150443432873615 0.06510545813370239 0.07644065957966853
0.027102702404180626 0.066334527379525 0.07607284748435936
0.027055128974933822 0.06755928186034477 0.07570632662845292
0.027007722264118624 0.06877974425744415 0.07534109022433619
0.026960417410362356 0.06999668001190501 0.07497771636288589
0.02691340550449264 0.07120788273352308 0.07461444385804783
0.02686420643142903 0.07244204701146945 0.074274060987188
0.02681183248637314 0.07371040516543476 0.07396587590846418
0.026773663893839044 0.07481264655153791 0.07352926726430548
0.0267356038180611 0.07591175416591905 0.07309389993784107
0.02669765179691202 0.07700774135399935 0.07265976864281648
0.02665342702078981 0.07817359656736306 0.07228649984350799
0.026602992295287696 0.07940813778496986 0.07197405914589647
0.026552748078227585 0.08063801573700186 0.07166279863880401
0.026502631460225818 0.08186395941252689 0.07135329500445498
0.02643749743595011 0.08325770140935995 0.0711888693669882
0.026371703183097204 0.08465569259490857 0.07103454970369066
0.026306235597185645 0.0860467427866925 0.0708809962338417
0.026247216048949154 0.08736192245572605 0.07066970633546904
0.02619341238782204 0.08861555885068012 0.07041191635976918
0.026139167217543023 0.0898714864398446 0.0701615403272211
0.02608514626016935 0.09112222287249488 0.06991219918002595
0.026031407780947452 0.09236713421498327 0.06966330966073853
0.025977830853758578 0.09360758863392071 0.0694160197495799
0.025924533177063846 0.0948422897638902 0.06916917005823348
0.025871394827852764 0.09607258842706351 0.0689239061889928
0.02581847387130791 0.09729785385329265 0.06867964571112956
0.025765827417623087 0.09851747155942447 0.06843580872642457
0.02571333702539897 0.09973276679788795 0.06819353726730948
0.025661118033228434 0.10094248328588556 0.06795167839910216
0.02560905297201933 0.10214792952533924 0.06771137177619518
0.02555719875707233 0.10334849410665276 0.06747203831547044
0.02550561137724331 0.10454358136381148 0.06723310145808331
0.02545360444820001 0.10574068827857952 0.06700139757907658
0.025399139761804208 0.10696193675323562 0.06679739436594129
0.025344851112579805 0.10817858324551122 0.06659483081285589
0.025290850349936115 0.10938943066536988 0.06639256361225487
0.025237079209927793 0.11059512930661436 0.06619115649438123
0.02523074510007728 0.1112872733749869 0.06551182771970887
0.025287866280268738 0.11129726084092412 0.06418746065803832
0.025345303235827274 0.11130668739151345 0.06285650654909603
0.025403058508669706 0.11131554925922765 0.06151891147762795
0.0254610205334504 0.11132506057672936 0.06017579191366579
0.025528825108007715 0.1112326504379792 0.058727987094497336
0.02559912605767162 0.11111707729743903 0.05725042809317271
0.025669815263995203 0.11100086587200558 0.05576470885882373
0.025739379497629448 0.11090004312015395 0.054286498407161654
0.025808500866770497 0.11080733108493263 0.05280879759119045
0.025877935525439863 0.11071474009718973 0.05132375411160134
0.025946737255193423 0.11063222682412693 0.049841243167170646
0.026014595077287747 0.11056300129942964 0.04836458449205866
0.026082808763456356 0.11049341273817914 0.0468801818345273
0.02615077909671738 0.11042973369035664 0.04539432796255172
0.026217410271287038 0.11038334154646207 0.04391864196479772
0.026284381860377473 0.11033671238810733 0.04243541677905832
0.026351696479404774 0.1102898443943005 0.04094459448150406
0.026417022108616746 0.11026684104970624 0.03947103206115182
0.026482610687313536 0.11024435929496923 0.03799080628384777
0.02654858781145848 0.11022112806753043 0.03650254614677473
0.025901042192648216 0.05295278469698739 0.09582600200934635
0.02578760902892493 0.05506135386730632 0.09602369208834369
0.025777993184890484 0.05584643613539719 0.09531784518685743
0.025822724769892728 0.05594264139845667 0.09413428973655047
0.025867550606511986 0.056039955493091875 0.09294716060093805
0.026393791947706004 0.05278105592635007 0.08425595317241946
0.02636499566822611 0.053819239809796304 0.08370680506837097
0.0263363256554347 0.054854369544593884 0.08315827950518684
0.026307717927812915 0.055887250475819494 0.08261094560533733
0.026273040858608186 0.05699397609282625 0.08212063936239444
0.026234169778267414 0.05815085507651985 0.08167078230046793
0.026195413547563606 0.05930431591167207 0.08122225439929975
0.026156771658240385 0.06045437372497997 0.08077504977681393
0.026118306058506638 0.06160027497844217 0.08032858615696739
0.026079891155553803 0.06274357563253852 0.07988401037030388
0.02604152700077719 0.06388427896787169 0.07944131727900808
0.02600333745397475 0.06502087418808628 0.07899934763980937
0.02596519802805604 0.0661548939427748 0.07855924964198713
0.025923785900263622 0.06732680681434372 0.0781521965182681
0.02587851975594092 0.06854342456019458 0.07778396136468527
0.0258345723415294 0.06974172315858274 0.07740604589928796
0.025807592489290987 0.07073244282792962 0.07687005835017269
0.02578060808066991 0.07172183013628458 0.07633576752889601
0.025753680042692288 0.07270915060682381 0.07580259284524565
0.025720023307213933 0.07377598915963696 0.07533544043026474
0.02568349490180299 0.07487555080636682 0.07489791126780329
0.022968676597972536 0.10803804768118908 0.10024938916813089
0.02291874737468194 0.1092250815002686 0.10002783938103757
0.022868699589664896 0.1104109611553214 0.09981049821683355
0.022878566997761005 0.11088157672394433 0.09901384862809279
0.025469275962569 0.08071997823237298 0.07305173932910114
0.025418777404527047 0.08197291403826934 0.07276525524564537
0.02535564082362085 0.08337260736611096 0.0726058691934881
0.025292699973346634 0.08476674594746442 0.07244842587941017
0.025229371510923793 0.08616220874213831 0.07229866677447311
0.025146776028397523 0.0877806236762046 0.07234360629862793
0.025092127428763975 0.08906739336895225 0.07211596953775068
0.025044490014174515 0.09026939705690468 0.07182181445103847
0.024996975929425118 0.09146751262570219 0.0715293459730375
0.024949698778885008 0.09266042747504755 0.07123741372206271
0.024902600122261066 0.09384883849882919 0.07094658365523931
0.02485562238949301 0.09503342649768731 0.07065742011390153
0.024805384802332853 0.09625328509352804 0.07040411984751122
0.02475478884027126 0.09747469419406546 0.07015753545535752
0.02470439886044154 0.09869113079169345 0.06991195493775415
0.02465426925571437 0.09990198614848467 0.06966680399407482
0.02460428725918739 0.1011085724193968 0.06942321352470143
0.02455450751075775 0.1023102763368472 0.06918060872432591
0.0245049287853332 0.10350712747507301 0.0689389836223841
0.024455549867696002 0.10469915516993678 0.06869833229643613
0.0244064240873703 0.10588576927419818 0.06845808369993811
0.02435744095997693 0.10706824102805779 0.06821936295068293
0.024308654054290602 0.1082459759136335 0.06798159849375301
0.02426006219360014 0.10941900233718937 0.06774478459441258
0.024211664210584332 0.11058734847831186 0.06750891556368832
0.02422095231782553 0.11110559354126931 0.06666934617603365
0.024275752120762342 0.11111454980309399 0.06534918091888209
0.024330800454542154 0.111123546683914 0.06402302838124058
0.02438609901373215 0.11113258446068303 0.0626908477398101
0.024441704201084696 0.11114105503024696 0.061352015909501956
0.024508557109832328 0.11102755852728519 0.059889764416353686
0.024575887322907428 0.11091221497882675 0.05841830852540164
0.024643644095903153 0.1107956217500477 0.05693814890742249
0.024709986584940054 0.11069809931266256 0.05546905717692702
0.024776237625280292 0.11060499388809547 0.05399688669646968
0.024842844877684074 0.11051138786356418 0.052516800794754626
0.024908391106739713 0.11043281846348013 0.051044149035762876
0.024973427624003872 0.11036318465307782 0.049573028267269226
0.025038804654573883 0.11029318625931656 0.04809420511516599
0.025103601722382737 0.11023285192798826 0.04661772350334853
0.025167459207314828 0.11018603550035888 0.045147584046953626
0.025231642396564977 0.11013898028622765 0.04366994616217296
0.025295860873351332 0.11009484483007509 0.0421879854109275
0.02535846412992573 0.11007139739740573 0.04071996675766637
0.025421378021458964 0.1100478336195892 0.03924466385199682
0.02548460486573949 0.11002415262852205 0.03776202234280346
0.0255462349328529 0.11002078698688228 0.03629332635456756
0.025607983693515246 0.11001932517284035 0.03481952517754022
0.02484991510969311 0.05381858240108445 0.0951696771483306
0.02475230595743966 0.0557746110492347 0.09526821467307164
0.024795267151432803 0.0558707128061286 0.09408431280463508
0.024838318899575215 0.055967923449568246 0.09289683537823284
0.024881520408290187 0.056065472251725645 0.09170522717178736
0.02511507203106898 0.0536691321046085 0.08874761044539095
0.025102325776720173 0.05450859355844612 0.0880644517668544
0.02508965248579707 0.05534641934032819 0.08738142623492706
0.025076932013268972 0.056184181210715944 0.08669965129463644
0.025053026123408394 0.05716674612329792 0.08612372920220446
0.025025999775141066 0.05818853353473441 0.08557873661020696
0.024999091273704626 0.05920734679336853 0.08503435508828816
0.024972240575136275 0.06022397151226144 0.08449114296664423
0.02494544749338397 0.06123841473573871 0.0839490964812887
0.024918711843193293 0.06225068347792606 0.08340821188437145
0.024891974349812718 0.06326154379196935 0.08286905166984757
0.024864468710516095 0.06428081886846077 0.08233898347916965
0.024844791720500695 0.06519847374910759 0.081735154294405
0.02482685039181844 0.06609291791812971 0.0811157832565049
0.024808934956495957 0.06698607120381922 0.08049730610971065
0.024791045358518813 0.06787793639871148 0.07987972092028942
0.024770957696619217 0.06879672626009065 0.07928476138803728
0.024745120107020038 0.06978722522917435 0.07874746689771989
0.024719278088151032 0.0707763961466617 0.07821186537219282
0.024693489987865875 0.07176350318933011 0.07767738136276542
0.024667755637591042 0.07274855280976811 0.07714401137558943
0.024633333613532923 0.07384126563106025 0.07669858307383223
0.02459843046150154 0.07493816052162111 0.07626014680243531
0.02456362607829915 0.07603195142260266 0.075822951216484
0.02204288359228513 0.10812591254700055 0.10032005083013706
0.0219573991442269 0.10978006625644149 0.10047654652393376
0.021929800521426176 0.11071084982537438 0.1000542531116706
0.021976635052415823 0.11071788275748828 0.09888008605507911
0.024339550482404573 0.08209179638889841 0.07417869134519037
0.024279248939139755 0.08348762048557268 0.07401621055398863
0.024219133574171634 0.08487792259819898 0.07385567634745133
0.024154417823485947 0.08632151335233512 0.07374614596395401
0.0240756108349872 0.08793434962183622 0.07378566943354267
0.023997261490826347 0.08953736760595826 0.07382550241111474
0.02395028828221187 0.09075330163434114 0.07354564334088928
0.02390507893235057 0.09194524216069394 0.07325047343421223
0.02385998564553363 0.09313335091215186 0.07295698107502838
0.02381511624918745 0.09431633004555201 0.07266402898041091
0.023770415292053777 0.09549486828858539 0.07237217662458628
0.023725828144004202 0.09666963851799693 0.07208198193301879
0.023681461432858045 0.0978393658194614 0.07179231015732193
0.023637260340875398 0.09900472657563242 0.0715037197147197
0.02359317085761963 0.10016638161782809 0.07121676746077599
0.02354929843115115 0.1013230785346696 0.07093032119515086
0.02350558886639961 0.10247548160096254 0.07064493826543711
0.02345868198065516 0.10366361871219065 0.0703965554528152
0.023411543761451218 0.10485199187853306 0.07015364957565873
0.02336459460231934 0.10603559876569085 0.06991171793552858
0.02331783336812403 0.10721446799087758 0.06967075468300987
0.023271310578864782 0.10838801844725382 0.06943019483292323
0.02322492161962599 0.10955750109308948 0.0691911515790683
0.02317871723519808 0.11072233054043729 0.06895305944289909
0.02321443239482244 0.11092450255372754 0.06782311297659843
0.02326692126992564 0.11093243148183296 0.06650713254741514
0.023319596181392645 0.11094100143176594 0.06518575743751137
0.02337251013961009 0.11094961027353578 0.06385838572649793
0.023427234887887484 0.11094002312618911 0.06250762576466973
0.023491422758704653 0.1108237169206967 0.06104849678434354
0.02355585749584943 0.11070799511475671 0.05958252644925721
0.02362075309895623 0.11059040936533038 0.05810730579733603
0.023683867323145827 0.11049679772217136 0.056647855201460984
0.023747265950402992 0.1104033018817856 0.05518118735497907
0.023811004908218567 0.11030930414591267 0.0537066462797427
0.023873401876211123 0.11023405477957188 0.05224316597368933
0.023935634984348347 0.11016401568741224 0.05077755502373987
0.023998193398455315 0.1100936104858174 0.04930428300697853
0.024059920297790353 0.11003599069796288 0.04783647161581278
0.02412102224858267 0.10998875132769897 0.04637184525846577
0.0241824353352367 0.10994127141101828 0.044899760910235675
0.02424354535597699 0.10990049538208974 0.04342723095426504
0.024303444035655812 0.109876606951813 0.04196472729784123
0.024363639432384645 0.10985260018674448 0.04049497891113368
0.02442407686666349 0.10982911053900857 0.039018589549553895
0.024482814005998072 0.1098278311764691 0.03755805397982853
0.024541891778214184 0.10982590623817556 0.0360898088878473
0.02460125535286656 0.10982397198766297 0.034614460819284376
0.023905087584591197 0.052566356419206484 0.09430916519914057
0.023800062651815904 0.05468333021543298 0.09451414816449827
0.02376735753449081 0.05579875257100941 0.09403431388689229
0.023808633627372202 0.055895859662711544 0.09284648797803227
0.023850109941315027 0.055992528459363866 0.09165398390337648
0.023857414263582843 0.05655912195432311 0.09078902155836546
0.02385231765683806 0.05729547032724619 0.09004385237053697
0.023847166635235853 0.05803227539788963 0.08929955227239167
0.02384207440538934 0.05876799298653884 0.0885550211406893
0.023836984349802415 0.05950339644180741 0.0878108079054763
0.023830031474990996 0.06026374573885995 0.08708524985288171
0.023819242801520847 0.061075551929728356 0.08639799809875728
0.023808520300751583 0.06188586254123074 0.08571080995217689
0.023797807449285044 0.0626954439450137 0.085024240213946
0.023787047927156857 0.06350505346143548 0.08433884918784287
0.023774666819736123 0.06433579802005868 0.08367038911983093
0.023757523429179354 0.06522955317421425 0.08305053050193084
0.023740404744138643 0.06612202032878511 0.08243156516847971
0.023723254705910066 0.06701394829037455 0.08181405678364095
0.023706185352520136 0.06790384514831227 0.08119687328489247
0.023685176266604054 0.06884504729750285 0.08062087631780726
0.0236605269916804 0.06983325944071772 0.08008340453789212
0.023635873374942645 0.07082015117988383 0.07954761913086777
0.02361127108131686 0.07180498843946204 0.07901294910465367
0.023585225260441368 0.07280743715637461 0.07849478444155669
0.023551727481707654 0.07390623673760038 0.07805534890172602
0.023518434804736157 0.07500047776117152 0.07761601877309973
0.023485236119536488 0.07609162952732695 0.07717792895966938
0.023450051381840413 0.07720682602799622 0.07676276906807014
0.023405918603128087 0.07843649832413097 0.07644359680526958
0.021113111984563046 0.10886324584169893 0.0997352941402318
0.021031276971107585 0.11051365883564518 0.09989397284282123
0.021073573228075633 0.11055456313817164 0.09874662938016895
0.021118658201099372 0.11056185326679635 0.09756691219029476
0.02315102329469012 0.08498853422287406 0.07525577483410631
0.023085340187473262 0.08647927376730163 0.07518521855646562
0.023010224364553588 0.08808724624671405 0.07521995292501116
0.022935543435868625 0.08968545804988953 0.07525502377137513
0.022850221061926922 0.0914152980068304 0.07540962500453671
0.0228119912972251 0.09254070563141192 0.07506138693955622
0.022773889239785967 0.09366235381030852 0.07471431217041533
0.02273575993045693 0.09478221779312906 0.07437007156333911
0.022693247401750747 0.0959553976786734 0.07407614037897961
0.02265089356024557 0.09712419841683523 0.07378330635619065
0.02260869751909499 0.09828864448111135 0.07349156336332882
0.02256665839804897 0.099448760162969 0.0732009053143528
0.022524775323392046 0.10060456957354252 0.0729113261684062
0.02248304742788308 0.10175609664530011 0.07262281992939618
0.02244147385069568 0.10290336513369186 0.07233538064557632
0.022400053737358473 0.10404639861879078 0.07204900240914358
0.022358786239696796 0.10518522050690438 0.0717636793558305
0.0223176705157751 0.10631985403216937 0.07147940566450187
0.022276705729839176 0.10745032225813816 0.07119617555676472
0.022235841849656497 0.10857725535959689 0.0709145375464511
0.022195176636673503 0.10969945791385116 0.07063337704710276
0.02216135352315594 0.11073532173351608 0.0702773957636576
0.02221121853869606 0.1107433957369317 0.0689725884052822
0.02226130846163054 0.11075150615682089 0.06766189594237337
0.022311674355560866 0.11075904873572662 0.0663447121853723
0.022362218906946403 0.11076723138037486 0.06502212520899214
0.022416192775260455 0.11073658392331887 0.06365674176430619
0.02247746447996389 0.1106205118237239 0.06220361093042215
0.022539072058761947 0.11050380344992417 0.06074251444562412
0.02260081495539871 0.11038890626616515 0.059275744742653846
0.02266105722302537 0.11029552027429834 0.05782231602200183
0.02272157012352626 0.11020225198494876 0.05636171765814324
0.02278245872128078 0.11010786550883928 0.05489269360581711
0.022841753310775207 0.11003593265113798 0.05343831280957084
0.022901200776320258 0.10996549125846394 0.05197818377543939
0.02296090601885182 0.10989530632159172 0.05051105365460856
0.02301960500768395 0.10984040013338187 0.049051851250273115
0.023077968874205452 0.10979274254055948 0.047592714697055505
0.0231366294441246 0.10974484267175288 0.0461261603559745
0.023194785890646136 0.10970616194331662 0.044661713061729
0.0232519441190627 0.1096824664436929 0.04320533457289244
0.023309438818219855 0.1096580197801868 0.041741111856421265
0.02336689253825193 0.10963726619646003 0.04027355227472712
0.02342304677243017 0.10963489118006431 0.038817842542444414
0.023479471551157302 0.10963250472123459 0.03735511937036501
0.0235361688343329 0.10963010673707674 0.03588533195119309
0.023591368172097588 0.10964823581146055 0.034429988657780575
0.03175575113880114 -0.10003554084399996 0.034769903819371506
0.03164743190940778 -0.09746316589574672 0.0346456097203689
0.031709028616377505 -0.09747189279773355 0.032983385239761465
0.031770865567444975 -0.09748065373699438 0.03131467762647622
0.02285176483644377 0.0534359372534739 0.09365220938966726
0.02275142864976085 0.05554780517311225 0.09385995217847934
0.022778062656048658 0.055829967120823665 0.09280045212661028
0.0227731516401573 0.056565887138520954 0.0920567709382129
0.022768242741442325 0.05730148989585665 0.0913134103560066
0.022763389867111412 0.05803600596213837 0.09056982353299375
0.02275853906101949 0.05877020898651275 0.08982655361767183
0.022753690321844555 0.05950409916906063 0.08908360040749136
0.022745613717154313 0.06028350630934248 0.08837405300654777
0.022735337817535967 0.061093583106581584 0.08768767550479445
0.022725124925941767 0.061902169093044745 0.08700136373743958
0.022714921205586724 0.06271002896453798 0.08631566828201995
0.022704673013040463 0.06351791840403542 0.08563114520673143
0.02269127313071391 0.06436946800049853 0.08498017228389412
0.022674946690163487 0.06526124656763677 0.08436072532650002
0.02265864372645518 0.06615174278899316 0.08374216911166882
0.022642364188986817 0.0670409594285355 0.08312450171949928
0.02262610802730193 0.06792889924228873 0.08250772123559974
0.02260429224517521 0.06889315038334826 0.08195096471177449
0.0225808208453539 0.0698790862310038 0.08141332269878476
0.02255734520099355 0.07086370926635593 0.08087736049593117
0.022533918317607326 0.07184628715334795 0.08034251153348076
0.022507061209522995 0.07287476454517372 0.07984610743015025
0.02247516932343448 0.07397090461701211 0.07940578255588274
0.02244347249670526 0.0750625045696553 0.0789655716661371
0.02241186494811585 0.07615102989243883 0.07852660068617173
0.0223759178519602 0.0772969999761251 0.07813700760067482
0.022333908827186107 0.07852351721857193 0.07781603030072903
0.02229205724366113 0.07974543772487391 0.07749625595806223
0.02026318272690305 0.10793967232434087 0.09898858185034981
0.020184336115483117 0.10959978948947496 0.09915116369530513
0.020169427497849533 0.11039104749340778 0.09861301252300705
0.02021260408639714 0.11039799196948719 0.09743229980313345
0.02202203322342557 0.08663618262252687 0.07661652331669733
0.021950569980305958 0.08823932024381431 0.0766465195581163
0.02187946943650336 0.08983342167823194 0.07667743582873465
0.02178396679371008 0.0917496473958152 0.07698708416024005
0.02171084984920377 0.09336162859526748 0.07705144636869993
0.021674768352568027 0.09447630255172029 0.07670280020355075
0.021638806585050227 0.0955872776891406 0.07635531094978285
0.021602963951692106 0.09669457238770562 0.07600897285847416
0.021567288253657224 0.09779756492640873 0.07566322885499743
0.02153168195980097 0.09889755692309593 0.07531917613318867
0.02149619303950212 0.09999392287626985 0.07497625755605103
0.021460820913345433 0.10108668068591253 0.0746344675248761
0.021424562126403816 0.10218899386037839 0.07430536661753184
0.021385094664471766 0.10333115376279994 0.07401590794188243
0.021345772345465037 0.10446911333365083 0.07372751376020437
0.021306594370200976 0.1056028957006987 0.07344017821120824
0.02126755994535341 0.10673252382222786 0.07315389547655674
0.021228668283399418 0.10785802048858567 0.07286865978046889
0.021189918602565708 0.10897940832372377 0.07258446538933905
0.021151310126776943 0.11009670978670422 0.07230130661134426
0.02116369791544847 0.11055521683520025 0.07141849445027051
0.02121124130080836 0.11056287321601088 0.07011835533947158
0.02125899877556651 0.11057056407385008 0.06881236166019017
0.02130697178906339 0.1105782896421193 0.06750047377822238
0.02135520924890477 0.11058544488079769 0.06618208469444359
0.02140828971448283 0.11053377635219841 0.06480229002469523
0.02146666742054234 0.11041794025969537 0.06335512377539138
0.021525460783344535 0.11030024922287346 0.06189888123616083
0.021583995456123738 0.11018926375756594 0.06044167187730526
0.021641436211047763 0.11009549448563016 0.058993649755662236
0.02169918351184708 0.110001224792388 0.0575378999289019
0.02175704282692128 0.10990892347351411 0.056076762593836094
0.02181337975928973 0.10983906893518491 0.05463021364026588
0.02187010872377585 0.10976760824258075 0.05317493341347329
0.021927033481069277 0.10969702192020342 0.05171329450429768
0.021982747002489998 0.10964482491070471 0.050262630466532954
0.022038390653384185 0.10959675039707206 0.04880895071523367
0.02209431671405624 0.10954843188962432 0.04734789306230036
0.022149455446687748 0.10951310361536465 0.04589273368180963
0.02220399808299349 0.10948834075838498 0.0444411695703828
0.022258758457620306 0.10946408912897765 0.042983083635629304
0.022313271613890434 0.10944606849518934 0.04152428495313393
0.022366803248281688 0.10944323878992429 0.040074035078351
0.02242059235509002 0.10944039547467366 0.03861680990097627
0.02247458824672614 0.10943817813875717 0.037153223580275396
0.022527049667563727 0.10945775037570693 0.035705337117831804
0.02257970353567149 0.10947805678564931 0.03425134990013423
0.02263260412263702 0.10949845834492922 0.0327905497722728
0.030394750430078585 -0.10227968882826921 0.03509910670439953
0.03023658857688558 -0.09882887064218288 0.03548588551666476
0.030187742055090453 -0.09712643898136769 0.03484656455130225
0.03024645645013855 -0.09713450483011399 0.033185898085357546
0.03030539968636335 -0.09714260211570935 0.0315187591202733
0.030364573104250815 -0.09715073102230654 0.02984510974201171
0.03042397805477637 -0.09715889173548997 0.02816491173984209
0.021896338693883955 0.052177451094843175 0.09278260530267077
0.021799987430565746 0.054300550973014616 0.09299334253262614
0.021704275033641186 0.05640813856440391 0.09320439246075482
0.02168872927066531 0.05730594481680257 0.0925766647462535
0.021684064719040396 0.058039721203137384 0.09183487714625574
0.021679453398598655 0.058772415886254925 0.09109286437752803
0.021674844038996076 0.05950479901115202 0.09035116712921643
