# .PCD v0.7 - Point Cloud Data file format
VERSION 0.7
FIELDS x y z
SIZE 4 4 4
TYPE F F F
COUNT 1 1 1
WIDTH 774
HEIGHT 1
VIEWPOINT 0 0 0 1 0 0 0
POINTS 774
DATA ascii
0.027450998374047235 0.031167428044103718 0.027710604044416276
0.028290194682961043 0.021201625376229827 0.01779027175556397
0.028266321661918805 0.022296917832100638 0.01710502409488729
0.028235267588603785 0.023482317307743472 0.01649891024245409
0.028182292149670427 0.02494450854975555 0.016132309839791692
0.028110708466962515 0.026639650510532353 0.015971416273802497
0.028147085400061667 0.02696510455080381 0.014638706442970773
0.028632126374886723 0.021629592970496492 0.00839896538527729
0.02880918382146788 0.02019992677493221 0.005503919693480797
0.028806045573029713 0.021044499715625442 0.0045789071802521675
0.028726170155704892 0.022851033413656574 0.004500629901139586
0.028621116957367028 0.024968079710346203 0.004706260628374925
0.02849798628715229 0.027304900337631832 0.005119515055604762
0.02573864247450769 0.062466844846171043 0.03488576799324927
0.025597092792472183 0.06494510585726909 0.03560887216563596
0.025488472633713313 0.0670071837337961 0.035972659435199505
0.025385386800798947 0.06899472858704997 0.036281524275321164
0.02527295756760509 0.07109183189039392 0.03670250601159164
0.025174315703175153 0.07301286655151024 0.0369752079152727
0.02506912153441778 0.0750088928794887 0.037328726450701954
0.02496765611550148 0.07695333018796385 0.03764687661633992
0.02488468202035585 0.07866593518644016 0.037761023934561766
0.024838488868930104 0.0799250753725061 0.037460248896079074
0.024798646332225574 0.08110431642196042 0.03708974438235668
0.024779994983657627 0.0820239251398393 0.03647824206150324
0.024766192711279316 0.08288372606017963 0.03581206698952
0.024753259412230923 0.08373224882938679 0.03513676216124517
0.0247655822314184 0.08427538492160758 0.034169405761780736
0.024780850258611528 0.08478376415088362 0.03316697274725594
0.02479723850936836 0.08527954617332456 0.032150456039668096
0.02481904154646857 0.08571137979445198 0.031069507514387362
0.024841251402204115 0.08613957012489443 0.029982334266980215
0.02487765831176364 0.08639972708248694 0.028726664019443182
0.02491614886746699 0.08663713342100343 0.027443986700124934
0.024956122142929752 0.08685909523384333 0.026141203584666983
0.02500574056223299 0.08696909870001951 0.02472132623005191
0.025063118117370966 0.08699022896319991 0.02320582961825618
0.025125972902662393 0.08695002539138941 0.0216211633592977
0.025210503260773193 0.08665852677978891 0.01977298195384458
0.025313637215600288 0.08615357736002083 0.01769597527917427
0.025181253258104233 0.09192860687097965 0.014252067074570995
0.025084889925638662 0.0937436133156983 0.014591946548387691
0.02499815080146778 0.09544251645655716 0.014820215336607712
0.024943174735496804 0.09677205604428002 0.014663667265528202
0.0249209676228212 0.0977233795290865 0.014106725472237791
0.024917445289629095 0.0984600781594176 0.013320248959525993
0.024953642280912857 0.09874408800026485 0.012041604276785078
0.030616214789546504 -0.08538491028101114 0.04825341123576132
0.030458176852886255 -0.08207712658379807 0.04860277355780862
0.030362638517841434 -0.0797311258102889 0.04840120406982068
0.030295076685722372 -0.07781627651231582 0.047953775357207795
0.030251598576430696 -0.07627102461652235 0.047292836290727336
0.03022686421142241 -0.0750123412944394 0.04646444095244384
0.030216126838167188 -0.07396679374867471 0.04550997082523889
0.030213467372692666 -0.07304380785389791 0.044482213128514636
0.030218406537655753 -0.0722354549790517 0.04338473338181731
0.030229715802411714 -0.07152259647749198 0.042228083063566124
0.03024940845920898 -0.07093488772038647 0.040992934294170336
0.030274179598033628 -0.07042209324728205 0.03970916167983851
0.03030176133350114 -0.0699498660020213 0.038397415093268716
0.030333221857236217 -0.06953389648316627 0.037047387622917205
0.030371463891100778 -0.06921706697107904 0.03563136266455691
0.03041673103784297 -0.06900240323796658 0.034146331301405874
0.03047063117394604 -0.06891313724737569 0.03257631936188948
0.030535001425141328 -0.06897570653533575 0.03090294779714331
0.030620602385163828 -0.06934816375224623 0.029022378784110625
0.030764276605526792 -0.07057186068358173 0.026579332294007885
0.026772124915271377 -0.008582044963398261 0.06110728556923001
0.026751559984114284 -0.007499619816107916 0.06037572828599702
0.02674009904554527 -0.006551031182900902 0.05955645754896649
0.026724189126973108 -0.005538425682626302 0.05878170393696969
0.026709559801975886 -0.004545331834285349 0.05799542963752907
0.026696429334285454 -0.0035747981131232787 0.05719534085744499
0.0266850896583652 -0.002630912174617528 0.0563783817645081
0.026673167459058213 -0.0016792872641907541 0.05556801780827092
0.02666199544186921 -0.0007391568128246595 0.05475098165889408
0.026651128356851406 0.00019594065582939635 0.053931663331126645
0.02664130385636564 0.001115457534113129 0.0531026024546305
0.026630453628494935 0.002049074277653662 0.052284591043385176
0.026619907120202964 0.0029777208821628043 0.051464255486696364
0.026610547634701498 0.003888839134991773 0.05063257649585634
0.026601194728372322 0.004799316925115205 0.04980148212650276
0.02659111274658883 0.005719593057103123 0.048978508168334656
0.026579935844755896 0.0066547839175801204 0.04816749144611293
0.026561426448388197 0.007692934191919687 0.04743288208993812
0.02654345589775618 0.008722404403236017 0.04669398519075452
0.026529023722587752 0.009701031911562685 0.04591959774399629
0.02651190132726837 0.010716594693200188 0.045174243915600376
0.026496334755887398 0.011709354036762376 0.044413818676133476
0.0264810053161824 0.012697887579901201 0.04365199037918921
0.026467005336798865 0.013666972341740635 0.04287723951862271
0.026454767484033463 0.014610699509566338 0.04208485914157628
0.026445960306339472 0.015506035957974784 0.04125699059582155
0.026445232642439868 0.01628881397207327 0.040343869476131056
0.026444796037023856 0.017067521678708897 0.0394276956363811
0.026445232510960138 0.017834147344391482 0.0385022126507244
0.026534369171230802 0.017378511057919765 0.036624762794621235
0.026863781025122546 0.01362411456440249 0.032154089175950695
0.027211408534357995 0.00963902021719193 0.027463714982612353
0.027556532766478258 0.005708515228492195 0.022776258709112873
0.0288080911410283 -0.010586538440772342 0.008210605776624358
0.02885747591569123 -0.010418142776903172 0.0066689027354485675
0.027083060281174784 0.014565363747098437 0.025077941748840427
0.026928428783144796 0.017455859761385917 0.025832109217528543
0.0267953330970992 0.020045590441673866 0.026359922421188453
0.02666657947892814 0.022568851806903656 0.026849044359802454
0.026539936612588303 0.02505612002217683 0.027323745043483394
0.026412095731791676 0.0275521114442161 0.027820581218712004
0.026291807633229386 0.02993920331633748 0.028242107429225227
0.026262068004426778 0.03110590221622378 0.027659250277728697
0.027062319372779368 0.021173101909103098 0.017766337817854028
0.027041078153229956 0.02224719200940961 0.017063078117935004
0.027014934135559214 0.023385309414208577 0.016416646286463554
0.026957428618118753 0.024938482966669673 0.016127173118091642
0.026905664154575036 0.026412203842810345 0.015776492985306867
0.027323956589643313 0.021666465947759117 0.010073753009856967
0.027419438867922193 0.02120485652767412 0.008031109892664146
0.02759886212636076 0.019643624509893043 0.00501957734771169
0.027578036573633627 0.02072358608951186 0.0042980330720527316
0.027465115223059798 0.02300952096779818 0.0046400737377847445
0.027356150904171886 0.025237104186880244 0.004944204319672796
0.027259175215787478 0.027301873850099412 0.0051168242509856965
0.024592548278602386 0.06281868725613288 0.035200239997016936
0.024477192338377713 0.06503582438693956 0.03569038074219011
0.024378361059164206 0.06703202974507316 0.035995100150882364
0.024274376828351582 0.06908910135807672 0.036367207408623814
0.024169027131164564 0.07115771588786662 0.036762636816485006
0.024072724122051223 0.07310370503567992 0.0370585479087156
0.023975929550161874 0.07505038084757398 0.0373669887826486
0.023878901754617887 0.07699438941203685 0.03768494142536477
0.023804035861336493 0.0786493529737668 0.03774557088899061
0.023757144943555585 0.07994305453685208 0.03747709139747363
0.023719624519464206 0.0811147469245807 0.037099566458326294
0.023691853845929322 0.08216043532606171 0.03660745839923074
0.023680238679749308 0.08299981518353206 0.03592252584764333
0.02368000526813875 0.08369464520704528 0.03510079612778727
0.023689693214165274 0.08426434052036347 0.034158787426766646
0.023702895598547713 0.08479038305095482 0.033173369546239395
0.023716697877639883 0.08530966667921852 0.03217971681638998
0.023726591577326678 0.08587870646229206 0.03123290221962577
0.02374898537063791 0.08629214302664195 0.03013209550864404
0.023781184441146554 0.08658466345850052 0.028909134401717163
0.0238156540334138 0.08685082928627269 0.027655926779689588
0.023854958979804792 0.0870590182607498 0.02634051203218596
0.023899800383398725 0.08720097627858986 0.024953688966934284
0.023956209191037255 0.08720271651777561 0.023419864770548193
0.02401366478909125 0.08719485748894862 0.0218690555398674
0.024092634631048222 0.08692594814348342 0.02004514710137395
0.02419786609585527 0.08633966819214922 0.017886347027051164
0.024101575013067138 0.09174540220954752 0.01405876238680831
0.024013364289256097 0.0935130741788871 0.014347442483000294
0.023924784513088687 0.09528003011696307 0.014646997328255862
0.02385892539730967 0.09676921383781173 0.014660621813423702
0.02383277767628957 0.0977792632741738 0.014166916320565492
0.023828641840683586 0.09852497866579141 0.013390511840235764
0.02384625833081524 0.09901138078554628 0.012332473036736624
0.02925158889543921 -0.08581798084424253 0.04800087661666874
0.029081731894253084 -0.08220538127143556 0.04852754943333193
0.028983617548652408 -0.07974866760285765 0.04839085569290519
0.028916114169062174 -0.0777857769317698 0.0479718724522743
0.028872618818869183 -0.0762088760018017 0.04732992594208446
0.028844752434745078 -0.07488274434647657 0.046542229918721034
0.028835596371617315 -0.07385476836550414 0.04557760050682397
0.028829978667654726 -0.07288330700046147 0.04457966518981704
0.028833421395387745 -0.0720551900192048 0.043494814603953935
0.028842847934417798 -0.07132112141020586 0.04235182214733163
0.02886053938433529 -0.07071641457443734 0.04112788115450966
0.028881343239528134 -0.07015946188945521 0.03987231125051249
0.028907367523459362 -0.06968299031985387 0.03856414695518823
0.028937727693915682 -0.06927269516608303 0.03721150358794756
0.02897318285927633 -0.06894001984781539 0.03580642416308977
0.029014596027747492 -0.06869793242864669 0.03433981300618899
0.029063859158891103 -0.06857528325358314 0.03279223113418839
0.029123547480093902 -0.06861128679130596 0.031137153796444272
0.02919843385905338 -0.06887885482148115 0.029325697801287798
0.02931326763164471 -0.06975887665087693 0.027107733073429008
0.025522368102442305 -0.008078778540496323 0.06144179028916752
0.025505411410234786 -0.007038244683987338 0.06068410351189801
0.025493788863967793 -0.006080161892027147 0.05987293506985797
0.02547828504147085 -0.005063670975717138 0.059102571073027466
0.02546598035872375 -0.004096760559862023 0.05830028734770376
0.02545333449104154 -0.0031254273595445192 0.05750243860737386
0.025444017072014196 -0.002205261618415222 0.05667088288859945
0.025432873382055087 -0.0012580720931531508 0.05585907428936859
0.025422232515134674 -0.00031914680455485955 0.05504281057612109
0.025412304372885254 0.000608401745887277 0.05421982991058272
0.025402665302922928 0.0015310013086007324 0.05339452384168958
0.025392401059096795 0.002462380359439964 0.05257653941038476
0.02538340908320804 0.00337410235113772 0.051745788531488646
0.025373791916845415 0.004294605420777087 0.05092235786802307
0.025365023479887353 0.005201877666666466 0.05009055087267472
0.025355910734422234 0.00611373117598113 0.04926307885191772
0.025343233913945742 0.0070778966435700585 0.048474652831509424
0.025325186115615586 0.008120795247890278 0.0477451871158876
0.02530925827253803 0.009131271179782408 0.04699405384821326
0.02529362936292701 0.010136365093398603 0.04624083071789775
0.025277741176614132 0.011144316634886742 0.04549157777139634
0.02526326408576662 0.012130579182759171 0.04472803064870695
0.02524887304979801 0.013114694738757982 0.043964594168833415
0.025236511244554363 0.014068262305031276 0.04317983686015586
0.025225063068855177 0.015007743970861409 0.04238587601441618
0.025218615007806307 0.015873730080586457 0.04153726308369532
0.025216882172127197 0.01667081864990244 0.040636622748264295
0.025214803096763546 0.017472820716348314 0.03973997638307175
0.02521445656274377 0.018249631206805117 0.0388240657274162
0.025319734091376833 0.017501612867058258 0.03672063647868956
0.025634747508801847 0.013738674828600694 0.03224379024398205
0.025966734108150296 0.009751032401966675 0.0275518918981571
0.026300193098553377 0.005762592946154443 0.02281905754120106
0.027441226371338733 -0.009764842161588627 0.008864405944651044
0.027488169601479897 -0.00959539297932388 0.007327045308313074
0.025841236028227396 0.01471894883894237 0.025201456141350498
0.025694187617941417 0.01760123045766776 0.025949642010279883
0.025571161588421765 0.020133601163277393 0.026431459183147987
0.025448955118878094 0.02264683496068365 0.02691276843461443
0.025327072174538973 0.025148016122194305 0.02739923799911298
0.025208844314236322 0.02759020111157745 0.027852038535157497
0.02509356797821948 0.029983623853495345 0.028278988230798607
0.025054167702769616 0.03130482166868914 0.027825282758456416
0.025833304853484503 0.021157819580353676 0.01775351451318069
0.025812155997190868 0.022244147025031136 0.01706050962120087
0.02579002680804612 0.02334285193758734 0.01638064184504262
0.025732740373613904 0.02492944426537408 0.01611946771140149
0.0257009523861242 0.026158478179231837 0.015559048414260701
0.026097240831295103 0.021454734802624498 0.009891339674308497
0.02618751832340273 0.021005546554914212 0.007858491676981438
0.026349588657454674 0.01957161818157549 0.004956885408643141
0.02629966408562766 0.021065251009779518 0.00459706958988132
0.02623439167757491 0.022766586714582093 0.0044263304824413985
0.026117892665277292 0.025165811194158005 0.0048811480307452415
0.026003529166348578 0.02752870936692975 0.005318507617480928
0.02346221899380432 0.06298899958948839 0.03535246291001248
0.023361855825332994 0.06507306873616725 0.03572384401118939
0.023262878455671702 0.0671321759422977 0.03608555111799272
0.023165496550132284 0.06916360780637637 0.03643485348500847
0.023067476595132003 0.07119770327192448 0.036799132414045976
0.0229717204115276 0.07319526601469234 0.037142550756100734
0.02288348859988039 0.07508571362142175 0.03739957449180609
0.022787043369404788 0.07708103393519661 0.03776526693782778
0.022717026923912562 0.0787164239554432 0.03780807511145007
0.02267447228271915 0.07998050438173626 0.037512173525332315
0.02263922477106778 0.08114454456510861 0.037127625793573926
0.022611662793249734 0.08220418133644608 0.03664886708580323
0.022612052819038813 0.08289112276808308 0.035819105134169804
0.02261249858769905 0.08357734990878152 0.03498860869666204
0.02262119568271431 0.08415458928476988 0.034053269319007595
0.022631797351670216 0.08470725648523025 0.033093033575649966
0.022647271312529527 0.08519649911532601 0.03206977982827475
0.022653869503029507 0.08580313909866905 0.031159110726054984
0.022660415573260165 0.08641086523428865 0.03024862988762611
0.022689667473331454 0.08672248171861574 0.02904511497799389
0.022722370837234482 0.08699092268692377 0.027794869165553848
0.022758555214363853 0.08721612100533194 0.02649713185049657
0.02280227623046685 0.08734580722152213 0.025098822975815893
0.022849180976295593 0.08743698412434459 0.023655838594184297
0.02291789730762601 0.08724953791957385 0.02192441947981033
0.022987604122403672 0.0870535457780614 0.020175008239470937
0.023087036070357416 0.08648001598627308 0.018029923467947295
0.0230562294168082 0.09111006855931048 0.013388402705276026
0.02293984262029728 0.09328578936518078 0.014106389873214886
0.022856921653198425 0.09503272766849008 0.014383361343471512
0.02277968696164859 0.09670311873929405 0.01458979800627308
0.02274749514694781 0.09780401484487161 0.01419357561496426
0.022739827687406133 0.09859619406291925 0.01346761136660285
0.022748679425837526 0.09918179040525771 0.01251791330095603
0.022805789232564756 0.09916727972798528 0.01091057405921153
0.027938286100705558 -0.08715808650162915 0.047219426283403865
0.027706811554191826 -0.08237207054956225 0.04842978257614827
0.027607718954829875 -0.07982031002350809 0.048348591675722974
0.02753950384682985 -0.07779158620710552 0.04796842557160663
0.02749505032979857 -0.07616408165243649 0.04735665876713896
0.027467479959298324 -0.07482085175330438 0.046579380220453714
0.027453586079796723 -0.07370692149530395 0.045666855583403665
0.02744815312386228 -0.07273437162210733 0.04467009499218788
0.027449532623974694 -0.07187506775928554 0.04360480868446054
0.027457899194639986 -0.07113124118380876 0.04246844008124595
0.027472920116945864 -0.07049672574853355 0.04126357891760368
0.027492973622015804 -0.06994416008522375 0.04000605918043504
0.02751660860447504 -0.06944919763046575 0.03871021006800085
0.027544711714468914 -0.06902604425092557 0.03736647736257653
0.027576875072758498 -0.06866758837207176 0.03597856911141367
0.027615570406136575 -0.06841384417288254 0.03452034223883349
0.02766015198240756 -0.06825364673422274 0.03299777883652083
0.02771296132558185 -0.06822455522387016 0.031385699197480355
0.027780361212703983 -0.06842917604836851 0.029616329655985874
0.027877497002921144 -0.06911173865334913 0.02752834186954356
0.02427676360654771 -0.007591996413841728 0.06176533843903992
0.02426051982006939 -0.006550916591956224 0.06100982524695037
0.024251968527640465 -0.005634158843614623 0.06017269966165473
0.024236833442707773 -0.004612652172342913 0.05940739609374496
0.024225746363362045 -0.0036567304649391397 0.058599340308374215
0.02421587731681818 -0.0027209238581890616 0.05777887430617301
0.024206284526486432 -0.0017901433123236887 0.056956146398991325
0.024195426356130735 -0.0008399040570890026 0.056148025223733966
0.024185581992351737 9.358574690088162e-05 0.05532958301414104
0.02417661518946714 0.0010125766354381338 0.05450220732454819
0.02416691979811376 0.0019424799977100782 0.053683589488391914
0.024157766462937085 0.002863230095831726 0.05285968895009413
0.024149020483338373 0.0037769945793736937 0.052031945892679066
0.02413961395023382 0.004700549223455031 0.05121226601516238
0.0241316141505537 0.0056014978186678666 0.05037750805582514
0.02412282049929788 0.0065143225859048415 0.04955230885871931
0.024109775108286637 0.007492806342001168 0.04877585917798155
0.024094418297288568 0.008506379480296755 0.04802663338264335
0.024077488681774714 0.009543362092387542 0.04729648870883424
0.02406184166759583 0.010559402627042247 0.04655299071753244
0.024046545838958166 0.01156901255147752 0.045806666570397725
0.024032260824707524 0.012562057482416455 0.04504989093664352
0.024020369593588334 0.013517360728224737 0.04426659213752632
0.024008622053019086 0.014469693859076482 0.043482540969636
0.023998994992253556 0.015388788925462582 0.04267476296042644
0.02399345960542766 0.016244717638307316 0.04182004597049005
0.023990429374309705 0.01706207589555292 0.04093646682020313
0.023989046226640172 0.01785416704064441 0.040033801696503
0.02398884859076955 0.01862816121235128 0.03911729263912378
0.024107911782952893 0.017594388905778025 0.03679289198144731
0.024409407693960664 0.013808820758126616 0.032298714772553916
0.024726444057586228 0.009808069324897084 0.027596791875972637
0.025046008087085358 0.005789625937754506 0.02284045235705401
0.02608099073309857 -0.008960608399618486 0.009504311690010592
0.026124734445080934 -0.008778419742471955 0.007980567034918673
0.02460349429675998 0.01482679688970523 0.025288188455421745
0.02446489979326041 0.017687169934767877 0.026019124458553755
0.02434765142547829 0.0202205583293964 0.0265021395964829
0.024229304281693335 0.022762747573376485 0.027007486593048358
0.024115695480960264 0.025227028773894544 0.02746414717066914
0.02400051000868563 0.027707349123776814 0.027948788007962078
0.023904781631956796 0.02989283921403374 0.028203613218261203
0.023868150965490994 0.031201065512559967 0.027738680541230742
0.02460695795206937 0.02110177361605009 0.01770648646098777
0.02458570310883094 0.022204558840046518 0.017027115217958078
0.024561308849346174 0.0233519506818059 0.016388357798110875
0.024508952662619952 0.024906343455543933 0.01609977434916987
0.024507096680870394 0.02572110426675156 0.015184216013678586
0.02485614107751586 0.02143107942197281 0.009870959870103169
0.024954097279322313 0.02080808567001463 0.007687474918756099
0.025116629897670578 0.019256124341297864 0.004682201997957047
0.025047083655760433 0.021068363422015735 0.004599793771684013
0.024940066246930084 0.023416420710037356 0.004998080729616772
0.024850415018835465 0.025507758059591823 0.005183589256008314
0.024751516524999413 0.02772607265397431 0.005493986729051936
0.02233548905713329 0.06312479197508247 0.035473832367475755
0.022241118138557628 0.0651912215051022 0.0358300016136055
0.022148214959517062 0.06723065785513305 0.0361744989227602
0.022055249636353184 0.06926500658208917 0.03652691567727323
0.02196278546606471 0.07128626636602586 0.03687996187708459
0.021871421804250817 0.07328599765301352 0.03722579272355414
0.02178966811765075 0.07514407181173755 0.037453395372121445
0.021695749209765216 0.07716838880288329 0.037846250988410046
0.021632585361131156 0.07875409127447675 0.037843177759710134
0.02159126687048346 0.08002917537448534 0.03755776733226557
0.021558080876751907 0.0811877407400281 0.03716830199283511
0.02154049058971981 0.08212631917693974 0.036575165303791235
0.021541340153307737 0.0828067764349521 0.03573884971129465
0.021539800202554173 0.0835205134317778 0.034934247328421875
0.021543570613532948 0.08416048391763697 0.03405893669006588
0.021550530802919667 0.08475654935921528 0.033140671811332234
0.021570852743491697 0.08516856134516809 0.032042639662028194
0.02158108136303071 0.08572092513791763 0.031078828825594096
0.021581454407713984 0.08640940001154662 0.030247191759944336
0.02159916495965227 0.0868601718906658 0.029180969174145754
0.021630763955286816 0.08712209415118916 0.027924962924024965
0.021663261108331035 0.08737379000780854 0.026654316185611038
0.021705772307157544 0.08749123052057411 0.02524455057986924
0.021762425076871424 0.08741931639352479 0.023638042288856187
0.021856977950598183 0.0868374587797171 0.021507190145906407
0.02192745681833782 0.08658713250140826 0.019700321532014675
0.02200908538146639 0.08619096345665189 0.01773422169758687
0.021865181157567054 0.09305089178395953 0.013857263348674709
0.02179151398810209 0.09472821370287338 0.014058735180439097
0.02170507063063062 0.09656941398090263 0.014446527368967343
0.02166234724787103 0.09782946912499624 0.01422099177710251
0.021653758307315918 0.09863848332216851 0.013513394791991429
0.021655314477198626 0.09931403364285296 0.012661820815562996
0.02169138491322293 0.09953861946667164 0.011316749034120999
0.02633073856734296 -0.08253592591378073 0.04833367787185816
0.026231725844884875 -0.07989782577167692 0.048302862800299995
0.02616318864544496 -0.07780320507736543 0.04796153154921895
0.026117586213441367 -0.0761164069389123 0.04738511056043354
0.026089841759778007 -0.07474602721858364 0.04662429275305241
0.026073698317228045 -0.07358068151877828 0.04574306660035915
0.026067884970414228 -0.0725969791630684 0.04475351623091428
0.02606698447922217 -0.07169937160931489 0.04371209990314362
0.026074271370749132 -0.07094437138561632 0.04258320911433655
0.026086971811355896 -0.0702829475516829 0.041395625795339175
0.026106168873984363 -0.06973333422934486 0.04013702660180801
0.02612860120001545 -0.06923842118756846 0.038841893676889394
0.0261538734014473 -0.06879104967485578 0.03751412732085874
0.026184149037850813 -0.06842823413879001 0.03612981310590585
0.026218551803625364 -0.06813438772873603 0.034697928100705766
0.02625977190529899 -0.06795529232293113 0.03318844768721535
0.02630854030006706 -0.06790278451047715 0.03159249544260373
0.0263666990420999 -0.0680076084121441 0.029888793008634118
0.026450964898293735 -0.06855420278727259 0.02789071356968653
0.026662848904032116 -0.07126949937032184 0.024464629445946906
0.023067796189003037 -0.008454895106139115 0.06264055790770728
0.02303451159148742 -0.00711075464640315 0.06208520409407603
0.023020203154854132 -0.00608962098774446 0.061318147317432736
0.023011014233443556 -0.005155817605380919 0.060494199176392816
0.02300030310350838 -0.004197009006892183 0.059688312184239256
0.02299036597426303 -0.0032519295421674643 0.058874450848091564
0.022980055734417602 -0.002301266224365106 0.05806566626153031
0.022971153087616936 -0.0013748550043933272 0.05724152673208921
0.022961431657650296 -0.0004353724276094928 0.056427553507030825
0.022951908827104874 0.0005001424842357438 0.05561206440974936
0.022943218201775986 0.0014211715096925093 0.054787672766722306
0.02293447079267153 0.0023425550464490907 0.05396464402787671
0.02292591999493697 0.0032600899099861635 0.053140020115966025
0.02291762864545956 0.004172757304819585 0.05231303946983357
0.022909153621771566 0.005087893783263908 0.05148889136142165
0.022901253460479283 0.005992992737780534 0.05065863071492094
0.022892474884273876 0.006911988992046703 0.04983942699121574
0.022879666488807446 0.007896462472915977 0.04906889592712571
0.02286498289168662 0.008910750886718943 0.0483217928099407
0.02284742517659544 0.009970974131409904 0.04761031457151166
0.0228336621784682 0.010968177973655069 0.04685462663145501
0.022819163004598877 0.01197642099444457 0.046108929514914465
0.022807564370747307 0.012936617605044831 0.04532929324588192
0.02279472560154972 0.013916110437919682 0.0445656529118027
0.02278534051625263 0.014838927344084818 0.04376096575868843
0.022775713200264714 0.01576501519638207 0.04295999665115907
0.022770777636601753 0.016614956219140664 0.042102257954455324
0.02276603151525655 0.017461521372627853 0.041242586026859374
0.022763159797915634 0.018277731011988763 0.040360155473180226
0.02276478275053111 0.019021878363234157 0.0394222842150837
0.02289847293089768 0.017658900954419132 0.03684313504948272
0.023183173596871953 0.013900589180051548 0.03237056976879854
0.02348846018374783 0.0098344693472186 0.027617574256256716
0.02379479889201606 0.005772325090027175 0.02282676002824474
0.024727345036970997 -0.008175974397807817 0.010128622470024273
0.024768587417181652 -0.007990504328463488 0.008610844528610384
0.02336680609902927 0.014929401270039555 0.02537070376956624
0.0232380113162548 0.017744440430487562 0.02606542793708483
0.023125500531752496 0.02029534857204701 0.026562930518603534
0.023012032461151074 0.022853626818080175 0.02708174871741653
0.022905106371629347 0.025302058478217315 0.02752578434126074
0.022794161097018786 0.027805888850616245 0.028030169399328897
0.022693463273608522 0.030142866648066202 0.02841120175573497
0.022660259659043197 0.031425792866827174 0.027926254141394435
0.023381350609479046 0.021028378142289084 0.01764490044355632
0.023373055670626336 0.021947532627307698 0.01681030162314484
0.02335221276686761 0.02305954620544204 0.016140394814306958
0.023308871116986176 0.024516194814285353 0.015767172501404136
0.02331286406274022 0.025243475480770883 0.014774884906093078
0.023611453348836197 0.02145987662615434 0.009895769713622826
0.023688668337660035 0.02107889310811334 0.007922015822388495
0.023872188727129463 0.019082473757136342 0.004531013876198475
0.02379779899712034 0.021021669864424497 0.004558926123845564
0.023694009596406166 0.02340205093349884 0.004985437716736929
0.023599907435086172 0.025628707516956173 0.0052905653010844045
0.023530870351134152 0.027470263646757087 0.005266542737973279
0.021217250041761698 0.06314686771150402 0.035493563444902065
0.021123094137906397 0.06528099121352388 0.03591065769619195
0.02103589861961659 0.06730427896672891 0.03624099274119125
0.020947939803888434 0.06933309706287227 0.03658873656022571
0.02086113288318574 0.07133875343531931 0.03692786563235473
0.020773378819891646 0.07335265538045277 0.03728694804477184
0.02069399205546748 0.07523617135610561 0.03753833418809205
0.020605845266375142 0.0772443090061446 0.03791663431959069
0.02054836136869865 0.07879250233635793 0.03787897350952002
0.02050881468388068 0.08007184321529698 0.03759773754277246
0.02047754942256109 0.08122645782677496 0.03720476041385806
0.02046629097533455 0.08208477616458543 0.03653584208412719
0.02046159937109574 0.08284599583898167 0.03577616705286912
0.02046023765334164 0.08355816062673954 0.03497025521708258
0.020463616858054805 0.08420100377894163 0.034097893815875524
0.02046901584911396 0.08481464990078591 0.033196822046959895
0.020487960204203983 0.08523178113182461 0.032104054866568865
0.020496357407415424 0.08580313890973618 0.031159110725745176
0.020492006100104907 0.08655950030697251 0.030394525962509022
0.02051220942150094 0.08696116089534706 0.02928061160509776
0.020542360483257735 0.08722094545780501 0.02802300209056202
0.02057076505932033 0.0875078596251389 0.026787973693062905
0.02061326361291211 0.08759470233503142 0.02534823894126098
0.020690793120949097 0.08718354584571719 0.02340055477024172
0.020761739820046428 0.08687153383973562 0.021541691183130263
0.020831554067134994 0.08658043745518529 0.019693507822456657
0.020926973529083025 0.08593055863551174 0.01746782664526514
0.02078575666813121 0.09285775885646247 0.013652431393887277
0.02072012651789475 0.09447491998305013 0.013788712217898125
0.020641761372859405 0.0962645561739095 0.01411985844415009
0.02058045393181762 0.09781249995152569 0.01420271487899355
0.020566585027493596 0.09870048487082328 0.013580519194389518
0.020565311195916182 0.09941383780981689 0.012770428054830973
0.0205889270223785 0.09978470332131245 0.011585917954101077
0.02496137890172173 -0.08284328097572641 0.048153407438462414
0.024858335771909344 -0.08003244299189732 0.04822344799361539
0.024788444719316273 -0.07784532807935263 0.0479365378027557
0.024741342095435413 -0.07608607368239739 0.047403213171309466
0.024712110199231623 -0.07466115974573989 0.04667523342951957
0.024694030363462956 -0.07344447802610105 0.04582529258176715
0.024688371255109174 -0.07245823964133691 0.044837755371402166
0.02468666622625606 -0.07154521369751121 0.04380623851573473
0.024693254773623892 -0.07078472675825476 0.0426812573901626
0.02470426942258428 -0.07010495296808988 0.04150556980274567
0.024720887577972372 -0.06952697211052067 0.04026522110042646
0.02474173067718769 -0.06902499669033385 0.03897523166960287
0.0247654941808415 -0.06857478593408506 0.03765000847282418
0.02479297641749687 -0.06819055591278622 0.036279998059479346
0.02482498562300721 -0.06788658861412344 0.03485539672476062
0.024861556660466497 -0.06766303105001298 0.03337522260771758
0.024905410882647548 -0.06756862939403091 0.031807250917521235
0.02496113992623554 -0.06768551160504849 0.030096967394307395
0.025032328147395054 -0.06807699792445948 0.02820087396337073
0.025160787138702193 -0.06949341086487226 0.02562549689217858
0.021808190344655663 -0.007639627158918083 0.0631794226801235
0.02179579998952706 -0.006639336445736332 0.06239854034700548
0.021782941016108046 -0.005631569524219948 0.06162430106024902
0.02177479879103882 -0.00470870921148997 0.06079470668510417
0.021765999979110877 -0.0037747624278607894 0.059973691248611294
0.02175756943536811 -0.0028479752776150447 0.059148985982500846
0.021749025124908172 -0.0019197766516048098 0.05832637435879856
0.02173958606155792 -0.0009763837575103018 0.057515350618176975
0.021730935771846954 -4.756936945188306e-05 0.0566955224774795
0.021721452405107474 0.0008952828046644989 0.055886613518647765
0.021712336971917417 0.0018309980838960294 0.055073998737594165
0.021704546935669613 0.0027428404579285526 0.054245846347947435
0.021696642771129083 0.0036561219994103444 0.053419766599211105
0.02168880417568911 0.004567694891927376 0.0525935469860172
0.021681329875681967 0.005472364268800822 0.05176346416398697
0.021673681530585517 0.0063795243620509146 0.05093618935757366
0.02166585951415644 0.007289150044316073 0.05011174010794944
0.021652259127886805 0.008298220069234308 0.04936055442313647
0.021637842301390382 0.009320419266560132 0.04862081861142076
0.021622493429909257 0.010357652620123114 0.04789409917604803
0.021608056830743832 0.011378099302129241 0.04715710816664681
0.021594884673519728 0.012375812548220677 0.046405244600425444
0.021583268534645414 0.013345933732047122 0.045634621713591894
0.021572434124934037 0.01430186383735238 0.04485496650493137
0.02156391631785482 0.015217507096857708 0.04404643820711501
0.021556764182275506 0.016109297255311517 0.04322101203576634
0.021548849176694525 0.01701353398890948 0.04240607129716584
0.02154459870748014 0.017855093983876358 0.041544204502556414
0.02154141193934052 0.018678359373370756 0.0406688374891267
0.021540644845268787 0.019460558118746196 0.03976210590166762
0.021691854017316523 0.01768308703486826 0.03686197162682625
0.021960553317029497 0.013941818498959702 0.03240285251609493
0.02224876299277508 0.009892536380994521 0.02766328514499594
0.022539598303662912 0.005819898193016426 0.02286441091100977
0.02337987224986763 -0.007407242591990215 0.010740280330076513
0.023418860180774374 -0.007222020036053878 0.009225578479284569
0.022126448410361994 0.01510442220982583 0.02551145703479102
0.022012000309898343 0.017793515122234094 0.02610510507998931
0.021904341481756583 0.02036202736098941 0.026617128307261595
0.02179543502956447 0.022943462302316975 0.027155157932152063
0.021695204425851992 0.025374096856663697 0.027584964130357492
0.021589014490632996 0.027895600244689622 0.028104259708544355
0.02149002316680804 0.030291363790444448 0.028534493479734857
0.021454203093735625 0.03164544057073587 0.02810958790217233
0.02215443470994898 0.020968212414634146 0.017594415499924576
0.02216111456138069 0.021650430212090233 0.01655968186891099
0.022151314497526275 0.022601267116028667 0.01575176784496235
0.02211027378338496 0.02405860002619048 0.015377072775225764
0.02213018339538916 0.024525642051136165 0.014159696744608152
0.022357553024384323 0.021640783221068993 0.010051626860150487
0.022410304784144755 0.021588399601486508 0.008363289118263617
0.022560676113155258 0.019968861541091065 0.0053027441076057835
0.022531847752068835 0.02123739645626488 0.004747737257193352
0.022470237634440338 0.02302906453844944 0.004657269343349979
0.022367790524027795 0.02546911804530949 0.005149413584238927
0.02226766034413009 0.027864900964102657 0.005617421504997666
0.020098857150720312 0.0631738450514896 0.03551767550829288
0.02000809369309478 0.06533272723912559 0.035957141399277415
0.019924100792485962 0.06737786575941679 0.036307455563143354
0.019841961487022865 0.069387706414127 0.03663831763897368
0.019759950506312542 0.07138965683528725 0.036974324011238124
0.019676792932625017 0.07340379183369439 0.037333863349316876
0.01959892248233555 0.07532898262172327 0.03762392938833997
0.019518468211201002 0.07728908421104802 0.03795814409795828
0.019467012863841594 0.07879024303037041 0.03787686812725727
0.01943084316628505 0.08004938781085075 0.037576701993087214
0.019401123327868402 0.0812056112538635 0.037185130118535636
0.019383478323048278 0.08217229955670596 0.03661868906323623
0.019372353126516657 0.08303676704340834 0.035957685890128044
0.01937340296350098 0.0837123417850415 0.03511772244514311
0.019375693981880205 0.08436886020202572 0.03425927621083347
0.01937927481637769 0.08500570735469531 0.033381465918718434
0.019384003564005218 0.08562519855032336 0.032486241872419386
0.019390503407412794 0.0862179179218131 0.03156414282496828
0.01940351623952471 0.08671164200619019 0.030543863947915917
0.01942988244918762 0.08700285359364512 0.029321748433246864
0.019456512951183932 0.08729193115861894 0.028093404615221085
0.01948085172198253 0.08761766208919836 0.026897438657839667
0.019524088268526505 0.08765924373947281 0.02541291545437091
0.019566494804602094 0.08771644022375463 0.023937330200128226
0.019656234481937037 0.08706398514812408 0.021736547903206282
0.019732086070441288 0.08662655199396063 0.019740440467063525
0.019838506445879835 0.08573645481682174 0.017269257777972558
0.019715069288903403 0.09251442286961697 0.013288297750623956
0.019645725942302517 0.09423777395638228 0.013535903458814447
0.019578379519217398 0.09592688986762138 0.013758033718137663
0.019504138020697576 0.09771205814145073 0.014094532047095099
0.01947766639485651 0.09879484445971753 0.01368267515392918
0.01947848645352335 0.09947846215502792 0.012840752526786514
0.019492004166457518 0.09997775538581255 0.01179708020705622
0.023594181629172005 -0.08322952702454445 0.04792686570607496
0.02348696861797404 -0.0802227964619856 0.04811115264264987
0.023416106749857026 -0.07793976953481352 0.047880500734687914
0.023366455905717145 -0.07607885216042609 0.04740752296440559
0.02333598911002855 -0.07459788926103422 0.046713210792783955
0.02331745429790124 -0.07335276572429023 0.0458806592767963
0.023310209511498883 -0.07232958780558535 0.04491586952848847
0.023308307530965175 -0.07141112428728702 0.04388812203605941
0.02331335549984752 -0.07062804218580848 0.04277748770270562
0.023323165121997787 -0.06993705430042463 0.04160927775119638
0.023337601765023013 -0.06933501090184196 0.040384469594782035
0.023356241927718926 -0.0688131943533013 0.039107556210340455
0.023378222687689503 -0.06835446692578567 0.0377884375974592
0.02340393155913338 -0.06796591698153176 0.03642194370171431
0.023432431954702106 -0.06762910925545768 0.03501901683951214
0.023467005946870772 -0.06740672356253413 0.033539020612389
0.023505549624393975 -0.06725776780184167 0.03200703606924721
0.023557362750919682 -0.06735958911688633 0.030307614354846357
0.023621192938889046 -0.06768678591316618 0.028454493168209583
0.023724786534059194 -0.06876636505988726 0.026100700626491447
0.020576368336686048 -0.007255428343665937 0.06343336524945353
0.020562525908123856 -0.006215386552287261 0.06268032597624729
0.020550350862616886 -0.005207891119565766 0.061907480445153096
0.020543473191147858 -0.004301192082229066 0.06106860438349665
0.020535691639055127 -0.003378005721732691 0.060241842762348174
0.02052700826528687 -0.0024384732310491763 0.059427291495773193
0.020518502278265273 -0.0015029216829015035 0.05861125098682407
0.020511249398615778 -0.0005914496958438487 0.0577798719416146
0.02050383183834784 0.00032254754441263245 0.056951270459613235
0.02049415746272927 0.0012780214423739888 0.05615254576433998
0.020485961184561606 0.0022052871955450803 0.05533549641145025
0.020477376262478034 0.003139142996375799 0.05452425068220129
0.020469926761934164 0.004051328950968602 0.05369893022712102
0.020462708176197636 0.0049586852521832925 0.05287125095398998
0.020456227061750265 0.005851898258920185 0.05203451152800881
0.02044851145124188 0.006767335986385958 0.05121466713568984
0.02044085791308827 0.007681050460995209 0.05039469515352857
0.0204273656865368 0.00870117698184153 0.049653083570083856
0.020412993600805982 0.009736372877616084 0.04892443213761155
0.02040015443973694 0.010742507840100057 0.04817654567791402
0.0203858765569703 0.011773872487843118 0.047449149769546894
0.02037390973815179 0.012762157954550157 0.04669188053947154
0.020363687559276134 0.013717898719863675 0.045912088187878564
0.020353698733280086 0.014668643344485477 0.04513004975418167
0.020344388376788015 0.015606379588070152 0.044339672011889264
0.02033658983760466 0.016516165839364605 0.043529477005602446
0.02033029964870675 0.017398235939455386 0.04269930788848525
0.02032640499790566 0.018236839200347688 0.04183675893314531
0.02032290108118311 0.019068150468603273 0.0409691694513068
0.020325904242210827 0.01978291054199438 0.040011815062235556
0.020482174857277494 0.017764691670942245 0.03692552666750759
0.020741912585346925 0.013917081842387713 0.032383483733280094
0.021010521280971813 0.009931589456890655 0.027694028103736945
0.021288008491175726 0.0058090870434954756 0.02285585472612739
0.022038338721745685 -0.006653087923664924 0.011340339581084602
0.022075346471901017 -0.006472756588253137 0.00982493709388732
0.02089302764350373 0.01517790201473146 0.025570550142453907
0.020786609550633425 0.017837466659660572 0.02614064013504691
0.020683631312563372 0.020428681639749757 0.02667130617357716
0.02057967243179124 0.02302926323232818 0.02722527030806343
0.02048426424562109 0.025472732522651864 0.027665993655601406
0.02038419674199857 0.027990138201728465 0.028182336145989695
0.02028831589573137 0.030427215893332027 0.028647286499126567
0.02026606223194363 0.031580246188502525 0.028055172097757708
0.020927228826656073 0.020905986142556343 0.017542201554462955
0.020947945385960717 0.021339578126448544 0.016297463621874675
0.020950013327787415 0.022096014078691883 0.015323306312772289
0.02094174367039871 0.02303031112466203 0.014500455992518202
0.021064744394346087 0.021712390929684244 0.011748721014403052
0.021102388452597286 0.02186460990116168 0.01024446108853383
0.02113343047230762 0.022132416624977336 0.008834451281440059
0.021155581823403897 0.02255405792854026 0.0075535355548305705
0.021164744811513085 0.02319819054266259 0.006463889091746167
0.02115919773449351 0.02409254685565676 0.00559296406174925
0.02108214292193299 0.02619678477555404 0.0057930117639655165
0.01905740501248004 0.061186977907833784 0.03524464018262369
0.01897546433514934 0.06328824410563905 0.03561992389964225
0.018894417532865755 0.06536828595439437 0.035989090165245874
0.01881305937080415 0.06744742171444795 0.03637027777940727
0.01873263507163125 0.06950477552009271 0.03674460725714307
0.01865580022203841 0.07149610874544621 0.03707148016013201
0.018580569149746543 0.07345491140113702 0.03738076316193095
0.018504881954398256 0.0754156070684589 0.03770381879997442
0.01843090645730964 0.07734219034814388 0.038007377222676275
0.018389244375146403 0.07872847816378481 0.03781930890409263
0.018352394402391593 0.08003216972421479 0.037560572626343935
0.018325091040003738 0.08117582547954366 0.0371570821347445
0.01830837789122968 0.08214337784149384 0.036591312766456996
0.01829593060920174 0.0830397227349286 0.0359604983193072
0.018283050184116943 0.0839422118274159 0.035337582585665106
0.0182797203955939 0.08468785589148897 0.034565968523789015
0.018285660701675536 0.0852823062547513 0.03364877966634866
0.018291649916624617 0.08587641132181967 0.0327302836087533
0.01830016768349672 0.08642998894368964 0.031771230424054164
0.018324367205988665 0.08673064865705027 0.03056252041932983
0.01834885745720945 0.08702844851836722 0.02934700214818836
0.018372776972789332 0.08733728558291048 0.028138386468440857
0.018395346492664503 0.0876696067585423 0.02694922371478281
0.018435205691623498 0.08772668870295741 0.025480501600412597
0.01846719925731648 0.08791247914217348 0.024134796923784396
0.018531566986631557 0.08758456801774028 0.022263637272293635
0.018621328182904413 0.08685765254223365 0.01997564051760997
0.018709040883410948 0.08617002795151946 0.01771280488920346
0.018566633513922456 0.09404575367865897 0.013331200878762606
0.01850930718783164 0.09563785111043793 0.013448315626183205
0.018432048181990075 0.09753434355432167 0.01390312096875801
0.01839557333754988 0.098794844364898 0.013682675153691093
0.01839429768060479 0.09951006111602168 0.012875138695611632
0.018400950894399498 0.10010327336169439 0.011934373043668178
0.018435021591630664 0.10027647589072547 0.010530677499330676
0.02223150062420235 -0.08375887887216982 0.04761638927507411
0.02211398381333703 -0.08040304428046163 0.0480048189293924
0.022043345241629448 -0.07803715739688782 0.04782271540686689
0.02199348107797618 -0.07611062920313161 0.04738855886194959
0.021960731354691336 -0.0745446980927526 0.046745138176534085
0.021941775624653607 -0.07326825109640767 0.045931680743422576
0.021933376606349975 -0.07221243495613949 0.04498700179693521
0.021931243397571874 -0.07128709073926043 0.04396386481294601
0.021934202295473233 -0.07046719701711746 0.042876273309341795
0.021942532919897634 -0.06975790997323367 0.041719931933656196
0.021955488972745397 -0.06914321247549654 0.04050361696689381
0.021972189007046308 -0.06860442941009953 0.03923798312550841
0.021992650085469273 -0.06814145957210338 0.037922272722604566
0.02201571440676652 -0.0677301447456341 0.03657092429200742
0.022041815232602076 -0.06737902441423088 0.03517793797080426
0.022072646540494373 -0.06712227915095592 0.033720800026325715
0.022109086873465633 -0.06697722031202152 0.03218733890032455
0.022155825008907504 -0.06703841686398987 0.030515191191900937
0.022211156013911257 -0.06727006321412915 0.0287253430507331
0.022298299545874055 -0.06814092810476147 0.02650949190560653
0.019382693210163948 -0.007591967286855961 0.06321092439314147
0.0193658327514505 -0.006474177684929527 0.06250831608721263
0.019343219324239328 -0.005242267194513317 0.06188450414215507
0.019322581194921626 -0.004051743158373922 0.0612362623600356
0.019311318305672273 -0.0030503071573294016 0.06046332073516575
0.01930102771736174 -0.002069175282938096 0.05967827353283356
0.01929325039434878 -0.0011389134979849502 0.058860012392665306
0.019286862753484475 -0.0002368916399115295 0.05802351930276217
0.01927899050132012 0.0006940587667305098 0.0572079818979041
0.019270168463870207 0.0016431739819800506 0.05640625894232726
0.019262044450816383 0.0025777937189431777 0.05559574867744038
0.019253396993511526 0.0035220782072847845 0.054793264410457954
0.019245763971197916 0.004445713340750945 0.05397751281937696
0.019239407729884864 0.0053436714153552445 0.05314469039491809
0.019233320267657776 0.006235853330928076 0.05230871624350114
0.0192269193596652 0.0071336740270342425 0.05147772527722577
0.019217616579849543 0.008087595689927063 0.05068822386059457
0.019205789707805662 0.00908991330992387 0.04993528919531126
0.019192976119508563 0.010110452133770709 0.049197480675144956
0.01917939027314118 0.01114493502698849 0.048471888299958354
0.019166874631744976 0.012157618701373607 0.04773231665456762
0.019156002444237513 0.013137563253515505 0.046970399837018284
0.01914566692857718 0.014106293192180264 0.04620181019680797
0.019136914069848347 0.015043760272249573 0.04541138603556655
0.019127593486690443 0.015991417872402713 0.044630014589181755
0.01911985068717195 0.0169081146409944 0.04382663063486919
0.019114988461153923 0.01776914680504732 0.042982032316557395
0.019109710785172856 0.018637710101976068 0.04214397052796315
0.019105532502014216 0.019484930301161107 0.04129029608604784
0.01911200945215037 0.020129496964715443 0.04028029699824143
0.019278563700050114 0.017741523555368344 0.03690748306112662
0.019522181631280295 0.013909866284111172 0.03237783401593425
0.019772650592613426 0.0099685240266158 0.02772310335854483
0.02003680636842454 0.005789625500114082 0.022840452357273944
0.02070676088757524 -0.0059916994737092 0.011866587422156127
0.020741473476215286 -0.00581056597946944 0.010354643507197892
0.019660154743353846 0.015250318163598342 0.02562878784975897
0.019558394087690917 0.017939638784784884 0.02622324673473303
0.01946261113810143 0.02050944188655901 0.026736949620847272
0.019365561976538406 0.02309508270637961 0.02727905482335552
0.0192730353179092 0.025589052673937795 0.027761551028329057
0.01918149388254059 0.028057356190334393 0.028237849757760447
0.01908977526477082 0.030521576265178707 0.028725630482128395
0.019040794543704047 0.032190972150636044 0.028564927726162592
0.0190554830399002 0.032685871611616735 0.027426698020306894
0.01972567149179071 0.021156894423312145 0.016143361426857072
0.019744502817331915 0.021604655197973777 0.014906627219456292
0.019775781950474382 0.021826575875466492 0.013474271099061519
0.019818166345558063 0.021848623703476344 0.011865473544025451
