# .PCD v0.7 - Point Cloud Data file format
VERSION 0.7
FIELDS x y z
SIZE 4 4 4
TYPE F F F
COUNT 1 1 1
WIDTH 783
HEIGHT 1
VIEWPOINT 0 0 0 1 0 0 0
POINTS 783
DATA ascii
-0.09401614716801027 0.08278352837781441 0.0317831299122851
-0.09434563051961548 0.08288480266537034 0.030614812531974123
-0.09421245683072005 0.08311971045747905 0.02897437632334976
-0.09431720831455481 0.08328709730375664 0.02756753132652151
-0.09425974000669535 0.0835021914426219 0.025988624692023177
-0.09408201644764713 0.08375317077123272 0.02427818989506103
-0.0939017959372973 0.08400607751982263 0.022555968840370144
-0.09339107159888638 0.08435645914109759 0.02048107196157839
-0.092679044581089 0.08476729820785207 0.01818303786355635
-0.09143966790838781 0.08533445294835047 0.015316261047098267
-0.05930689080424156 0.08492173670547722 0.04832468534775264
-0.06214443788345658 0.0843620978801534 0.04928493848513549
-0.06462279102826929 0.08389464065079552 0.04995807924831852
-0.0668770364301633 0.08348430249523837 0.05045514776550908
-0.06890222389153344 0.08313277207613473 0.05076894210771693
-0.07072445566698893 0.08283351669377093 0.05091903821184052
-0.07243150852629021 0.08256355087966458 0.050979158590279405
-0.07389986203825999 0.08235597821022686 0.050839677892009216
-0.07510069299580713 0.08221891206490745 0.05047199931663998
-0.07633045808015038 0.08207349048178807 0.05013466334166311
-0.07742266432597855 0.08196431211968956 0.04968007367344984
-0.07850604121713745 0.08185701718521085 0.049221394007999186
-0.07957036298732534 0.08175437335726206 0.04874933813874116
-0.08062541345353119 0.0816537702430271 0.048272498676219466
-0.08165083951906044 0.08156072987232293 0.047772289300125115
-0.08265283752346098 0.08147362289392696 0.04725396668277104
-0.08363676360464128 0.08139103358313178 0.04672213140672632
-0.08460427217541916 0.08131254197560873 0.046178070076934086
-0.08549016991183428 0.08125598038920227 0.04556112655745703
-0.0863447611848498 0.08120772964357527 0.044917013680219275
-0.08708268062742563 0.08119126690234281 0.044165320360650406
-0.08774834214101601 0.08119459811157773 0.04334617101451588
-0.08840054752909476 0.08120165333689681 0.04251416559379456
-0.08902802775501739 0.08121557140106987 0.04165838172520586
-0.08964368088040603 0.08123282858183362 0.04079078659550456
-0.09022777457758863 0.08125892437867883 0.039892228880323566
-0.09079459190742578 0.08128994719833812 0.0389760344526332
-0.0913463311155347 0.08132531852801689 0.038044071887403996
-0.0918809481658659 0.08136564005237483 0.03709410905294386
-0.09236756686928516 0.08141959568715569 0.03609556934051367
-0.09284710126159534 0.08147579340194991 0.035088077395224015
-0.09329429664139044 0.0815413567116062 0.034046463417119144
-0.09368606403115931 0.08162286527449603 0.032947196061024586
-0.09405475433444593 0.0817112841485879 0.031821817846953315
-0.09440178757472623 0.08180625989579574 0.030671378576021535
-0.09424203920662128 0.08204566846113591 0.029004328433594573
-0.09448785701843099 0.08217071554340506 0.027741207130827894
-0.09449092035668066 0.08236565657245949 0.026225123132368355
-0.09442884020615172 0.08258016954550557 0.024634826866459236
-0.09419797206284286 0.08284412364604994 0.022862099536052893
-0.09382345008949028 0.08315064828524221 0.020930292288822816
-0.09309299144107652 0.08356123330671665 0.018615330272318598
-0.09198550916633247 0.08408272380035206 0.015889236891981184
-0.08983326414217485 0.0849093054548201 0.012041219580436135
-0.05954695285702133 0.08375669829902078 0.048527189000673265
-0.06236234806088242 0.08320993940978695 0.04946972938572419
-0.06485843571325439 0.08274381651911618 0.050158966509616154
-0.06706991221200198 0.08234981962439494 0.050620443682314
-0.06906902228776374 0.08200955529846804 0.05091264450149585
-0.07088047205997589 0.08171691254310677 0.05105416085582398
-0.07257474399800412 0.08145371553788579 0.051103866026631084
-0.0739066724712143 0.08128462918890351 0.050845638608820076
-0.07522857120285958 0.08111743234257426 0.05058451173770251
-0.07637235189891711 0.08099653542955505 0.050171717098236146
-0.07746435342708013 0.08088880438664357 0.04971714015987877
-0.07853567589750882 0.08078607639508899 0.04924788108281131
-0.07959617061808905 0.0806857655932033 0.04877252569854429
-0.08063495457278969 0.08059078881555853 0.0482811161054687
-0.08164353301071053 0.08050345130879204 0.04776565556474671
-0.08263828829501507 0.08041941904541011 0.04724068795476227
-0.08362444985586648 0.08033731131738364 0.04671083413733723
-0.08460355090211835 0.0802567289162358 0.046177404883124995
-0.08553471829889486 0.08018869975752634 0.045602425978905514
-0.08626668134057702 0.0801741785658435 0.0448442502624552
-0.0871119605168571 0.080128906225991 0.044192749002982146
-0.08780320499858679 0.08012523251299956 0.04339783318186102
-0.0885149941407572 0.08011595305073424 0.04262249717404737
-0.08907982905065492 0.08014669951450602 0.04170767065148967
-0.08971662753514759 0.08015792108235807 0.04086055670398603
-0.09030413364542567 0.08018269704205801 0.03996564283788934
-0.09086730347393673 0.0802142698568342 0.03904630515097929
-0.09142105116221078 0.08024858261833068 0.038116658985322016
-0.09194430727206815 0.08029146633597008 0.037155979276231155
-0.09243367448924528 0.08034392045088415 0.036160458679255936
-0.09288645030094933 0.08040676122092749 0.03512690172975386
-0.09343888554160962 0.08044221327207984 0.03418986429336657
-0.09372677370862159 0.08055149285082541 0.03298778058090285
-0.09410177094898087 0.08063697642031507 0.03186893282273073
-0.09443968123707203 0.08073323988534442 0.03070954821595623
-0.09427513610952432 0.08097085921968383 0.029037838997040266
-0.09456887971946931 0.0810807888798205 0.027823667076026792
-0.09469845479420341 0.08123749825361314 0.026437431707881653
-0.09470980109184957 0.0814283477635359 0.024923737406465696
-0.09460067861634619 0.08165421680863488 0.02327834117994937
-0.09411693054953518 0.08198748387925231 0.021235204284137554
-0.09342243785657162 0.08238230502734316 0.01895937729448166
-0.0924075133233806 0.0828704035362426 0.016332219508097823
-0.09081340798222398 0.08352641801823693 0.013075399205723703
-0.05974184313015113 0.08260483797422463 0.04869158812902569
-0.06259922035923526 0.0820544131643327 0.04967060043201588
-0.0650541440793791 0.08160485455578058 0.050325808030723784
-0.06724533434127672 0.08122114894228377 0.050770781694737865
-0.06920388298236307 0.08089571797273391 0.05102883149776566
-0.07100102812490211 0.08061054440059492 0.0511585720265299
-0.07266534074569475 0.08035849855155135 0.05118274375161852
-0.07385369452543283 0.08022884230445143 0.05079927055349309
-0.07526240353943592 0.08004129868848182 0.05061427879642305
-0.0763753438765089 0.07993001165893622 0.050174363407706646
-0.07746807511505605 0.07982350575277615 0.04972044917574159
-0.0785430836663078 0.0797211621444124 0.04925450204595011
-0.07959469601446928 0.07962449774361777 0.0487712008012714
-0.08062394553533392 0.07953327916864054 0.04827117286937588
-0.08162380366863409 0.07944939607574288 0.04774774287262956
-0.08260991324531791 0.07936876546729181 0.04721479073494983
-0.0835773585334974 0.07929271116852123 0.04666763012494274
-0.08453717885323497 0.079218334557045 0.04611619330637451
-0.08547364050391276 0.07914983237266777 0.04554580265845448
-0.08616705198890112 0.07914581776856075 0.04475140463494298
-0.08709910664449172 0.0790780133867836 0.044180707828150756
-0.08783953151318385 0.0790612235066134 0.04343204041347959
-0.08852707337574334 0.07905855304851651 0.04263393099978746
-0.08916990562227678 0.0790679004511914 0.041793378498058475
-0.08977467564061675 0.07908755627893849 0.04091607703771588
-0.09036067024495043 0.0791123785600771 0.04001999886443591
-0.09092234253045056 0.07914390620993632 0.03909949659111911
-0.09146473759855461 0.07918081590774795 0.03815909835432191
-0.09198371679993866 0.07922427191382557 0.03719446271507909
-0.09247796383154272 0.07927467930468686 0.03620393182405751
-0.09288434258697625 0.07934935395604963 0.03512482212136375
-0.09344169166451655 0.07938299385222357 0.03419264735958466
-0.09376957670104441 0.07947984352834976 0.03303045198006693
-0.0941613968799816 0.07955954109048313 0.03192868349433037
-0.09447125168889386 0.07966224454201003 0.030741348593750828
-0.09433638057516902 0.07988850489602811 0.029099848924606486
-0.0945533832441906 0.08001823495456467 0.02780789571212655
-0.09487751301826569 0.08011879656360837 0.026620609000953477
-0.09495845785953905 0.08028761782737139 0.025179429798846187
-0.09486498663833315 0.08050597628552132 0.023551532675369025
-0.09443544187597414 0.08081950124504114 0.02156612213829384
-0.09371457153897128 0.08121631766908737 0.01926445793514392
-0.09274727564555801 0.08168439317352441 0.01668887192448354
-0.08986951860690906 0.0826936421505327 0.012079472770653521
-0.0598420508080752 0.08147817639729943 0.0487761180270056
-0.06270269186507854 0.08093421047537545 0.04975834572677873
-0.06519028468356802 0.08048231591327885 0.05044186799247791
-0.06737208079812829 0.08010603443642138 0.0508794043097045
-0.06931230750289086 0.07978953151620925 0.051122242846413535
-0.07109080872937373 0.07951285162398808 0.05123632919308396
-0.07268969387567897 0.07928083039593785 0.05120394671462153
-0.07397097842983164 0.07912909518206972 0.05090192131670995
-0.07524511238547665 0.07897851844639052 0.05059906533949582
-0.0763446733371162 0.07887216610297143 0.05014723628647311
-0.07743606563448424 0.07876744305996249 0.049691989003997405
-0.07851493222664879 0.07866548587308046 0.049229340671541055
-0.07956815070007428 0.07856971083257486 0.048747350449774074
-0.08059605238596335 0.07848007376325133 0.048245980097466556
-0.0815872610282895 0.07839957509209643 0.04771456502700716
-0.08256188171620021 0.07832303596584814 0.04717095352300604
-0.08351720499788573 0.07825119123669765 0.046612442163182555
-0.08444839617350253 0.07818533896601053 0.04603431354062992
-0.08535212894181271 0.07812639315867924 0.04543315307571644
-0.0861441062613173 0.07809657628749661 0.04473002127310827
-0.08702410346103973 0.07804341535423782 0.04411044678780557
-0.08779750591012792 0.07801817984425805 0.04339246657729989
-0.08861657094574998 0.07798073332767072 0.042718646598150445
-0.08920393593646664 0.07800462720807641 0.04182575833773
-0.08981925797001872 0.07802119218829531 0.04095871797813666
-0.09041012185744074 0.07804435730472781 0.04006754316642597
-0.0909674872958599 0.07807658533061798 0.03914312588346158
-0.09150559370646888 0.07811412398699627 0.0381987881890804
-0.09202170873941773 0.0781577443051967 0.037231561877608066
-0.09252645571867751 0.07820462903551664 0.036251530066021775
-0.09295458321230454 0.07827240870453854 0.0351941261140431
-0.09339678716658228 0.07833669951871716 0.03414811182233762
-0.09382428994728992 0.07840527881641227 0.03308499701624207
-0.09423712139524609 0.07847816885760252 0.0320045664292829
-0.09456522058311878 0.07857448454616842 0.03083600185858698
-0.09458671968383875 0.07875497176919091 0.029353316888318715
-0.09453999858460305 0.0789549884160861 0.027794273624958954
-0.09485778522386368 0.07905595812936535 0.026600427386868075
-0.0951277507943113 0.0791705609449573 0.025353512796494948
-0.09513022398685334 0.07935944873192126 0.02382568473227087
-0.09463744241879668 0.07968609137834151 0.021775990926686917
-0.09395028849016235 0.08006814373657334 0.019510621533581518
-0.09302559183082043 0.08051799303015993 0.016981023624404123
-0.0895703361759948 0.08167432952653127 0.011763796273334515
-0.054742190069708596 0.0814670821447943 0.0459341536434012
-0.05989009586258259 0.08036517082557725 0.048816646294300936
-0.06275720809140473 0.07982691661215563 0.049804576254781185
-0.06525910211337116 0.07937752639069241 0.05050053490025719
-0.06746590148379261 0.07900003229779103 0.05095980930458932
-0.0694020882221032 0.07868876819843897 0.051199591937037825
-0.07110308240310692 0.07843526728787671 0.05124695917378319
-0.07266381854803883 0.07821598887847164 0.05118141845583096
-0.07401030535669262 0.07804984993808713 0.05093634154749904
-0.07518871468753807 0.07792551778310404 0.05054944436275799
-0.07629304321032021 0.07781942495954909 0.05010157107364571
-0.07738766647719736 0.07771532486514904 0.049648956492877205
-0.0784719542020893 0.07761339154077432 0.04919092749692533
-0.07952020989454606 0.0775202029797785 0.048704276743963104
-0.08054392244716141 0.07743287722023703 0.048198896935919056
-0.08153096802840243 0.07735456464781781 0.047663455407060185
-0.08249053383169885 0.07728296396405675 0.04710583603888513
-0.08343744619568871 0.07721429955917468 0.04653926731683433
-0.08434583338980062 0.0771552747585452 0.045939725083411376
-0.0852319578570977 0.07710174493496244 0.045321746207790725
-0.08604008896528065 0.07706821010871444 0.044633086474675954
-0.0866914889785626 0.07707528725639971 0.043798862152365725
-0.08789649627415463 0.07693807373195939 0.043485681859520786
-0.08867265676179881 0.07691228464963029 0.04277173567605391
-0.08924929742989157 0.07693863052589278 0.04186891979301849
-0.08986877799565457 0.07695385256511339 0.04100608159711078
-0.09045673235921675 0.07697744005329968 0.04011235593714768
-0.09102319362577149 0.0770068053094544 0.03919696219717378
-0.09154714248350793 0.07704754485242711 0.0382391509201207
-0.09205898748064323 0.07709168144415808 0.03726796460141113
-0.09251099629476944 0.07715191532866181 0.036236355540069376
-0.0929833720390304 0.07720700999821789 0.035222531052457706
-0.09341853952137175 0.07727229149000465 0.03416968544750887
-0.09386145508767357 0.07733580823539725 0.03312204789634482
-0.0942602515230368 0.0774114523260288 0.032027744946523384
-0.09440740207750142 0.07755507535701285 0.030677033968930956
-0.0947643654629558 0.07764286612537144 0.029533182967311056
-0.09485667038369433 0.07780253010987796 0.028116562796567435
-0.09500708564004806 0.07794722832172192 0.02675316232118552
-0.09496551570624612 0.0781447000160521 0.0251866873439609
-0.09512174395410206 0.07828932974066896 0.023816919683026017
-0.09473549555662109 0.07858252452916929 0.021877863391710106
-0.09410483614755066 0.07894391312410733 0.019672018528072488
-0.0933113036647561 0.0793516557336486 0.01728093862177671
-0.09178994089467019 0.07996120411822548 0.01410576883129211
-0.0542029793536325 0.08048307402700501 0.045481702109276045
-0.05997800574466955 0.0792427137890948 0.04889080242203664
-0.06278205491929789 0.07872728890524805 0.04982564671490103
-0.06533026120497631 0.07827263090873898 0.05056119807638565
-0.06754091788556282 0.07789931686434036 0.05102409889443732
-0.0693711351588353 0.07761849974908912 0.05117292483839114
-0.07089813896310426 0.07741164074169248 0.051069461803474436
-0.07231407882531032 0.0772314703696057 0.050876918853254016
-0.07390061876751969 0.07700799890187769 0.050840340206556534
-0.07511348559756864 0.07687682769009109 0.05048325476531301
-0.07623615512178561 0.07676764065051474 0.05005125536009847
-0.07733329221979734 0.07666436800806777 0.04960061141896721
-0.07840227439260927 0.0765677087563356 0.049128648629616356
-0.07945380530502538 0.07647501104751839 0.048644613754949884
-0.08046753064988438 0.07639144089008507 0.04812990074266116
-0.0814622181965518 0.07631231080419637 0.04760103596264692
-0.08240530880561653 0.07624590897351127 0.04702805322414011
-0.08335764490231001 0.07617685548176689 0.04646605348688049
-0.08425765977703253 0.07612081852709537 0.045858407029258696
-0.08512465741084974 0.07607295755153533 0.045222271307719164
-0.08590583485687953 0.07604684349923106 0.04450797367678139
-0.086552499691117 0.07605511714124678 0.043668660586467956
-0.08754153264599224 0.07597539745043115 0.043151426751939004
-0.08856756711029456 0.07588577502953317 0.04267226110140032
-0.08931377169252447 0.07586802229386218 0.04193026704580449
-0.08994585445622993 0.07587973451022018 0.04107980167426528
-0.09052379716930331 0.0759055507481171 0.040176834109306
-0.0910831070880278 0.07593633346433888 0.03925486441321868
-0.09159923776902806 0.07597851697898285 0.03828975910037935
-0.09209203799738203 0.076026994125233 0.037300238460260426
-0.09250186040710756 0.07609743278440416 0.03622738801545483
-0.09310057482809786 0.07611860826112012 0.03533817098586617
-0.09341853952112489 0.07621376694911065 0.03416968544726401
-0.0937990402513813 0.07629287773017138 0.03305982494784443
-0.09403159127095062 0.07641148110954987 0.03179860632510506
-0.09439898023949583 0.07649490913604681 0.030668550795113436
-0.09462184490286762 0.07661712756965382 0.029388881118732058
-0.09477932594024019 0.07675733838349776 0.02803784635676798
-0.09494724320701553 0.07689543172381946 0.026691943268270568
-0.09506781564105904 0.07704685267309272 0.02529188180665637
-0.09485790695109275 0.07728763605455828 0.023544215037675786
-0.0945379000391296 0.07755917525907527 0.02167257121145949
-0.09413629781980382 0.0778540108171091 0.019704874537856965
-0.09336679337883214 0.07824965634973222 0.017339186812697138
-0.09226448402877996 0.07873733864191931 0.01460647374883961
-0.055696988841400785 0.07900465287314094 0.04673532497800781
-0.0597988795079753 0.07818544991741025 0.04873970100119773
-0.06275720809137031 0.07763987780087203 0.04980457625475204
-0.0653255182570463 0.07718666336779577 0.050557154709907015
-0.06759403292738297 0.07680444878494894 0.0510696188630414
-0.06934327217747199 0.07654726445066606 0.05114891994859477
-0.0706475429489754 0.07639776756700062 0.05085242566161435
-0.0717041544584206 0.07630831185603343 0.050345890447698494
-0.0735589573437686 0.07602237549915872 0.050541306796221375
-0.07499530171760094 0.07583819159719059 0.05037927180549345
-0.07616426631459539 0.07571916244222504 0.04998767198573989
-0.0772639928752864 0.07561672346212105 0.049538996197123264
-0.07832959552779728 0.07552228281926084 0.049063689247385356
-0.07936965109916533 0.07543376381301342 0.04856900314586571
-0.08037713284009612 0.07535295601642512 0.04804825447988742
-0.0813670869596888 0.07527615700548454 0.04751466427574258
-0.08230982853679641 0.07521081847207177 0.046940910698020255
-0.08325456580140428 0.07514468310040426 0.04637148339351499
-0.08416292357242855 0.07508738708740827 0.045771036629267625
-0.08503890552580357 0.07503798268589879 0.04514277340725187
-0.08581386899677362 0.07501384904655493 0.044422269736651254
-0.08641122759982106 0.07503453407638037 0.04353632054902745
-0.08743873335787566 0.074946248723699 0.04305462475764271
-0.08833155227263983 0.07489178602193677 0.042448856843687155
-0.08909401799996158 0.07487027608404319 0.041721171434970394
-0.08985958268385985 0.07484787550875589 0.04099728670577946
-0.09054073499336002 0.07484697254290978 0.04019311865457065
-0.09111552059193434 0.07487334818241413 0.03928618982215504
-0.09165975754710842 0.0749077004936918 0.03834855128872655
-0.0921342192372282 0.07496019378411939 0.03734142847830596
-0.09256790695964812 0.07502346437231776 0.036292217412174144
-0.09290260842097764 0.07511265934372463 0.03514284438725329
-0.09326058527853937 0.07519623321812469 0.034013029045843024
-0.0935982886887664 0.07528547428659002 0.0328596905746088
-0.09400210563858052 0.07535789849934875 0.031769059007233647
-0.09424941078805249 0.07547157023133715 0.030517892037067618
-0.09443769365564941 0.07560124338205335 0.029202428263261304
-0.09460761362239312 0.07573635510791736 0.02786308807127269
-0.09475769552191038 0.07587733258489406 0.026498035213796012
-0.09486243678676787 0.07603094669935609 0.025080691855600412
-0.09488197646503627 0.07620783071814799 0.023569093535342367
-0.09405342935627453 0.07661040568279104 0.021169229617411855
-0.09398035237047742 0.07681414830089074 0.019542017803234446
-0.09337832104152016 0.07715978465147622 0.01735128753277293
-0.09201100375378796 0.0777114537089219 0.014339018988530239
-0.054593705820831284 0.07815445390232677 0.045809560559111506
-0.05922188555649427 0.07722185138600848 0.04825297941594486
-0.06266981281763506 0.07656724668997787 0.04973046383131452
-0.06522034653721626 0.07612471958784524 0.05046749574406206
-0.06739554119926783 0.07577034654224496 0.05089951004033588
-0.06903102335648226 0.07554425902036173 0.05087990715203927
-0.07081055295787886 0.07528243667511955 0.05099360533496222
-0.0721828185590816 0.07511787228269733 0.0507626375854901
-0.07344970898225983 0.07497809764067764 0.05044568900666574
-0.07478279440578672 0.07482163179845396 0.05019229927360691
-0.07606611367382882 0.07467657403362779 0.049900859081950466
-0.07718123961263418 0.07457187655632616 0.049465418868613054
-0.07824055375289218 0.07448034808265439 0.04898410491835731
-0.07926623997382193 0.07439664413662758 0.048476090639670844
-0.08027049691669985 0.07431782317518043 0.0479519421395429
-0.0812433265837354 0.07424637809134751 0.04740229958044889
-0.08219677733284492 0.07417938803099482 0.046837731605471
-0.08313397493863339 0.07411611080365293 0.04626084710496514
-0.0840355497738986 0.0740613697555184 0.04565356623056982
-0.08484704621424444 0.07402874311184157 0.04496490661813313
-0.08571825038953468 0.07398110969245206 0.0443331617635328
-0.08663275683245458 0.07392245807501373 0.04374384339852977
-0.08751227068575002 0.07387228471838907 0.04312387192971828
-0.08826323648406015 0.07385408917107564 0.04238419125660209
-0.08901667160550658 0.07383518956805486 0.04164757635037464
-0.08970317408362538 0.07383305060169268 0.04084768909853548
-0.09031756306441147 0.07384909588852469 0.039978554294556934
-0.09083412889720022 0.07388995369108706 0.03901424421780908
-0.09148023608995193 0.0738981663903935 0.03817415442779459
-0.09209977214005766 0.0739131682035006 0.03730779085742891
-0.09242453373651466 0.07400330713732992 0.036151486379229825
-0.0925319242884351 0.0741493538662305 0.034777103189933156
-0.09308347184576099 0.07418244680218734 0.03383737087694416
-0.09350272860518105 0.07424962265269533 0.03276442428036136
-0.09380819312880812 0.07434636747419214 0.031574740822242486
-0.09404341154892293 0.07446167055018706 0.03031039251610157
-0.0942357006342322 0.0745886084729234 0.02899791063876883
-0.09437858046122083 0.07472894185539708 0.027629992140416504
-0.09452976753900322 0.07486778822928275 0.02626486395822869
-0.09461856651350747 0.07502352718685255 0.024829921389226794
-0.09461699045456712 0.07520357785101196 0.023295201264040333
-0.09432863720155038 0.07545945136864275 0.021455157250265144
-0.09358113888793396 0.07583685736443738 0.019125111734701217
-0.09308191296225438 0.07615087671516248 0.0170401445636853
-0.09147710760403238 0.07675748944088649 0.013775688896011329
-0.05366705855536413 0.07725532107934804 0.04503201114409899
-0.05914010762983907 0.07613790635965147 0.048183995881545316
-0.062422603025806545 0.07553167027392771 0.04952082644491068
-0.06484019959521403 0.07512698131249544 0.05014342020603607
-0.06672555025871141 0.07484645546488322 0.05032532303917642
-0.06905816638855389 0.07445861817338273 0.05090329178145575
-0.07064831226358015 0.07424553492444244 0.050853091949441265
-0.07205373965280853 0.07407550758579942 0.050650255510744424
-0.07340188856501628 0.0739183985510432 0.05040383499138068
-0.07461001055716487 0.07379409350618937 0.0500402770520178
-0.07575550815913101 0.07368425074747535 0.04962613833624935
-0.07703202151261751 0.07354242747478668 0.049332746526608406
-0.07812249320886949 0.07344478174135946 0.048878584007630343
-0.07914427211548092 0.07336328084326751 0.048366505337740784
-0.08013801669933546 0.07328819592138999 0.047832287529939066
-0.08109966659679874 0.07322055515726308 0.047271867602251716
-0.08205077914943415 0.07315516931606171 0.04670448260367682
-0.08297691619115888 0.07309557110566069 0.04611675329465814
-0.08378192669008755 0.07306527714524443 0.04541966251474988
-0.08475607922959133 0.0729934516166562 0.04488057396133066
-0.08566070579802565 0.07293835152831674 0.044279535361084976
-0.08652167513269216 0.07289373204838152 0.04363978493821635
-0.08731942512438612 0.07286448567498571 0.04294227694717301
-0.08805239660014097 0.07285110360066148 0.042184616822081966
-0.08877514588459384 0.07284019028573743 0.04141776465730396
-0.08947569487345047 0.07283473485534477 0.040630115733075345
-0.09012377736226462 0.0728423022895543 0.03979224275727339
-0.09070064865498123 0.07286765584451489 0.03888524479878647
-0.09118830611773832 0.07291541771749314 0.03789055785069223
-0.09163781585170588 0.07297295598695965 0.03685669013296383
-0.09176629764379723 0.07311134810739882 0.03550538075905335
-0.09242412882542905 0.07311719972998092 0.03467074513938723
-0.09293359989079047 0.07316049534443284 0.03368873035450365
-0.09330086148692501 0.07323994464021097 0.03256317778114204
-0.09358304104405729 0.07334132805744442 0.03134911770743093
-0.09381738873667411 0.07345534009397821 0.030082723591365768
-0.09401296984623014 0.0735797626466271 0.02877239605740406
-0.09416966735979654 0.07371469982576447 0.027417373174694226
-0.09428733142733253 0.07386026513410446 0.026016850827799975
-0.0943473512344784 0.07402130687440077 0.024551032203183443
-0.09434583268680263 0.0741989371241427 0.02301492980079317
-0.09411479051226201 0.07443655647822611 0.021232980888975517
-0.09341525269645379 0.07479631684278125 0.0189518736980665
-0.09256409109343017 0.07519706659656988 0.016496580993746346
-0.09096474764538681 0.07579392006926972 0.013235082294823175
-0.058683027404619725 0.07514035119053386 0.047798427174567615
-0.061627024071461256 0.07462172637792508 0.04884616428273186
-0.06395442755145547 0.07424429592123492 0.049388298909682715
-0.06689664837622428 0.0737218234198064 0.050471955342767216
-0.0687538961180843 0.0734506216473564 0.050641152772865516
-0.0703379711862741 0.07324220602807772 0.050584311816152416
-0.07178990229440374 0.07306388710559475 0.05042054648555139
-0.0731671267059017 0.07290235191448481 0.050198363625673315
-0.0744619717691396 0.07275952192365043 0.049910026536032326
-0.07564056002490821 0.07264352875601063 0.049524470350150174
-0.07668302967178403 0.07255925712284712 0.04902245196543448
-0.07795601364233051 0.07241988531839949 0.04872978683221446
-0.07899778133169155 0.07233489865301819 0.04823488675404275
-0.07997593889565457 0.07226469737800015 0.047685900720567054
-0.08092944321452145 0.07220007102189256 0.04711731814864756
-0.08184980010167581 0.07214309215946614 0.04652105390018402
-0.08267542663228467 0.0721085979611366 0.045840151195096546
-0.08373187592677472 0.07201840382853769 0.045373503232469414
-0.08463542630829951 0.07196467447586123 0.04476872039772939
-0.08547785398801111 0.07192547478433313 0.04410913386035287
-0.08627341148009404 0.07189745142928394 0.04340721797627389
-0.08706476962993753 0.0718703191869836 0.042702478013029066
-0.0878069871894201 0.07185502285251733 0.041952319955568196
-0.08851613106946776 0.07184772462544485 0.04117131209328906
-0.08920026414770915 0.07184650840008867 0.040366678956129554
-0.08983545368486207 0.07185728213477201 0.03951503950142421
-0.09042199576804894 0.07188005662070424 0.03861594606269142
-0.09094953329917482 0.07191746589826006 0.0376586010100286
-0.09146632225227869 0.0719577025392222 0.03668922648132977
-0.09189903015569079 0.07201892758533257 0.03563566717583205
-0.09224005768991905 0.07210317297174841 0.0344891285240988
-0.09274833282358763 0.07214624559190141 0.03350498554604048
-0.09308672984736394 0.07223184294097862 0.03234970446658708
-0.09337023199138605 0.07233155268524419 0.031135863446974443
-0.09360653830551602 0.07244354785269277 0.029870337547389825
-0.093784949799196 0.07257060026899595 0.0285415261093786
-0.09395408559026636 0.07270058962357696 0.02719796724680562
-0.09402889757191435 0.072854977470333 0.02575247194030944
-0.09405929134868413 0.073021327438543 0.024254821800257398
-0.09404711201235072 0.07319925808248143 0.02270616903313738
-0.0938341715354769 0.07342901901293546 0.02094143135235005
-0.09309083102127086 0.0737948857888211 0.018613074105713667
-0.09208803583867625 0.07422871439350273 0.015996860318855166
-0.09035181033552958 0.07485221986852503 0.012588353466326752
-0.05807651675473968 0.07417379129253941 0.047286806863428066
-0.06134505010821295 0.07358885415267964 0.048607046389172404
-0.06363277518658245 0.07322621307158604 0.04911409004020045
-0.06662893149318755 0.07269919354186569 0.0502425200699515
-0.06842256565606641 0.07244676502256817 0.0503557005047387
-0.07001851648485014 0.07223884244625366 0.0503076385572534
-0.07149878021147626 0.07205675600930513 0.050167082115358586
-0.07291144731680654 0.07188952981199546 0.04997458454393172
-0.0742494843839141 0.0717388973374912 0.04972307153636485
-0.07549318048859305 0.07160955957539489 0.049394117815498684
-0.07663364327025157 0.07150373482395339 0.04897854167872151
-0.07759791344886413 0.07143864652462172 0.04840972174307823
-0.07874071158910795 0.07133141390498947 0.048003915531449504
-0.07977309754905754 0.07124963965633054 0.04750269674776686
-0.08068477821702985 0.0711959201987693 0.04689518155864142
-0.0815833637858468 0.07114504814632282 0.04627788393534926
-0.08267396869029864 0.07104852228461304 0.04583881360378533
-0.08358307556874028 0.07099458901100247 0.04523627220390297
-0.08443508602914751 0.07095397778132505 0.04458299116783504
-0.08524789058551024 0.07092251883863497 0.04389482857731247
-0.08607363810924062 0.07088782604164987 0.04322007545480466
-0.08680824078800559 0.07087478209297757 0.042460915022190515
-0.08755044095912135 0.07085985609569445 0.041709481324240905
-0.08825665985026693 0.07085351016412139 0.04092442526085438
-0.08891292564036879 0.07085916999802284 0.04009185293567591
-0.08954300922708824 0.07087117869788101 0.039233874400520063
-0.09013146242287012 0.07089331967992904 0.03833516568567302
-0.0907153265115535 0.07091667709604804 0.03743107985898031
-0.0912734156593083 0.07094641135395273 0.03650085302254752
-0.09173592160197447 0.07099958260577698 0.035475564509902635
-0.09201900563809196 0.0710968388201056 0.03427102411927635
-0.09251906347211342 0.07114141724202898 0.0332776000008968
-0.09286310388241076 0.07122450276305758 0.03212676601593617
-0.093137334210672 0.07132515706145363 0.030902478431794334
-0.09337700406401311 0.07143481128319673 0.029639131619841774
-0.09355656966545212 0.0715598442333995 0.02831029157411169
-0.09370771694693208 0.07169251377915142 0.026947228323420724
-0.09375225103746815 0.0718522974825384 0.025469461407936822
-0.09375926939389945 0.07202218540615751 0.023946310867301923
-0.09373064861962704 0.07220178176678488 0.022379069209023716
-0.09317008907864655 0.07251532091070707 0.020251481817261108
-0.09268265548972898 0.07281203008802234 0.018186808802642285
-0.09160604183399657 0.073258282752444 0.015490905669879484
-0.08954661245260859 0.07395435769361408 0.011738764650056854
-0.05744541770447886 0.07320862760453703 0.04675444507799498
-0.06096128933013034 0.07257699420898155 0.048281611842561356
-0.06396479264801908 0.07205829922844204 0.04939713516186417
-0.06622689876197635 0.07170512916752282 0.049897975159970465
-0.06805932331135328 0.07144786986085677 0.05004275508297884
-0.0696883460653569 0.07123571423119789 0.050021684631560426
-0.07119635693011839 0.07105018983072814 0.049903778398339926
-0.07264085105009055 0.07087834481835341 0.049737749716131485
-0.07399805421706851 0.07072571182092183 0.049501853101636906
-0.0752778729282112 0.07059014725145396 0.04920368509378492
-0.07645317276526148 0.07047800376346734 0.04881808229371981
-0.07747413272004378 0.07040091821809882 0.04829908820887169
-0.07836358235378738 0.0703538551975692 0.04766507362931732
-0.07921406634112327 0.070315598502699 0.046997786186231905
-0.08046843803831627 0.0701834790115161 0.046698761678096834
-0.0815892245953399 0.07008181914416 0.04628323295405906
-0.08250840026599893 0.07002667785530936 0.045686912576255845
-0.08337814241847286 0.06998283107125253 0.045047272746038425
-0.08421853210927593 0.06994565535273811 0.044382230776871257
-0.08503635687239153 0.06991360393538754 0.04369769811320601
-0.08582030142038188 0.06988937290601736 0.04298275620383957
-0.08656635305341853 0.06987396190399481 0.04223313897886549
-0.0872891495187762 0.06986397378731604 0.041462151025615734
-0.08798529505809399 0.06986025013692126 0.04066622169523265
-0.08862359793182939 0.06987023719279996 0.039815124336084806
-0.089233605148477 0.0698870015497553 0.03893640379825558
-0.0898304009528958 0.06990699381996994 0.03804421060444785
-0.09047648808294367 0.06991529905750028 0.03719905928116618
-0.09095487996764468 0.06996381391664208 0.036189802637693724
-0.09148277721530546 0.0700006690895085 0.03522708525944446
-0.09181318909510816 0.07008522580310919 0.03406795206344582
-0.09226185144802873 0.0701416536546035 0.03302250137590418
-0.09262357611411126 0.07021936910346047 0.031887974650346096
-0.09290335414340889 0.07031731319832125 0.030668008865864516
-0.09314002585733178 0.0704261933649777 0.02940042751310068
-0.09333137222957733 0.07054662780143262 0.02808227951555753
-0.09343395427363443 0.07068930249159135 0.026668609433302903
-0.09344875050047169 0.070854137006753 0.025158979121496228
-0.09344293317488683 0.07102481487551277 0.023621024065790308
-0.09339561269709346 0.071206513911489 0.022032772626694563
-0.09284661808630423 0.0715127209371725 0.01991541111024897
-0.09223928714065721 0.07183481277818946 0.017723790985343324
-0.09104047288535433 0.07230493027302992 0.014897221441230235
-0.08846236342695735 0.07311970855225536 0.010594740471921715
-0.05678281730546353 0.07224613969409116 0.04619551042058623
-0.06048233131153813 0.0715836414453507 0.04787544869476634
-0.06353127636307815 0.07106293189129827 0.049027562221081566
-0.0657661798965492 0.07072138933907975 0.04950313581557947
-0.06763265314423605 0.07046064803657674 0.0496751644720706
-0.06929385935895477 0.07024471197349932 0.04968002766997531
-0.07085254059130996 0.0700508241324888 0.04960443596817532
-0.07233080094229666 0.06987416043339248 0.04946638357801009
-0.07372267810997934 0.06971617995769781 0.049259566059727866
-0.0750283116302145 0.06957697639708157 0.0489829560254344
-0.07624398061899268 0.06945751831818027 0.048632086010619135
-0.0772912608719108 0.06937573447946106 0.04813563983481017
-0.07804735174059668 0.06935980737313029 0.047380947731745726
-0.07893526147810409 0.06931376159257457 0.04674597283851939
-0.08040141284151409 0.06913540524465013 0.04663790806677204
-0.08140449954742635 0.06906227042121908 0.04611463888209305
-0.08229953858506006 0.06901359977412347 0.04549529207808206
-0.08314962413044796 0.06897504766775531 0.04483652191098575
-0.08398424270957339 0.0689398855159107 0.04416502837522074
-0.08478255358766007 0.06891295213553597 0.04346117619632944
-0.08555931641612208 0.06889088580476266 0.042738272209029926
-0.08630176288424524 0.06887668390405484 0.04198398495731137
-0.08700370726899403 0.06887183989055161 0.041191960326733223
-0.08768191869992054 0.06887250799205583 0.0403775591285877
-0.0883136864364153 0.06888403475194874 0.039518708294371985
-0.08892212093367702 0.06890108137837947 0.0386369332890486
-0.089523021863467 0.068919976219849 0.03774714998111639
-0.09019604661312525 0.06892198336212896 0.036926623257160174
-0.09057953297486071 0.06899230700238912 0.03582327596701079
-0.09118948565656276 0.0690094072655083 0.034939198699362795
-0.09162409083857459 0.06906814913732064 0.03388137536192537
-0.09197371459385872 0.06914735693305411 0.032736732016675985
-0.092358859107397 0.06921847889127566 0.03162407148798213
-0.09264490157641225 0.06931359245861048 0.030409015602438416
-0.09286507046354919 0.06942491747429673 0.02912346963336293
-0.09305399778264056 0.06954426334842671 0.02780143831330012
-0.09311272316214159 0.06969547778146674 0.02634168007263682
-0.09313249066645307 0.06985680087017539 0.024835444022194064
-0.09310016884258321 0.0700314769939198 0.02326856138012201
-0.09297231787562144 0.07023012020497131 0.021595250736847982
-0.09253756946495006 0.07050420477192185 0.01959432454873833
-0.09178002992412077 0.07085814209778826 0.017244180128085096
-0.09038595134557159 0.07136902774093376 0.014210162654829217
-0.05615334344166478 0.07127191384587785 0.04566451955651052
-0.05992691015090007 0.07060372690186799 0.047404443725229006
-0.0629474069071192 0.07009752550950445 0.04852981309522969
-0.06517967096097693 0.06976209866633325 0.04900049348643126
-0.06716323454004575 0.06947989666546986 0.049270744653708676
-0.06890304575357181 0.06925018220413119 0.04934155190692846
-0.07047786553349039 0.06905590267414076 0.04927822650786151
-0.07198872313873139 0.0688749226906046 0.04916698573825096
-0.07341866443496103 0.0687110938608409 0.04899208252675652
-0.07474886629197042 0.06856871792726331 0.04873579546944812
-0.075987161742477 0.0684461927981465 0.048403743994372195
-0.0771395725738721 0.06834230668171543 0.0480000628942821
-0.07810171568667257 0.06828055974654373 0.04742979248089413
-0.07916442312677235 0.06819596440649373 0.0469529490056263
-0.08031224541732074 0.0680918410223619 0.04655695105308799
-0.08120412508124086 0.06804494841587423 0.04593176196554172
-0.08206696663429414 0.06800440447268918 0.04528191855323699
-0.08290397914190517 0.06796952573951119 0.04460997598807792
-0.08373286223773585 0.06793633328529668 0.04393198137317761
-0.08452324294902941 0.06791174884972476 0.043219521919158455
-0.0852754624503968 0.06789575377767881 0.04247236516322117
-0.08600425491350905 0.06788503964651581 0.041703833553406455
-0.08669973058567215 0.06788190846356462 0.040904225513216985
-0.08735423109699869 0.0678881711241189 0.040065764415622374
-0.08798807784432228 0.06789921599738867 0.03920727870416929
-0.08859352846542157 0.06791686227828593 0.038321014378508544
-0.08921999387910479 0.06792973170408531 0.037454294399792365
-0.0898046617412806 0.06795234750423888 0.0365464108070882
-0.09030361733259495 0.06799497874987331 0.03555384409811818
-0.09086007030457777 0.06802442220176251 0.03461585406262119
-0.09134175771315184 0.068071452228439 0.033602807043861704
-0.09163387272451634 0.06816304898616404 0.03239968247984876
-0.09207946359382468 0.06821909075582736 0.03134553494627201
-0.09233486024104237 0.06832009835110506 0.030098325644209056
-0.09253912681389198 0.06843362944651339 0.02879515215291223
-0.09271347156543697 0.06855476494036311 0.02745665604047076
-0.09277152476080208 0.06870400327939154 0.02599442922669032
-0.09277837348702034 0.06886610217280142 0.024473180704223496
-0.0927193224075063 0.06904464887021759 0.02287693907673871
-0.09242975719804053 0.06927900657570686 0.021034454429002425
-0.09211580034771133 0.06952031836076783 0.01915612684699114
-0.09125150961518158 0.06989462559955324 0.01669223653455726
-0.08959397980330858 0.07046121962563641 0.013378821020340048
-0.05546538962960634 0.07030595081928641 0.04508419810058123
-0.05922051535923034 0.069652495185282 0.046805410989512686
-0.0622542557862662 0.06915168232616065 0.04793890127244704
-0.06456870232519274 0.06880406984541251 0.048476889020239444
-0.06661604177400482 0.068512759229263 0.04879931979522234
-0.06844027260633406 0.06826857619669875 0.04894075343939458
-0.07006824271615775 0.06806599520132128 0.04892158990933276
-0.07159674382298697 0.06788419525969458 0.04882391243989315
-0.07305153304780698 0.06771768830955645 0.0486690654766363
-0.07441210420945527 0.06757106673019346 0.048437940067484586
-0.07567344056761255 0.06744556497901723 0.04812480918015688
-0.07688592474914879 0.06733024430542052 0.047773355913636795
-0.07798849768008359 0.06723863266406395 0.04732806871854617
-0.07901687967027093 0.06716299880129824 0.04681968945156989
-0.08013375283664348 0.06706742893251094 0.04639489381719586
-0.08097847728492674 0.06703182355647003 0.04572581869341674
-0.08181130818034965 0.06699870206758081 0.045047364277474355
-0.08263966249910698 0.06696642789610505 0.04436621014478592
-0.0834985385851107 0.06692718661847986 0.043714747216709926
-0.08421263669635509 0.06692018989861731 0.04293006472653743
-0.08496208958666313 0.06690522508240643 0.042178805578034106
-0.08568085909256612 0.06689709483781127 0.041399304592283304
-0.0863554775394586 0.06689888332439761 0.040578366355296824
-0.08700351146292579 0.06690668874234972 0.03973205472791369
-0.08762943544159324 0.06691953912464683 0.038864253798735315
-0.08825559990168735 0.06693239444408713 0.037996119458481636
-0.0888948813714513 0.0669423240835526 0.03714009565466664
-0.08944080519878544 0.06697359726622733 0.03619294086624769
-0.08996797807619722 0.06700930393091438 0.035226092067162706
-0.09051138801963332 0.06704145616918049 0.034273597558532265
-0.09101903060055883 0.067081975979255 0.033284383377442994
-0.09129964390498935 0.06717496422389871 0.03206819987285303
-0.09176681276183879 0.06722533112139706 0.031033845326096432
-0.09197290085620635 0.06733633870352543 0.029735609021210252
-0.09218822254281223 0.06744573028738367 0.02844169226412019
-0.09234645921295859 0.06756891043889833 0.027085056596283852
-0.09240807569062015 0.06771518948043889 0.02562453301210177
-0.09237608893762905 0.06788402789918298 0.02406164197045113
-0.0922260322392866 0.06808131551627844 0.02236969149839252
-0.0916638581841378 0.06837626402489529 0.020242813315064334
-0.09162025052501566 0.06855063863467292 0.01864127456281217
-0.09058925453688421 0.0689586886059731 0.016000631232802265
-0.08842925732762524 0.06963557896071021 0.012156198444920163
-0.05417860257925883 0.06946179198072885 0.04399873259193865
-0.05841059170979229 0.0687183560561468 0.046118584323793066
-0.06147066103694987 0.06822028380614398 0.047270886192169015
-0.06388824229848722 0.06785662619569127 0.04789372993779206
-0.06600371364795388 0.06755574049404056 0.04827177864686377
-0.0678704567525738 0.06730664299848099 0.04844724744768614
-0.06959545898716268 0.0670867785884802 0.048509962495492776
-0.07115448818953773 0.06690154056837325 0.04843683564070894
-0.07262466008953355 0.0667345808242412 0.0482934853748464
-0.0740161319813567 0.06658383318799987 0.04808771516601745
-0.07532511512643936 0.06645022477053164 0.04781510712621656
-0.07655157550640412 0.06633387831600587 0.047474519101665724
-0.07772449269964765 0.06622862371640237 0.0470908663450223
-0.07870947038479126 0.0661637564615655 0.04654204091826858
-0.07986044364466444 0.06606242377238733 0.046146750549683146
-0.08070460136749841 0.06602764219332154 0.045475858784599865
-0.0815265700830492 0.06599755992905733 0.04478613083432437
-0.08233607417702465 0.06597007553190166 0.044086226022096664
-0.08313103361135066 0.06594566416731877 0.04337404480755036
-0.08388027030801526 0.06593121858422317 0.04262032903750307
-0.0846182868462525 0.06591918543215675 0.04185674007223805
-0.08531474712611659 0.06591629813063918 0.0410545515386645
-0.08597789819720825 0.06592078960264248 0.04022096156871008
-0.08662238458241517 0.06592945345423308 0.039369412549043914
-0.08725480125219881 0.06594084828028073 0.038505933487440525
-0.08786731541055998 0.0659567434165039 0.037622810800289286
-0.08849734014820271 0.06596879028944264 0.036755899567035455
-0.08898578748932917 0.06601267808955753 0.03575091203329067
-0.08957721315513811 0.0660335975739542 0.03484450977587228
-0.09011758851224994 0.0660661295536127 0.03388705528630176
-0.09064422792431759 0.06610191951312522 0.03291457855567459
-0.09093324671182018 0.06619172602984595 0.03170481320572027
-0.09137861921014467 0.06624644000138845 0.030646845234289122
-0.09153578684034919 0.06636703215096293 0.029297580539730195
-0.09181860941351105 0.06645951755540369 0.028069387261457024
-0.09195419365774465 0.0665861246103773 0.026687888323044973
-0.09198995033505586 0.06673622497579036 0.025198990621336292
-0.09187705693195797 0.06692120871275262 0.023551130194554015
-0.09136252712056347 0.0671996149114631 0.021481753914023793
-0.09130587758581249 0.0673736042246724 0.019872800879374652
-0.09099916282009718 0.06760632140953658 0.01799599449427486
-0.08983932617961649 0.0680381400391961 0.015217467094361559
-0.08368179814242321 0.0696346391024455 0.007172735949009135
-0.057484840024989714 0.06780281070969299 0.04533353385218569
-0.06011666138052901 0.0674025875232038 0.046116600523499696
-0.06309162507090582 0.06692881515082127 0.04721102330806198
-0.06526514874078154 0.06662097936928181 0.0476354802919608
-0.06721760435582613 0.06635823215297557 0.0478818251847391
-0.06901142687846357 0.06612772545280948 0.048001477089249345
-0.07062984900555297 0.06593321327063661 0.04797765402558829
-0.07213371954751974 0.06576206498712454 0.04786153602043397
-0.07355668723353392 0.06560730358809891 0.04768135083004249
-0.07490259938890953 0.0654682216761774 0.04743944122224353
-0.07617286582034116 0.0653446245823559 0.047136033527968635
-0.07735606245011128 0.06523905505283933 0.04675984028057567
-0.07839026649477976 0.06516488111427328 0.04625373963372065
-0.07952885703158863 0.06506799190210064 0.045845695963716626
-0.0803829741469142 0.06503179219300838 0.04518231741927953
-0.0811890319618997 0.06500577870226822 0.044476455921068137
-0.08199297727736005 0.06498010287343488 0.043769805140716544
-0.08273627620839952 0.06496743093248587 0.043008077520514776
-0.08349680524841957 0.06495096479567676 0.042262973966047945
-0.08421763609657196 0.0649430513554099 0.04148142082321371
-0.08490851145407835 0.06494162714245819 0.040672015589943045
-0.0855754391093611 0.06494542518926032 0.039840006393714045
-0.08622146919327789 0.06495381411435536 0.03898794160670482
-0.08684384271406764 0.06496743094357275 0.03811287061309254
-0.0874664772366629 0.06498105348321148 0.03723743264517587
-0.08805916145459208 0.06500133947251076 0.03633243017587928
-0.08858109961595417 0.06503734657118268 0.035357776327444024
-0.08914308133987597 0.06506465605916736 0.03442057967400741
-0.08966971201149815 0.0650999382740869 0.033447432592435045
-0.09017043262083507 0.06514114925059529 0.03244710113657984
-0.09049149428640724 0.06522261060621712 0.03126669046744229
-0.09077039372768275 0.06531387826208385 0.03004048967653944
-0.09106655398077296 0.06540171016124688 0.028827366020212575
-0.09135562814034803 0.06549154883076873 0.02760303411955467
-0.09139936161412754 0.06563703371716069 0.026126121729542207
-0.09115729094999958 0.06584769066049478 0.02435156087163365
-0.09083109844006054 0.06607837557796936 0.022481110393929804
-0.09029649817204743 0.06635740611756036 0.02038556218465437
-0.09062736732346277 0.06644111160820683 0.019171485679648825
-0.09032198084450721 0.06667014279580347 0.01729243519313184
-0.08882106003661167 0.0671732454905203 0.014154072812946172
-0.05619858050818605 0.06695479907130507 0.04424276765985474
-0.059367705111070146 0.0664513996605609 0.04547811477189939
-0.06221833370278346 0.0660113172684514 0.04646260639456734
-0.06443852277693096 0.06569930149395622 0.046923314393188253
-0.06644593188058823 0.06542988129110176 0.04721349525384422
-0.06832116932076032 0.06518664316287846 0.04740050688673225
-0.07002587919294345 0.0649777244458752 0.047449039613047195
-0.07156963972788416 0.06480136176990124 0.04736523577004276
-0.07303550079337923 0.06464045522183745 0.04722037792159978
-0.07441819271339922 0.06449620994684309 0.04700874703624697
-0.0757207988115155 0.064368092268123 0.046731982175539255
-0.07692522673503249 0.06426000919140751 0.046372744347586925
-0.07799797323850938 0.06417914550488171 0.04589942487365245
-0.07909403341245191 0.06409300000815851 0.04545091028942955
-0.0799910825276417 0.06404852727875004 0.044824647441067234
-0.08078726864486618 0.06402521943104834 0.04410785749453139
-0.08165203898488438 0.06398724367361087 0.04345537503334218
-0.08230818198209411 0.06399349173146662 0.04261120470337365
-0.08305160156867275 0.06398115299721895 0.041848084033296984
-0.08376187315441802 0.06397584412137879 0.04105447389919392
-0.08445891259379729 0.06397334613266709 0.0402486462543582
-0.08513408978129094 0.06397553186553606 0.03942223893464447
-0.0857759429145431 0.06398490097807441 0.03856402340852466
-0.08639336401047976 0.06399958477194838 0.03768200852449838
-0.08704792867057581 0.06400630407444717 0.03683502717402082
-0.08758864755121792 0.06403773162156258 0.0358777110416591
-0.08811836566656345 0.06407169552732103 0.034908251521336586
