# .PCD v0.7 - Point Cloud Data file format
VERSION 0.7
FIELDS x y z
SIZE 4 4 4
TYPE F F F
COUNT 1 1 1
WIDTH 783
HEIGHT 1
VIEWPOINT 0 0 0 1 0 0 0
POINTS 783
DATA ascii
-0.14712266915827843 0.06059244220384951 0.03693734837924484
-0.14834198486512162 0.06043516052734174 0.036952345584675694
-0.14955850989374972 0.060277783667722955 0.036971557062386085
-0.15077370909787965 0.06011993169004646 0.03699678351059499
-0.151960263124422 0.059968691210342935 0.036994433965695794
-0.1530380358252797 0.05984496656510166 0.03686488273476529
-0.15387400488193803 0.059783678944962365 0.03644069329194399
-0.15426218008145665 0.059839203510882885 0.035459798841025236
-0.15432531661289234 0.05998026838817334 0.03406780783183977
-0.15436564460918864 0.06012807617860919 0.03264005831624478
-0.15440715747761533 0.06027635437829497 0.0312065057642531
-0.15445480269134404 0.060423798826309764 0.029773427491569138
-0.15450614665198933 0.06057104791962767 0.02833776473184263
-0.1545741116393741 0.060714665738879486 0.026916189359644793
-0.1546443879162963 0.06085843640593306 0.025490432766354654
-0.15469009120909535 0.061009544535066 0.02402547073176503
-0.15476198401838853 0.06115444929826721 0.02258720158890526
-0.1548137073626271 0.061305554283478995 0.02111509448332055
-0.154878724093957 0.06145389608800922 0.01965293741084717
-0.1549596318144224 0.061598750623185594 0.0182043935615277
-0.1550041669017637 0.06175424401499976 0.016699890197723388
-0.1551044362651854 0.06189544991690269 0.015262329633718208
-0.15512881882163548 0.06205809309288797 0.013715104587766092
-0.15522277491403655 0.062202630697961746 0.012253968629405254
-0.1552658787942859 0.062361887093614204 0.010716045746436254
-0.15528068787620092 0.0625297905756403 0.009131128426099422
-0.15533233569576516 0.0626884800546495 0.007588315067370344
-0.15539243224585172 0.06284571700551289 0.006048991299047346
-0.15546103475870013 0.06300147346645134 0.004513349919220755
-0.1554276794211069 0.06318640479766131 0.002826888944955419
0.03713475880544903 0.0789440284594272 0.07353012447532525
0.03402915320973715 0.07851102077265455 0.07393500621836477
0.030787218369036307 0.0780506327673192 0.0744370511480737
0.027939908910313616 0.07766304512269394 0.07471906238377371
0.0252365057605467 0.07730120769021157 0.07492839791974909
0.024072810958673307 0.07723006784072527 0.07421614462539464
0.023808771860217848 0.07732965689533645 0.0729571212669447
0.02356921341986873 0.07743429525763984 0.07167939272678617
0.023805757176264597 0.07763019003722174 0.07010372110016888
0.023675525309856282 0.07775672508869581 0.06874864739552317
0.023920241562364275 0.07795558138487173 0.06715463277011535
0.023982464860961727 0.07812018897490168 0.06566789509767762
0.024077370998357772 0.07829172797918679 0.06415438013384583
0.02430157906843916 0.07848885720123268 0.0625523018013483
0.024423254845434783 0.07866696680360197 0.061008383911833386
0.02424216815625191 0.07878720869520835 0.0596523787216624
0.024087369704584694 0.07891302183671864 0.05827487321858499
0.023984668528541087 0.07904945201651487 0.056858778694302115
0.023896829993994173 0.07918931635489695 0.055427832344811856
0.02380164514846994 0.07932830473135441 0.05399643731788761
0.023867062004763073 0.07949922608461017 0.05245363527957475
0.02407062362330381 0.07969787530283934 0.05081253809263353
-0.1212957094620315 0.06292903327120204 0.0365823504145541
-0.12280278395838651 0.0627205401805457 0.03676332613676864
-0.12412527341690155 0.06255561920844495 0.03675110883761201
-0.12545308667746197 0.0623885935383753 0.036752504690400534
-0.12675702851801285 0.06222653673644163 0.036735232068437706
-0.12806801096199422 0.06206196109848475 0.03673345366104663
-0.12938462536262924 0.061895191562186924 0.036745767004353225
-0.1306822988431104 0.061732223186980933 0.036744608721785976
-0.13196866424207776 0.06157121254407467 0.036738362676213776
-0.13325558107679994 0.06140925850834813 0.036740405183492475
-0.13453906305563346 0.06124733652279092 0.036746237276399196
-0.13582457191544672 0.06108409720020236 0.03676214548346324
-0.13711086641997713 0.06091983804407074 0.03678678797365953
-0.13837784160595948 0.06075954454293785 0.03679684998109034
-0.13965531244940815 0.060595823301981835 0.036826907316314716
-0.14092644883775518 0.06043284932630285 0.03685742781295204
-0.14218338315066917 0.06027259729961461 0.03687906278441899
-0.14343262248720842 0.060113455483322475 0.03689934069392847
-0.1446721672840046 0.05995593540715045 0.03691579394431965
-0.14590420261954065 0.059799498528443004 0.03693092519475727
-0.1471257361888843 0.05964490981543412 0.036941046719059956
-0.148347056917896 0.059489575391220025 0.036958493107765
-0.14956253600807157 0.05933492004127209 0.036976461964058016
-0.15077370909749954 0.059180557757486346 0.03699678351012953
-0.15196075866444692 0.05903155380967595 0.036995043894219815
-0.15301391488570165 0.058916067482509514 0.03683504109455077
-0.15382745292623393 0.058861514376736986 0.03638280444791414
-0.1541397282247836 0.05893574650937544 0.035306742600673735
-0.15418689383178066 0.05907881354455318 0.0338938987628431
-0.15423133544029421 0.05922334139876562 0.03247044903408841
-0.15427106116737435 0.05936985864848402 0.031033755018195053
-0.15432285213065486 0.05951401422057655 0.029605076837645516
-0.15437291290387703 0.05965938876887833 0.028166901667605326
-0.15444258794470236 0.05980040797329833 0.026746650701041486
-0.15451756930218333 0.05994079009091847 0.025326117092563882
-0.15456098799630608 0.060090227328984995 0.023857333162375427
-0.154625617631308 0.06023487483922465 0.02240868964317222
-0.15468354673522022 0.06038207478601289 0.02094382800979855
-0.15475029338497226 0.060527733169856365 0.019483075915536108
-0.15482440505088627 0.06067222363741197 0.018024621310954225
-0.15487417081957033 0.060823990748875165 0.016526180193256246
-0.15496611849738315 0.06096530943804287 0.015076545867393376
-0.15499622873362617 0.06112397709781343 0.013536094806773757
-0.15509297459523283 0.0612656039070561 0.012077820477988
-0.15513831318280188 0.06142186554416905 0.010542036101202024
-0.15518286420979122 0.06157920185509586 0.008996999701307407
-0.15521691411890357 0.06174025434294275 0.007429239374498298
-0.15526036248965458 0.061899645742317946 0.005866029679918727
-0.1553338103913561 0.062051747803044885 0.004336189138585134
0.03904541700821745 0.07789491831535916 0.07384181852417862
0.03580381680062217 0.07744484503748336 0.07431528863588108
0.032969574406667146 0.07706851175616176 0.07456371080669072
0.030142857529607714 0.0766921269120209 0.07482159836963548
0.02756456376235139 0.07636049208428561 0.07494435850291398
0.024614883968629153 0.07595837249481557 0.07530367042856811
0.022039590500309902 0.07562459372762859 0.07545066399988307
0.019747678610971875 0.07534252995897418 0.07543708128328641
0.019023591478324664 0.07535321872427984 0.07447115683877306
0.01881468109630141 0.0754606938214965 0.07318661623941755
0.018605173931982855 0.07556847593665017 0.07189840616670637
0.018731779084938005 0.07574004442659091 0.07039614870696842
0.01873736479872884 0.07588942521924423 0.06896345435224921
0.018721545820514385 0.07603534111825087 0.06753863668997162
0.0188141552401887 0.07620239263417318 0.06603938777279478
0.018872047788665636 0.0763635057921786 0.06455598365292725
0.021330158787470577 0.07698221812502941 0.06152387435580181
0.020008610532138038 0.07688236799426389 0.06091101552037659
0.018908088240277454 0.07682436870821026 0.06015831343369793
0.01885586339763129 0.07696690698281727 0.058722653885514564
0.0186936662082286 0.07708890883125413 0.057353812113319025
0.018453138888151532 0.07719633565301125 0.05603205707285025
0.018333349783798913 0.07732745375193584 0.05462591610968487
0.01824757576746522 0.07746566336576652 0.05319198281020909
0.018220118983730438 0.07761570813012994 0.05171351227692905
0.018330821411634335 0.07779313494066886 0.050135855133978
-0.12135134545001125 0.061916995047683374 0.036642893641145036
-0.12277906391295218 0.061730602529888004 0.03673738092559942
-0.12410938611711586 0.06156645068632117 0.0367336416402384
-0.12544608086508807 0.061399968420346875 0.036744762521861096
-0.1267605044957255 0.061237983288624946 0.036739093173793425
-0.12807203484406532 0.06107588664334486 0.03673794638836475
-0.1293857660453665 0.060912454261631645 0.03674704715022192
-0.13068682621798838 0.060751256635848266 0.036749715776100256
-0.13197315678959082 0.06059280739582906 0.03674345652225752
-0.1332589244132952 0.060433699406576516 0.036744215508804856
-0.13454348621715104 0.060274083641060315 0.03675130418815481
-0.13582896046644266 0.06011344113044456 0.03676719860845634
-0.13711304342690325 0.05995232573645961 0.036789307546133576
-0.138384861766292 0.0597933914853867 0.036805016595688356
-0.1396601341973031 0.05963280332848519 0.036832545346237144
-0.1409275118900553 0.05947333659872615 0.03685867722372682
-0.14218865670349695 0.05931459058937633 0.03688529269158991
-0.1434441333496666 0.05915643139720035 0.03691300897019323
-0.1446758014538662 0.05900335424335023 0.03692013143639444
-0.14590883882306638 0.05884914948014713 0.03693648709969155
-0.14713544792716712 0.05869574864156499 0.036952757495045174
-0.14835517174656074 0.05854327197989016 0.036968328592292043
-0.1495695813742965 0.058391333721803634 0.03698504513527817
-0.15077021364804152 0.05824206038207494 0.03699250320081965
-0.15195976758112914 0.05809479420181492 0.036993824033149325
-0.15297846269177653 0.05798982865865448 0.03679118079580479
-0.1537632291973022 0.057943436675536274 0.03630294018934732
-0.15400831415967314 0.05803355961774042 0.03514248422777849
-0.15405272907622988 0.05817514234513755 0.033725339313722014
-0.15409588270684657 0.05831779424047819 0.03229939562742018
-0.15413677864155245 0.058461778299882534 0.030863306558003734
-0.15418876890206656 0.058603685714407376 0.02943400519463668
-0.15424101217427852 0.05874628372421821 0.027997748107387754
-0.15431140989216613 0.0588849688714488 0.02657755758728214
-0.15438313716291277 0.05902405314911004 0.025151936766608818
-0.15443074007321628 0.059170128429588555 0.023687704779524033
-0.15448958861744602 0.05931407110899208 0.022230619339628055
-0.15455273607038345 0.0594576717647991 0.020771706211432928
-0.15461970785773074 0.05960105146004449 0.01931036447371215
-0.15469203937121173 0.05974380665309826 0.01784865262316243
-0.15474806414346365 0.059891616814980064 0.01635766748964068
-0.15482611554605583 0.06003443846282814 0.014888498619324952
-0.1548665259506331 0.06018797111711876 0.013360983174175278
-0.15495489958122097 0.06032965838810738 0.011890442983854999
-0.15499940418835018 0.060483761340572414 0.010352553178938129
-0.15506403818338585 0.06063336009687531 0.008834074061952357
-0.15512541306434027 0.06078465547481984 0.007303131292725751
-0.15513634373888677 0.06095028169746088 0.005694221446935321
-0.15519770768688476 0.06110330262978709 0.004146665214244671
0.041718030289421226 0.0769765527072627 0.07371670324742355
0.0387494851852882 0.07658481371013906 0.07401538908049465
0.035530986054687796 0.07614609937380046 0.0744762399942637
0.03285362139920145 0.07580433575145396 0.07463251190729095
0.029703502665543613 0.07537491899993465 0.07508380035634424
0.02720723390022367 0.07506348728561303 0.07515884117740004
0.02433046349533985 0.07468109386260359 0.07547537480888195
0.02162612699192501 0.07432889408554258 0.07570170844990595
0.01909005086768184 0.0740062955125429 0.07583867031582073
0.01652949679791399 0.07367792946748525 0.07600294371199082
0.015267545006727001 0.07358821522544982 0.07537761642326629
0.014967932269230433 0.07367630005410832 0.07415790121475424
0.014806338177357492 0.07379032928673801 0.07284858607477396
0.014810824721254334 0.07393567055615714 0.07143054655968717
0.014777733891319533 0.07407458489446707 0.07003066563683119
0.014756702696534951 0.07421629550606272 0.06861777178095985
0.01475889708017919 0.07436290632557907 0.06718456735360429
0.014763324337535633 0.0745105141569734 0.06574425981710025
0.014909338709376718 0.07468527943951446 0.0642067252183462
0.018376461158283952 0.07548529050957006 0.06050384564747896
0.016596333830401433 0.07529974424756615 0.06019950292778653
0.015099843917167066 0.07516701154851459 0.059715961315660815
0.014775617364208682 0.07525551879567871 0.05846277558936164
0.014642865032368613 0.07538067513150515 0.05707886045521432
0.01453219653877258 0.07551052701104129 0.05567527843685821
0.014444835496181196 0.07564533556091796 0.05425093045942608
0.014315360001406374 0.07577265464336375 0.05284973984702679
0.014292940872913218 0.0759209433137853 0.051370770301503554
0.014302187407292222 0.07607589340429018 0.04986430041524054
0.014408097179602453 0.0762500155940016 0.048285269089792304
0.042065511318018 0.08172151627662895 0.027661450187022207
0.04043309866865724 0.08157294115129617 0.027171073523428013
0.03889426452396788 0.08144182491202864 0.026621237374466145
0.03826264675893809 0.08148564956124711 0.025439312010356374
0.03744255798786267 0.08149312437916532 0.024388764396714946
0.03750965033642306 0.08167293227068727 0.022707789871946604
0.03886368469788465 0.08210393160282564 0.020100512710977902
-0.12130647956354862 0.06092877884784487 0.03659407046699198
-0.12272449139448655 0.06074768365894145 0.03667768898615742
-0.1241199778664403 0.06057096544527111 0.03674528667611471
-0.1254548380703116 0.06040759251101103 0.03675444016595952
-0.12675992517229057 0.06025041008679284 0.03673844966310319
-0.12806973549793782 0.060091333644648276 0.03673537913242181
-0.12938690671784936 0.05992972580035171 0.036748327284582605
-0.1306873921281444 0.05977126360911261 0.03675035414468725
-0.13197708763673555 0.059614570609949125 0.036747913487958694
-0.1332644964421143 0.05945763583522306 0.03675056582456898
-0.13454735635426995 0.05930099735497152 0.03675573758792683
-0.13583334886162457 0.059142819524589996 0.0367722515540399
-0.13711358767235926 0.05898522219450298 0.036789937431988995
-0.13838540176162234 0.05882885209033447 0.03680564477703163
-0.13966013419695836 0.05867098392004434 0.03683254534583402
-0.14092963796700422 0.058513575363201245 0.03686117601277761
-0.14219182072420444 0.05835713695051757 0.03688903050477549
-0.1434519810307365 0.058200388917642995 0.03692232749634977
-0.14468826062440582 0.058048652682081966 0.036935001834733416
-0.14591295974063473 0.05789896337593743 0.03694143083256052
-0.14713953684069322 0.057748041983613684 0.03695768805937183
-0.14835872180742915 0.05759815429521 0.036972631402638845
-0.1495736071067829 0.05744854733827296 0.03698994957177082
-0.15076771683390788 0.05730328834104884 0.036989445758018824
-0.15194440470790624 0.05716158169693515 0.03697491485504195
-0.15294694045441515 0.0570623268575932 0.03675218251122092
-0.1537004414653626 0.057024478276483596 0.036224861638913475
-0.1538738018873851 0.057131070937660136 0.03497435331300991
-0.15392480677565246 0.057268811078285034 0.03356462264542032
-0.15395780231023196 0.05741179257631946 0.03212502393602745
-0.15401569060300982 0.057549275781647674 0.030709606219178176
-0.15405651091443476 0.05769178961797515 0.029265262306481077
-0.154108462450468 0.057832250079324715 0.027827762256993682
-0.15417609917932407 0.05796948714744774 0.026403137329341908
-0.15424804797680597 0.05810636360128288 0.02497690512167061
-0.15429734418385926 0.05824974367209177 0.02351397664279925
-0.1543543994718829 0.05839191402887916 0.02205364847508351
-0.1544197672144696 0.058532723190867796 0.020596744646677656
-0.15449148838547191 0.05867266306805357 0.019140782358515185
-0.15455901587621754 0.058814441781761435 0.01767180942697172
-0.15461777579878164 0.058959255019500306 0.016183566943263672
-0.1546899913833564 0.0591013753640196 0.014705661229480305
-0.15473210778869206 0.05925208526236655 0.013179505311902706
-0.15481258868953235 0.059393637089000396 0.011697317106133531
-0.1548618550002637 0.05954411367969526 0.010164925140764391
-0.1549374261678601 0.05968853634435559 0.008660472838351807
-0.1549867435672034 0.0598406471985378 0.007112014978626902
-0.15502553518837567 0.059996371443321456 0.005540713843085854
-0.15507790552835798 0.060149378586272596 0.003979839908923644
0.04521563134551676 0.07619262045790526 0.07312592623472766
0.04124870103226297 0.07563097888184891 0.07399038137501807
0.03833418367686847 0.07525515122657025 0.0742589725962578
0.035441316775695064 0.07488175683660217 0.07452913869601976
0.032528587991485614 0.07450336705962554 0.07482537155510394
0.029849461065635796 0.07416548357253046 0.07499669404294876
0.02708133385143391 0.07381027887161389 0.07523441106966028
0.024102300580631286 0.07341566963059021 0.07561311655239131
0.021384765921384885 0.0730667793870028 0.07584825670865641
0.018766500771113248 0.07273450633070436 0.07603625043859247
0.01612784276913798 0.07239724314921973 0.07624962575405059
0.013459046668966579 0.07205318967690984 0.07649469230940706
0.012099592044544472 0.0719462068462268 0.07593974612216406
0.011844670659988177 0.07204031910698169 0.07469890155821074
0.011635778501507321 0.07214321408895465 0.07342546616637347
0.011573099446978208 0.07227329297201045 0.07205562066581805
0.011551606240346235 0.0724114416878291 0.07065451019215563
0.01151037678618555 0.07254650559528808 0.06926059327662526
0.011478837287512977 0.07268388798710669 0.06785514010491928
0.011495399101980552 0.07283069362273381 0.06641318807489682
0.011491160783800913 0.0729742336310536 0.0649789620618304
0.017140149794145854 0.07416611308816771 0.05984405987588931
0.014952805259750623 0.07390745908681269 0.05981260695342466
0.013083364040974765 0.07370692896783225 0.05958129833916259
0.011501713374885647 0.07355925648812602 0.059166681084655226
0.011379900779577179 0.07368372546492567 0.057782218749239
0.011196628456756563 0.0737971885116018 0.05643409355950402
0.01117617011526234 0.07394164735375844 0.05497138878671365
0.011221368911627394 0.07409902836501575 0.05345826986120361
0.011178546397970834 0.07424046725100662 0.051998981098737074
0.011144507478943744 0.07438413560378195 0.05052796223656236
0.011192151498275238 0.07454383184919516 0.04899470548054946
0.03864175376166268 0.07989625846896763 0.028415725302061545
0.037640939472810164 0.07986875183415337 0.027496874790275905
0.03697339796873056 0.07990453851509512 0.026345015061744137
0.03623366194978794 0.07992670825129157 0.02524269616908159
0.035829472706243815 0.08001306809315933 0.02390114908917379
0.03557917387121934 0.08012924004332857 0.022446173264169866
0.03621878465372613 0.08041658719117611 0.020347421966940227
0.038732752358996925 0.08106538727113623 0.016883588425284146
-0.12138603118837654 0.059911729984722766 0.036680638751703465
-0.12279804029438518 0.05973493670775358 0.036758137471992636
-0.12412645017542817 0.059576509405505414 0.036752402617783786
-0.12545775700619616 0.05941663075024122 0.036757665900873315
-0.12676050449510812 0.05926256447300563 0.03673909317310764
-0.12806743611033994 0.059106762886806406 0.036732811830176515
-0.1293869067175359 0.05894727127910734 0.03674832728423072
-0.13068795803576677 0.05879127497800787 0.03675099251041619
-0.1319754030025717 0.05863767605166911 0.03674600337636935
-0.13326059604749166 0.05848383380463526 0.0367461206326537
-0.13455122637083827 0.05832794138068058 0.03676017084960326
-0.13583828562000888 0.05817210329270286 0.036777935903429815
-0.13711794155165843 0.05801722410991197 0.036794976421211156
-0.13838378176711802 0.057864827859617454 0.036803760223098225
-0.13966442003466253 0.05770814819826136 0.036837556740404065
-0.14093229551077124 0.05755370462664024 0.036864299437482706
-0.1421955119766851 0.05739958278667205 0.036893391162770184
-0.14345250419086986 0.05724615917004336 0.03692294870933527
-0.1446872224095647 0.05709728414737956 0.036933762693797056
-0.14591038418336308 0.05695041864900735 0.03693834101896232
-0.14714260343272564 0.05680061432496779 0.0369613858703387
-0.1483541574228995 0.056655024219710026 0.036967099192992625
-0.14957209747287253 0.056507133284035366 0.03698811042730071
-0.1507637218198585 0.05636485968785605 0.03698455371308035
-0.15194440470753992 0.05622450658723845 0.036974914854591034
-0.1529011193029986 0.05613805694913469 0.036695494076246726
-0.15361601627397 0.05611030026138588 0.0361198762164367
-0.1537292953559841 0.05622993361192411 0.03479373027467142
-0.15378589859168204 0.056364132554783425 0.03339010373490359
-0.1538170850283328 0.05650530629026667 0.03194732231396863
-0.15387912766802736 0.05663960066416981 0.0305362631736516
-0.15392261132351015 0.0567792077593143 0.029094424959716314
-0.15397575904608243 0.05691715668705346 0.027657579321894332
-0.15404062826568704 0.057052921541003006 0.026228510566954244
-0.15410830465909997 0.057188711816878776 0.02479584323602224
-0.15415027860728464 0.057331669285271836 0.023322445788904078
-0.15421905028858718 0.05746866529355956 0.021876468111353353
-0.1542876487811175 0.057606444172721406 0.020422902075246774
-0.1543515398985082 0.05774615729376164 0.018955687536177934
-0.15442785630958858 0.05788348215207914 0.017497444161838127
-0.1544802563973501 0.058027626526029455 0.015999803744912333
-0.15455370472141608 0.058167198414076526 0.014522605576129166
-0.15459244967769137 0.05831639326231084 0.012990952998231386
-0.1546711184935207 0.05845618622698801 0.011505332111506728
-0.15471954639464644 0.05860451079814554 0.009970804878342898
-0.15479123919045273 0.05874766492392966 0.008460031845077931
-0.1548350887294008 0.05889879755435137 0.006903002079506837
-0.15489098380789793 0.059047650565555374 0.005354314328639476
-0.15493274028876183 0.05920100107741918 0.0037776963439375977
0.04821277303580307 0.07530357548077986 0.07284170826576303
0.044554490029490135 0.07480707286867566 0.07350921827758591
0.04127195923214999 0.07437453949772253 0.07397681891220712
0.038365635606934345 0.07400642246481827 0.07424052534396602
0.03570206200899101 0.07367960883794679 0.07437531695812491
0.03284888999531277 0.07331811354710224 0.07463531930144177
0.02990203136444569 0.07293867816395601 0.07496532068642706
0.02718412718255464 0.07259829991601209 0.07517271068882217
0.024504038418547203 0.0722633120355073 0.07537058778605385
0.021605814495739062 0.07188827234342454 0.07571404167721665
0.01858264421595246 0.07148953631969336 0.07614852486263476
0.01610249065371666 0.07118610073998034 0.07626519614835667
0.013209648184666578 0.07080773498057757 0.07664874112827222
0.010408669060152809 0.07044434131406127 0.07699016632079667
0.00935918825769555 0.07039374826090182 0.07625171818796422
0.009142722993694785 0.07049269381352838 0.07499188283210903
0.008856966476300743 0.07057954793986321 0.07377189976532109
0.008652108271016257 0.07068134245251435 0.07249705033659201
0.008626255455594256 0.07081590487358798 0.07110374342055881
0.008606771560439763 0.07095215236617561 0.06970096468460751
0.008540779520386621 0.07108049614564244 0.06832278786626411
0.008515648990441993 0.0712167808823183 0.0669129026226381
0.008624849166902704 0.07137808873722881 0.06540973768705421
0.018914427071938522 0.07339911428447915 0.05720871030919872
0.01598453148016782 0.07300932903566458 0.05766372386188645
0.011389933219761228 0.0723127747518687 0.059240977692803676
0.009814176671175345 0.07216802399955578 0.05882872183589749
0.008681394461627745 0.0721042347330686 0.058124615739764796
0.008434562002989476 0.07220360116495332 0.05682432860730713
0.00834951481497126 0.07233326888797095 0.055410037307271454
0.008298262677097712 0.07246971844997645 0.05396735262529523
0.008271063732249728 0.07261118321473264 0.05250255254644076
0.008287934573187883 0.0727614156084896 0.05100149714340735
0.008209707945408429 0.07289453930728668 0.04956034117405844
0.008296376278066286 0.07305899037139721 0.047998497621621894
0.036251338307827174 0.0784377132573063 0.026852265208598125
0.03556745883448875 0.07846970859845284 0.025713284200712228
0.03503324894123261 0.07852994969503714 0.024466673205126965
0.03468287340925802 0.07862504118999636 0.023086273646961086
0.03468881917783184 0.0787877320342076 0.021446051605039984
0.03484324896773949 0.07897915729172665 0.019691838831054298
0.03590552469528724 0.07934331508319407 0.017270570701466093
-0.12143027205855195 0.05890323933670499 0.036728781781509734
-0.12279981918802507 0.05873895288680351 0.03676008324276542
-0.12412821529423146 0.05858316816668164 0.036754343267166645
-0.12545367047671163 0.058427280566257477 0.036753149850724975
-0.12675992517168244 0.058274986805396944 0.03673844966242762
-0.12806973549732237 0.058121125984308304 0.036735379131734636
-0.12938633638210828 0.05796494710000449 0.03674768721796379
-0.1306907875370784 0.057810772137887045 0.03675418429754901
-0.13197764917568905 0.05765986555022477 0.036748550185282114
-0.13326895388579 0.057507178799110624 0.03675564587274538
-0.13455343775461767 0.057355298559494845 0.036762704079833175
-0.13583718857923166 0.05720282211172751 0.03677667273383811
-0.13711685309587576 0.057050522898604225 0.03679371669015741
-0.1383929614500622 0.05689827896100364 0.0368144390294482
-0.13966870572141907 0.056745346388785055 0.03684256795847224
-0.14093973632354861 0.056592736743128584 0.03687304466258229
-0.1421992031160207 0.05644205797559809 0.03689775168710108
-0.1434613975691395 0.056289966826729425 0.03693350892161801
-0.14469500879742614 0.056143828470002516 0.03694305598412917
-0.14591347484460193 0.05600051505024556 0.03694204878629809
-0.14714209233918024 0.05585405844139934 0.03696076957469285
-0.1483526359216967 0.055711135024168384 0.0369652550750012
-0.14956253600661504 0.055567623531061816 0.0369764619622836
-0.15075972666837464 0.05542639875024911 0.03697966149984827
-0.15193845724018548 0.055288854462149664 0.03696759449739867
-0.15286070271419328 0.055212117968911574 0.0366454919899713
-0.15351138027844863 0.055200294886831286 0.035989758013387496
-0.15359740942822675 0.05532457164120692 0.03462888210653209
-0.1536458348951884 0.0554585949294628 0.03321413308280563
-0.15367570009442563 0.0555978255006584 0.031768777562741934
-0.15374141040046346 0.05572908093144221 0.030361454902401497
-0.1537900454077139 0.05586519470357117 0.028925289197839155
-0.1538414080388466 0.05600136668461125 0.02748528345012824
-0.15390100527538278 0.05613624809294431 0.026048531632014482
-0.15396789051690546 0.056270061110457834 0.02461391218003478
-0.15401805847096633 0.056408710161868096 0.023150248894151237
-0.15408203422039563 0.056544695061205054 0.021697105693288254
-0.1541533646356525 0.05667959236789897 0.020246209841182583
-0.15421444588782932 0.05681776465448508 0.018774368022829502
-0.15429098730050264 0.056952837091057903 0.017315488688278646
-0.15433953225739475 0.057095634276596176 0.015811758147169452
-0.1544187779088777 0.057231524420084084 0.014341376426686703
-0.1544505854476227 0.05738006662568443 0.012799422204817501
-0.15453559062201289 0.057516032349880626 0.011321411268694959
-0.15458012624769962 0.057662961145826946 0.009780624703400131
-0.15464025546347945 0.05780675332382893 0.008253013896287742
-0.15469349899514193 0.05795308842413744 0.006707861052211661
-0.15475370116969614 0.05809846396908128 0.005164131091486002
-0.1547853269975969 0.05825194140004655 0.003572422352138227
0.05185599726637996 0.07451089726187132 0.07220191931459746
0.0474168227975848 0.07389060820803006 0.07330047231405348
0.04416522468359241 0.07347220641567515 0.07373489213282122
0.04131725883548393 0.073121760065451 0.07395040353231735
0.038522965717312785 0.07277923916449547 0.0741482477561306
0.036029050202169566 0.0724873642291482 0.07418241643407683
0.03336050430511578 0.0721641025311593 0.07433175125808864
0.030444871274350582 0.07179669107788406 0.07464136000115032
0.027726665778587456 0.07146221128027676 0.07484705884322457
0.0250474147324663 0.07113322953955194 0.07504255200093726
0.0223734620867988 0.07080389962480149 0.07524794572581872
0.019395110761875 0.07042002483619521 0.07565238147836817
0.01615981306920672 0.06998960714543273 0.0762299906991496
0.01313238747069867 0.06959403118700944 0.07669646363855467
0.01018409073887283 0.06921083991358895 0.07712967687628919
0.0076766579335366125 0.06890390176830548 0.07730288679209857
0.006826104825777446 0.06888854203838728 0.07644744180181504
0.006650565530442243 0.06899263507745582 0.07516608770434385
0.006454317162285672 0.06909346361448336 0.07389367774925312
0.006357437304015057 0.06921235218379343 0.07255367288721717
0.0062815258973819565 0.06933544458630073 0.07119535792158238
0.006208544628777957 0.06945954676589274 0.06983013429088669
0.006122478882124027 0.06958180119993179 0.06846834889971837
0.00611853049576444 0.06971925343820967 0.06704789032855157
0.006156407670687425 0.06986476106672362 0.06559430728962834
0.018500053210064926 0.07222436567876746 0.05600104827787189
0.01583754985232949 0.07188875362041278 0.056284792583052745
0.012787256888552645 0.07148176472352484 0.056841566111799746
0.007792649097642379 0.07072130296194627 0.05872195330491026
0.006328664401672901 0.07059796529320947 0.05824761791919092
0.005898399379768049 0.07066194468620995 0.05707586264239356
0.005787477192583601 0.0707843198585987 0.055683210900366376
0.005692485288890714 0.07091009587608593 0.054274515548457525
0.005677786880472047 0.07105105845516602 0.052805089217856926
0.005669581864122697 0.07119378266244061 0.051325256703547484
0.005625239089461387 0.07133045493457464 0.04986469160134244
0.005744092378121679 0.07149769758849976 0.048283742156908616
0.005836011329783397 0.07166065978786589 0.0467147821485035
0.03431745447075696 0.07706675360317185 0.024975071789680947
0.033984590632094636 0.07716320268832896 0.023584958063546935
0.03387968386587087 0.07730231616687018 0.022027071274411225
0.03392475319193128 0.07746986852229658 0.02035499961937226
0.03429221279119493 0.07769813691823796 0.01844176468917824
0.035631284046720335 0.07810862389461745 0.01580960659214059
-0.12144401955145506 0.057901836261463266 0.03674374183898538
-0.12280337690263887 0.05774258795690513 0.03676397470482817
-0.12413056874863287 0.05758970959378618 0.036756930758628015
-0.12544958381755555 0.05743789898762443 0.03674863365727571
-0.12676050449450915 0.05728714565737267 0.03673909317244234
-0.12807260967280848 0.05713537803814259 0.03673858819365422
-0.12938291431723364 0.056983259179400884 0.03674384676165743
-0.13069474873243947 0.056830036388667876 0.036758652679426684
-0.13198663346718198 0.05668055115795453 0.036758736966288674
-0.13327341117069258 0.056531471932124835 0.03676072573997169
-0.1345589660423459 0.05638192036182733 0.03676903695869538
-0.1358410281778882 0.05623240926558156 0.03678109377667266
-0.13712175106921684 0.056082447804025964 0.03679938538999494
-0.13840106059818943 0.05593204950042453 0.03682386084008993
-0.1396719198873503 0.055782824078335895 0.03684632625610429
-0.14093973632321638 0.0556335378153553 0.03687304466219182
-0.1422039487004424 0.05548431954665011 0.036903357879242205
-0.14346453625066838 0.05533517459166662 0.036937235867917584
-0.14469345156014563 0.055192598784723844 0.03694119737415219
-0.1459129597395896 0.05505147337408481 0.03694143083130669
-0.1471359590477407 0.05490880717163933 0.036953373823282676
-0.14834756410935798 0.05476806215122495 0.03695910784332912
-0.14956555550116146 0.05462509289040632 0.03698014052743731
-0.15076921492753356 0.05448474239139823 0.0369912802300002
-0.15193102247555074 0.054353503918111355 0.036958443521105
-0.15281287451331885 0.05428759812883734 0.03658632049882832
-0.15338893824645244 0.05429364641110844 0.035837497435164345
-0.1534604419730895 0.05441933619678247 0.034457682385242494
-0.15350757626665046 0.05455148032013213 0.03304043024880182
-0.15353612168419817 0.05468875235782346 0.03159251413889619
-0.15360203864497887 0.054817821824539835 0.030184546544660185
-0.153655833885018 0.05495048073927279 0.02875405386930452
-0.15371088704052283 0.05508354380775575 0.02731789929981443
-0.1537612119091725 0.05521845606782218 0.025868333076552064
-0.15383481298876717 0.055348469316237076 0.02444148698949483
-0.15388819396422293 0.05548407660658072 0.0229811198535792
-0.1539428427636768 0.055620105862046285 0.021514895558516378
-0.15402295324533646 0.05575067041891129 0.02007461341166694
-0.1540802169327748 0.055887518609692884 0.018596837810625266
-0.15415395429482662 0.056021076930107494 0.017133315195480003
-0.1542016774970097 0.05616174675404576 0.015627546818348825
-0.154279626416442 0.05629574509886411 0.014154472829519149
-0.15430956374108884 0.05644232483998154 0.012609028901812702
-0.15439837053730435 0.05657514075602682 0.011135193973687563
-0.15444002407996277 0.05672038777441342 0.009589514197827165
-0.15450445558862583 0.05686076814997706 0.008066814945568102
-0.15455019154231223 0.05700658966570674 0.006510352640245021
-0.1546136776959689 0.0571487787034684 0.004970150863106482
-0.15462429502884623 0.057305023269158775 0.0033481842609082157
0.05050606443092448 0.0729989204816477 0.07297545156655227
0.04722111552556507 0.07258361567570436 0.07341327265769385
0.04419742992896408 0.07221088773422046 0.07371622136760048
0.041554934084402806 0.07190128989135793 0.07381180889729816
0.03880281926458984 0.07157190801393712 0.0739841074639272
0.03654151861271493 0.07132470033066853 0.07388009535027457
0.03435415634088368 0.07108913647220788 0.0737421645352544
0.03229581370515444 0.07087468336589067 0.07353673860661053
0.030136141204854583 0.0706420778220886 0.07340080206956176
0.02964385828620958 0.07069421563606033 0.07226768321981325
0.029319525387148215 0.0707753826541112 0.07103047403678875
0.029016721225313458 0.070860566910189 0.06977681847656497
0.02850685226308025 0.07091040296503417 0.06864686536360037
0.027878014467844936 0.07093989369211247 0.06758836328777595
0.010273246645466971 0.06803297192270827 0.07707429223371332
0.007550279953448091 0.06769399963881717 0.07738184201983833
0.0058197848681308395 0.06752605167993624 0.07707972469635158
0.005489149607964594 0.06760102038961661 0.07589996704497173
0.005280183446282838 0.06769749594274344 0.07463980295077255
0.005102316925353789 0.0677997842559776 0.07335578037210205
0.004940837045198265 0.06790534452637623 0.07205699434366955
0.00473437800956944 0.06800343404218993 0.07078290272375631
0.004577137970620815 0.06811056127915094 0.06947274668960507
0.004488398427717588 0.06823017502472103 0.06811335945026054
0.004490812028637381 0.06836634626140241 0.06668907077503439
0.027079319861130213 0.07249571824865098 0.05033044045924662
0.02782973853414833 0.07277344652856721 0.048313977527879026
0.013465777136325185 0.07051087131712781 0.05490896858880562
0.008945086525101065 0.06984699487774768 0.056479286144026086
0.004916169452009178 0.06926825344677914 0.0577434050498527
0.0042319734911127616 0.06928559755086716 0.05674623437032611
0.004022423736234515 0.06938810481228368 0.055422158463885984
0.003933184410137069 0.0695126399476112 0.05401059616956788
0.003896638358338922 0.06964716570310188 0.05255712292834547
0.0038241797221663654 0.06977576114060902 0.05112300441384182
0.0038035720051371458 0.06991425222907582 0.04964696641311234
0.0038840983839203425 0.07007162515104304 0.04809356115750807
0.004047945716754542 0.0702447631375463 0.04647422558371994
0.033155797582218094 0.07568208639864799 0.024176847470052165
0.03299894659588892 0.0758090261750917 0.022659506504765448
0.03301663183396247 0.07596835890578439 0.021010670000772835
0.033343677398702865 0.07618495468229723 0.01913035996080603
0.033934825685280556 0.07645087053311984 0.017047888097714514
-0.12144342186412849 0.05690365876017449 0.03674309143408455
-0.1227944824326998 0.05674896575034737 0.03675424584906162
-0.12412821529365614 0.056597298059462266 0.036754343266534095
-0.1254478323523418 0.05644797422171335 0.03674669810174669
-0.12676224244786932 0.05629905442969533 0.03674102368569121
-0.12807260967251244 0.05615028531341223 0.03673858819332371
-0.12938177360822256 0.05600104104964438 0.03674256658630254
-0.13069814394372287 0.055849456678386825 0.03676248260933085
-0.13199617857234885 0.055701182273971944 0.03676955962226508
-0.1332862249792119 0.05555394094119024 0.03677532934897665
-0.1345655996629734 0.055408338922132844 0.036776636041434274
-0.1358465131120527 0.055261658688161366 0.03678740931406477
-0.13712991392476093 0.055113679446984296 0.03680883272150831
-0.13841185862827918 0.054965277443333245 0.036836422283986314
-0.1396853113325954 0.05481803447436762 0.03686198476223973
-0.1409461137986615 0.054672898534406676 0.036880540141516927
-0.14220974860527516 0.05452638009408694 0.03691020959190883
-0.14346349003218573 0.05438135735558709 0.03693599356280747
-0.1446939706410516 0.054240884116856236 0.036941816912974434
-0.14591244463234446 0.05410242757443775 0.03694081287363671
-0.1471395368393 0.053961285132547894 0.03695768805769184
-0.1483566932127593 0.05382169141285996 0.03697017266785696
-0.14957159425629907 0.05368189233431478 0.036987497372723666
-0.1507821976050853 0.05354235715730201 0.0370071780068838
-0.15191664724096599 0.053419697353571514 0.03694074996423219
-0.1527719335676026 0.05336109322665577 0.03653566969527433
-0.1532712906233983 0.053384885640370285 0.035691198857619066
-0.15332775294199447 0.05351198438050966 0.03429183039420636
-0.15337014020933726 0.05364304041357282 0.03286776086171145
-0.15339686914039713 0.05377845590083736 0.03141666222806272
-0.1534585221569205 0.05390638765749936 0.030002377165197824
-0.15352046920151055 0.054034929530626476 0.028581347267167878
-0.1535762250321383 0.05416561737253099 0.02714520459059161
-0.15362474903912562 0.05429871468158919 0.025692427647536875
-0.15369556660897327 0.05442723339742178 0.02426106897374225
-0.15375767982355862 0.05455851329148597 0.022811144762269142
-0.1538059989930625 0.05469379111550461 0.02133575868852383
-0.1538908800000186 0.05482105128189955 0.019900830299040273
-0.15394583039576945 0.05495618047569364 0.01841909918171125
-0.15401878324599386 0.05508771224153238 0.01695361701277115
-0.15406060997358123 0.055227467449665064 0.015439042367203282
-0.1541316558218277 0.05536091790706416 0.013955723711386536
-0.15417040808441276 0.05550293042609046 0.012421154951358093
-0.15425894139004948 0.05563361547984104 0.010945978825612546
-0.15430077448157006 0.055776407702476626 0.009399566664683778
-0.15436798075121747 0.05591378284458549 0.007879690535089412
-0.15441287929906414 0.05605738782030455 0.006321106913159735
-0.1544776081811169 0.05619691311262498 0.004781648215201217
-0.15448372266962607 0.056351667125297246 0.0031524363124991184
0.053946049075248914 0.07215030865333157 0.0724658100068919
0.05037140495123005 0.07169596105600479 0.07305261351701328
0.047189768724172465 0.07130502336756861 0.07343134010062849
0.04429159618788886 0.07095966728933864 0.0736616291391666
0.04174502068410857 0.07067148978697714 0.07370096444450766
0.03939889550909903 0.07041562362634143 0.07363449556905849
0.037261324897506665 0.07019360816314985 0.07345545919384425
0.035508246001647426 0.07003507901494262 0.0730573816168349
0.03489456365543564 0.07006696831870782 0.07198583418820936
0.0347650973259333 0.07018031967421505 0.07062233042709737
0.03443611720469675 0.07026052972331094 0.06937460088159036
0.034531338751433216 0.07041258394612698 0.06786599448024994
0.03422504365746426 0.07049738837623971 0.06659628786788024
0.03373045932493868 0.07055064753195232 0.06543870619023456
0.03390887977772067 0.07071826658063006 0.06386320962323466
0.033986663576241805 0.0708694366780082 0.062343253414908595
0.03401272734472938 0.07101239085970559 0.06084930558535989
0.03381462820896608 0.07111765991239982 0.05949022898463474
0.007022240967592797 0.06667711567308332 0.07493123219783268
0.00666469352608734 0.06674696440041272 0.07375999015924778
0.006361691333444219 0.06682644943058169 0.0725509542724101
0.0060547747817598085 0.06690557512595777 0.07134108675318318
0.006073097238146197 0.0670410524200179 0.06991767527602838
0.005803251208355231 0.06712731687874837 0.06867583164195168
0.005785849985810998 0.06725759283009139 0.0672653333306848
0.04559054872276225 0.07488663448667654 0.03331748286307934
0.04294481597712446 0.07457393234219371 0.03350027163460689
0.04105478229550469 0.07439253733225232 0.03318290659830864
0.005664791333788166 0.06832191599178251 0.05576705380424918
0.00542074482499838 0.06841705808936037 0.05446125179043931
0.005244512733572793 0.06852455411822622 0.05310447833656168
0.005102565282089633 0.06863854968314335 0.05171922784477573
0.005228529323253128 0.06880048459876047 0.050141853471033115
0.005341953325261106 0.06896085291667368 0.04856624664326098
0.005430666636024262 0.06911747951235574 0.04700110678011726
0.032939840192463044 0.07416365858603555 0.025953533035240117
0.03280701939966596 0.07429201781526215 0.024425930291757214
0.032415957602218215 0.07437467245826006 0.02307813620407828
0.032079606750031686 0.07446748240892974 0.0216872090875056
0.032370283218191576 0.0746733934807515 0.019837001626932138
0.033006346640729545 0.07494237323516678 0.017725604954970386
0.034121470427390166 0.07529894319552916 0.015250733640101488
-0.11975684202098807 0.05612811684477872 0.03637663125237306
-0.12143744484314045 0.0559066263829348 0.03673658722432471
-0.12278677340020328 0.05575502150768103 0.036745813636037905
-0.12412821529337525 0.05560436300584781 0.03675434326622534
-0.12545075144703338 0.05545703038194469 0.03674992401215915
-0.12675355244357345 0.05531322737765737 0.03673137085563816
-0.12806743610914645 0.05516631202794421 0.03673281182884397
-0.12938348466714716 0.05501819548990987 0.03674448684418141
-0.13068343069995575 0.054872841147098714 0.03674588550017105
-0.13200291585654295 0.05472249981408261 0.03677719864852752
-0.13329346698489722 0.05457772767226053 0.036783582899767686
-0.13456891634030696 0.05443553612446378 0.03678043543046955
-0.13581908600486475 0.054298180269597054 0.03675582882179129
-0.1371239278831392 0.054148090947721175 0.03680190473909484
-0.13841131874908313 0.05400109351576986 0.03683579423774308
-0.13969120310142236 0.053855010581057156 0.036868873958785464
-0.14095302235124738 0.05371219195264574 0.036888659798506473
-0.14221291207183348 0.05356907320770535 0.03691394675045079
-0.14345982819636677 0.053428115131157465 0.03693164541046079
-0.14469137521190475 0.05328986998674934 0.03693871918948216
-0.1459114144114831 0.05315349312458733 0.036939576950653474
-0.14714209233815964 0.053014021571727056 0.03696076957346217
-0.14836582160592926 0.0528753943013646 0.03698123663155711
-0.1495736071050303 0.052739650015859646 0.03698994956963564
-0.15078719055592876 0.05260188664065205 0.03701329206295462
-0.15189086647948244 0.052488364316979855 0.036909018073747635
-0.15272900392972064 0.05243470820507223 0.0364825585465951
-0.15315056431192028 0.05247586850461358 0.0355410718326693
-0.1531909573714875 0.05260448782897627 0.034120845516660225
-0.15323452049290368 0.052733057266174714 0.0326973734555841
-0.1532609226898899 0.05286625441985044 0.031244985342024023
-0.15331631857924233 0.05299346811980169 0.02982187429856953
-0.15338843441865682 0.05311748979337434 0.028412889157418353
-0.15344340326496372 0.053246148697803114 0.02697486986340425
-0.15349313108447618 0.0533767132490999 0.025522767484513986
-0.1535616705925341 0.053503590347815044 0.024087583288592784
-0.15362550839906206 0.05363224766548579 0.02263901130735746
-0.1536725196115819 0.053765541963419206 0.021161026009793582
-0.1537616840990225 0.05388964705250969 0.019730833220830635
-0.1538168529977983 0.054022436217453354 0.018248514639634894
-0.1538844667455461 0.05415300468379522 0.016775054878004125
-0.15393055214628265 0.05428938518553329 0.015265249854537977
-0.15399673932178615 0.054421733003496085 0.013774508413342434
-0.15403363625833222 0.054561783830291345 0.012236499408849633
-0.1541219003694232 0.054690329856267414 0.010760004533144407
-0.1541664838425662 0.05483004804947695 0.009216383546761242
-0.15423082882144867 0.05496578923241002 0.0076916377446162865
-0.15427849310224853 0.05510629964835015 0.006135893905746759
-0.1543491212395847 0.05524204177919263 0.004603650015336858
-0.15436627423523036 0.05539149305912712 0.0029888885837395796
0.058036191655246705 0.07138989506706195 0.07160539726907258
0.053352826098368056 0.07076570898927212 0.07280375173982534
0.05021652302287477 0.07039051157904343 0.07314136324120776
0.04738795732935325 0.07006398135477157 0.07331710958410614
0.044585512982863784 0.06974046658435404 0.07349123293786228
0.04197580587875094 0.06944721057438769 0.07356638757979506
0.0399283966324786 0.06924489096890242 0.07332393145450927
0.038222091020097715 0.06909774772173956 0.07288867332083185
0.03744718659097396 0.06910311272129892 0.07190690480334155
0.0373637057963121 0.06922235082458975 0.07051227823661377
0.03727629793175519 0.06934140085130795 0.06911501441689732
0.037208024218868596 0.06946407373215797 0.06770120314530353
0.0371188253182857 0.06958375587700723 0.06629493892409094
0.036908727733568236 0.06968384016472512 0.06495746088293808
0.0366663363813271 0.06977894412707868 0.0636355918290683
0.03646963454476221 0.06988202970255208 0.062281478890695186
0.036283341357232934 0.06998725479009042 0.06091653158714205
0.036118492752044595 0.07009647756817276 0.05953371890495435
0.03609639429883771 0.07023004821794536 0.05805656799341946
0.035942943946198735 0.07034208974466416 0.05665672259135507
0.035770585156864654 0.07045139096001685 0.05526410765248585
0.03565424158234903 0.07057056452454478 0.05383101775837301
0.03554242895427745 0.0706909737690893 0.052389905951187754
0.035801724757359155 0.07087465938008873 0.05070376995231862
0.036161536875888634 0.07107611637050269 0.04894439581297383
0.04683429919069865 0.07361516520061885 0.034085108144786214
0.04515152489632701 0.07347403725975007 0.033612556608778155
0.041917730162382205 0.07306565426817685 0.03419443656532156
0.04032365671638999 0.07293813375918352 0.03367979364628404
0.03946609580773458 0.07293724822101352 0.03266741094445874
0.03733014738316803 0.07271521553034771 0.03253355713559691
0.036168277020148965 0.0726611267996333 0.03173639394230904
0.03533805826431935 0.07266442259135847 0.03071117966195408
0.03486412758846852 0.07272974085105728 0.029436898553743263
0.034019180545775796 0.07273062136171395 0.028420366037254563
0.03270236321263126 0.0726490448030907 0.02773711098590803
0.03229779865859783 0.07272687935148789 0.026409548023488105
0.03221946517611213 0.07286227675727742 0.024845536996616457
0.03205257606824846 0.07298265988073506 0.023339071322842353
0.03125624412926353 0.07299263586173542 0.022281683029620025
0.031255104244822474 0.07314304875158313 0.02064657286081434
0.032563364622519686 0.07352574382663843 0.018048947073420973
0.032461742982823893 0.07366007045013942 0.016468812905029717
0.03550221281162924 0.07435316468192191 0.012564066480761027
-0.11984438407226161 0.0551074983838327 0.036471406301938514
-0.1214386402688657 0.05490804284155514 0.03673788808970313
-0.12278262219339275 0.054760269630979574 0.03674127300656893
-0.12413056874779038 0.054610931511526684 0.0367569307577017
-0.12545250287197984 0.054466355907148864 0.036751859523188546
-0.1267529730887344 0.05432561398987482 0.036730727310064215
-0.12806686125555627 0.05418132147700597 0.0367321699958123
-0.12938348466685734 0.05403572771336607 0.03674448684385617
-0.13068173290730783 0.05389333158788664 0.03674397032426868
-0.13200460012086485 0.05374495170245824 0.03677910834077408
-0.1332923528571689 0.053603364534779645 0.03678231315348568
-0.1345302162569279 0.0534718006644676 0.03673610290798812
-0.1357702506915497 0.05333910503876527 0.0366995982020526
-0.1370950819618395 0.05318739934612233 0.03676851973309353
-0.13839782100221476 0.05303971486984766 0.03682009218944299
-0.13968638258393773 0.05289436180835946 0.03686323736757163
-0.140958336354079 0.052751887611163485 0.03689490537306034
-0.1422097486046314 0.05261317377513682 0.036910209591148324
-0.14345093470090803 0.05247598968889079 0.03692108505902486
-0.14468255033074623 0.05234020313952206 0.03692818642586809
