# .PCD v0.7 - Point Cloud Data file format
VERSION 0.7
FIELDS x y z
SIZE 4 4 4
TYPE F F F
COUNT 1 1 1
WIDTH 764
HEIGHT 1
VIEWPOINT 0 0 0 1 0 0 0
POINTS 764
DATA ascii
-0.03550809044800779 0.019866298439569424 0.03742235947711109
-0.036576166334833626 0.019848142406811944 0.03678749839449075
-0.037472541862020536 0.01983976573488344 0.0360136047837884
-0.03845096158587513 0.01982663179012207 0.03530911028910183
-0.03954170374983135 0.01980696344541275 0.03470038082516297
-0.04097109056047904 0.01976763837114361 0.03437882858442903
-0.041867430052514754 0.019759014109563343 0.033613678479745446
-0.04102146272360391 0.019851484448802612 0.031372357948456664
-0.03857944817706482 0.020037208150302178 0.027756110972453674
-0.03305112141733574 0.02040368595268048 0.021466098023193825
-0.03096574233605809 0.02057061210410904 0.01808539517752955
-0.028683691247381737 0.02074979442949365 0.014508382032011269
-0.026331378005408745 0.020933895630199477 0.010842249597380393
0.006967935595575736 0.019705266881907033 0.05042314216667709
-0.002986178123210559 0.019241367588309594 0.05588107107736007
-0.005566932285292703 0.019149654124003476 0.05622978766014086
-0.007887968459362626 0.019070769370165407 0.05640903377657047
-0.010763413682619183 0.018963319461226348 0.056994108685021194
-0.012150016122837226 0.018931427861324672 0.056532368777956366
-0.013356063721137623 0.018908640677152495 0.05594587081239144
-0.014412822393368552 0.018893411588139394 0.055255089064333796
-0.015264286828590212 0.018888663907417464 0.05441761924001082
-0.016007257373639616 0.018889480543396286 0.053501690446987715
-0.016657231191623822 0.018895096824622582 0.0525173847065723
-0.01756647331864064 0.018887337027072248 0.05172352263125024
-0.018596027106306534 0.018873314103839682 0.0510201273436362
-0.019609346908695258 0.01886007520389832 0.050306805598418214
-0.020567500572559405 0.01884964992867028 0.049554174949667795
-0.021477827077797607 0.018841673483819887 0.04876710960287034
-0.022433043200579816 0.01883131926482762 0.04801532672615483
-0.023564313999965614 0.0188117079411026 0.04739936600132583
-0.025649121390254936 0.018742006887631554 0.04751724339513358
-0.026787918482189643 0.01872172864222743 0.046917214285235376
-0.02759811378807514 0.01871867064076995 0.04606583891330013
-0.028076395571553392 0.01873311720388078 0.044956448268933524
-0.028339493509819846 0.018759006133551925 0.043676275870581815
-0.029177630351641226 0.01875452701171105 0.04284466197056308
-0.030162064885767947 0.018742258134515747 0.042129546248452665
-0.031120697969797106 0.018731310166400995 0.041395860225958814
-0.03206035449994826 0.018721327539699146 0.04064874627009152
-0.0329821451554026 0.018712257099847966 0.0398888653765157
-0.033947872333292106 0.018700793826161796 0.03916596509677428
-0.03493289062246124 0.018688245400139834 0.03846059130009655
-0.035963874349217384 0.01867316959627166 0.03779480366982607
-0.03697657106389757 0.018659014525361818 0.03711643190462566
-0.03783306113483681 0.018653239047967386 0.0363113479843975
-0.03882857868138001 0.018639909365315246 0.03562263172758651
-0.03987296266515239 0.018623869408188724 0.0349768732394804
-0.04141294452146044 0.018580802804818185 0.03474958809744488
-0.04194364796240413 0.018592564440649818 0.03367797187802246
-0.04009483700442268 0.018734372306489406 0.030586566283381966
-0.03805644108089168 0.018887183952236753 0.027310247051541836
-0.032239755728719954 0.019247990053994187 0.020770751857463465
-0.030097781850388194 0.019408307686947148 0.017337618206556216
-0.027801481374001957 0.01957784091112121 0.013744317895177938
-0.025898570121449305 0.019726396963046358 0.010465427005912464
-0.02108080754188113 0.020036979187984208 0.004610689487862862
0.00900747115117001 0.018608072399104458 0.04750169012822264
0.005846129109606968 0.018495637003754273 0.048212060895881426
0.0023951620282096076 0.018368938855587543 0.049145305907369374
-0.007124112240094682 0.017951915563046886 0.054409266557203184
-0.009652511008761244 0.017867732564643496 0.05474875485897557
-0.012932621131770738 0.01774715626310643 0.05564180736387453
-0.01446461956933598 0.01771008438425088 0.055292487011011304
-0.015670256783144265 0.01768857432185476 0.054712335697974956
-0.016666558976728918 0.017677075959582875 0.053982928890711046
-0.01764383874948605 0.017666449704007273 0.05324145913987027
-0.01850602983253752 0.017661355541979992 0.05241682266917724
-0.019023515416716763 0.017672976429100748 0.051337287840448054
-0.01990618419857243 0.017666878320497046 0.05052823070516205
-0.020810694027562415 0.01765968986626585 0.0497365691042137
-0.021757283543884287 0.01765041541344441 0.048977836966120014
-0.022781424687467577 0.017637305134559713 0.048279450032018834
-0.023995214683931787 0.017614835042787172 0.04772781724693931
-0.025765017654446443 0.017564933293080908 0.04760606169741943
-0.02689283247719687 0.017546451502330456 0.04699804995142237
-0.02765425635546037 0.0175459817356562 0.0461093295470974
-0.028157226788208034 0.017558297946130803 0.04501940088712386
-0.02863905118186777 0.017571714999492158 0.04391083034516119
-0.0295048376364907 0.017566110299341395 0.04310224203782992
-0.030509866069530378 0.017553548048337968 0.04240480669671781
-0.03148899504631186 0.017542224506074504 0.04168890365716976
-0.03242841052575163 0.01753283846234006 0.04094316548114996
-0.03334999184128018 0.01752430588715471 0.040184690544864066
-0.03429584141272757 0.017514517729019886 0.03944729933689389
-0.035325146080675995 0.017500486837797372 0.038779423546080105
-0.03764846786214826 0.017421123300919075 0.03917137065543336
-0.03855524909126545 0.0174130229459001 0.03841331994620534
-0.0388130656395711 0.017437764213384686 0.037120707427435284
-0.039261221378686206 0.01745294950392617 0.03598183887796186
-0.040500779703339096 0.017427933428021056 0.03550089430158393
-0.041591724955957365 0.017410386172552868 0.03489960270110176
-0.04165038549517447 0.01744551609111468 0.03343059116878139
-0.03919736201198798 0.01760943939198031 0.02982549484529229
-0.03344449020927148 0.017943461601605443 0.023378555658214284
-0.03128289167389531 0.018094213783265662 0.01995071255708014
-0.029229469770063243 0.018240054947895518 0.01658953832503507
-0.02687587092578536 0.018402052068759875 0.012942665397851882
-0.025160381214337613 0.018531723953284895 0.009822725550416855
-0.02258605236573663 0.018706546161922237 0.005928129683847261
0.010091954832243122 0.017451074695459267 0.04522934930300648
0.007268604260206701 0.01736112600656715 0.045702836884703446
0.004637312000575766 0.01727936987827378 0.046055623601115314
0.0008455981090329523 0.017145448223407952 0.04725144346612026
-0.008203742362659416 0.016775661819761756 0.05224611873391388
-0.010978970948473332 0.01668573968515782 0.05277582275615761
-0.013853822374429836 0.016590969260515613 0.05339368364243413
-0.016434193143175513 0.0165090686828697 0.05381332006283962
-0.01793219712537275 0.01647567343976223 0.053453086271593564
-0.018973018963610644 0.01646281393760049 0.05276141458833883
-0.019912612102822247 0.01645448815243626 0.05199692306277365
-0.020827883316266838 0.016447232107779236 0.051215770082730316
-0.021759825007303557 0.016439187155873457 0.05044841368325914
-0.022349817690536677 0.016446701429856846 0.0494246441561913
-0.023192017556467548 0.016442722430034022 0.048590738518939525
-0.024461661531146373 0.016419153239966195 0.04808336332444829
-0.02567115704652906 0.016398244847124842 0.04753413064852069
-0.026706806229717273 0.016385242526697166 0.04685471773304434
-0.02751529491807303 0.016382653312528635 0.04600168357957535
-0.028270328661830324 0.01638252167988816 0.04510748639865564
-0.028955176727996634 0.016385637565029178 0.04415835751035263
-0.029871159457407148 0.016378047413034044 0.04339061336585953
-0.030891844754431796 0.01636555872741981 0.04270711626017665
-0.031897832448935515 0.01635370117381463 0.0420142038642905
-0.03279288746327175 0.01634697058657934 0.0412347216706172
-0.033704936136496 0.016339416206683173 0.04047013951020134
-0.034618932967199534 0.0163317379874409 0.03970852000947178
-0.036680051036589834 0.01627013825817366 0.039880714506196624
-0.03811239304066677 0.016237874129720237 0.0395504674996503
-0.03905607424700247 0.016228525523351942 0.03882474909397182
-0.03970098481725032 0.01623326310325785 0.03785401606799488
-0.03996650937032703 0.016255998840433408 0.0365674132820803
-0.04096014470154091 0.016244256320441384 0.035884313227177556
-0.04161439944878981 0.016248614614425935 0.03491862886056346
-0.040381666569300534 0.016342996029370963 0.03236036697447797
-0.03810561849227928 0.01648766416559774 0.02889968095902934
-0.03266557834768402 0.01678454618228694 0.022714532743050797
-0.030517925238887744 0.01692466092063313 0.019295130881692324
-0.028443932034175612 0.017061850348513416 0.015912771308073503
-0.02618451484418094 0.0172085894211259 0.01234389587182988
-0.024085537475775465 0.017348225329692973 0.008886916804783984
-0.02173010731151115 0.017500904861450572 0.005178978182297955
0.011366691904915682 0.016290317960512484 0.04280805756907802
0.008636975531316204 0.016210674226719915 0.043214831500040074
0.005526610471704441 0.016114916577651833 0.0439084597989694
0.002972093601419201 0.01604186634530899 0.04422103266881705
-0.00039633486292428577 0.0159346195692337 0.04513508071485711
-0.01014098783203482 0.015560841670272971 0.050698327907196084
-0.012328140587951952 0.015501554956894526 0.050816223844260655
-0.015620472179931899 0.01539571082447284 0.051756503961360945
-0.01822880263240484 0.015318149266519613 0.05221225633865473
-0.01997413942298265 0.01527657858261489 0.052042571177480845
-0.02114509595253139 0.01525905410070376 0.051452394133146784
-0.022136148312066728 0.015249058151220869 0.05073065471234994
-0.023134593315773 0.015238707319139238 0.05001641324482414
-0.024086453253652162 0.015230289742038553 0.049268849503922185
-0.02513221694579182 0.01521784388735089 0.04859448983083009
-0.026117034045493814 0.01520794255919609 0.04787583310418331
-0.0270348447472038 0.01520086063173706 0.04710746963801382
-0.02788435058540406 0.015196671563397633 0.046287571197941135
-0.02879497515146706 0.015189843859905778 0.04551608930621959
-0.029626373636998216 0.015186391704095595 0.044683906521512495
-0.030382925001547212 0.01518614808221192 0.0437934791007869
-0.03139234830053511 0.015174990442201627 0.043103230008175786
-0.03221859611047051 0.015171707135530722 0.04226942631914549
-0.033080933635935894 0.015166845588019447 0.04146513856630335
-0.034144812178235284 0.015153209387201067 0.040823891247258604
-0.035201216724225104 0.015139839815462113 0.04017929850100477
-0.03688812751411613 0.015098908904977509 0.04004984278542567
-0.03829541918992635 0.015070024834034986 0.03970002746924517
-0.039195643214072484 0.015063230535962108 0.038939405357776624
-0.03993771803605489 0.015063350382687597 0.0380495276857421
-0.04049630577373653 0.015071544399146427 0.037007283543459446
-0.04133309566944465 0.015067506234008056 0.03619560481441758
-0.04164160486514151 0.015086796982829165 0.03494145691645678
-0.03947569762291464 0.015215764770367696 0.031596139480163765
-0.03391623116357606 0.015495930155580373 0.025347021480104814
-0.03171121119281023 0.015628105144278065 0.021900934065757494
-0.029521226919551502 0.015760192533314548 0.018440953333313692
-0.027340689092771486 0.01589244147910841 0.014962290636900799
-0.025536823082173032 0.01600840848450778 0.011782943130305035
-0.023301999495797365 0.016144231536165572 0.008204732345878485
-0.020996756448999676 0.016283826190027405 0.0045371251835560344
0.013206803208401396 0.015138293750253598 0.03996907588370818
0.010171863421767624 0.01505314772012904 0.04059101401188259
0.00703612196555925 0.014963784702456807 0.04130275635391345
0.003919825874369676 0.01487480117555855 0.04201878052879238
0.0013390274681308045 0.014806078472777049 0.042364338140993885
-0.0012727620101418147 0.014735875293103303 0.04274666484936612
-0.005114726780886147 0.014617796924960453 0.04404630390707642
-0.013820790265188398 0.014310689935386957 0.04895957797799022
-0.01735209932114823 0.014203302027831164 0.05009723718563314
-0.019602483546178107 0.014145323544396675 0.05030168588863165
-0.020470718443520386 0.01414101235097893 0.04948158872566355
-0.021928443949244314 0.014113642387811348 0.04910690243889054
-0.02374155686527546 0.01407223782993673 0.049007368404302365
-0.025134134704566324 0.014047165239058487 0.04859595162999103
-0.026208750350129928 0.014034493359520995 0.04794612084405597
-0.027271914647342244 0.014022219335977092 0.04729013071492033
-0.02833037758249135 0.014010079074057652 0.04663308437443919
-0.029293512664352206 0.014001660697442226 0.04590435813355059
-0.0302215928154434 0.013994597075523306 0.04514996476233574
-0.031153430761442835 0.013987353993740362 0.04440002710461499
-0.032035638102429986 0.013982057107242922 0.043612349147215124
-0.032888242206984386 0.013977919376207659 0.042802244531216116
-0.03380084163400199 0.013971363666907969 0.042041014873076654
-0.03476916839276778 0.013962545517695145 0.041326003375393605
-0.03580835245529285 0.013950842407572236 0.040670169902068676
-0.036923089273608045 0.013936046601693685 0.04007826032830214
-0.038069353689693386 0.013919914596350105 0.03951529785832314
-0.03899309429974884 0.01391271167519909 0.03877301090604712
-0.03978296789370395 0.013910902882469593 0.037921723692578735
-0.04075242315540317 0.013901792245020295 0.03721992828565179
-0.041543258992450316 0.013899912587775731 0.03637102217495103
-0.04113123547267733 0.013947094137076373 0.03451320612746778
-0.03831493574935563 0.01409277712210152 0.03061698214627906
-0.032960225861841 0.014343105976972437 0.024536315515096163
-0.030901242726930733 0.01445920308193432 0.021210435373379577
-0.028889393944977526 0.01457387228874455 0.01789946798038783
-0.02647774223168503 0.014705537887446482 0.014218833071092174
-0.024583150925442887 0.014816413375813848 0.010956986954522907
-0.02240614494762161 0.01493948073103412 0.007424759880188425
-0.01987964382164631 0.015077606466355054 0.003559391159566938
0.018025127314119538 0.014045517061233416 0.03654682374806156
0.014670667568526086 0.013956599382777877 0.03737815584806842
0.011718370841977799 0.013881458740281153 0.0379405514743647
0.008688535716390333 0.013803276311271663 0.03857573651989504
0.005374281323847485 0.013714728064456954 0.03943492006460114
0.0025078392025886243 0.013641659101589446 0.0399871225770162
-0.0005808917338266939 0.013560405544751072 0.040718907906300505
-0.0030127122441905296 0.013502155328812541 0.04098428240923635
-0.006329965069839738 0.013412136884290096 0.04191973738050875
-0.009281054887246565 0.013334807500710765 0.04260243946477876
-0.017862723172668515 0.013055840402252585 0.047525602317719906
-0.019481875054472797 0.013025162803394429 0.047262039017322954
-0.0207662907749388 0.01300637478813366 0.04675168850975614
-0.022720784154061535 0.01296339883558875 0.046756390859004904
-0.023977060966379193 0.012945416073626297 0.04623584257342467
-0.025578870606938364 0.012914872845355129 0.04598564943117339
-0.02702425373857842 0.012889864212704617 0.04562130033186501
-0.028738126544843534 0.012855007525616417 0.04547181472053924
-0.03020275768444436 0.012829065527283206 0.045135216803370404
-0.031241649528907123 0.012818526558667947 0.04446947359040487
-0.03237788907886874 0.012804387791751522 0.04388321699238629
-0.033387870623066085 0.012794808945422112 0.043199784546370745
-0.034383357623577526 0.012785720606007021 0.042506987132885254
-0.03538667318286853 0.012776305514847992 0.04182260553466455
-0.03623743331253254 0.012772468682569678 0.04101708330344689
-0.0372851717014438 0.012761344723167721 0.04037256739600609
-0.038266148060462635 0.012752642223809235 0.0396761085415383
-0.03913727520627819 0.01274797418259662 0.03889145588992632
-0.04019865628924091 0.01273621776076905 0.03826502959236161
-0.04077238783916942 0.012742566237465306 0.03723650422050162
-0.04139109759242232 0.01274726412914026 0.03624401737322708
-0.03988434356126386 0.012831463169694328 0.03346693953560054
-0.037839884106005806 0.012936182241597725 0.03021625370131925
-0.032102936138963756 0.01318004576882662 0.023809321751760593
-0.029954800775397028 0.013289894738581097 0.020403592937561943
-0.027895331416490365 0.01339688316018521 0.017047549323513156
-0.02575825965109113 0.013507278277057153 0.013598974778385065
-0.023588730504699396 0.013619392115917015 0.010095739531033932
-0.021533697769996918 0.013727655496127568 0.006665166955531265
0.05805601112454273 0.014014484796068637 0.009827973379783694
0.05570287761342202 0.0139682460899728 0.009785908832618928
0.019228708396500205 0.012833235335467942 0.03412299331877572
0.016187618166339013 0.012762385834583672 0.03473129763961952
0.013053355540716849 0.012688259779146983 0.03542430411072667
0.01016304185700817 0.012621658834627866 0.035958489046640896
0.007075340273387631 0.012548433010973073 0.03665320514572756
0.0039061420869234698 0.01247227677705715 0.03742585947477589
0.0011741669869295701 0.012409927044047489 0.037894778492444936
-0.002109815160987627 0.012329450386088748 0.03878873985585629
-0.004566260935467803 0.012275479865074698 0.03908544955262899
-0.007240967562744671 0.01221418959263674 0.03955932652201094
-0.010759968369116413 0.012125142744366577 0.04068518494036377
-0.012780569702882438 0.01208462977227159 0.04069736263813173
-0.014317113525868952 0.012059779226095815 0.04035074754428697
-0.021109073033932613 0.011862565201118565 0.04403793032048725
-0.022432571869092754 0.011844138666219271 0.04356144325658551
-0.024230733736503418 0.01181001010990394 0.04345731031370287
-0.025727731545239996 0.011785670988369383 0.043127271920670895
-0.026821597644889728 0.011774554342098068 0.04248775926664761
-0.028970560809371493 0.011728438840272514 0.04268165524945261
-0.030397472784420065 0.011706096489521468 0.04231585522821857
-0.03158494579389909 0.011691624245443498 0.041765248917811804
-0.03360064688189829 0.011649477412548605 0.041880873001078345
-0.03494251311767371 0.011629662991449354 0.041465408552594674
-0.03609821369874988 0.011615996632288988 0.04090452374983128
-0.037289761788023845 0.011601068455041325 0.04037629830040251
-0.03844901110936899 0.011587161871406227 0.03982553523354426
-0.03934056551084919 0.011582216469839915 0.039058459395642287
-0.04020047328165305 0.01157831841617468 0.03826653019767473
-0.04044358161726014 0.01159528024942455 0.036963508636078
-0.03946841105394311 0.011653641119272641 0.03463920549221139
-0.03851754539275998 0.01171143079951263 0.032320059642932275
-0.033345601555875126 0.011913283322570203 0.02642511460573732
-0.031369047113666004 0.012006917846875232 0.023186973518562082
-0.029129837514270507 0.012109952160985626 0.019700311171587048
-0.026733331256498183 0.01221883518580671 0.016051706922034337
-0.025095338529924516 0.012302128824149843 0.013027846073605742
-0.022889653576828206 0.01240534639092449 0.009490283136142641
-0.02051793380261141 0.012514754086367503 0.0057807957952641376
0.05960142147435271 0.01263143100759596 0.010448727167910898
0.057167884231567156 0.012587639513828778 0.01045532242214875
0.05477630145481288 0.012544870961035957 0.010444016748995144
0.05252970472962676 0.012506090009161005 0.010340811556290574
0.017274373190725945 0.011541131867796945 0.03237669794202014
0.014872352944588885 0.011495549389281346 0.03253973485654904
0.011485196840560041 0.011421258057376156 0.0334343558338418
0.00854721977090006 0.011359689849742335 0.03401975776073807
0.005493388566473356 0.011294497994031557 0.034707618975565235
0.0025019341360424385 0.011230851985257162 0.03536720840669355
-0.000624333396363197 0.011163005101754402 0.03614497759749169
-0.003720547710048705 0.011095753865856733 0.036919025192062915
-0.006331694504467744 0.011042440470404213 0.03734599408780581
-0.008760972227431774 0.010994245927096994 0.03764992925427696
-0.010747346617234588 0.010958886750248033 0.03762971592071496
-0.01268291894222029 0.01092487722043064 0.03758045987098124
-0.014471771826128577 0.010895061388795957 0.037427689844464374
-0.01615965319041912 0.010868110616367634 0.03720507738731038
-0.01776468402577197 0.01084350516437869 0.03692552572814889
-0.019275393296077692 0.010821601250338281 0.03657906067113703
-0.020774042107764457 0.010799963622449577 0.03622929328726221
-0.027651501705846293 0.010617529131923193 0.040142610094793085
-0.028859272383578216 0.010604071816729621 0.039596508682131715
-0.029859482017912997 0.010596784772747059 0.03888820142264132
-0.03133943972927428 0.010575040487376038 0.038567788884901255
-0.0329627171787531 0.010548883729329411 0.038369463645404556
-0.036270534237525465 0.010471741814015873 0.039547851933912914
-0.03674362947401738 0.01048005875037437 0.03843198121646768
-0.03736038473976666 0.010484054456240397 0.03743173582208076
-0.03804294018713961 0.010486067433794108 0.03648468146608713
-0.03797754285828925 0.010510873573745173 0.03491604831641798
-0.03750727799980108 0.010548147997704961 0.033002303395820165
-0.03411723079684259 0.010674917480660498 0.0286277571159273
-0.0324633323595912 0.01074900755871936 0.025680878967334397
-0.03036695090750746 0.010837020262289726 0.022337181817228602
-0.02829411150325961 0.010924695113578253 0.018987854153692307
-0.026088483956814346 0.01101685505134059 0.015499068199929023
-0.0242163848610929 0.011099105017690155 0.012270598107878894
-0.02205332719943931 0.011190739500290871 0.008765957767619459
-0.01892227022156051 0.011312857136044258 0.004391537170347348
0.061219944084287214 0.011246073844201895 0.011023368060086913
0.0587712035197569 0.011206878713153085 0.011031959000669389
0.056419505090198885 0.011169990156672882 0.010983957396921817
0.054091591449827836 0.011133556426685957 0.010930337350400499
0.05182713643328962 0.011098592910511025 0.010842556511813983
0.049733019564780934 0.011067842146908384 0.010643190568614347
0.013024217635569157 0.010212951587062851 0.03073407474938894
0.009971336262394048 0.010155267519396962 0.03140333524010319
0.006880653405918091 0.01009636456526774 0.03211856570649674
0.004126930173214749 0.01004595960867375 0.032600783256217014
0.0010567619854508492 0.009987115587860636 0.03333606132116507
-0.002251304692647893 0.009921826198753416 0.034269129207503135
-0.004931007102220608 0.009872670618495796 0.034746264483649814
-0.007656029699992073 0.009822122459823853 0.035273379693283924
-0.009435200588048143 0.00979616333614081 0.03509153727686298
-0.010995967746726731 0.009775833648910917 0.03474960158488816
-0.012467530823545458 0.009757766933503487 0.03434498834487887
-0.014035456244736955 0.009737080727773151 0.03402114469368456
-0.015635556859295352 0.009715455748509516 0.033729058809566725
-0.01741412560214256 0.009689009078191903 0.03358434141851824
-0.0193177691675388 0.009659127849921947 0.03354704038050721
-0.02099028151101706 0.009635270247522087 0.03333537810981063
-0.022630767587419942 0.009612164578112358 0.03310573285702739
-0.024129498155544604 0.009592748610140613 0.032769497744281284
-0.025664273983113717 0.009572283548965345 0.03246864632614038
-0.02710984119197979 0.009554124925992488 0.03210187692627303
-0.03582847088517821 0.009340227430401145 0.03768415861693797
-0.036510422613599935 0.00934207478196398 0.03673348975916502
-0.03663705116168964 0.009358934356921303 0.035323595416875964
-0.03614071317717504 0.009392735762148963 0.03339099690659153
-0.032887159752190975 0.009501506266296918 0.02914602182985737
-0.03252439959187248 0.00953213415518385 0.027291212976865042
-0.031422430258672696 0.009583043739215619 0.024802828999303195
-0.029368901518465662 0.009660168981844705 0.021490821873825672
-0.027326647242850166 0.009737324866442765 0.01816309018462875
-0.02549348049613598 0.00980908443738061 0.01498914600235024
-0.023247591123787437 0.009892509473408865 0.01143594992015512
-0.02103860213811698 0.00997528707183353 0.007887124905397946
0.06043234334772746 0.009822868635598161 0.011573626489066735
0.058068316089361416 0.009790417629041686 0.011525740569693577
0.055731056314910654 0.009758429413009083 0.011470259166759533
0.05340901985178542 0.009726649546334438 0.011415139131658869
0.05110205845142507 0.00969507600005757 0.01136037694529829
0.04892467268163597 0.009666272383506556 0.011223644087128948
0.047075979878308694 0.009644720907143191 0.010859716041163203
0.008752607851527705 0.008895240588350452 0.029150269427220155
0.005324382981410414 0.00883582484303592 0.030135362011758204
0.002482659692840783 0.008789532573964826 0.030699428900899994
-0.0005328360853370517 0.008739075723118727 0.031411817871367875
-0.003521455628673009 0.008689022061600058 0.03212182748105169
-0.006085253346921227 0.008648504667894113 0.03252427051654372
-0.007728424955715241 0.008628983779315846 0.03223197752255136
-0.0092452959448458 0.00861229041107708 0.031848895920804365
-0.011238013101923738 0.008584538911976327 0.03184245213693121
-0.012893794516063817 0.008564465894982335 0.03158225141370996
-0.014415183606749038 0.008547423743127093 0.031223551434094887
-0.016058472252153178 0.008527476167232432 0.03096753354774434
-0.01749176311354278 0.00851233362662562 0.030551707261667393
-0.018938180663568893 0.008496819840375947 0.030151920250612252
-0.02057935271890332 0.008476684569969207 0.02991444314741848
-0.02220278792486924 0.008456878343815522 0.02967002251893114
-0.02401574260913647 0.00843253514413284 0.029586938307057165
-0.02579766573170328 0.00840881716824924 0.02948747787031125
-0.027510135314150697 0.00838663486508261 0.029339730698048294
-0.029037392672027817 0.008368734945932826 0.029047241244261723
-0.030523494577373356 0.008351732232761675 0.02872722909348957
-0.030933700737232783 0.008360202091831075 0.027515525036156507
-0.03088801672739072 0.008379557552074436 0.025918124654662034
-0.030016161854331258 0.008418700806686859 0.023616575338766155
-0.02862548331775222 0.00847041625531765 0.020860392765618296
-0.02646146353435508 0.008540883449188484 0.017425520458708765
-0.024720228569620084 0.008601511814984692 0.014326463601811779
-0.022439326162766837 0.008675392123534723 0.010739602639058043
-0.019953732345953434 0.00875453524926279 0.006947541109820543
0.05735499428699403 0.008378215528640412 0.012026852331777527
0.05504476127388863 0.008351284577752754 0.011955039596414752
0.052729960333750825 0.008324156136251657 0.011897446430801983
0.0504287776536847 0.008297177111575287 0.011841205991638959
0.048211848039631966 0.00827170330425808 0.011735505492377785
0.046077330560104046 0.008247708628295432 0.011580748283833042
0.006902353834922548 0.007620258724348389 0.027366707686848735
0.0038827339427616736 0.007577110444941559 0.028064180304532227
0.0008088629832919692 0.007532716048899628 0.028821070264999582
-0.0019276318222193889 0.007494769568800978 0.029338034204725194
-0.004277919431393662 0.00746427420563684 0.029573381662948484
-0.0060404210223190535 0.00744525836581242 0.029366251323072967
-0.007705716923965655 0.007428085736533458 0.029091444520945642
-0.009481622052939787 0.00740864635390006 0.02891051106471254
-0.011257687582554465 0.007389120997814574 0.02873794651035011
-0.012830843193371855 0.007373553917566337 0.028413089621065313
-0.014367376263515363 0.007358651274948614 0.02806572216608455
-0.01607760447631751 0.007340210232593226 0.027863658341613806
-0.01781702354679493 0.0073211048057754136 0.02769295652338377
-0.01942182287506905 0.0073046216099989444 0.02742160237092839
-0.020979149993711477 0.007289023069080431 0.027118741565781923
-0.022541842362577613 0.007273248842236901 0.02682697910517623
-0.023866107828533933 0.007262227326688017 0.026346152788331356
-0.025440566354058336 0.0072460880078711485 0.026076718832015677
-0.027177828190090736 0.007226572213916382 0.02594944664953469
-0.028555901233020597 0.007214281711811967 0.025530843280361204
-0.028607993611853122 0.007228983511116432 0.024004958009954447
-0.028357471183737326 0.007249935651098458 0.02221739160284758
-0.02743779162716281 0.0072846884631228015 0.01985321347863689
-0.025748086153202898 0.00733540401006927 0.016817365734656975
-0.023765410718164903 0.007392371551493499 0.013508177912269048
-0.02155651404033615 0.0074542560124449915 0.009979030486582385
0.05665940840289757 0.0069708182879332755 0.012515504531813326
0.05433974275818637 0.006948203453275608 0.012453045786941896
0.05205025193073409 0.006925976411922955 0.01238021460554567
0.04975621433497385 0.006903585678603247 0.01232152264440084
0.04749187885286443 0.006881577697437875 0.012252497215108682
0.0453535811238166 0.006861497886398347 0.01210330076513405
0.04349621348616001 0.006845844284508599 0.011760062130920346
0.005087980026180217 0.006347245056004031 0.025559341112179612
0.0025568095211598862 0.006319135429373925 0.025901336140314424
-0.0006633837789483676 0.006279591081838722 0.026788401476062096
-0.002643904162490107 0.0062602819860131925 0.026735152001883256
-0.004346148027843 0.0062454806054792564 0.026474959618763894
-0.005960778404225209 0.006232064399205729 0.02615368088088016
-0.007700970228494919 0.006216511361940336 0.025938071514506222
-0.009465369369389742 0.0062004901429465195 0.025749551149480743
-0.011117515701531466 0.006186267618187315 0.025479901233012914
-0.012743269130614132 0.006172424096110994 0.025196422070332625
-0.014590270903969693 0.006154825057694569 0.025097976928814436
-0.016279432483206402 0.006139792732754524 0.02488096854654359
-0.017821110809285223 0.006127169965730578 0.024551830882990455
-0.019301487892460667 0.006115523335615672 0.024179120763689832
-0.020877435585610726 0.006102215862239567 0.023890950888479368
-0.02257915413250311 0.006086726743700516 0.023713555202918568
-0.024367945791039014 0.00606969664295874 0.02361650573607943
-0.02602113418453067 0.006054892167444548 0.02341514517065202
-0.026801510774162374 0.006054858603339782 0.02248913885630005
-0.026724700584317473 0.0060694268250663045 0.020840072668283194
-0.026038066858765085 0.00609446996370635 0.018666227154344683
-0.024985670558947515 0.006125881341823307 0.0161674058991092
-0.022933776049832988 0.006174569974094811 0.012795461086765103
-0.0207158428704331 0.006226327158094086 0.009254764173318664
0.05593245302146044 0.005567434369954069 0.013026193944276843
0.05363698988892762 0.005549631268177771 0.012949451585522909
0.051353410543589495 0.005531906641110215 0.012875151615393654
0.04908437152701839 0.0055142948727906795 0.012801324738451747
0.04681080729439324 0.005496552855521164 0.012741557531561865
0.044641655981995876 0.005480075715629282 0.012617316017798363
0.04252006075521253 0.005464141217432824 0.012468706384194839
0.04114599369480437 0.005457759246032691 0.011784301214154802
0.0010264925445676587 0.005056551621066092 0.023891892662100955
-0.0006412982121009048 0.005045267568259359 0.023589564525682838
-0.0025186755771688385 0.005031164328006639 0.023458504975256478
-0.004314918805018719 0.005018076098213823 0.023272546039334097
-0.0060521790904934925 0.005005715234957411 0.02304824842238906
-0.007759457520243207 0.004993700480940453 0.02280799055437549
-0.009446846091247518 0.004981899477185337 0.02255951300615716
-0.011080794141050565 0.00497076198424175 0.022275628395951208
-0.012690637264291704 0.004959899390740367 0.021979414829482735
-0.014564748971083563 0.004945442920911234 0.021905001790199052
-0.01612775608385525 0.004935108632037858 0.02158570318528724
-0.01777790619933778 0.004923554868092967 0.021344679561523472
-0.01948063388491894 0.004911240646305537 0.02115457041283758
-0.021188051284958265 0.00489880934849204 0.020976357523395883
-0.022990532292681942 0.004885033984713487 0.020885587790740012
-0.02430996861209389 0.004877766856855582 0.020398486649369163
-0.024930900008289403 0.0048799869658991205 0.01932691736093395
-0.024528879245114932 0.0048961879752286806 0.017386414795058924
-0.023564413708160925 0.004920158843446041 0.014955783424479008
-0.02196940042523926 0.004952885184251223 0.011968984317665965
-0.019639753326665454 0.004995856024325696 0.008327677061843064
0.05293649176231041 0.004155546322445528 0.013444264694311314
0.05065742725019995 0.004142282310576579 0.013369479157484487
0.048394224513723993 0.004129115711247287 0.013294198932028822
0.046145363757848834 0.0041160325490356316 0.01321939575944886
0.04393209323545594 0.004103237545366736 0.01312962560348202
0.041818719848371044 0.004091351779691094 0.012977849254427076
0.03991369056446453 0.004081427429884941 0.012683785817045712
-0.0043412965149968175 0.0037793900011864477 0.020088257780800922
-0.005836256326042677 0.0037725369895610936 0.019671292421241937
-0.00755664725309152 0.0037633949844554145 0.019441482034328772
-0.009329730634451194 0.0037536843401608858 0.019262109848381892
-0.011041623056776861 0.003744547786170739 0.01904134208931524
-0.01284120514656606 0.0037344870968481036 0.01890009536235454
-0.014442624042865726 0.0037263862750901836 0.018604736730220117
-0.0160485618452601 0.0037182044949009424 0.018320114141397392
-0.01768572442958133 0.0037096700532419035 0.018068505715804428
-0.019484767169937578 0.00369945106044043 0.017959425148814656
-0.021211804418912572 0.0036899217551172934 0.017798818096085967
-0.022470336357258924 0.0036851392253444007 0.017251315982841187
-0.022735215292781885 0.003690513950112694 0.01586536249258924
-0.021993045786662724 0.0037062504691336646 0.013616191155462642
-0.020854735040651606 0.0037261320364459054 0.011013708155362789
0.052232726658777984 0.002765892035349672 0.013941385508063286
0.04996503685481607 0.002757112638541763 0.0138612548158491
0.047707633282986994 0.0027483628670232486 0.013784533734104154
0.04546451224779868 0.0027396684550932463 0.01370829806467827
0.043238203083068194 0.002731045950150241 0.01363061945950561
0.04112761754709515 0.002723130831531627 0.013479559344147019
0.03903972237355585 0.002715328959110251 0.013321714027876463
0.03745754562308545 0.00271075502910207 0.012802377414251664
-0.009588643970042832 0.0025115332144564884 0.01624226230060899
-0.011089620070242223 0.002506857045940743 0.01585023538157293
-0.012534094261267559 0.0025025422285868217 0.015417609599211013
-0.014182396836008138 0.002496828837819331 0.015159823032485809
-0.015984331633083826 0.002490048264734909 0.015037710960959683
-0.017707985984932173 0.0024837702869315516 0.014858765203059732
-0.01949924156391969 0.0024770041852623403 0.014745057530670569
-0.020268599828854428 0.0024771867580220255 0.013773637827088736
-0.020179111232718927 0.0024832479628838127 0.012069810660022828
-0.01931519732438508 0.0024946476337981784 0.009694313383038222
0.05148866296264293 0.0013805818861793407 0.014466972167943626
0.04927485380438262 0.00137635889615302 0.014351462690311123
0.0470232239740665 0.0013719979243808284 0.014273310298680786
0.04480322749443977 0.0013677201586073373 0.014183149975201925
0.042603672740612386 0.0013634902605273143 0.014088755090825578
0.04044666526061602 0.0013593794875789024 0.013973900966383956
0.03836406034545847 0.0013554910489613332 0.01381489429827315
0.03640881766348364 0.0013519970372603068 0.013572042208506607
-0.016297438002937925 0.0012494104551205613 0.01204418536230667
-0.01753637515859363 0.001247922342826241 0.011456672812455437
-0.01808210456428111 0.0012487997930074315 0.01028211098594739
0.050748507182759195 0.0 0.014989798380485586
0.04858958256275686 0.0 0.01483818191440145
0.04637329640203397 0.0 0.014737461445868905
0.04416400897009054 0.0 0.014642156682959151
0.041969704388949425 0.0 0.014546484960609174
0.039773149351120196 0.0 0.014462844103683759
0.037691861294962214 0.0 0.014305546866714258
0.03562634486515831 0.0 0.014146301490734425
0.03393341434760405 0.0 0.013721685015166518
0.04790648044734025 -0.0013720022327334503 0.01532336049974714
0.045730699600864455 -0.0013678743118964883 0.015196377262456762
0.043526697722382546 -0.001363639205693374 0.015099793823442453
0.041104042880654446 -0.0013586862043164431 0.015171499014432377
0.03914890894736883 -0.0013552135538399375 0.014916015375714908
0.036989330658706354 -0.0013510688978930021 0.014818339113048196
0.034960183493553565 -0.0013473274993985706 0.01463519944594055
0.03293840604002579 -0.0013435943695153806 0.014455903007568605
0.0316373781560757 -0.001342178642330266 0.013751150902426568
0.04722553717533268 -0.0027396684549348487 0.015807005749786773
0.044396558038227674 -0.0027272358515503356 0.016149165486031625
0.04289128522773633 -0.002723215696159329 0.015556067517219219
0.040707416620026415 -0.0027148312284368367 0.015457866127481179
0.03852650915786693 -0.0027064311706064144 0.015367850442182196
0.03634740220367477 -0.002698007959017997 0.015286896521726767
0.0342820057465818 -0.0026902829126870583 0.015132916257352247
0.03225390062643729 -0.0026827666973067944 0.014961000489394194
0.030499165863878908 -0.0026769889071300793 0.014595609025092326
0.046589776917278225 -0.004103430231242009 0.01625855941308313
0.044433913081983245 -0.004091211304954329 0.01612248807279587
0.04225776301328665 -0.004078747600574274 0.016010983848440463
0.040079080449485216 -0.004066208228001326 0.015911529520563295
0.037905941853838665 -0.004053670497710543 0.015818355204221757
0.03573196137577578 -0.004041072794983036 0.015736120040726442
0.03357145131266159 -0.004028553150124765 0.015654394422574214
0.03159706141566848 -0.004017785077170398 0.015445683042282055
0.02957139207455567 -0.004006474249315645 0.015283939416322112
0.02810974195230287 -0.004000604562625675 0.01471085891281737
0.043762519727482185 -0.005446380472179392 0.016601969185947585
0.04162744212132968 -0.005430269813260237 0.01646360139068448
0.0394526050020646 -0.005413583327729334 0.016363849457699364
0.03728719895430388 -0.005396949078800262 0.016267535528272203
0.0351183242663794 -0.005380201410308839 0.01618402698673277
0.032962868724818184 -0.00536355736210353 0.01610103512474209
0.030891626167181663 -0.005347932264282883 0.015966224677933627
0.028921657737490836 -0.0053335533723308775 0.015765987837579487
0.027099564413864297 -0.005321033094927135 0.015464398568739879
0.026081318196241876 -0.0053189116245515216 0.014567740549961572
0.0431277075273101 -0.0067978492066599755 0.017055325565393742
0.040997671338945996 -0.006777770658785352 0.016915823913112027
0.03882798202460491 -0.006756974277875695 0.01681483189773203
0.036670272425727346 -0.006736284354521856 0.016715397246329478
0.03450648295764902 -0.006715411083939762 0.016630623139145262
0.03235606164400795 -0.0066946667709619516 0.01654637277663573
0.03021888498118802 -0.006674050224195059 0.016462641320110827
0.02824013177975271 -0.006655911829802967 0.01627162297679302
0.026269617632383335 -0.006637831420691922 0.01608349549809529
0.024706387869554647 -0.006626294536593559 0.01559893299916848
0.04252783725373599 -0.008145936250760225 0.017483727879166522
0.0403395995950776 -0.008120702007151752 0.017388368642519914
0.038205203312682734 -0.0080963987238762 0.01726448276431608
0.036055154281668 -0.00807169366327471 0.01716194615620087
0.033896429578020915 -0.008046718993834693 0.017075914243587786
0.031751022311626464 -0.008021898396191822 0.016990413072319632
0.029618809626090148 -0.007997230448998657 0.016905437746185192
0.027542124505512466 -0.007973538250662113 0.01678948587148582
0.02561030616245058 -0.007952566571638604 0.01657530740174029
0.023740313853349237 -0.00793271299700154 0.016323484790302656
0.022470822504520094 -0.007924511822221043 0.015627124779642898
0.03970579456903406 -0.00945996881092692 0.01784348805361713
0.0375855578424068 -0.009431903294611453 0.017711871407104618
0.035439263404521526 -0.009403136420764513 0.01760905603654761
0.03328815630187626 -0.009374142217703899 0.0175199060121482
0.03103513967935384 -0.009342728393438438 0.01751580161930566
0.0290204745058949 -0.009316573415051772 0.017346950050542376
0.026906230059836833 -0.009288053359647663 0.017261266253309315
0.024920990841585278 -0.009262343441277538 0.017089500610302233
0.023004346198995274 -0.0092380867849402 0.01687545769634724
0.021376711803479054 -0.009220318008038858 0.016452151540920668
0.03911560526937702 -0.010796298662339235 0.018267288111140367
0.03695867964725308 -0.010763252443504696 0.01816448213110239
0.03425638881270948 -0.01071606441272019 0.018467771333096017
0.03268292765849112 -0.01069773047526765 0.01796167543766558
0.030546216083120303 -0.010664795879362376 0.01787462420590319
0.02842387206147462 -0.010632095790418213 0.017787183811073026
0.026314503195684846 -0.010599595616637711 0.017700277991504643
0.024232765892147512 -0.01056767692096102 0.01760288045875752
0.022321145614426108 -0.010540048364067278 0.01738785550329569
0.020421921733054627 -0.010512627133231062 0.017172121977872712
0.01905120347180661 -0.010498891113143815 0.01656429736672327
0.03781053134964818 -0.012108286140839055 0.019204428792231276
0.03632593086899166 -0.012090415933094576 0.01862133145981032
0.03421289654403481 -0.012054315931655771 0.01849934482081067
0.03207818759547437 -0.012017439148466947 0.018403088237846366
0.02994769211722781 -0.011980531785954103 0.0183138828533414
0.027828994777411353 -0.011943814146765522 0.01822614457341437
0.02572448217062756 -0.011907356939912286 0.01813802414006499
0.02363277806369546 -0.011871121619176122 0.01805044002586914
0.021641458556717508 -0.011837671448676423 0.017897618178631725
0.019744757671316338 -0.011806854895906169 0.01768274532903641
0.01808614274861081 -0.011782903013744982 0.017295952285723337
0.017051586550431708 -0.011777221220310993 0.016440159799326393
0.035742654818547104 -0.013415110264232923 0.01904246111071095
0.03360240471472292 -0.01337408694113787 0.018942535228210378
0.031475204447469596 -0.013333313751269504 0.01884321862790994
0.029349643448846163 -0.01329242444035827 0.018752792678420505
0.027237079519984164 -0.013251785153430874 0.018662919652245757
0.02513615961885385 -0.013211353655537649 0.01857451016380479
0.02304924477918796 -0.013171207828109396 0.01848572536304538
0.020987117133963173 -0.013131699918275732 0.01838837172537572
0.019102408770844737 -0.013097805389988827 0.018167115907317177
0.01723817606076078 -0.01306443695908178 0.01793883307384536
0.015775936116750877 -0.013044076784220779 0.01741251605101135
0.03516228131351956 -0.01473616983315 0.019461495102211068
0.03298479588097214 -0.014689687155516936 0.01939089227002727
0.030873970569192666 -0.014645370967781589 0.019282072188313848
0.0287533244222426 -0.014600522914693406 0.019190433113882355
0.026645626598454597 -0.014555948696581413 0.019099353572785305
0.024558142932184612 -0.014511908722868372 0.019003350099413008
0.022497902221148003 -0.014468657117422973 0.01889699810043277
0.020447483694814583 -0.01442557596283134 0.018793094726235193
0.01847892945618551 -0.014385247501590273 0.018637257657331596
0.016608427674913884 -0.014348270276824511 0.018416272983234117
0.014871927608115343 -0.014315958855701865 0.018101590660904165
0.013608861702812058 -0.014300581006656786 0.01743148149576046
-0.05612277637647212 -0.012871119514986984 0.011961037762325988
-0.05812179023707431 -0.012821912209111497 0.012251100614106503
-0.05972837738730141 -0.012787999999731377 0.012178179514838683
-0.06130002107353294 -0.012755316059107069 0.012080196486846828
-0.06235601682633546 -0.012742971685065834 0.011492119213158958
-0.06338795698114796 -0.01273152801808091 0.010883793873683933
-0.06353610082470951 -0.012755316060215632 0.009415340535541494
0.03458351428147849 -0.01605357271117889 0.019879369208254782
0.03241085609522232 -0.01600300437839692 0.019807547490058752
0.030274478359653745 -0.015953627385447627 0.019719654467184322
0.02816122225852913 -0.015904940142897242 0.019624978780220348
0.026080621803592163 -0.015857316496789793 0.019516271384447725
0.024012443901135272 -0.01580997719515822 0.01940821304322382
0.021954142496651063 -0.01576282491687453 0.019302614440244947
0.019908082097253088 -0.015715953059757422 0.019197643846797396
0.01787415382824209 -0.015669359129667697 0.019093295677202082
0.01599730929725801 -0.015628722313398232 0.018879588665197233
0.014140801990311702 -0.015588712861916777 0.018658886410953146
0.012594134127086376 -0.015560721690177626 0.018209128481945114
0.011698524261885002 -0.01555827435942096 0.01726361813562327
-0.051460906164426556 -0.01414383533062838 0.012408386905731206
-0.05490674721082894 -0.014028897960428114 0.014023739005310787
-0.05669641765080502 -0.013984406652886333 0.014105810770199068
-0.0582787702726853 -0.013948615479911098 0.014001834098708532
-0.05980329641518506 -0.01391514876385145 0.013851053531087898
-0.06122168797169214 -0.013886107180128055 0.013606462166573075
-0.0624935420737589 -0.01386326895987575 0.01322768430389859
-0.06359257079535996 -0.013847816944895518 0.01268716307090495
-0.06464799400740351 -0.01383418777149772 0.012107862046467632
-0.06554065801847458 -0.013827583814569938 0.011372792409538868
-0.06596776941113963 -0.013841273054460033 0.01018228731610793
0.031838497787811726 -0.01731270278482761 0.02022305462588042
0.02969678488603522 -0.01725893855116679 0.020141325379086583
0.02760813738681911 -0.01720717519038284 0.020030889531519325
0.025531981052354158 -0.01715572140058722 0.01992111414591602
0.023466980038981178 -0.01710452290353097 0.019812901511424785
0.02141305337070193 -0.01705357788154744 0.01970623865309501
0.019371325418355123 -0.01700293543309967 0.01960020928854933
0.017341687827480468 -0.016952592870593954 0.01949480779081264
0.0153951721234033 -0.016905566076858315 0.019336095302110945
0.013550062427094722 -0.016862653424971504 0.01910917380336541
0.011723647990362296 -0.01682035656480361 0.018876234547585302
0.010338632930829761 -0.016796729099800286 0.018311407057208573
-0.04887114528412673 -0.015371919029988317 0.013223218207207788
-0.052198157421735725 -0.015253562918299206 0.0146971392075807
-0.05445244261349469 -0.015184239991956559 0.015196230790763321
-0.05631507402149921 -0.015132740534161833 0.015343023098459363
-0.0577911831425007 -0.01509894905539376 0.015136707820406659
-0.05924525639327477 -0.015066027458129568 0.014916679608024674
-0.06064948694950956 -0.01503527865473893 0.014656203718068306
-0.061958939981567984 -0.015008818290703515 0.01431160968690065
-0.06315579180138836 -0.01498751131051931 0.0138643915710156
-0.06422240564645171 -0.014972221914009941 0.013295854878174196
-0.06525169999550295 -0.014958618108223076 0.012694334721756795
-0.06611819237157757 -0.014952632389577305 0.0119367552165347
-0.0666651434594665 -0.01496173100084863 0.010866809628047869
-0.06701952435047698 -0.01498000099032358 0.009604901628949059
0.031287892335920275 -0.01861970413622158 0.020622770138560287
0.029151971530498144 -0.018562013870986594 0.02053899638445017
0.02705653843077016 -0.01850591165827431 0.02043570976457565
0.024983579162253744 -0.01845059277715752 0.020325780651423986
0.022922976163743336 -0.018395603634808418 0.020216506791701283
0.020872197150385075 -0.018340831302703118 0.020109689130514086
0.018840802496932596 -0.018286712183090945 0.019998099436205174
0.01682255269242161 -0.018232965856388207 0.019886267611775532
0.014812584564593223 -0.01817937244254877 0.019777780517254817
0.012961077583839353 -0.018132809902662268 0.019558123671892136
0.011128354478913138 -0.018086913119290837 0.019332443894948925
0.009475062192050465 -0.01804907369427384 0.018976783644612916
0.008279193453566203 -0.018032153375293593 0.01827361451835019
-0.05413019769513977 -0.016183399156842228 0.02278570931433993
-0.05513435280927137 -0.01617052143090418 0.022138512960052814
-0.055492349117916895 -0.016189524337013265 0.02090099130811346
-0.05176420276130328 -0.01641104768255694 0.015891338489572193
-0.05368492654635609 -0.016353089087106393 0.016075476533031263
-0.055467344765323 -0.016301748809303806 0.016142028646163598
-0.05712345036897609 -0.01625647408991155 0.016100289131047496
-0.0584865401290145 -0.016225641274015427 0.015791497792940423
-0.059844469073198236 -0.016194925194735532 0.015483875574604011
-0.06116409491871466 -0.016165991299527793 0.01514585313604222
-0.06240880923832831 -0.01614069493077592 0.014741888867732644
