# .PCD v0.7 - Point Cloud Data file format
VERSION 0.7
FIELDS x y z
SIZE 4 4 4
TYPE F F F
COUNT 1 1 1
WIDTH 768
HEIGHT 1
VIEWPOINT 0 0 0 1 0 0 0
POINTS 768
DATA ascii
-0.055719925648124745 -0.012284192933065874 0.035979648150731736
-0.05544080383133057 -0.009494030263588193 0.03644416486731561
-0.05511353992955159 -0.0063718840172622415 0.037166675303797136
-0.05481011225171391 -0.003427361802012807 0.037777239819030695
-0.054492083873920606 -0.0003889731270916297 0.038474175752182094
-0.05421928694336805 0.0023225315394923007 0.03894655892878718
-0.05393997396553882 0.00507172285962576 0.03946249878953212
-0.053672513544250816 0.007729877054894363 0.03992600753012082
-0.053423424849750434 0.01025202503223116 0.040302164930568485
-0.05318458174508568 0.012695554661525221 0.04063290925300672
-0.052955449072181554 0.015064633485582735 0.04092053978012006
-0.05273016243795136 0.01740034979973276 0.04119571162469837
-0.05250936608341326 0.019698414514417006 0.04145478931391622
-0.05229923098341422 0.02191641621625079 0.04166453203433507
-0.05209881773781441 0.02406129462341916 0.04182942380765403
-0.05193919676558849 0.025919854329014336 0.04178169068651627
-0.051839894477332324 0.027359916537659124 0.041413742587257496
-0.051786409464444814 0.02848340405644495 0.0408010016545326
-0.05181334774508918 0.02905591142358155 0.03975296744701545
-0.05187668606586 0.02938106816384828 0.038505502389011015
-0.051932883120887445 0.029756652912406867 0.03729489820641796
-0.05199862386038993 0.030069099512561093 0.036029962307163654
-0.052069325899431695 0.03034986334555423 0.03473542373881866
-0.052140786137631755 0.030627568614706224 0.03343423598012507
-0.05221272640857498 0.03090412448072527 0.032127900512374796
-0.05228443886742005 0.031184315288594944 0.030820326149997024
-0.05235649117810329 0.031464319360823834 0.029508360085028273
-0.052429314300320724 0.031741264122467916 0.028189574478564572
-0.05250248367322627 0.0320180217497012 0.026866310766112844
-0.05257485105292758 0.03230226720774548 0.025545012255738242
-0.05264842749128479 0.032580579253673414 0.024214369241253086
-0.05272293311766343 0.03285486968082274 0.022875903205078596
-0.05279721490505817 0.033132820376937655 0.021536114146753438
-0.05287141547751897 0.033413478439154265 0.02019420125166055
-0.05294684566508388 0.03368819167456627 0.018842678356394582
-0.05302263763152972 0.03396272713051923 0.017486455376568122
-0.053098206911542094 0.03424093978848336 0.016128873546153888
-0.053172815294662217 0.03452765812271591 0.014774201369263884
-0.05324896105622139 0.034806502812437135 0.013408039293112461
-0.05332739615086252 0.035072634892608145 0.01202594470810725
-0.05340858499957279 0.03532313123384412 0.010625095712209043
-0.05349359367178125 0.035551187796936556 0.009199126770377264
-0.05358245749719041 0.035756743020912474 0.007747631568694846
-0.053708954511292296 0.035721545249886466 0.006072100035395045
-0.05756643512696945 -0.018775470456519006 0.03601389029887864
-0.05736387722532232 -0.016542275984399835 0.036041534616223114
-0.05718102719645217 -0.014451860796886928 0.03597770444320708
-0.05698893048462969 -0.012302526268029301 0.03596641142884821
-0.056704583346251024 -0.009520067805082189 0.03642526283283026
-0.056375171221771214 -0.00643440999958711 0.03712103633086011
-0.05606634683340863 -0.0035000952498244753 0.03772386059974686
-0.05574302292637827 -0.00047485023868604204 0.03841080700584154
-0.05546890868571927 0.0022033112977843383 0.03885810759839631
-0.05518632194849538 0.0049316883365367326 0.03935804045258423
-0.05491350087350568 0.0075852256278926 0.03981751961743302
-0.05465460460248938 0.0101359654945532 0.0402146489974784
-0.05441710881091435 0.012533607889600284 0.040510130395801924
-0.054181070869398516 0.014914560735408144 0.040806147903387546
-0.05394855202082296 0.017264911798207327 0.041091917409364576
-0.053720662332927424 0.01957730175750977 0.04136147268706747
-0.05350589963690838 0.02179455860356433 0.04157013557998329
-0.05329761468277155 0.023962040160613707 0.04175212297170461
-0.05312666628362573 0.025872572225551393 0.04174466875819577
-0.0530193605956655 0.027351284476881343 0.041406947445602194
-0.05296380128538428 0.02848053872888251 0.04079873402889783
-0.05299249486840405 0.029045416779610367 0.03974461724296663
-0.053057992451809755 0.029365798446675084 0.03849328776246691
-0.053115184689855 0.029743291700164154 0.037284153100492934
-0.053182280769217376 0.030056687979741425 0.03601992762405998
-0.05325459476118362 0.030337444822667425 0.034725329827456464
-0.05332768424571332 0.030615142840060006 0.03342408233460292
-0.05340111967179564 0.030892647745947688 0.032118472432332956
-0.05347475762669617 0.031170917987461966 0.030809261766055307
-0.05354874479441481 0.03144899919190197 0.029495640406930923
-0.05362322948286008 0.031725934729060656 0.02817677955829362
-0.05369777501304261 0.03200460045301973 0.02685504905009417
-0.05377223396167812 0.032285960558861126 0.025531256919701373
-0.053847932029044386 0.03256138321751756 0.024198090823836615
-0.053924583014418936 0.03283278013415297 0.022857071943612972
-0.054000265983280074 0.03311263937621284 0.021518818978673082
-0.05407631042513953 0.03339232365325745 0.020175975790329426
-0.0541539117552996 0.0336641365785974 0.018821844818990963
-0.05423053943675066 0.033944433751191105 0.017470528407809882
-0.054308584365097744 0.03421781757890757 0.016108636317448854
-0.05438504895323167 0.034503558407998514 0.014752997561904901
-0.0544630869467587 0.034781423232241204 0.013385857295935166
-0.054543013595572086 0.035049468247823845 0.012005346949514162
-0.054625603395960474 0.03530284432750369 0.01060696364901409
-0.05471240198323813 0.035531848921063536 0.009181751336005906
-0.05480314280686943 0.03573835149992893 0.007731020657514132
-0.05493268195394076 0.035702138032505326 0.006054479907280863
-0.05884965237982191 -0.018802530603663103 0.035994670702218234
-0.0586423942361863 -0.016567925096529934 0.03602321717389606
-0.058454776839398995 -0.014472669874416144 0.03596276205184723
-0.05825839078092459 -0.012323153288710531 0.03595151864912299
-0.05796786174907773 -0.00954157970335412 0.036409646217071046
-0.0576377036284836 -0.006500307308144826 0.0370729365547689
-0.05732174643436603 -0.0035640351406099335 0.03767693499881569
-0.05699888675394999 -0.0005901381749303103 0.03832573597587274
-0.05671819286763722 0.0020915416677420584 0.0387751839964004
-0.05643406923141298 0.004788363839687282 0.03925112796765445
-0.05615544521487098 0.007440462650055879 0.0397089480421261
-0.05589276810260042 0.00997834051816443 0.040095790173093504
-0.0556513307245766 0.01236741407084363 0.0403841316665427
-0.0554093731528075 0.01475319747649595 0.04068314991143723
-0.0551695104128394 0.01711832513294148 0.04097957930177998
-0.054937120973358365 0.019427288064981063 0.04124588804973178
-0.05471293611996787 0.021675569847566634 0.04147796147457611
-0.054496483671073535 0.023866626309773264 0.0416778132640232
-0.054315477805741634 0.025818520216814744 0.04170234597658479
-0.054199614778427864 0.02733785605123723 0.041396376569693805
-0.05414179554087217 0.028473852921862497 0.040793442760041376
-0.05417258801057147 0.029029196616531194 0.03973171140826537
-0.054238815346237874 0.02935434526760372 0.038484126100286786
-0.0542972823109015 0.029731838413313838 0.03727494236274248
-0.05436631505437926 0.03004236591153986 0.03600834826658744
-0.054440242026443514 0.030323114686936825 0.03471368212330839
-0.05451510966737867 0.030599848399883944 0.03341158455710469
-0.05459018351168959 0.030877344303709142 0.0321059007029007
-0.05466531572519461 0.031156562611428462 0.030797406133895422
-0.05474110232645258 0.031433677687687844 0.029482919620197834
-0.0548172488706975 0.03171060399769887 0.028163983521277802
-0.054893757486041264 0.03198734302174483 0.02684056843540228
-0.05497002891552181 0.03226773369847141 0.025515881795088347
-0.05504741720994988 0.03254314502995631 0.024182624675383846
-0.055125477308304395 0.03281645125929672 0.022843151658068328
-0.05520284934039315 0.03309630065048863 0.021504816667001103
-0.05528074297603783 0.03337501326865577 0.02016106240862081
-0.05536114409305147 0.03364007816955533 0.01880100841221477
-0.05543994419570299 0.03391747164161624 0.01744705404235508
-0.05551988916010506 0.03418987417367236 0.016084179419177558
-0.05559729648334007 0.03448041954160791 0.014732639147642002
-0.05567723349643579 0.0347573048401319 0.013364525439052588
-0.055758792923052275 0.035026298517959964 0.011984746447937511
-0.05584338446759998 0.03527869018186491 0.010585375100502226
-0.05593150162378842 0.035511540789792295 0.009163505048229159
-0.05602411359002992 0.03571898990508887 0.0077135335869463195
-0.056157173813216235 0.03567884652975767 0.006033333153965814
-0.06013092947865671 -0.01881547376028686 0.03598547780585537
-0.059921250251198245 -0.016594743593427774 0.036004064605942354
-0.05972831240093404 -0.014491168673857968 0.035949478612631536
-0.05952763843090354 -0.012341490237703368 0.03593827931789917
-0.05923162031672966 -0.009565358743599262 0.036392383755569635
-0.05890100125077657 -0.0065684618708994336 0.03702318916055092
-0.05857772854715266 -0.0036290991496075176 0.037629184404126714
-0.05825187027102734 -0.000681547690208173 0.03825828486213201
-0.05797230187012121 0.001952813170280121 0.03867225917814554
-0.05768308691669977 0.004642804887927565 0.03914254869650102
-0.05739979165542636 0.007286135769701441 0.03959320357818469
-0.05713197882758498 0.009820582224325303 0.039976830819238085
-0.056885714902557775 0.012207234592698124 0.04026269267225907
-0.05663984634213522 0.014584579160885569 0.040554621800785284
-0.05639160271655396 0.016970615695629465 0.04086638074643639
-0.05615596630406127 0.019268197976857804 0.041123310100018906
-0.0559271647339401 0.021515155263571284 0.04135369700959901
-0.05569991788632292 0.02374582590947738 0.041583732117551564
-0.05550659962873246 0.025751897941541646 0.04165018064384135
-0.05538234783709854 0.027309077556668393 0.04137372200485523
-0.05532117551764351 0.02845857026285048 0.040781347681994484
-0.05535278930704283 0.02901297496688804 0.03971880439075548
-0.05542061214431853 0.02933716415963067 0.03847038249439655
-0.05547945658083883 0.02972038438381569 0.03726573102775438
-0.05555059570485115 0.030027087764552707 0.035995995916161705
-0.055626136327742014 0.030307827932129328 0.034701256862231133
-0.0557026381611558 0.03058455263210269 0.033399085694760355
-0.05577950222350718 0.03086108294529394 0.032092542043029804
-0.055856274840224186 0.031140291782985108 0.030783968581249987
-0.05593341143423689 0.031419312558110535 0.029470992875638313
-0.0560113724774762 0.03169527192820726 0.028151186367370795
-0.056089704356482514 0.03197104277269264 0.026826890991858365
-0.056168255636448436 0.0322475860280616 0.025498886377025243
-0.05624795165412732 0.0325191445555193 0.024162272027385023
-0.056326947108753286 0.0327972388870878 0.022826773189443483
-0.05640647464070892 0.03307419292387692 0.021485870281455932
-0.05648622705858671 0.03335193012432336 0.020141175602366113
-0.056568075218222005 0.033618904015864426 0.018782670000244694
-0.05665031720004683 0.03388568954091414 0.01741938317014674
-0.056731388049920915 0.03416192629089798 0.01605971860203087
-0.056810490822927134 0.034452456000434395 0.014708035790068519
-0.05689202109157028 0.03473028828719804 0.013340630251142904
-0.05697536648758566 0.034999263284068494 0.011960709061850539
-0.05706165185635623 0.03525259994365465 0.010562056099076067
-0.057150743765845856 0.03549123028468981 0.009145256627631493
-0.057245220521912825 0.03569962615127087 0.0076960445664254196
-0.05738086785439306 0.035661375825929154 0.006017471227672488
-0.061411929452305974 -0.018826064256357633 0.03597795590461511
-0.061201706741081996 -0.016630895920501987 0.03597824620731327
-0.06100249883068653 -0.01451313821372835 0.035933702922695265
-0.060796827576587324 -0.012358682679263544 0.035925866329411915
-0.06049727711128225 -0.009600466349192371 0.03636689725193243
-0.06016491363079713 -0.006637758163699714 0.03697260839316252
-0.05983515779220205 -0.003700805186182765 0.03757655920516939
-0.05951710340598235 -0.0008481554885694242 0.03813534484293185
-0.05922866281962385 0.001805370680148688 0.03856286930896935
-0.058933231920825994 0.004496070156011722 0.03903309235502023
-0.058647293130443194 0.007118016733106358 0.03946711505220851
-0.05837353791045597 0.009654376654823993 0.03985150170125923
-0.0581221329053006 0.012040747770244997 0.04013647180421337
-0.05787048867314079 0.014421909276086331 0.04043062784207513
-0.05761705642478077 0.01680769568603202 0.04074152541375936
-0.05737807640870242 0.019095029415662823 0.040989884764994655
-0.05714356181213547 0.021347699910465368 0.04122397843976333
-0.056905242748789345 0.023618117834461827 0.04148427116682479
-0.05670031193765002 0.025671725190254346 0.04158740525342225
-0.056565730010464534 0.02727741584372434 0.0413487977489852
-0.05649852616825321 0.028456659747651603 0.04077983572380722
-0.05653233680740518 0.029001523465204238 0.039709692842600175
-0.05660237100091637 0.02932093601908148 0.038457401196003216
-0.05666216677867041 0.029706065828310813 0.03725421601908657
-0.05673497887830295 0.03001180829493677 0.03598364249639335
-0.0568121334313259 0.030292539852148415 0.03468883052403665
-0.056890424067714856 0.030568299430461687 0.033385804464696356
-0.05696893078048994 0.030844820084982683 0.032079182149355456
-0.057047344103327846 0.031124019449702833 0.030770529785806522
-0.0571262848015989 0.031402072873879805 0.029456679495645233
-0.057205912403290614 0.03167802176335366 0.028136788234011167
-0.05728607526028478 0.0319528230680573 0.02681160293407303
-0.05736646309749381 0.032228395613551064 0.02548269844927875
-0.05744880790333333 0.032494180579144216 0.02414110231633082
-0.05752949561226657 0.03277225968298331 0.022805478493448328
-0.05760946075800203 0.03305688925335226 0.02147104100539765
-0.05769187031913388 0.03332884393198149 0.020121286170161734
-0.05777626681929542 0.03359098874327954 0.018758493242562013
-0.05785947390033604 0.03386257162222733 0.01739925573475659
-0.0579421205473523 0.03413975752238252 0.016040315856451715
-0.05802644857520072 0.03440905547241291 0.01466985034932805
-0.058107963182332814 0.03469747685992236 0.013311609681266323
-0.05819245203662461 0.034970292307801853 0.011934950574736647
-0.05827994010564188 0.03522747230624679 0.01053959745702937
-0.058370290894962845 0.0354699500711973 0.00912613694662695
-0.05846662662255769 0.035679291891076714 0.0076776789958717395
-0.058603211121310325 0.035652639761692306 0.006009539666249897
-0.06269593452457631 -0.018855485030367214 0.03595705965472934
-0.06248221257249896 -0.01666588827573806 0.035953256212014784
-0.062277369595856474 -0.014538579644701288 0.0359154341557707
-0.06206648698371132 -0.012378169239194103 0.03591179697070562
-0.061762982107162384 -0.00963444743397629 0.036342228553064626
-0.06142909945033384 -0.006705960838503555 0.03692282588098622
-0.0610937508771838 -0.0037769530026404152 0.037520674170441026
-0.06077877656703615 -0.0009854706079242548 0.038034019927631224
-0.060485825470217316 0.0016588915184799213 0.03845419414869816
-0.06018637727024374 0.004336446755747014 0.03891402174234648
-0.05989607904024411 0.006948695025449203 0.039340124527810605
-0.05961968979752229 0.00946617806861716 0.039709588499224846
-0.05935933247797809 0.011876169534432934 0.04001169791932263
-0.059104992050593975 0.014241788300299596 0.04029333190526818
-0.05884796867325132 0.016617438971135545 0.04059572031789699
-0.05860439857050472 0.01890275868766328 0.04084174131652457
-0.05836331373681251 0.021166279212135597 0.04108344166860728
-0.058118997166822964 0.023443469143351048 0.04134825213562515
-0.057895656066970023 0.025584750218482333 0.04151930370683837
-0.05774947864329188 0.027244788792388508 0.04132311357153606
-0.057678220322403724 0.028440420310230863 0.04076698342234397
-0.05771227177506093 0.028988162460690137 0.039699061958043735
-0.0577836144506408 0.02930852523540345 0.03844747351693001
-0.057845129139296916 0.029690791430040275 0.037241932314375836
-0.05791915119645931 0.02999843766098781 0.035972832376780284
-0.05799854759854164 0.03027533919090608 0.03467484960591205
-0.058078319531743805 0.030552044729677263 0.03337252200961416
-0.05815862719081349 0.030827598954691282 0.03206503503459296
-0.05823884038706373 0.031105830955430458 0.03075550848468217
-0.05831991062778628 0.031380999875863014 0.02943918345829727
-0.058401047573877256 0.0316578944472955 0.028119988624658254
-0.05848273011289196 0.031933642393845885 0.02679550852719159
-0.05856512208724974 0.03220728374267551 0.025464889682861425
-0.05864726455877166 0.032484578038503686 0.024132959316811864
-0.05873028222838125 0.0327588078180398 0.022794010860472502
-0.058813696833198384 0.03303285357941976 0.021450442355612998
-0.058899779310100174 0.03329324680260687 0.020090618149510575
-0.058983676426772116 0.0335688458506922 0.018739315825595904
-0.05906602025605615 0.0338558282446802 0.01739338473073987
-0.059151535985417183 0.03412626206863034 0.016028504282245892
-0.059237791422100984 0.034394586157584006 0.014657119755977333
-0.05932512074561252 0.03465886728376383 0.013277460833200083
-0.059409740232984676 0.034941316507811404 0.011909187798784693
-0.059498569775480036 0.03520137438175125 0.010516271585735315
-0.059590816725683754 0.03544382990759426 0.009102668683113213
-0.059688175747075634 0.035658955249792956 0.007659311274756886
-0.05982595023482568 0.03564196177676626 0.005999844993780978
-0.06398031500539732 -0.018886087201111568 0.03593532430880625
-0.06376312876899899 -0.016702053477077594 0.0359274286191531
-0.06355221866482232 -0.014562867689980663 0.0358979936058873
-0.06333884246103506 -0.012413708408114565 0.03588613751102682
-0.06302963362555246 -0.00967296642674198 0.0363142655318206
-0.06269264837562821 -0.006767475535645218 0.036877925066882644
-0.062353551598421375 -0.0038575478315310274 0.03746152545975956
-0.06204188127848757 -0.0011261569444531716 0.037930207387093684
-0.06174378008674346 0.0015133780381678674 0.03834623544298127
-0.06144403618343458 0.004155377424884421 0.03877895358923067
-0.06114684621227513 0.006773955091512185 0.039209070355415376
-0.0608674377630987 0.009275706961227148 0.03956596167685361
-0.060597798345753996 0.011710415224321591 0.03988603240109323
-0.06034270263325499 0.014049261295617954 0.040146579555437656
-0.06008528324351789 0.016395727013828243 0.04042580917589578
-0.059829395369792315 0.01872624881052093 0.04070574151626255
-0.05958607770862356 0.02097381395944309 0.04093434927563633
-0.05933505988457225 0.023261810704604036 0.041206773804225716
-0.05909270111057492 0.02549096311753224 0.041445868245561845
-0.058933126458434494 0.02721407550578442 0.04129893592399492
-0.05885707107924699 0.028429911609873737 0.04075866659986599
-0.05889166075709372 0.028978618239104692 0.039691467977741646
-0.05896478164218595 0.029297068346401944 0.038438308887088546
-0.059028193786194304 0.02967551571104793 0.037229647547537714
-0.05910341322081206 0.02998506601415496 0.035962021438253555
-0.05918491713363714 0.030259092575784408 0.03466164415338657
-0.05926648535648642 0.030534832241878695 0.03335845689823297
-0.059348439956097274 0.03081037614013382 0.032050886536210244
-0.0594307832064283 0.031085725706139655 0.030738904187286253
-0.05951351740041507 0.03136088238028606 0.029422480738972467
-0.059596482265669534 0.03163680621906084 0.02810238696934453
-0.05968016788716196 0.03191062283894375 0.026776192917394637
-0.05976408886244786 0.03218520952885501 0.025446269134986654
-0.05984824618577291 0.032460569541939155 0.024112599865970197
-0.05993296970552173 0.032734784142771645 0.022773530753360804
-0.060019417503036375 0.03300112146762563 0.02142324780507371
-0.06010677656032707 0.0332643789246968 0.020065747602876827
-0.06019206830450524 0.03354188552065673 0.01871596612422549
-0.060278600397283624 0.033814399466204625 0.017357315015617325
-0.06036554845199863 0.03408673386503047 0.015993907986122324
-0.060452914993081135 0.03435889019994082 0.014625713106805605
-0.06054019924067082 0.034633766432053625 0.013255260022118631
-0.06062739938437172 0.03491136978247561 0.011882561756825283
-0.06071755110391618 0.03517430573411606 0.010492078095457269
-0.06081169530735728 0.035416738187240726 0.009078327498487582
-0.060909698092000704 0.03563958480084012 0.007641816207301033
-0.061048593918782514 0.03563225393838709 0.005991031137979164
-0.06526393532297389 -0.0189108077632148 0.035917766420328456
-0.06504522614981627 -0.016744059971422864 0.035897429419431026
-0.06482628050300941 -0.014581374885897114 0.03588470413740896
-0.06461123933043735 -0.01244810723916151 0.035861301383638855
-0.06429597709854848 -0.009708093281688202 0.03628876505403977
-0.06395733053808599 -0.006833485613307544 0.03682974297834435
-0.0636182363653727 -0.0039646915329396015 0.03738289245062182
-0.06330501257128136 -0.0012614875293494587 0.03783034686232273
-0.06300536721496905 0.0013515661127634915 0.0382261846594093
-0.06270642749359691 0.003952800810270718 0.0386278421294487
-0.06240314501355557 0.006572697903405644 0.039058128348383014
-0.062116285635714794 0.009086083933344369 0.03942297435855202
-0.061843377785905915 0.0115084274546155 0.03973289671107644
-0.06158340818884753 0.013846330304746357 0.03999189683634191
-0.061321564654048 0.0161888901390283 0.04026729770536308
-0.06106093436117986 0.018517607102247313 0.040544984318509836
-0.060811470771747915 0.02077323507049028 0.04077897168538214
-0.06055235192729758 0.023079968626263603 0.04106515245154185
-0.06030000067443407 0.025340027047993652 0.04132768499440559
-0.06011892502588851 0.027171836115963077 0.04126568484191534
-0.060035182944215025 0.02842417928209673 0.040754129943396056
-0.06007159916854537 0.028966210012641824 0.039681595191250696
-0.06014618770193864 0.029284655887693967 0.03842837986811953
-0.06021103532999776 0.029662148360474094 0.03721889750515783
-0.060288254311648755 0.0299688276747207 0.035948892768987495
-0.06037139595532738 0.030242844464047014 0.03464843748439306
-0.060454931252451355 0.030516661686641966 0.0333436089014047
-0.060538533568127044 0.030792194680818563 0.032035950508859545
-0.060622697292795395 0.031066575708846134 0.03072308880676411
-0.060707260753314965 0.03134076258273527 0.02940577610841455
-0.06079239217395197 0.031613798001470794 0.02808318275372018
-0.06087792901802947 0.03188664093017002 0.026756069796942783
-0.06096387370136958 0.032159292794628036 0.02542440724070716
-0.061049559598167144 0.03243559722080358 0.02409142307847667
-0.06113615764698805 0.03270883488016141 0.02275140908198886
-0.061223338153917756 0.032980925271366035 0.02140593961437942
-0.06131127375393805 0.03325090556134097 0.020054139942672355
-0.061399631509478234 0.033520699463149395 0.0186976174026503
-0.061488074627560306 0.03379223580221635 0.017338018398452393
-0.06157694307448188 0.03406359120441649 0.01597365285807123
-0.061667092746175864 0.03432994214495627 0.014600243534365565
-0.061755795159254286 0.03460673070814552 0.013231347878154442
-0.06184543972545158 0.03488045163182463 0.011855072004327671
-0.06193723866238502 0.03514433197073563 0.010465288052676991
-0.06203224614439403 0.03539254557082522 0.009056591091284705
-0.06213135667829566 0.035620212191427914 0.007624319188554218
-0.062275656876909995 0.03559827249710856 0.005960178762414947
-0.06655044263069704 -0.01895201538358743 0.03588849847287795
-0.06632856123307938 -0.01679191144010389 0.03586325598380036
-0.06610103790766549 -0.014603354398091906 0.03586892128663505
-0.06588385758907446 -0.012482512055400408 0.035836460934912384
-0.06556292553855403 -0.009745493284315954 0.03626161437064346
-0.06522375181788806 -0.006907353880561629 0.03677582502905691
-0.06488547486219744 -0.004082949824359805 0.03729610241003223
-0.06456444680498064 -0.0013696022158495857 0.03775056898245732
-0.06426911578451873 0.0011831360442984828 0.03810122376938435
-0.06396872858739744 0.003758550487072132 0.0384829416468665
-0.06365971826996898 0.006377557553026492 0.03891177394529871
-0.06336958275672695 0.00887748496742441 0.03926567801866632
-0.06309819800214139 0.0112597635351947 0.03954437378878323
-0.06282773781506544 0.013629896809457476 0.03982692192305615
-0.06256010309369905 0.015976766338338277 0.04010473454528085
-0.06229661778828922 0.018292725533372522 0.04037171439838394
-0.06203652836225469 0.02058233070787635 0.04063108843012753
-0.06177205080770473 0.02289108859814387 0.04091804983439762
-0.061510318346281005 0.02517733793438115 0.04120029907947248
-0.06130665943984952 0.02711998317958947 0.041224865904198216
-0.0612134978285832 0.028417491349287727 0.040748836992147874
-0.06125112488890246 0.028956664607398597 0.039674000269155685
-0.06132767667660694 0.029272242557838446 0.038418450152299055
-0.06139396637191923 0.029648779998473485 0.03720814664938704
-0.06147303807171707 0.029953543161005625 0.03593653527107604
-0.06155798407871409 0.030226594855486955 0.034635229598763306
-0.06164349968165215 0.030498489257953065 0.03332875937369245
-0.06172891777090858 0.03077305428008631 0.0320202267088352
-0.061814741097269275 0.031047423627423854 0.030707271705025574
-0.06190147802289478 0.0313187239821654 0.029387478367337905
-0.06198862783690322 0.031589827908262536 0.02806317568797967
-0.0620760233896654 0.03186169627374058 0.026735138835412398
-0.0621636657220232 0.0321343323164317 0.02540335199331012
-0.06225121474168001 0.032409660663833106 0.024069428605574428
-0.062339694918366634 0.03268192047646867 0.02272846462732453
-0.0624285985154745 0.03295399341895572 0.021382858919539283
-0.06251775604822746 0.03322684348441912 0.020033409753488163
-0.062607513657629 0.0334985476611947 0.01867843226949828
-0.06269787541822919 0.033769105505534025 0.017317880186256795
-0.06278867192108502 0.03403948100612281 0.015952550909120233
-0.06288007984324452 0.03430871048794276 0.0145815631598597
-0.0629722779214945 0.03457582761459371 0.013204015168806094
-0.06306422160478624 0.03484662862531196 0.011824999495738842
-0.06315713643711578 0.035114353041304 0.010438493392567472
-0.06325296688807872 0.035368349586682724 0.009034851658270782
-0.06335350485202053 0.03559889983593728 0.007605070213778153
-0.06350384741660732 0.03555942843805304 0.005924911512884323
-0.06783184843104531 -0.018961435541413274 0.035881807813346656
-0.0676124009952361 -0.016840941894501082 0.03582824056595796
-0.06737613229516129 -0.014626493346256708 0.03585230587428956
-0.06715572348692475 -0.012511187327300222 0.0358157572590726
-0.06683127257406427 -0.009789702452010496 0.03622952053173595
-0.06649141679047757 -0.00698572960062932 0.036718616993516695
-0.0661527321519262 -0.004196855543281808 0.03721250673571741
-0.06583132670544378 -0.0015171293701886635 0.03764170859422611
-0.06553342382945951 0.0010178005564195902 0.037978558798417106
-0.06523195652808916 0.0035662388687578983 0.038339487336625344
-0.06491868692134237 0.006175875957837085 0.03876051363481975
-0.06462590216593592 0.008659250230453663 0.03910111571623792
-0.06435022814616898 0.011036611577730115 0.03937519260174632
-0.06407725064031146 0.013391731244100258 0.03964538188385258
-0.06380235998909552 0.015751242331800808 0.039931902000715114
-0.06353295529330302 0.018072572867517456 0.04020208807188885
-0.06326702612150173 0.02036744651349126 0.04046462928978933
-0.06299971428320587 0.022663778596438977 0.04074101735735025
-0.06272598505626147 0.02499025638197855 0.04105381382208767
-0.062495920704050655 0.027061390399827023 0.041178741311445555
-0.062393202048252806 0.028403159332994865 0.04073749428159079
-0.06243105084608149 0.028945209462328148 0.03966488582208877
-0.06250941731590312 0.029258873390047846 0.03840775583278777
-0.06257732513681943 0.02963350064661152 0.03719585896098809
-0.06265826350985908 0.029936346514058965 0.035922631806933225
-0.06274502154874304 0.030208431768878663 0.03462046640428146
-0.06283219066304056 0.03048031495552045 0.03331390831485792
-0.06291926039059537 0.030754868967320048 0.032005287515882996
-0.06300760040077592 0.031024438398983112 0.030688288910545425
-0.06309618882225587 0.031294765857517726 0.029367586917075805
-0.06318537152359945 0.031563936542738036 0.02804156499108007
-0.06327428799781401 0.031836748072939625 0.026714204899814187
-0.06336362846111411 0.03210936828660854 0.025382293749961593
-0.0634532215705435 0.032382759443796816 0.02404661608496661
-0.06354324276795652 0.032655963380739395 0.02270633627824098
-0.06363386948645042 0.032928019489541716 0.021360599171381334
-0.06372493044879049 0.03319989004019286 0.02001018855519865
-0.0638167800199795 0.03346964981817252 0.018653404527648798
-0.06390889474700907 0.03374018835200171 0.0172927036693859
-0.06400109888825846 0.0340124736410804 0.01592891326421958
-0.06409516613006758 0.03427685820686244 0.01455353833228501
-0.06418915442820783 0.034543953060558685 0.013175823233586903
-0.06428306186938705 0.034813765693782805 0.011795780605951933
-0.06437724448246004 0.03508436894448563 0.010411694113935055
-0.064474037088323 0.03534318219417948 0.009012239437469372
-0.06457580298643206 0.03557758486537249 0.0075858188771094626
-0.0647341222352495 0.035510861174520125 0.005880816359465191
-0.06912424879039898 -0.019034455978012177 0.03582994457038141
-0.06889575092419742 -0.016885313155745152 0.03579655254878983
-0.06865137509321352 -0.01464963498761318 0.035835688528040754
-0.06842757536392625 -0.012538719504968932 0.03579587890563046
-0.06810049486618497 -0.009837323447696222 0.036194949855199055
-0.06776056450550144 -0.0070697385491483855 0.036657297143993295
-0.06741977213657654 -0.004305294112494029 0.03713292341928792
-0.06709612627310012 -0.0016472657731389506 0.03754568086285576
-0.06679977287526026 0.000846911609563572 0.037851773627204544
-0.06649365505364051 0.003389781802266345 0.038207859691370694
-0.06618011838426 0.0059676324210444776 0.03860433189443835
-0.06588460793476705 0.008435530614919806 0.03893241747891063
-0.06560230294383639 0.010821471160909535 0.03921208531447279
-0.06532801397033539 0.01315530665231146 0.03946516889028728
-0.0650477584055513 0.015516322134941474 0.03975186858985569
-0.06476989714997408 0.01785716673860832 0.04003611892586367
-0.06450057080783686 0.02014337903558383 0.04029105635401403
-0.06423102681704335 0.022424401383399684 0.04055458674889756
-0.06394292353311502 0.024802979114645907 0.040907175319492284
-0.0636907312579621 0.026973945683202216 0.04110990425851774
-0.0635740294500656 0.028383092605031968 0.04072161294644383
-0.06361071014452953 0.02893566292468741 0.03965728999898699
-0.0636912472802248 0.02924550321171221 0.03839706070491711
-0.06376044161294055 0.029620130116885912 0.0371851063619294
-0.06384360440866624 0.02991914819186925 0.0359087269883589
-0.06393218124959493 0.030190266811993327 0.03460570168961402
-0.06402135166394021 0.03046022539921117 0.033297492205032475
-0.0641107711693149 0.030730938096093008 0.031985628332836746
-0.06420079020964924 0.031000492264549817 0.030668512529731018
-0.06429141278576908 0.03126888742477485 0.029346101106689337
-0.06438246724989846 0.03153708221172313 0.028019150534380977
-0.0644730752474849 0.031809876823108985 0.026691657334722507
-0.06456393863687761 0.03208344034584404 0.025360422402479987
-0.0646552356812124 0.03235681506805754 0.024024614981666137
-0.06474696897437747 0.03263000243836267 0.022684204649901618
-0.06483949751753834 0.03290107949519261 0.02133751149887053
-0.06493246960487807 0.03317196959741858 0.019986134255505827
-0.0650258879158387 0.03344267417949354 0.01863004156782816
-0.06511975515267812 0.033713194681062264 0.01726920182526054
-0.06521443455959827 0.0339816029771321 0.01590189433261968
-0.06531011283235157 0.034246931059615016 0.014527207315058632
-0.0654062535850223 0.034512072674486305 0.013147626140133373
-0.06550195038416512 0.03478186338282713 0.01176741582005919
-0.06559792762418892 0.03505244471693825 0.01038316077314555
-0.0656954670212682 0.03531704297209548 0.00898875405042493
-0.06579825110913348 0.0355562672792481 0.007566565178109663
-0.0659651098955394 0.035460336819997385 0.005834944321586488
-0.07041876958794527 -0.01911693028213718 0.03577136664587843
-0.07017918074412977 -0.016928526218289275 0.03576569166865318
-0.06992696981265524 -0.01467393660451799 0.03581823823276381
-0.06969899782599455 -0.012562813318711008 0.03577848307607373
-0.06936922391427264 -0.009880419071262025 0.0361636644005805
-0.06903025909445176 -0.0071537836970107516 0.036595950871828875
-0.06869203799746455 -0.004439266342373793 0.03703460087150723
-0.06835886515286807 -0.0017610705903871038 0.037461704228675174
-0.06806513462508214 0.0006877826323336 0.037733713366203514
-0.06775614547346011 0.0032153023914791024 0.03807770727371951
-0.06744389117973934 0.0057538643977128046 0.03844400681131216
-0.06714575710089384 0.008206306904627314 0.038759568816497336
-0.06685712892505818 0.010598828729654008 0.0390432904217507
-0.066581485226466 0.01291242662715325 0.03928003528563473
-0.06629767749988484 0.015264867994115583 0.03955916422232464
-0.06601065726080439 0.017628458077542652 0.039859900252742275
-0.06574049632161873 0.019892213743721965 0.04009649220018263
-0.06546397629843799 0.022184705934382043 0.040367908293432564
-0.06517403697529627 0.024544545121123307 0.04070482091676392
-0.06489506569734817 0.02683740768565468 0.04100242060820608
-0.06475656101737029 0.0283544219551643 0.04069892220678517
-0.06479148120690863 0.02892038745556985 0.03964513583012069
-0.06487316657970088 0.029232132022713186 0.03838636476859253
-0.06494382313537406 0.029605803433932876 0.03717358481715283
-0.0650292367637376 0.029900992595386255 0.03589404821026254
-0.06511963966850441 0.030171143789358645 0.03459015824213996
-0.06521047123828659 0.03044109035474163 0.03328185607521145
-0.06530244384610501 0.03070700397322662 0.03196596647857258
-0.06539538811421443 0.03096983648701912 0.03064319483564193
-0.06548770497374375 0.031238211777440128 0.029320632348096565
-0.06557992489738716 0.03150926447460711 0.027995931950117847
-0.0656716870138809 0.03178492125850596 0.02667071722018688
-0.06576424621966996 0.032058469073818596 0.025339358050019134
-0.06585742768221287 0.03233086685271869 0.024002610622344822
-0.06595087357727913 0.03260403764848341 0.022662069741577473
-0.06604549263198785 0.03287317299074738 0.02131359552050155
-0.06614020153076001 0.03314404469746507 0.019962076115819294
-0.06623536501086184 0.03341473073935025 0.01860584041489416
-0.0663309858253479 0.03368523255537875 0.017244856799747132
-0.06642780126290686 0.03395169180988411 0.015875715184216876
-0.0665254522398791 0.03421603313594457 0.01450002216962809
-0.06662320602701775 0.03448211911262461 0.013121133261402573
-0.066720691755999 0.03475188921341926 0.011740765377198426
-0.06681864898976363 0.03502148229186458 0.010355487078201775
-0.06691745331876876 0.0352889631409774 0.008963525071350065
-0.0670206623247606 0.03553591622911312 0.007548184443156303
-0.06719852256252339 0.035399104958599215 0.005779350710773512
-0.07171361139109617 -0.019198259504656534 0.035713602024357916
-0.071463931615304 -0.016977590187407632 0.035730652316056766
-0.07120272044338151 -0.014698241191727801 0.035800785804595836
-0.0709699576032344 -0.012583467511210311 0.03576357067819169
-0.07063639594920149 -0.00991331422451569 0.03613978404053342
-0.07030029891880264 -0.007236743745780372 0.036535396636750817
-0.0699651842869996 -0.004573331283222903 0.036936210282918935
-0.0696215589691838 -0.0018705618248975875 0.037380910592537786
-0.06933213994160987 0.0005252694697564508 0.03761314232386587
-0.06902077042356905 0.003035302938635187 0.037943437194012
-0.06870678242368232 0.005552574123733667 0.038293039990439315
-0.0684051993298105 0.007994627946306399 0.03859994997372013
-0.06811459476357198 0.010369695240140642 0.03886957437371691
-0.06783603955328388 0.012672307876140432 0.03909700644395642
-0.06754725684749156 0.01502424530253621 0.03937476064662371
-0.0672566699527601 0.017379361755189726 0.039667972999865464
-0.06698287294571666 0.019636721235180732 0.03989857598457913
-0.06670493044834933 0.021910237158070722 0.040154147831005516
-0.06640746876745025 0.024282816961298026 0.040499887173438054
-0.06612730032472372 0.02655534675982385 0.04078038022192382
-0.06593448603315957 0.028351554542398294 0.04069665293089392
-0.06597164261329228 0.028908929962989216 0.03963601951522394
-0.06605481855982581 0.029220670184325614 0.0383771961796211
-0.06612730060798043 0.029591475589348715 0.037162062338190416
-0.06621499104833574 0.02988283513179374 0.03587936792261032
-0.06630740650834105 0.03015106238971277 0.03457383580886081
-0.06640026049605181 0.030419082501223105 0.033263872427544916
-0.06649482059471529 0.03068019390691601 0.03194394202986062
-0.06658928794225251 0.030943966505098786 0.030621829601096384
-0.06668329711408709 0.03121232502179333 0.02929913962754016
-0.06677720759251794 0.03148336123650025 0.027974311343551828
-0.06687065189069072 0.03175900211456528 0.026648968566710396
-0.06696490790991681 0.032032533610667935 0.025317480357077315
-0.06705979761303812 0.03230491479692599 0.0239806030062783
-0.06715514093784193 0.032577107138792694 0.02263911155659515
-0.06725149515754252 0.032846224554496484 0.021290500613250107
-0.06734812627259959 0.03311611533926845 0.019938014135222393
-0.06744503547831103 0.03338678283158131 0.018581635392655005
-0.06754259688495842 0.03365630151078214 0.017219668188719284
-0.06764156294448301 0.033920810391998346 0.015848686840448434
-0.06774081944740347 0.03418609554812457 0.014473681966397367
-0.06784036767417811 0.03445216040147864 0.013094635828309664
-0.06793964294712489 0.03472190988364249 0.011714110346183138
-0.06803939840541641 0.034991482184338674 0.010328673489468976
-0.06813982676727354 0.03525991027050246 0.00893742183907853
-0.06824378777584186 0.035512654982026215 0.007527175252264429
-0.07299078861291175 -0.01917939776367944 0.03572699879935681
-0.07274496021106752 -0.017004463703601702 0.03571146045576057
-0.07247377579813116 -0.014695926463523301 0.03580244803206162
-0.07223518301447052 -0.012571992866759418 0.035771855535302544
-0.071903364979868 -0.009943945706004154 0.03611754700702713
-0.07157149599752287 -0.00732310449611695 0.036472360156849515
-0.07123615529029159 -0.004690852876452545 0.03684996090762488
-0.07088234878166057 -0.0019658699134081914 0.03731058271728227
-0.07059021699361227 0.00041685055117490766 0.037532704669069605
-0.07028381753627366 0.0028701534882593083 0.03782024443809462
-0.06997220158769231 0.005344702117234812 0.03813713689655973
-0.06967269157287452 0.007747016829426856 0.038413236078680524
-0.06937534816299346 0.010130930929551807 0.03868855677874278
-0.06908838928248345 0.012452439163814277 0.0389294130598038
-0.06879391133345203 0.014807720634537558 0.03920882483743615
-0.06850325205730416 0.01713596433423875 0.03948043671899509
-0.06822251336496303 0.019404777013552033 0.03971890135965944
-0.06794147126441928 0.0216688716261762 0.03996616868929537
-0.06764362160581076 0.02401583077315056 0.04029083638048908
-0.06735529377041305 0.026305644205695644 0.04058381258764676
-0.0671171327333366 0.028323834722344565 0.04067471470678313
-0.06715133718544641 0.0289003363311765 0.039629181891858045
-0.06723636557925267 0.02921016283810518 0.0383687911178302
-0.06731105597209024 0.02957619128148542 0.03714977066416514
-0.0674012321151762 0.029862764194530045 0.035863140584980024
-0.06749567440815443 0.0301290658628946 0.03455595672629591
-0.0675905651803579 0.03039515781396085 0.03324432243790121
-0.06768719485895677 0.03065433747466062 0.03192270099383232
-0.06778391672717897 0.030915217632787262 0.030598086768629518
-0.06787925024098547 0.031185475476849966 0.029276847538980244
-0.06797485229273753 0.03145649459040645 0.027951886607847698
-0.06806997978749382 0.03173211896541639 0.026626411016946072
-0.0681657470651589 0.03200659431410241 0.025295599430483096
-0.06826253262253823 0.03227799750040378 0.023957776852640222
-0.06835978105663056 0.03254921046485554 0.02261532971607444
-0.0684578715129418 0.032818309304595006 0.021266577139992693
-0.06855624387657608 0.03308818152175752 0.019913948312792418
-0.06865489936456412 0.03335883045511878 0.018557426500186047
-0.06875459846104605 0.03362640106690973 0.01719363557395187
-0.06885534902701991 0.03389088880414953 0.015822498571623766
-0.06895620436643482 0.034157118792131125 0.01444818714174545
-0.06905754708636323 0.03442316319289951 0.013068988813659088
-0.06915880401173102 0.0346919253921657 0.01168745072583005
-0.06926055093331884 0.0349605089089588 0.010300990096704155
-0.06936259767751672 0.03522988387400905 0.00891044391635698
-0.06946707699277468 0.035489390620464856 0.00750616324842851
-0.07410430837128983 -0.017453666824351677 0.03539065847651712
-0.0737669273986891 -0.014812859681211488 0.03571848133243016
-0.0735150477664589 -0.01263970366115097 0.03572296792711771
-0.07316884138661543 -0.00996550408881769 0.03610189664566621
-0.07283634656962493 -0.007372470706493883 0.036436326783468975
-0.07250706740138106 -0.004804006999759969 0.03676691683186567
-0.07214869281118454 -0.0020875384080724646 0.03722080346602663
-0.07187040376415843 0.00019439962277933986 0.037367664836806536
-0.07155483201998841 0.0026683477982418213 0.03766970804823733
-0.07123781365187051 0.005142974875672834 0.03798584235191882
-0.0709374896610109 0.007522205255845349 0.038243714438370935
-0.0706318115735988 0.009923060936459616 0.03853096151833574
-0.07034261740002343 0.012230250712383595 0.03876005147003059
-0.07004881022263149 0.014555295550579384 0.03901537637804403
-0.0697580232696549 0.016857974762701566 0.03926624737823081
-0.06946906924087996 0.019144607822724258 0.03951736237019776
-0.06918079934854829 0.021421260270567177 0.039773325203236065
-0.0688853606780013 0.02372891422638651 0.040066180065449875
-0.06857572881426238 0.026103891567203164 0.04042499148518064
-0.06829978022527759 0.02829706664287629 0.04065352971902436
-0.0683323788139217 0.02888505781384304 0.03961702529763289
-0.06841816750299926 0.029198699576176324 0.038359621390135545
-0.06849509886266203 0.02955995026231134 0.037136709595608774
-0.06858723675404109 0.02984460279923934 0.035848457118554056
-0.0686833458199518 0.030110892732458094 0.0345411853680575
-0.06878121809144883 0.030370272699076217 0.033223987634189156
-0.06887993136345465 0.030627519391971447 0.031900669959671835
-0.06897817733819007 0.030889339622829026 0.030576714903969904
-0.06907557421709443 0.031157662702597566 0.029253755717091656
-0.06917268006818342 0.03142962383740561 0.027929458444238775
-0.06926968062280342 0.031704271369249803 0.02660304420017251
-0.06936714348891115 0.031978729325066735 0.025272094091872144
-0.06946564268577912 0.03225011451952586 0.023934131785230184
-0.06956480394348047 0.032520347166176966 0.022590723827443815
-0.06966444022220396 0.03279038960367564 0.02124264985219637
-0.06976455438888221 0.03306024324386775 0.019889878647612103
-0.0698653419547281 0.033328945392995135 0.018531543748064205
-0.0699668075121859 0.03359649550456539 0.017167598502822345
-0.07006914944818958 0.03386192754136469 0.015797150811006244
-0.07017198553258305 0.0341271710899797 0.014421838039549995
-0.07027492902661266 0.03439416115944005 0.013043337531570998
-0.07037817500402531 0.03466193573765214 0.01166078651495056
-0.07048172479998344 0.03493049828743561 0.010274167110738142
-0.07058577637038044 0.03519888344839256 0.008882590851158667
-0.07069072720641822 0.03546515360242708 0.007484272752619092
-0.07447337983985194 -0.010192576957441746 0.03593705177153411
-0.07412154587335099 -0.007527381884342377 0.036323253879466444
-0.07377302061031289 -0.0048872507361778506 0.03670582408024009
-0.07342294726800948 -0.0022465905875203585 0.03710343874796518
-0.0731360990289503 5.5372166030687175e-05 0.03726451821660853
-0.07282637367417456 0.0024706282666515644 0.03752221971853925
-0.07251416057215035 0.004892108164431919 0.03779769340146183
-0.0722090627492205 0.007269759498938377 0.03805335492830664
-0.07190070512447352 0.00965769036687586 0.03832977255395936
-0.07160829514084856 0.0119562634080847 0.038551206548997574
-0.07130917865319636 0.014283144287989935 0.03880681056037655
-0.07100883397819241 0.016609845156715153 0.03907506497528368
-0.07071372436460228 0.018903045287137266 0.03933023695530202
-0.0704254825430521 0.021154526308213573 0.03956558873433519
-0.07012965849186388 0.023438603936200786 0.03983886644068729
-0.0698011361151766 0.025883537349795482 0.04025152708096491
-0.06948279351928427 0.02826933830469386 0.04063158475343365
-0.06951239765551129 0.028875508032312258 0.03960942689348618
-0.06960023392847965 0.02918628021276881 0.038349686847934494
-0.0696794389210365 0.02954275226823455 0.03712287892053934
-0.06977336338019606 0.029826439535944438 0.03583377214184896
-0.06987170772756553 0.03008984783822649 0.03452407978933836
-0.06997184912999088 0.030346341387510467 0.0332044322315147
-0.07007246847286422 0.030602613223758457 0.031880209567865414
-0.07017242248071008 0.030864416458508237 0.03055613162058335
-0.07027151265084047 0.031132723362446824 0.029233049600297267
-0.07037088306622535 0.03140178908783209 0.027906225660217054
-0.07046995697103103 0.03167449837369579 0.026578061781725282
-0.07056911704753926 0.03194893772721624 0.025246963568266112
-0.07066933152542133 0.03222030367891793 0.023908851865928615
-0.07077002532590591 0.03249147911303607 0.022566113885646166
-0.07087120133133884 0.0327624654506703 0.02121871874894582
-0.0709732532640058 0.033031336885827656 0.019864974949193925
-0.07107599147026408 0.03329905522201654 0.018505656571282725
-0.07117942063685058 0.03356561987986523 0.01714071685064622
-0.07128354550069924 0.03383103023834749 0.015770108564094776
-0.07138797544902602 0.03409721824579376 0.014395484413201376
-0.07149291010489602 0.034363220344688195 0.013015971459136744
-0.07159815370604487 0.034630005598624725 0.01163239698673646
-0.07170350816762054 0.03489854581637353 0.010245608526369077
-0.07180917313766923 0.035167877495868416 0.008854732820179512
-0.07191374560953986 0.03544479187760774 0.007465882376463118
-0.075221895720708 -0.005913520123660532 0.03595264192976089
-0.07480034985704039 -0.002932564956359407 0.03659725750020704
-0.07440968320121377 -0.00011964172849782129 0.03713467268095966
-0.07409504919866253 0.002294226636326835 0.03739063342621585
-0.07378057286412802 0.004700545097741871 0.03765402194753992
-0.07347184333065468 0.007070719412447024 0.037903266570785854
-0.07316977111201559 0.009400284980841334 0.03813462234401138
-0.07287199569635906 0.011701483807702584 0.03835700257274077
-0.07257161118985425 0.014009569147336587 0.03859715353933768
-0.07226970799707841 0.016318924326749085 0.03885091217192804
-0.07196872560307761 0.0186171484875427 0.03910876817215986
-0.07167592266496273 0.02086759562077478 0.03934212274256965
-0.0713746083794411 0.023154682928438752 0.039616555640673345
-0.07104326414963842 0.025586402177926293 0.04001762013610244
-0.07068885819522443 0.028126804060926214 0.04051877891533312
-0.07069438653799205 0.02885640702723563 0.03959422885587799
-0.07078314782605886 0.029170038222994576 0.038336694471207466
-0.07086370267458628 0.029526508175781285 0.03710981538044389
-0.07095961201246276 0.02980827440435696 0.035819085654631544
-0.07106078924644908 0.030065930152997467 0.0345046391552124
-0.07116283495299004 0.03032144938192033 0.03318409179708165
-0.07126517416314632 0.03057770353472672 0.031859746283709967
-0.07136683668638659 0.030839489765942252 0.030535545423326427
-0.07146781546528799 0.031106821078792257 0.029211543987466948
-0.0715692757963242 0.031373949930706135 0.027882989197350827
-0.07167043677440835 0.03164472033141108 0.026553075128583625
-0.07177149113377093 0.03191817980912648 0.02522101790817488
-0.07187302792045402 0.032191449650085247 0.023884383336355397
