# .PCD v0.7 - Point Cloud Data file format
VERSION 0.7
FIELDS x y z
SIZE 4 4 4
TYPE F F F
COUNT 1 1 1
WIDTH 779
HEIGHT 1
VIEWPOINT 0 0 0 1 0 0 0
POINTS 779
DATA ascii
0.05073966616349229 0.0530398636342998 0.06550416569840067
0.04722776692768965 0.05271148379781115 0.06610356510235144
0.046456975839778314 0.05271830942543552 0.06508551807963886
0.046124289558082565 0.052779042162636514 0.06380412073299174
0.040242391611305606 0.052156215371837844 0.06586935831803986
0.038243531838684564 0.05201038582149827 0.0656120459380724
0.03618420745320938 0.051856511068289 0.06539989872320495
0.034068412622889344 0.05169503925865773 0.06523114693852394
0.03181776612898374 0.051516192382875865 0.0651548517461003
0.029467968195751704 0.051324310779073616 0.06515031733381466
0.02724803740969811 0.05114786947217553 0.06507557691866456
0.02568528337593473 0.05105282693073393 0.06459799380899062
0.02412948458802283 0.050958281909765646 0.06412145042616668
0.022736127333998546 0.05088373595243469 0.06354709734712716
0.021319315790849058 0.05080594923841663 0.06299201256661252
0.01990911154031927 0.050728687303504064 0.06243715566164548
0.018597446030140297 0.05066355023705437 0.061823065063196625
0.017594675055480735 0.05063719868499506 0.06101196927765962
0.016684419763768665 0.050622459508992454 0.06014192916189398
0.015430234942043375 0.05056401668229627 0.05949880174775074
0.014032291661350949 0.050487061385217864 0.05895408897474136
0.01278116841358612 0.05042850469820144 0.058316269224445494
0.011910514301026465 0.05041828543210842 0.05742756579024094
0.01148093441826642 0.05046444694916389 0.05624300774607921
0.010574448600930042 0.05044966607159735 0.05537806753478963
0.009234466265549135 0.05037914991735466 0.0548086072295389
0.00849858887676952 0.05038609345508935 0.05383045069976611
0.007866973642588038 0.05040651003287951 0.05278023759814293
0.008390682757926204 0.0505762942004069 0.050930498934311674
0.009681106769861059 0.05084603958742043 0.04853799245897661
0.011115838899532049 0.05113560490216891 0.04602867585706677
0.011070133907583712 0.05123388669919865 0.04454217412000944
0.009329894915733994 0.05111182251615055 0.04424679639205653
0.007542341338691694 0.05098308241974846 0.043992303940927846
0.0057659775867245355 0.05085527798368073 0.043737513795419736
0.00399740156011108 0.050727969051408375 0.04348478487149987
0.0025393463272921357 0.05064092063809026 0.043015497039427586
0.0019282371747327831 0.050664983202605526 0.04193659762527374
0.001318722120470961 0.05068935551452494 0.040855084752933535
0.0007205707525994587 0.05071533064500493 0.039763760436764106
0.0001695648876814393 0.050747657310202476 0.03863607575685485
-0.00016725421553331898 0.05080854313960189 0.03734752244816514
-0.0005037962451973632 0.050869719700884636 0.0360550631815012
-0.0007944196181478014 0.050937271204103685 0.03472444039368222
-0.0029288814373217287 0.05075887351449362 0.03478006374698206
-0.004685220458321149 0.05063032891468788 0.03455992283414405
-0.005021722777773352 0.05069165059809888 0.03326539636411635
-0.005357971185760535 0.05075326479999609 0.03196691030059806
-0.005696108354089957 0.05081488481743957 0.030666088563847116
-0.06575625671069285 0.04645353019172873 0.022637100286575562
-0.06824041138912329 0.04619584754169315 0.02343121176554336
-0.06995608463368536 0.04605001508690588 0.0235114302440268
-0.07155400442038695 0.04592086928233225 0.02348884597216444
-0.07273131272322209 0.04585328099202732 0.02307059204645573
-0.07366795095649714 0.045821026440064604 0.02242432091248403
-0.07470414924066454 0.0457738407501661 0.02187695557714503
-0.0755796865803739 0.045750342753016086 0.02117591268603941
-0.07633219646276745 0.04574508531323698 0.020355710867406618
-0.07708218985912307 0.045740179459591204 0.01953338523066367
-0.07750753352807455 0.0457839020002036 0.018389413255401887
-0.07785171582194428 0.04584002181764783 0.0171615288753329
-0.07810690127747472 0.04590980645690234 0.01584060103853452
-0.07794078488929229 0.04604350505699642 0.014090491256823268
-0.07734029652936109 0.04624354962617292 0.01189133988634844
0.07647686108229729 0.0542961184383891 0.05809378613019861
0.07270184362516452 0.053952496281118124 0.05872687467064375
0.06626320842523586 0.05329162134496644 0.06092374098243436
0.05989634198477051 0.0526367512686806 0.0631164556989634
0.047953521321860704 0.05131545694959761 0.06861701841266754
0.045272699175948616 0.05109401923213317 0.06872929987404008
0.04673962792196579 0.05136749280054862 0.06639320399636317
0.0464076878074805 0.05142659448732505 0.06511493261683077
0.04270246444076786 0.05108117594360738 0.06585802744656755
0.040687745303435 0.050937652180229255 0.06560049870029433
0.03868309035700307 0.05079478504603481 0.0653451572665299
0.036630050545395476 0.050645524466221344 0.06512763877389471
0.03437195469919796 0.050470888648784275 0.06504472187150034
0.0320063488693893 0.05028254751922376 0.06503836768446147
0.02977074212867359 0.050109252279615664 0.06496223079309321
0.02829209930364257 0.05002734764543397 0.06442329442013894
0.026585330469197643 0.04991732136185802 0.06403248342929158
0.024991870909776004 0.04982069895972979 0.06357652290026833
0.023634817494307958 0.04975261983355229 0.0629760078980931
0.02228492460706616 0.04968515026922135 0.062374922706447344
0.020868739347585763 0.0496092717755114 0.06182042026547824
0.019453450830141217 0.04953320351253314 0.061269820714017376
0.018393515105728564 0.04950065416444354 0.0604927613961046
0.017593516080203542 0.04950009334527128 0.05954773555463533
0.016734657953253906 0.04949224319301362 0.058641429978670556
0.01567963996122207 0.049460027588629496 0.057865246940895954
0.014587760088805635 0.0494231013363432 0.05711548690643353
0.013598381367292633 0.04939879371093693 0.05629942444960612
0.0128772961067391 0.049407871349439844 0.05530449450611774
0.011740702870909281 0.049365026280019035 0.05458984438644543
0.010476146398769981 0.04930597467032438 0.05396473745729963
0.01000315928298856 0.04934606979730673 0.05280223478970092
0.00943735184478317 0.04937464948310633 0.051701095685423526
0.010554223911478755 0.04961546876657908 0.04943550855955908
0.01440092276009064 0.050202094727053295 0.045258597550645874
0.013501928523979967 0.05019041656282988 0.044361630783075645
0.011136646476353707 0.04999271575665741 0.04449544874244993
0.009548317120699312 0.049892952623902566 0.04409250879847049
0.007937352529932717 0.04978989848930494 0.043711744173015044
0.006157099506098274 0.049664818071520275 0.043458190844094524
0.004350629974831655 0.04953587111509048 0.04323114045171045
0.0028000276203162255 0.04943917987722915 0.04282728320509671
0.0021831779082993608 0.04946198736363561 0.04175152178617614
0.0015701147148045047 0.049485376377468644 0.040671587882466664
0.0009858434404416694 0.04951257463701176 0.03956907596512377
0.0004226682872663923 0.04954261154146809 0.03844931041178379
8.593031158576903e-05 0.04960209089377813 0.03715968074945497
-0.0002505294923682011 0.049661854356943584 0.03586613941857686
-0.0005856249263778701 0.04972204493251397 0.03456784517906769
-0.00012204519748615361 0.049886543761554936 0.03266353658918608
-0.002267073392534069 0.04971115461816404 0.03272661934035981
-0.004395998401754475 0.049537134819684504 0.03278844202553782
-0.005405046313336104 0.04950920829504344 0.032002986812126044
-0.005743198429565111 0.04956931039011024 0.030702371212521118
-0.0060811021120880104 0.04962969952366261 0.029397764779974134
-0.006420900898279014 0.04969009469569995 0.02809080966652433
-0.06610307560935175 0.04527097519219837 0.022963685826854097
-0.0683386055232435 0.04505506053464395 0.02352415925928103
-0.07000275618302376 0.04492014634354559 0.023555838217352187
-0.07152525761923101 0.044804982951914034 0.02346135098363822
-0.07262961415010738 0.04474957025613815 0.022972815908760214
-0.0736165075635502 0.0447108742904093 0.02237460443240885
-0.07459854217624862 0.04467270194825944 0.021774363158288235
-0.07544457247933944 0.044654096588361634 0.02104397364678623
-0.07616842231936255 0.0446531838420449 0.020194954877778837
-0.07693290955865817 0.044646339425557 0.019386095527557545
-0.07727309856506204 0.044701496602949 0.018156904542298347
-0.07764932156877102 0.0447516328756447 0.016959756861816666
-0.07779242959858101 0.04483624890160766 0.015525471468268548
-0.07774147694511069 0.04494983903778307 0.013889731763161273
-0.07651581383670675 0.04523734374306308 0.011056552424119515
0.0797157423447426 0.05321082615750708 0.05778557147930524
0.07299586941628572 0.05253767174220299 0.06008844782870998
0.06937370625121486 0.05221952095470791 0.06064512244748688
0.05659521095287512 0.05084123828407611 0.066528694736951
0.050403321453284466 0.05022087922361063 0.0686520835010827
0.046315936473021735 0.049842461032939746 0.06957749812861774
0.04508871067033726 0.04979526832360972 0.06883784042654822
0.04475178710746064 0.0498516477857305 0.06757269592024834
0.045291004704792526 0.05001054390215118 0.0657813563940492
0.0433093185284294 0.0498751404316604 0.06549377105061616
0.041337095444893 0.04974032299268762 0.06520848661214784
0.03937181677004792 0.04960579919488344 0.0649269802325893
0.037123159239654424 0.04943740916654372 0.06482651546289969
0.03458300787853913 0.049233998764737746 0.06491510029289516
0.03229671921025484 0.049059783991654345 0.06485901130958471
0.030866084151754514 0.0489861612658705 0.06428179212375351
0.029449208637890856 0.04891388245278282 0.06370038501027697
0.02778216327630023 0.04881159547398352 0.06328049902731187
0.026105701856070862 0.04870778607392681 0.06287271171203007
0.02452238114158861 0.048614678938287074 0.06241198899959571
0.02319843199136634 0.04855220551917252 0.061791129213088325
0.022041564881236042 0.048509494834008064 0.061066666555285865
0.02076843243772708 0.04845266400701773 0.060419935124975455
0.01955430638530542 0.048402702418152484 0.05973830250159917
0.018468004989656173 0.04836794159298578 0.058976161662824766
0.017683329215360366 0.04836945189639727 0.05801788688622467
0.01695310506593878 0.048377554218728545 0.0570235291725531
0.01610363316364488 0.0483712369231485 0.0561079357206371
0.01501938482661469 0.048336384144350264 0.055349650157728636
0.01394457473570182 0.0483025400091044 0.054587162361961705
0.01271656666712867 0.048249881410732 0.05393029830493368
0.011437677020925352 0.04819079459558763 0.0533112626972464
0.011321495451908414 0.0482738029002915 0.051901290428377045
0.012383154816778319 0.048501624387931035 0.049676781129064096
0.03967418704265824 0.05195426121645502 0.029313836955217
0.03723410562957036 0.05175920061496656 0.0293937791343849
0.013569127556067206 0.048943949284873944 0.044314682079108214
0.011203181500109516 0.0487511257884627 0.04444870759016223
0.00952814488320286 0.04864312915260663 0.04410675792658025
0.008093351364870827 0.04856452128311591 0.043600944788351026
0.006447081040323321 0.04845927824496647 0.04325109813474387
0.004619822957581399 0.04833103719845258 0.043037839757102014
0.003018442024895207 0.04823048826585623 0.04266958637889939
0.0022006220876822913 0.048227621587643044 0.04173885807374578
0.0014655999446009926 0.048235130282018694 0.04074787546484654
0.0011436588012728177 0.0482945996949359 0.03945325476848999
0.0006750178318637445 0.04833583570815713 0.03826310133734023
0.0003394499255172101 0.04839404192228778 0.036971590444415114
-0.00014716995059893545 0.04843338289615102 0.03578903860156457
-0.0006519854595867236 0.04847058171702965 0.03461761532337393
-0.0009955325218317101 0.04852842205113603 0.0333221997551128
-0.0015454833586256433 0.04856023083940182 0.032179550243959076
-0.0016001592354428218 0.04865535215370788 0.03065733179322705
-0.003739611722906322 0.04848437356797247 0.030726663766495632
-0.005790276752875467 0.04832404681789089 0.03073864480621563
-0.006128195566370065 0.048382911520677176 0.029434245551513805
-0.0064680091494563885 0.04844178209161668 0.02812749831074768
-0.006807579839916478 0.04850093415179467 0.026816728715588323
-0.06638441057598926 0.04410001763002913 0.023228607757100228
-0.06842214400845759 0.04391702235360882 0.023603234174507493
-0.07004780516649811 0.04379083950898302 0.02359870231946204
-0.07147573679878594 0.04369180326136231 0.023413986604465697
-0.07252228167920477 0.04364591835950561 0.022869623168363107
-0.07355792040853276 0.04360135695385121 0.022317984000547242
-0.07450075176621895 0.04356969445408344 0.021679364260615785
-0.07530304676978178 0.04355777719688288 0.020905773666135108
-0.07603978802392214 0.04355510506326654 0.020068691152420937
-0.07678896243032174 0.04355065223489691 0.01924406788071048
-0.07709703609811025 0.04360905655974887 0.017982288703897953
-0.07739418856525943 0.043669296428521784 0.01670540823765443
-0.0775110466414668 0.04375564265247678 0.015243499843136832
-0.07737671366895515 0.04387845846550507 0.013522311934874076
-0.07538904800099416 0.04426855226222699 0.00991570374299977
0.0761852171043157 0.05145087614899052 0.059796808171768634
0.06603971752719728 0.050409685440599004 0.06407442971935023
0.05961895192248673 0.049783450518034594 0.06626749727828507
0.05336092779742552 0.04917316654572251 0.06840374772151497
0.047910127507990785 0.04865168610668094 0.07010592990053666
0.04552619984198503 0.04847511840316308 0.0700406961214371
0.04508120429271545 0.048517615862463254 0.06884226867260468
0.044751787107075336 0.04857340040656546 0.06757269592047693
0.044391565908344977 0.048625895155420075 0.06631813123971719
0.04402931315792086 0.04867836076852839 0.06506160349308432
0.04401974398624603 0.048771308133152266 0.06358897413449194
0.04204100057566773 0.04863928594390336 0.06330632020600235
0.039697481950044466 0.048464930098032905 0.06325447143457974
0.036711433014080475 0.04821608723944869 0.0636078950336657
0.03421881481201983 0.048023067680557155 0.06367176850003486
0.03242950528446187 0.047910401487964424 0.06331057749604785
0.03089524369077018 0.04782676480499947 0.06279696792100437
0.029275036328894166 0.047732850350721785 0.06234250898975252
0.02764468244007795 0.04763739034163815 0.06190025556228068
0.025908421489996003 0.04752924559353104 0.0615312037703033
0.024174210565125476 0.04742091351115658 0.061167540184570324
0.02295462097592571 0.04737220337334367 0.06047986195456745
0.02193722541149501 0.04734694063295313 0.059664532692539574
0.021054514117169354 0.04733735595388387 0.0587632391230018
0.020031987657460615 0.04731132142458912 0.05795392838976843
0.01893045024551282 0.04727589038495932 0.05719817859015086
0.01782713977457917 0.04724010912757686 0.056445821513594785
0.017010977981085196 0.04723809300194662 0.055504853337347726
0.01595197004889426 0.0472073348193488 0.05472632622188928
0.014861553120837756 0.04717272944551523 0.053970849008256216
0.013740065536041235 0.047134293881298674 0.053238557642929174
0.013373778170029826 0.04718559993837046 0.05199545100628461
0.01559248700018162 0.0475454428183907 0.048982516110115504
0.0378153342416882 0.05029759193872788 0.03220014351982087
0.0380641633589075 0.050429284315715965 0.030426350995626517
0.016025211302223397 0.0478869095732934 0.04413001889720747
0.013639768035578204 0.047697470542105866 0.04426532900276664
0.011273123869823543 0.04750952443406601 0.04439957276207285
0.009507974718703405 0.04739343411907257 0.04412100559038051
0.008058798035364967 0.04731509669895698 0.04362548655912041
0.006441542996709793 0.04721606125244212 0.043255053174362124
0.004748508380848282 0.047107412879739144 0.042945433998789195
0.003511875222196259 0.04705387608236317 0.04231332393684678
0.0023293217207323025 0.04700671519956306 0.0416454277605704
0.001341562410830166 0.04698317019218251 0.04083841313294179
0.000996723095308294 0.04703827854837249 0.0395610913517187
0.0006924334924406916 0.04709859296967062 0.03825025029755713
9.789150689404336e-05 0.04712345756624588 0.037150806545052095
-0.00040709443792913413 0.047159464129768416 0.0359829286865207
-0.0007802896738912102 0.04721189903263862 0.03471384298991398
-0.0010140277684621557 0.047281814348348924 0.033336146308612424
-0.001562877033207899 0.04731293935336214 0.03219273715257703
-0.002113535575548109 0.04734397035746565 0.031048649571662756
-0.002664916909678572 0.04737504209271714 0.029903060266830095
-0.003078159081747245 0.047423487153049906 0.02864897279717432
-0.005214197818962318 0.04725664790160145 0.028726220550603143
-0.006515105616765771 0.04719378174596669 0.028164177777510013
-0.00685469128660765 0.04725140266159636 0.026853617106894656
-0.0071961781158810245 0.04730902964585221 0.02554069531799913
-0.007537427657685669 0.04736693249996051 0.02422371936808232
-0.06667997048141627 0.04292913907036509 0.023506924745510638
-0.06851536274251957 0.04277826552882206 0.02369147211028738
-0.0701057062385963 0.04266010378093806 0.023653795182280946
-0.07142699933240437 0.04257816038095355 0.023367371467300058
-0.07244750262906041 0.04253703416003425 0.02279772828842791
-0.07349376578519567 0.042492180612650726 0.02225598299575049
-0.07437605797254976 0.04246968065486121 0.021558229959802666
-0.07514800539597377 0.04246229456371796 0.020754375627380472
-0.07591104583527025 0.04245610526066965 0.019942321522189332
-0.07653124095216335 0.042469680658511554 0.018989783022736573
-0.07688078902562412 0.042520910833462426 0.017767818439351823
-0.07711038136771264 0.04258908255099965 0.01642247357522414
-0.07721106608475858 0.04267556500987348 0.01494289171124985
-0.07693058348076487 0.0428157740054487 0.013072932603527432
0.0758227082426457 0.049962666062057175 0.06153220565561357
0.06916189627825786 0.04933070157819275 0.06379778807882674
0.06267419669856078 0.04871525850968799 0.06600292485421938
0.056348997176009996 0.04811526900147827 0.06815221017262174
0.050195539844259285 0.047531835450811646 0.07023885919556344
0.04645527319062087 0.047211449866680126 0.0709542933882753
0.045339845498660714 0.047178932701521875 0.07014999706353431
0.04507369817833079 0.0472400082045363 0.06884669676336935
0.044751787106699636 0.04729515302740377 0.06757269592069987
0.04439156590797494 0.047346266335499605 0.06631813123993802
0.044030565262905885 0.047397490242531926 0.06506085193309902
0.043667530239323016 0.04744868583872068 0.06380160525226636
0.04331749005298807 0.047501527471075326 0.06253126849697571
0.04237351432383174 0.04748827115843452 0.06162031706231541
0.03943384711351117 0.04725174507509533 0.06193588225334723
0.036868929892925006 0.047056295422906944 0.0620348415587344
0.03460601583648143 0.04689399410354906 0.061958504889854715
0.03281667046853615 0.046784337622212575 0.06159654765224026
0.030886289389577937 0.04665835322226678 0.06133013937380799
0.02928315850960367 0.046568836482299814 0.06086492987553371
0.027855100995138493 0.04649878071824041 0.06029414991666476
0.026259713027753873 0.046409474937338345 0.059834761939981274
0.02466226440438396 0.04631958248642376 0.05938239047824323
0.023232481051401632 0.046248421645665866 0.058827396191061865
0.02234436499761061 0.04623876489132113 0.05792489765157949
0.021574636447389495 0.04624260065515802 0.05694563913300882
0.02063041159059653 0.04622646829156181 0.056080827199324224
0.019380869279672364 0.046175236823444495 0.0554188583665155
0.01823827758888208 0.046136097648650475 0.05468910748389333
0.017341934522911495 0.046125171625050684 0.05379729785437609
0.0164528531511966 0.046115040060971856 0.052901315119170234
0.016863169919138665 0.046255170550236833 0.0511277802311591
0.019854470748459863 0.04669501168560979 0.047591047308589485
0.0380512823459202 0.048902562710643006 0.033634287406470065
0.03769807371262224 0.04896032518256524 0.03228072331355836
0.01850060506022877 0.046820923185205816 0.04394462001695376
0.016097735706182725 0.0466352018619875 0.04407962791553227
0.013711573659270393 0.046450681148362274 0.044215161896705546
0.011343091061908395 0.046267482438602334 0.04435042049615673
0.009484445479767845 0.04614347236371818 0.04413762601436555
0.008013107846580603 0.04606458019876959 0.04365793837072851
0.006495822614413449 0.045979940662365895 0.04321628893676055
0.005243146536661747 0.04592625275581381 0.042590246808833776
0.003993392390514605 0.04587269007907763 0.041965664956434334
0.002844981352915721 0.045830943272096206 0.041271081386885844
0.001676865499879776 0.045786678570307215 0.04059366818466048
0.0009053531475257115 0.04578953177851728 0.039628148047802125
0.0005716448968595689 0.0458447204210844 0.03833938036760498
4.91175481953654e-08 0.045871648742718506 0.03722339739738301
-0.0006145629419924137 0.045893526879474775 0.03613768934909517
-0.0008791773535112846 0.04595758812885511 0.03478800836874407
-0.001041223407486358 0.046034278605054685 0.03335665349308986
-0.001581356074574991 0.04606563033573791 0.032206746925423135
-0.0021320000430625208 0.04609584180622878 0.031062723992011487
-0.0026703435189274205 0.04612767233954724 0.02990721900502591
-0.0031226498097188804 0.04617009358557435 0.028683252662644043
-0.0036029047541891734 0.0462092904890726 0.027478038290976226
-0.004558220093429932 0.046190673565437906 0.026640124666702958
-0.006688678057291786 0.04602824928695823 0.02672362829536068
-0.00724329239024929 0.04605828050304985 0.025577784033693818
-0.007584556757246119 0.04611464545449487 0.024261018772676057
-0.007927728722546934 0.046171016661154377 0.02294187912868545
-0.00827066907041385 0.04622765804723168 0.021618653228673346
-0.06680425174964627 0.041783003158905194 0.023623955464679436
-0.06858341804303081 0.04164350862094191 0.02375589112752058
-0.07012902145185623 0.04153437454009422 0.023675979604765307
-0.0713662559047567 0.04146576437725249 0.02330927318230641
-0.07236313409604606 0.04142888974728188 0.022716613784570683
-0.07340977016013572 0.04138519283780158 0.022174807035525546
-0.0742465223187837 0.04136941251756486 0.02143239201400282
-0.07501645197513757 0.041362532255287916 0.02062591359549254
-0.07575546923541582 0.04135978079183951 0.01978961200557966
-0.0762785825202657 0.04138614640188469 0.01874049369718206
-0.07668464901338923 0.04142846506897379 0.017573290024106847
-0.07685749077168158 0.041502598167604834 0.016170360464498545
-0.07688056387823528 0.04159743128114033 0.014611698076643254
-0.07649739851852527 0.04174804200002981 0.01263659277754453
0.07231992238148327 0.048241221103832034 0.06351596863624137
0.06576008786264698 0.04763635173740711 0.06573569857097211
0.05936536286992167 0.04704674421288818 0.06789893746728232
0.05312957814971481 0.046471828303809255 0.07000779565363452
0.0479374865310751 0.04600613782697784 0.0715479497731947
0.045844057775800806 0.045870091194864224 0.07131070903407949
0.04533234469110198 0.04590302261616508 0.07015439645298793
0.04506619232716452 0.0459624453474716 0.0688511246988533
0.044751787106333596 0.04601690564824538 0.06757269592091708
0.04439156590761445 0.04606663751558239 0.06631813124015318
0.044030565262550836 0.04611647699269543 0.06506085193331212
0.043667530238973684 0.04616628892412286 0.06380160525247724
0.043304962799910196 0.04621634437724563 0.06253887472411657
0.04294035530974566 0.046266372399418165 0.061274168157472775
0.04334710702735611 0.04640053963349978 0.059532493073859494
0.04068991450453108 0.046201139929144854 0.05967469022111921
0.038052998957665785 0.046003177575825595 0.05981720056774187
0.03543858427760188 0.045806904440259415 0.05995849486991439
0.033412761813851 0.045674419115396686 0.059742726458812345
0.031435825883690316 0.04554678624255279 0.05950469528385044
0.029643888942635477 0.045439021902408484 0.0591574312025942
0.028285979439267528 0.04537871826815063 0.05853983957024056
0.02700609719911512 0.04532680214362082 0.05787605162867837
0.025496309620079982 0.04524921539437522 0.05736426144797341
0.024059490093328084 0.04517941940937675 0.05681014825052849
0.022942621031353416 0.04514492603546499 0.056051511987265434
0.02202261766132002 0.0451322312242509 0.05516575733968365
0.020887621998083528 0.04509548246916453 0.0544229453015338
0.01979717004059245 0.04506357002762468 0.05365296272723785
0.019326846379024765 0.045101042698925876 0.05247061688100352
0.019672788665680563 0.04523034794281778 0.05073715368656123
0.022564764061769604 0.04564671571630666 0.047274307964116136
0.03835145787683747 0.04751891621246993 0.035020138024047964
0.03800033726970403 0.04757511508544628 0.033669103017416824
0.020923864075375886 0.04573777267595868 0.04380772531026861
0.018724012819888836 0.04558083995729266 0.04379024696526096
0.016512667113091184 0.04542196335003962 0.04379132770511329
0.014104114144972701 0.04523997489629023 0.04394091290105706
0.01171365363098309 0.045059309854661736 0.04409009863113722
0.009812989478413137 0.044933931556267286 0.043905551336124116
0.008428054148397535 0.044867151758587125 0.04336321953562844
0.007028342452880365 0.04479840096040207 0.04283598549286777
0.0056163355368962775 0.04472795256293083 0.04232226919578935
0.004350642196454868 0.044674087766628685 0.041707727936827144
0.003315958808152497 0.04464669706082753 0.0409291723223571
0.0022289924046571263 0.04461313856905822 0.040190658862147344
0.0014444108956706003 0.04461453056078741 0.039232531847224195
0.0007327132634199485 0.04462440353209636 0.038220527799405546
6.309737515991509e-05 0.044639221184282596 0.03717662087456286
-0.0004516485350356536 0.04467218455604518 0.036016163714746974
-0.0008205029260172081 0.04472235679054535 0.034744002774119376
-0.001131485167148727 0.04477952505128118 0.03342471641137651
-0.001572660278287008 0.04482163508560871 0.03220015426034434
-0.0020657368754409267 0.04485781076406453 0.031012215323184877
-0.002560695978049643 0.044893916745875916 0.029823189476563372
-0.0028924877716641206 0.04494946935180359 0.028505914056142168
-0.0033608933880285297 0.04498906858402248 0.02729056507429456
-0.003885480473480085 0.045022164238519784 0.026116184508568452
-0.0038971582724180998 0.045116437492377315 0.024537860686931146
-0.0060381765785259 0.044957178024747434 0.02462910768624965
-0.007631674027442303 0.04486267273203417 0.024298308815150715
-0.007974860461747724 0.044917506618303356 0.022979380503133084
-0.008317815477976442 0.04497260329887999 0.021656367074244898
-0.06463991922061035 0.040838240010128965 0.023141522541841097
-0.06693251873518391 0.04063724249499543 0.02374473937505367
-0.06863444019325216 0.04051143376704834 0.023804187097851925
-0.07010088196730752 0.04041545824123438 0.023649204888756437
-0.07128869369724533 0.04035510877004277 0.023235088510626778
-0.07230181877194664 0.04031714591935242 0.022657663345165446
-0.07329400340788617 0.04028173016754712 0.022062926479017253
-0.0741232045339626 0.0402673957224035 0.0213125944426677
-0.07489267343539502 0.04026079912021561 0.020505043741874285
-0.07560839097860478 0.04026121134575908 0.019645244218120528
-0.0760876357452353 0.04029266833724736 0.018552093126472324
-0.07641120332459667 0.04034475759255086 0.017302091119353602
-0.07657583539078888 0.04041805462647932 0.015889571003190384
-0.07651381643877359 0.040521661890104387 0.014244183382155495
-0.07567271100074358 0.040729001567343194 0.011805899103094986
0.07684845614585101 0.0472782008080139 0.06247780334162384
0.06944865343254969 0.04660544051335202 0.06514207918769549
0.06241309820851215 0.04596771946869743 0.0676423804223324
0.056114423136432945 0.04540376497970215 0.06976177587447346
0.05004591102676387 0.044861507251765104 0.07178513743328138
0.046607948767621254 0.0445902002794925 0.07231873997047664
0.04559281272021898 0.044569796124290045 0.07145721657719617
0.0453248441462335 0.04462715721351691 0.07015879568836791
0.045112482600102366 0.044690542732397365 0.06882381662445086
0.04472550689302979 0.0447359097583119 0.06758828937242667
0.04439156590726345 0.04478700869566832 0.06631813124036262
0.044030565262205335 0.044835463742862056 0.06506085193351951
0.043668782638214165 0.044884023750606114 0.06380084918019802
0.043304962799575464 0.04493255703339797 0.06253887472431979
0.04294160828507393 0.044981327701186985 0.061273403011605665
0.04257621086458646 0.045030071756676636 0.06000595089084587
0.04221127420344584 0.04507905445829855 0.05873497454744675
0.042370292818613264 0.0451838811763769 0.05713524951684684
0.0397143112920601 0.04498953262632649 0.0572872146362613
0.037536923045795756 0.044845456677720975 0.057151466510666604
0.03537465924658495 0.044702431247678136 0.05701581220995766
0.032961890504061564 0.044532026313888244 0.057048945133316875
0.030566246925355256 0.04436278690836708 0.057082593198317655
0.02906648864009953 0.0442891645298385 0.05655187539911005
0.027877040702762312 0.04424866745317406 0.055825571456506184
0.026623446897167558 0.04420108848604358 0.05514369877781228
0.025244054358389556 0.04413971984238915 0.054547274267086776
0.023990500120959324 0.04409173908925007 0.05387230663292475
0.022939610937174837 0.04406556553527195 0.0530666493621485
0.022482053493118548 0.04410381989912699 0.05186840863018405
0.02305523567329848 0.04425455799853759 0.04997862555010146
0.024417975162928318 0.044492119683808895 0.047547850807144354
0.03865085270011054 0.04613886835329676 0.03640238427008097
0.03830054285826795 0.04619336405106147 0.035054740852887956
0.023032279562543168 0.044609191652729974 0.0438981989863802
0.020992004388130925 0.04447478002697832 0.04376090024141771
0.018678613000191413 0.04430969767704387 0.04382161789312694
0.016518436123649005 0.044160879789572234 0.04378731931497931
0.014503154759355597 0.04402750425008529 0.043662122580813645
0.012353605863023032 0.04387868405511611 0.04364052932092849
0.010412060467841766 0.043752387284534684 0.04348238363959417
0.0090297248326896 0.04368788851590514 0.0429358782569812
0.007633627861386605 0.04362158858480447 0.042403715915727336
0.006186333214215023 0.0435492875639314 0.041912968233240255
0.0047802135306274085 0.043481305415475444 0.041397574235403745
0.0038133732923997243 0.04346239737276009 0.040568071129293615
0.002881359889555346 0.043447332151753275 0.03971448178067649
0.0020276397699831583 0.043441037491234166 0.03880449831627708
0.0012865999810127149 0.04344745559723479 0.03781181403218192
0.0005442512391609089 0.043453752120516366 0.036819645034912196
-0.00022768639902953636 0.043456715822498736 0.03584909966463301
-0.0007563750801831137 0.04348736442020621 0.03469590713674453
-0.0012380043903633675 0.04352350613448193 0.03350503845708808
-0.0015954858983481257 0.043573982080169715 0.03221745936539683
-0.0019537975402103003 0.0436245752397273 0.030926890292481246
-0.002373823902073857 0.043668301623481426 0.02967997812589057
-0.002662046677341934 0.04372736519178075 0.028328360438294287
-0.0031174857577407344 0.043767414324163784 0.027102010246730757
-0.0036422302381673433 0.043799631940981354 0.02592673741347168
-0.0041677478266666235 0.04383189702413662 0.024749733046231903
-0.004695125450243975 0.043864083856110604 0.02357184760683273
-0.0053837153470475685 0.043877676858865254 0.022519205859395375
-0.007520188419364693 0.043722739245344075 0.022617610986425285
-0.06487864124224152 0.03967407463975483 0.02336515115093668
-0.06701334698283695 0.03949832738398719 0.023820852115828794
-0.06866115947374368 0.03938276880364817 0.023829478732412535
-0.07009364528167789 0.03929371531725505 0.023642319183290017
-0.07120709178461382 0.03924440377353872 0.02315704004744823
-0.07221976171951106 0.039207576656055405 0.022578771169866396
-0.07318608797709097 0.03917643830949724 0.02195863368148615
-0.07399662239140375 0.0391648995616058 0.021189625697527303
-0.07476248044446615 0.03915898232054259 0.02037791017099505
-0.07545959655331624 0.03916179028145951 0.01949919188903454
-0.07586889458648727 0.03920134503286023 0.018336268799828137
-0.07615538898703011 0.03925679564472211 0.017048378696698174
-0.07627314798568607 0.03933414420747868 0.015587814178399051
-0.07607176602834881 0.03945287768205497 0.013801208178909452
-0.07484437412767936 0.0397043599121331 0.01097152949529645
0.0729449364247935 0.04553754961602474 0.06467555984742268
0.06549947700943665 0.044878705213632034 0.06737865039206248
0.05912489710321034 0.0443247178400952 0.0695155721614692
0.05290063571759818 0.04378372444955969 0.07160332543464584
0.047978586673826096 0.04337171455569853 0.07297668690929662
0.046163673501986524 0.04327140181385841 0.07257630544101765
0.045581569826701696 0.043295237681558456 0.07146377260156417
0.04531734386404146 0.04335133649123013 0.07016319476968236
0.045007405600028194 0.0434030150759642 0.06888580482097462
0.04467670934878715 0.04345278324049009 0.06761724355674548
0.04434525383974869 0.043502665669592794 0.06634576975561346
0.04401303645509458 0.043552662757240956 0.06507137337554864
0.04366878263788332 0.04360162307198357 0.06380084918039775
0.04330496279924989 0.043648769689553266 0.06253887472451747
0.042941608284753685 0.04369614690969165 0.06127340301180123
0.042576210864271546 0.04374349827788208 0.06000595089103927
0.04221127420313625 0.04379108147374385 0.058734974547637986
0.0418442889069402 0.043838638929258635 0.057462009007658243
0.04149280961891527 0.0438879853595745 0.05617608957845277
0.041235907021806295 0.043947321913067834 0.05482735053003385
0.03876168678664588 0.04377675695182212 0.054875606027416535
0.036285672525709856 0.043605334743956 0.05493678576261796
0.03382287973808584 0.04343461481512294 0.055001382822784495
0.032034495787550854 0.043333632010225054 0.0546443910077139
0.030412032316083415 0.04324960681593427 0.05418718136186518
0.029073663348488266 0.04319502679736125 0.053551175102206805
0.027764913529082058 0.043143340815215425 0.05289961782304914
0.02652106882495897 0.043098279460763604 0.05220901324735833
0.02536267156513483 0.04306204843338786 0.05146508746871942
0.025986751579417156 0.043214000991128015 0.04953895059618402
0.026720515992314564 0.043378173747207226 0.0475288151737166
0.02817704615534239 0.04361967538265264 0.045021329257992904
0.027219885210015227 0.043605590757321684 0.044128103622708525
0.02515419571001093 0.04347338407050831 0.043989251985800504
0.023100994171568967 0.04334197662870769 0.0438512397653546
0.021058992269227084 0.04321123550974999 0.04371486710746686
0.018659990401203752 0.0430417108355757 0.04383448596646755
0.016632696852605044 0.04291140867309844 0.04370792934436685
0.014830760599915616 0.0428048225217662 0.04343324027181711
0.012819296720754325 0.04267521295703244 0.04331337940692109
0.01110331138015963 0.04257699423404825 0.042994102515234
0.009639989153528372 0.042505724305067154 0.04250243328120196
0.008316823362128134 0.04244936512851445 0.04191580620229379
0.0072399550721709005 0.042419545629099054 0.041156388938649646
0.005845016206331655 0.04235495945200934 0.040628778776108654
0.004734710145417986 0.0423211725769687 0.039899220809541114
0.00362727474125063 0.0422875599424327 0.039170022460847775
0.002712509335256741 0.04227492385084364 0.03830187035807148
0.001836612671693716 0.04226650398472791 0.03740595891472026
0.0010386352861233017 0.04226662424615339 0.03645285350837901
0.00036064534212587596 0.042279977385322624 0.03541023492954515
-0.0005355673217374846 0.04226927014624742 0.03453030216839381
-0.0014280695655251585 0.0422589289761359 0.03364835928901694
-0.0018083933614245762 0.042305383657704046 0.032378873863891655
-0.0019646683202119153 0.0423769498779947 0.030935176473880277
-0.002147593693337335 0.042445847657818774 0.02950660426258339
-0.002431326018936142 0.04250377841240423 0.028150591417830828
-0.0028737658213011663 0.04254419261082266 0.026913213492352595
-0.003311605229018466 0.04258529413230636 0.025669241475311244
-0.002685104103751945 0.04274619184066234 0.023588818965683878
-0.06511865388157634 0.03851145405370978 0.023589988777281634
-0.06708597548386269 0.03836098519035371 0.023889243481866884
-0.06868787421297035 0.03825429567056055 0.023854766068353905
-0.07013143317187037 0.03816642836866997 0.023678274356055462
-0.07111343696753558 0.038134585517743576 0.02306746353745598
-0.07214722864317763 0.0380962487630576 0.022509035638266894
-0.07307094822411525 0.03807125409404246 0.02184735907639579
-0.07387231278009193 0.0380612068960047 0.021068864612251825
-0.07462822708979688 0.03805672151127484 0.020246811651329355
-0.07527754097599543 0.03806540071507493 0.019320491369581305
-0.07564747584052323 0.03810875841482051 0.018117802590598864
-0.07590072560634764 0.038166820620756686 0.016795807774015847
-0.07596353720572241 0.03824887829719348 0.015279155263928201
-0.07573244601046769 0.03836801990283035 0.013461178285617714
0.07645101691697404 0.04445413062009446 0.0642210197332872
0.06891068428744507 0.04380715823987586 0.0669469212121575
0.06216130106613321 0.04323455217996544 0.06926918841568863
0.05587058738235462 0.04270440433681651 0.07136945697279373
0.04995905484077012 0.042209207644942466 0.07328889646469802
0.046783926987406854 0.04197939285094251 0.07366525622902945
0.04590379238047371 0.04197328241723836 0.07272696969924855
0.045574074891917005 0.04202111350777153 0.0714681430934673
0.04545989414788487 0.04209030006408685 0.07007958587684754
0.044958637380408006 0.0421216560658967 0.06891457471333734
0.044627922936953446 0.04216994944792365 0.06764619113561265
0.0442964492806438 0.04221835369585741 0.06637489576150168
0.0439654655177536 0.04226699309850981 0.0650999272215887
0.04363246603436077 0.04231562051190464 0.0638227734808211
0.04329869944862991 0.04236435994409971 0.06254267767055699
0.042941608284442434 0.042410966118199146 0.0612734030119913
0.0425774641288042 0.04245704982250977 0.060005181179217604
0.04221127420283538 0.0425031084891919 0.05873497454782378
0.04184554273731583 0.042549392763871 0.05746123011425841
0.041477759753353494 0.04259565211030424 0.056185492051589736
0.04111043058733388 0.04264213826762178 0.05490618887819687
0.041901012975578966 0.04280545128108603 0.05289191819520983
0.03941674429985076 0.042638859500178455 0.052947087718339114
0.036950500211716086 0.04247343426731113 0.053002620126847866
0.03546487018753891 0.04240672496692506 0.052439751564631376
0.03408188929084155 0.042350174160423096 0.051815316585430815
0.0321180636366718 0.042234306971758326 0.05157246030974877
0.03007082742980588 0.0421094770341606 0.051392451559223395
0.029231337195310403 0.04210750936468331 0.050427606780744594
0.02926845620436641 0.04219524906224151 0.04888349468067582
0.029810592278459724 0.04233512770167602 0.046997368919878046
0.030356334705530896 0.042475936830293944 0.04509869642834252
0.029369816895591594 0.04245955046444613 0.04421965219881574
0.02728974260593814 0.04233028029642352 0.044080889890706076
0.025222295646690318 0.042201794877839476 0.043942969955092614
0.023167361382303076 0.042074087084450075 0.043805884744611556
0.021124826560658505 0.04194714987798746 0.04366962670418151
0.018876584804522978 0.041798304428570555 0.043684820891848664
0.016840611152116214 0.041670975827671534 0.04356346754827195
0.015091168039054748 0.041573050239429 0.043251306226172015
0.01369571599290248 0.041511766383758475 0.042697690941584765
0.012074926413824627 0.04142660518042848 0.04230777968711308
0.010432568885324456 0.04133882934403164 0.04193949736815489
0.008921630433486483 0.041264529528864315 0.04148387823358096
0.0078862752744418 0.04124009747764209 0.0406922826950088
0.00688446862191483 0.04121911139828962 0.03987828639335317
0.005979272792906554 0.04120827303150742 0.038995722678539735
0.004619318142352835 0.04114911606091376 0.03844590861034991
0.003251153218508329 0.04108884060103497 0.03790655789425873
0.002300368317436574 0.04107280475759771 0.03706375298881076
0.0015967538784009139 0.0410831037171747 0.03603877629107016
0.0009212380313516344 0.04109645323264508 0.03499206207766731
0.00013166557688037983 0.041097624657756536 0.03402988006440627
-0.0007734497908729043 0.041086381745271995 0.03315473571689043
-0.001522651754129356 0.04109188532092836 0.03216224060184342
-0.0017699875000415921 0.04115158244692004 0.030786782284078995
-0.001939616483317641 0.0412199363032415 0.029347218773871087
-0.0018183419174692683 0.04132011091709611 0.02767829048027981
-0.0009357893140134466 0.041503401790010476 0.02541196710281951
-0.0002987845281485213 0.04166074121191883 0.023322809501284847
-0.06533608422439896 0.03735319899934963 0.023793671892933743
-0.06714062885013361 0.037226280084039276 0.02394070837960066
-0.06873319792728688 0.03712381569067435 0.023897668077627165
-0.07005504397169054 0.03705293025742083 0.02360559004169216
-0.07104295865874533 0.03702134344316365 0.023000054287952987
-0.0720611014874738 0.03698601490514029 0.022426230340439113
-0.07295174804769955 0.03696572203349479 0.02173216035297887
-0.07371777617330838 0.036960225931997284 0.020918739387395635
-0.07448278573217987 0.03695482618296277 0.020104788036882426
-0.07508974300138427 0.036968375912643875 0.01913615427807802
-0.0754233685965649 0.03701488050451018 0.0178966837334974
-0.07561085778327858 0.03707923024332016 0.016508321668505577
-0.07565250857485989 0.03716151517327019 0.014969082857590743
-0.07541146428009576 0.037278447566218724 0.013139525044501776
0.07726582263255011 0.04310225157062065 0.06528138169126768
0.07186894624614848 0.042677153294356 0.06678566081085541
0.06522799314032918 0.042133512124002175 0.06902034699344933
0.05887507817693993 0.041614939684773575 0.07113030341730903
0.05267279995496871 0.04110861444048795 0.07319114269111443
0.04803838282727951 0.04074857775393611 0.07438947103318069
0.04647379968469889 0.040677917627926635 0.07384400516337764
0.04583138163559841 0.04069449361548567 0.07276894932093508
0.04556658021926624 0.040747033894070694 0.07147251343251335
0.04523985632832739 0.040793876839982035 0.07020864292239648
0.04490988027249476 0.0408405890098209 0.06894333805055791
0.04457914765371468 0.040887408280452404 0.06767513211129111
0.044248906841015234 0.04093445486945043 0.06640326854883871
0.04391915663001017 0.04098172997611492 0.06512772353851715
0.04358363621018757 0.041028632794113555 0.06385225200113831
0.043249851631318226 0.04107588445000536 0.06257233681382629
0.04291529734319999 0.04112324506850038 0.06128947013438146
0.04257746412850705 0.041170472555132245 0.060005181179400124
0.04221127420254306 0.041215135504642605 0.05873497454800436
0.04184554273702873 0.041260017225544 0.05746123011443671
0.04147901386775332 0.04130499680199311 0.056184708537816375
0.04111043058705688 0.041349952259485026 0.0549061888783709
0.040742298786206665 0.041395128242204614 0.05362409035577287
0.04037210676818914 0.04144028021517381 0.05233998479258395
0.04007894390983524 0.04149316426312519 0.051003331334342705
0.038628539655027605 0.041432543409582835 0.050406518546997514
0.03695866694749472 0.041350074560113186 0.04995602679828626
0.03529542858618423 0.04126793335651926 0.04950732483757042
0.03351117326181097 0.04117350367052782 0.04914381028416798
0.033059067371910666 0.04121064056782595 0.04791171449360393
0.03306402387414825 0.04129328537478397 0.04637475161675508
0.03290282858705129 0.04135973814833769 0.04494206072079637
0.03173952236971095 0.04132660720551021 0.04417419756406321
0.029747856247511972 0.04121064057246941 0.043965566928550415
0.027667142661327193 0.04108529957244476 0.043825820762556755
0.02557750014735738 0.040958558762547316 0.04370156612406023
0.023500710332940267 0.04083259749343131 0.043578075734656274
0.021317750447971073 0.04069544125651607 0.04353705211006609
0.019521927407440298 0.040596772257133346 0.04323889409346304
0.01739958507016226 0.04046470620649346 0.04317508456373936
0.015687831517852913 0.040373679430625156 0.04283444639703171
0.014318053137372833 0.04031698083898897 0.04226049630931522
0.01296694053498798 0.04026194848246805 0.04167768481090339
0.011526470536437128 0.04019758692543929 0.04116254522056789
0.009982297677335161 0.040122374224852875 0.04072639395502109
0.008858093974082104 0.04008981574714289 0.03999444418616244
0.007793939014855589 0.04006327888930673 0.03922164199865935
0.0067847724510919916 0.0400422811106865 0.038410965103530204
0.0055819955205313465 0.04000126706989202 0.037743229652629384
0.004107273708323644 0.03993203221852732 0.037278248336362174
0.002960098030682534 0.039896366082397834 0.0365769375301877
0.0020510091095307104 0.03988521214343476 0.03570175698252742
0.0014549376220758248 0.039906501090111186 0.03459395007194804
0.0009009898546290529 0.03993226032682641 0.03345288981929512
0.00031455483899406333 0.03995474131782173 0.03233431330882852
-0.00040710739525756656 0.039963192496107754 0.031316497429508594
-0.0010133070211810757 0.03998376434709882 0.030210007507289194
-0.00011035574789342029 0.04016271412987266 0.02794534586543923
0.001460833361827063 0.04041265741943184 0.025151703648582602
-0.06301340350413204 0.0364027351038937 0.023174279153301836
-0.06547264954908755 0.0362057132540321 0.023921602753279703
-0.06720015502715065 0.036091408477981285 0.023996761809090827
-0.06875585488335162 0.035996256437599274 0.023919114443042067
-0.06997539868589175 0.03593925784509767 0.023529807562271965
-0.07095401444505739 0.03590971937047362 0.022914983252690424
-0.07196135767869749 0.03587673069561616 0.022330333573331085
-0.07282609133998202 0.035860075122198284 0.021610721838765945
-0.07357498980586663 0.03585676425590992 0.020780028981073506
-0.07434274795714813 0.03585124750312484 0.019968041025612837
-0.0749032967015072 0.035869827341748046 0.018953143951624507
-0.07515305887276408 0.035924759467891774 0.017629978489460962
-0.07532202640921998 0.03598939966014861 0.016221863495956057
-0.07523205597497629 0.03608470167278807 0.014549922894614875
-0.07461406342658711 0.03624250399338714 0.012340455986264542
0.07478885484610792 0.04153060658825592 0.06665961053127556
0.06795118240875175 0.04098742018379622 0.06897848121704714
0.0619107376631125 0.04051477668761869 0.07088802548041107
0.05563183142582706 0.04001859007979472 0.07296707937133892
0.04991050548284931 0.03957148735996467 0.07476474084418797
0.04703939902168941 0.03938370087973876 0.07496190409985526
0.04621403779578531 0.039382899262676976 0.07399372484436714
0.04582389226396483 0.0394221022221192 0.07277329123163342
0.045765277637320745 0.03949198942338164 0.07135664778701689
0.045191128531322455 0.039514571696412315 0.07023722285256578
0.044861134272493663 0.03955981380796702 0.06897209483487493
0.044531633719357755 0.03960527544903345 0.06770332466143753
0.04428894187569249 0.03965896882695962 0.06637937609540545
0.04386785310710223 0.03969628022711576 0.06515851782125165
0.04353481756170963 0.039741939629247505 0.06388172377469853
0.04320101500669388 0.039787704188925944 0.06260198916118265
0.0428664427892656 0.0398335742698502 0.061319303810423276
0.04256869142934244 0.03988307317858459 0.06001056906845209
0.04220500655154946 0.03992657402104172 0.05873884595979473
0.04184554273675006 0.03997064168721953 0.05746123011460985
0.04147901386747971 0.04001421565190503 0.056184708537987293
0.04111168498373691 0.040057884724521375 0.05490540072589739
0.040742298785942765 0.040101530484610744 0.05362409035593957
0.040372106767930294 0.04014527145842509 0.05233998479274843
0.04000236150820158 0.04018922720921644 0.05105227270969215
0.03964812777256704 0.04023483305386889 0.049751247746342764
0.03938228149184225 0.040289049707634576 0.04838962080237663
0.03767839448252169 0.040206048740231065 0.04795851081094338
0.03598275477964219 0.04012350791814883 0.0475283621614947
0.03545947863726623 0.04015312640695072 0.04633397105040299
0.03530030422164243 0.04021786802045135 0.04489664523087139
0.03411584900208131 0.04018410004814573 0.044135805779109805
0.03216046226425434 0.04007578223138518 0.043892848572517684
0.030172913053714057 0.03996391922592249 0.043679880602686794
0.028114166910208516 0.0398447066894493 0.04352369551430735
0.02604846941040473 0.039724339032834184 0.04338148632725419
0.023823904176780597 0.03958802709155871 0.043357206674027315
0.02156859135676681 0.03944816605432112 0.043364677749719194
0.019830742828544023 0.03935829405320945 0.04302550500152591
0.018213635162853292 0.0392798773840393 0.04260947104519891
0.016481546598515306 0.039189862503338925 0.042279916172427545
0.015044668794560179 0.039128498812178975 0.041750045554659276
