# .PCD v0.7 - Point Cloud Data file format
VERSION 0.7
FIELDS x y z
SIZE 4 4 4
TYPE F F F
COUNT 1 1 1
WIDTH 761
HEIGHT 1
VIEWPOINT 0 0 0 1 0 0 0
POINTS 761
DATA ascii
-0.038218045816231505 -0.05010669900158833 0.019609768835607555
-0.038177932251989066 -0.05022422868587365 0.017985860361817374
-0.03816979650718488 -0.05033761572937265 0.016382766135419335
-0.038140763458775595 -0.05045456769315071 0.014753869775508577
-0.038127753779812534 -0.05056969513133109 0.013131829121994343
-0.03819278590016628 -0.050673871911893056 0.011572541399779923
-0.03809582605229139 -0.05080237728209787 0.009860264167953048
-0.03811516337549253 -0.05091429580215211 0.008245316740532083
-0.038067440816350884 -0.05103664278429007 0.006561956227375099
-0.037871299887810905 -0.05118155367299139 0.0047345302481492935
0.011830188682613707 -0.053401364690412234 0.05005677171404371
0.010189186034396891 -0.05328715977990332 0.049687746938182675
0.009276899429568497 -0.05327144570342272 0.04881884143622689
0.008857259586282862 -0.05332270171971164 0.04760663566200979
0.008980283698024283 -0.0534481569881718 0.04601030325545469
0.008949636988257348 -0.05355312943636494 0.044515400404096905
0.008983807509528319 -0.05366740531518076 0.04296849139254538
0.00897211541963 -0.05377585821409246 0.04144782396347052
0.008980613908714463 -0.05388753238275594 0.039906465709807326
0.009073672379099229 -0.054011314623069455 0.0382976649820837
0.008979652032785612 -0.05410978435986647 0.036817578379418736
0.009056115272142451 -0.054232242580275175 0.03520739480141727
0.008909538986193677 -0.054324293528858134 0.0337538505330911
0.009077055188807914 -0.05446035237722205 0.03206322646863946
0.009036910381017116 -0.05456807445045631 0.030518803755531787
0.00901257956334256 -0.05467845134075995 0.028956344115266264
0.009121953068264577 -0.05480797661432633 0.027287199073688984
0.008907501204064083 -0.05489269008456538 0.02585470324500072
0.007686241030922747 -0.054836452135223195 0.025180574533809952
0.0056198346357153595 -0.05466111092490605 0.025153938392974806
0.0038650681094191675 -0.05452895424245094 0.02489873862286507
0.0025172898701749657 -0.05445372266009838 0.02433770961810028
0.001410235627526013 -0.05441224459798337 0.02359462749111818
0.00039918573643482613 -0.054384207830795735 0.022779219321734767
-0.0004735779578056154 -0.054375708007055684 0.02185718795909114
-0.0012256390467971778 -0.05438436526318088 0.02084064147982817
-0.03994968906258922 -0.048972662242700436 0.04987577008017702
-0.0412101246677824 -0.048897078252166236 0.04942372796389499
-0.038220402676215626 -0.04943046896292861 0.04557635619083694
-0.03825540113660869 -0.04953159833472029 0.04412965888716708
-0.038298739506352375 -0.0496319622666859 0.04268365670310914
-0.0383021025130002 -0.04973852705703274 0.0411991469320413
-0.03837680338819727 -0.04983523718088601 0.03976653063432911
-0.03842431927978174 -0.04993630572101496 0.03830576077083464
-0.038482122426077126 -0.050036319104385954 0.036847390301180616
-0.038489588199230595 -0.050144093895766975 0.03534118053043134
-0.03854223589798922 -0.050245748447204204 0.03386615337766752
-0.038574789601703685 -0.05035078456929261 0.032368093239788065
-0.038535315645787716 -0.050466832685038404 0.030802882972923717
-0.03856150763333738 -0.05057374911427656 0.029286281373658463
-0.03861289636972093 -0.05067742835910351 0.02778462558044692
-0.03857046024902261 -0.05079540081636905 0.02619621065653388
-0.03854556343178678 -0.05091130235571404 0.02461566441566132
-0.038557041130918734 -0.05102232934116461 0.023059490769343327
-0.03856950651182772 -0.05113370246586603 0.02149733114607688
-0.03849086833304027 -0.051259125307635565 0.019848552151329468
-0.03850230452408626 -0.05137167621155249 0.018271256212294362
-0.03852323176098288 -0.051483311606432346 0.016695368429602397
-0.03845151290236387 -0.05160932330250301 0.015030162373074696
-0.03840506519801795 -0.051732106966167195 0.013379686301090654
-0.03839929807292647 -0.0518493224335253 0.011758087814318807
-0.0383782516790408 -0.05196937031826139 0.010115347747849834
-0.038402971758951576 -0.052083043843787556 0.008506624134447194
-0.038346401870252456 -0.05220954550138464 0.006816557216945296
-0.03823672948195078 -0.05234468326144688 0.005069794239905723
0.011903154467820587 -0.05465335455956315 0.0500066306480883
0.010161305801415721 -0.054522529918217696 0.04970701196574373
0.009470547823087427 -0.05453722415277508 0.04868429179339606
0.009029734515670629 -0.054586778844282854 0.04748613579541766
0.009126431828709758 -0.05471152757830754 0.04590763353885552
0.009119543509642558 -0.05482230436672792 0.044395382989552146
0.009053247630144645 -0.05492521226173088 0.04291917100731085
0.009095577928745158 -0.05504379069790316 0.04135965219217408
0.009185359319028918 -0.05516953114181222 0.039759443192253496
0.009021826296316482 -0.05526008380681309 0.03833509823984599
0.009092586772131706 -0.05538410286123251 0.036735592690606444
0.00912403491515329 -0.055503070643360436 0.03515781879076052
0.009090950149178822 -0.055613378722738416 0.033620712302002476
0.00912593590819788 -0.055733819342629096 0.032027157318880284
0.009138285411491975 -0.05585153727940405 0.030443591979567974
0.009150687193064277 -0.05596975354353889 0.02885332304043453
0.009078485685033832 -0.05607636422473844 0.027319799443689063
0.008806754176646281 -0.05615482574924943 0.025930672700065716
0.007185104629517103 -0.05603974760191675 0.025560508049251585
0.005315900649489003 -0.05588855820448607 0.025385610098485833
0.0037258757023036493 -0.0557769950619083 0.025005410165535757
0.002474830774675918 -0.055713951903593524 0.024370424121728962
0.001424710505204485 -0.055679742042721185 0.023583414580243378
0.00044580761463758334 -0.05565572344910326 0.022742909472405703
-0.0004159943582513481 -0.05564863467378287 0.021812099843518895
-0.0011670539553212955 -0.05565765706857587 0.020794522849522823
-0.04006322625173936 -0.0500949773326021 0.04996562686916822
-0.04135862813384911 -0.0500124817714956 0.04954188791687297
-0.03854668543199302 -0.05053215135465479 0.045837359692486646
-0.038577781351157636 -0.050636103485226805 0.04438891956533142
-0.0386017329028111 -0.05074155561451157 0.042928627943347675
-0.03862487349691551 -0.05084758236985469 0.041461500955637054
-0.03865906394620078 -0.05095243253578664 0.03999718008329367
-0.038716256954752504 -0.05105432609693609 0.03854558831830951
-0.03879474747160422 -0.05115349717459752 0.03710557894368699
-0.038800125474814096 -0.051263988207335784 0.03559900808777189
-0.03884323827492725 -0.05136932908137467 0.03411739151818427
-0.03889113591106114 -0.05147441462192358 0.03263353932369606
-0.03887459341154753 -0.051589620355170694 0.03108907975465397
-0.03884038809871926 -0.05170798534726624 0.029522775937442958
-0.03888303095827744 -0.051815300403239305 0.028014915509032956
-0.03887658684342027 -0.05193049566523561 0.026458563325163054
-0.038835636254332395 -0.05205141834983059 0.02486557184829913
-0.03883933081512636 -0.0521661098788435 0.023303976158148554
-0.03883461730332671 -0.052282587629789 0.021728148881107134
-0.038762320915857684 -0.052409872248776315 0.020086136455383985
-0.038792213515768614 -0.05252213244780948 0.018526329874131053
-0.03866761019069315 -0.052658519651843365 0.016823066580460233
-0.038676645371795826 -0.052775035907174875 0.015230331467691871
-0.03865824417976044 -0.052896289471720315 0.013605974236247653
-0.03861506238775331 -0.05302190344920097 0.011951947064679003
-0.03866497411875214 -0.053133719555558796 0.010374312159826538
-0.038627338982931914 -0.05325957973946518 0.008710331941265137
-0.038579003273220114 -0.053387668456238185 0.007028846877249917
-0.038458494284525635 -0.05352755058766462 0.00527325272858481
-0.03728334900750818 -0.053832278192857026 0.0025363810055749614
0.011854881776271309 -0.05588864401371636 0.050039802965825386
0.01022264753434804 -0.05577037787099146 0.04966462529787108
0.009472774778287785 -0.055777022989987414 0.048682744473424244
0.009172279921146276 -0.05584768562535252 0.04738654623533428
0.009113039680060664 -0.05595306048578925 0.0459170415832828
0.00921574009298487 -0.056082019977019 0.04432743230039288
0.00920901733956192 -0.056195830008525294 0.042808534360828376
0.009220241684593677 -0.056312683418545596 0.041270622540594715
0.009204494812935837 -0.05642613697407045 0.039745702476481126
0.00919432393960734 -0.056540861589789985 0.038210553657148205
0.009247413048507236 -0.05666519785732954 0.03662319557534882
0.009131960406500661 -0.056765651308902966 0.03515203380388365
0.009161292129350074 -0.05688752248640114 0.03356908809841347
0.009223733917978927 -0.057014712435295635 0.03195499203357011
0.009223754520710448 -0.057133339566417765 0.03038018106403728
0.009255759783507178 -0.057257129855336895 0.028774944378628653
0.009089923535975986 -0.05735250001164021 0.027311221099537486
0.008493396006518383 -0.0573851423228377 0.026166964033268625
0.006879360777275467 -0.05726847078648089 0.02579230589167736
0.0051218127083247356 -0.05713018527247678 0.02553355237011834
0.003637248887576272 -0.05703158174351704 0.0250733302428221
0.002422328512489913 -0.056972417743027845 0.024410876831015615
0.0013434426227273422 -0.056933153134069096 0.02364636844717366
0.00036811078210696735 -0.05690909321404326 0.0228034209831231
-0.0004359291043007918 -0.05691041104094351 0.02182770880406909
-0.0011405189426876294 -0.056926559356552414 0.020773634285436438
-0.03993269671896649 -0.05125299891606132 0.0498623218219737
-0.041483910869822505 -0.05113037349270688 0.04964157180024387
-0.038818116386021895 -0.05163988738520928 0.04605448556936259
-0.03885065151512479 -0.05174589822525097 0.044608363875398405
-0.038890581183373685 -0.05185125123035168 0.043162162807002136
-0.03886882946187692 -0.05196637245073262 0.04165979272341441
-0.03889256093197552 -0.05207510864636926 0.04018798233878679
-0.03894926855780656 -0.05217931503882399 0.038737007946828717
-0.03898973582481452 -0.05228644210752661 0.0372666145962689
-0.039039536289459054 -0.05239261376172373 0.03579778198834416
-0.03905647468350698 -0.0525042646011987 0.03429537389602133
-0.039097415957120074 -0.052612731490796066 0.032806628842350194
-0.039089646581537685 -0.052729141400947824 0.03127048723655668
-0.0390790693328415 -0.05284649371841805 0.02972518098675314
-0.03910643008188147 -0.052958520332246364 0.02820536342055685
-0.03909862960557048 -0.0530764671573247 0.02664885555153601
-0.039062875737683245 -0.05319925861601092 0.02506134625894474
-0.039053076671990705 -0.05331857059344274 0.02348909712375402
-0.03901798854110461 -0.05344234085169643 0.021887800374485733
-0.03895086458884828 -0.05357164960171412 0.020251156131625203
-0.038970810277297374 -0.05368794791307681 0.018683466531710935
-0.03889101644739262 -0.05382036459047595 0.01702066234270705
-0.03887693594409186 -0.05394307398310352 0.015408413210489746
-0.03882493036558493 -0.05407229200269889 0.013754956085174574
-0.038838146290553266 -0.054191822123063296 0.012152382795670658
-0.038812435879349794 -0.05431803388389667 0.010507497927081666
-0.03878565217757518 -0.05444498567480742 0.008854067880494587
-0.03876734284088279 -0.05457116903157973 0.0072007398337450845
-0.03860522048344367 -0.054720774054441375 0.005407866924953542
-0.03763539888040918 -0.054999678352566535 0.002861058760407431
0.01178193382639714 -0.05712005980918037 0.0500899317755899
0.010270618949853538 -0.05701667414093192 0.04963147741698781
0.00953291211650964 -0.057025248351610706 0.048640960200229344
0.009201247123680645 -0.05709296183942798 0.04736630825609095
0.009207920446929863 -0.05721030104493695 0.045850387419459515
0.009176584626257034 -0.057322564245691675 0.04435509067303012
0.009260594289445645 -0.05745217998579924 0.04277190143140791
0.009184294452863728 -0.057558800898464185 0.041296294553236856
0.00920899755360488 -0.05768071329280076 0.039742469171919925
0.009179661376611525 -0.057795164494347157 0.038221140136793674
0.009118570967609485 -0.05790539903373754 0.03671672929944081
0.009124034915506674 -0.0580259374908382 0.03515781879050256
0.009119310814937831 -0.0581454648006288 0.03359989831895144
0.00916118305772945 -0.058272411950731996 0.03200114839898499
0.009170189521779004 -0.05839499384162574 0.030419921803746697
0.009123286208948866 -0.05850974490895075 0.028873762742721132
0.009025880165056677 -0.058617424509635904 0.027359253381051607
0.008256994066993206 -0.05862494785690788 0.026345225635445335
0.006757878346257684 -0.05852286369952887 0.025884407058049508
0.005053025789351517 -0.05838939533733123 0.025585984752009072
0.0036013609763350662 -0.05829353919264335 0.02510083331525731
0.0023642575646842245 -0.05822969728183576 0.024455620182478544
0.0012577589311251747 -0.0581853606061216 0.023712743004437875
0.00027824373364959687 -0.05816010375142649 0.022873410848716802
-0.000516754283602483 -0.05816279677305118 0.02189099513999998
-0.0012289546462451728 -0.058178118069755536 0.020843251544971575
-0.039768052163603296 -0.05241709671940263 0.04973201710701147
-0.04161975206726948 -0.05224581583988874 0.04974965674888471
-0.03905481641720693 -0.05275113991563127 0.04624382912456426
-0.03905886573717138 -0.05286380658319641 0.044775811373647556
-0.03907471853258626 -0.05297514023781065 0.043311038509700805
-0.03910244790127315 -0.05308512097115645 0.04184968196568245
-0.03908295467819689 -0.053202881873819406 0.04034356274634665
-0.03922573147608649 -0.05329599755581113 0.03896412294206003
-0.03913697485836393 -0.05342548821105926 0.03738821536607284
-0.03919529534972732 -0.0535326429295857 0.03592710294656787
-0.03923366409014767 -0.05364337811713779 0.03444326886448146
-0.03919954347910648 -0.053765932913803216 0.03289232401238573
-0.039251912076857576 -0.053875469950643316 0.031407365827590794
-0.039240777183837505 -0.0539954618701254 0.029862311522696028
-0.03923422102935009 -0.0541152609181861 0.02831430529402723
-0.039241551455770296 -0.054233397453107006 0.026771340593644555
-0.03921544193149429 -0.05435734298591239 0.02519278713461187
-0.039208785150650904 -0.054478755022523306 0.02362395308936388
-0.03916006034547531 -0.054607386566004563 0.02201149466814728
-0.03911953447083799 -0.05473528533598182 0.020398781606806082
-0.03907787940706281 -0.05486393439801814 0.018777670284552295
-0.039014378254558946 -0.05499665079830818 0.017129771956194584
-0.038977937546323616 -0.05512562564685863 0.015498215447033503
-0.03895740646260831 -0.05525262444161177 0.01387336142137885
-0.03894152116918026 -0.05537944675280985 0.012245262735028517
-0.03891035677132654 -0.05550930550773559 0.010595938951218187
-0.038900957462979224 -0.05563623212020827 0.008958756018037528
-0.03887241748230086 -0.05576683513717778 0.007296638911088005
-0.03872117038877504 -0.055917959822592865 0.005514245359345693
-0.038068671810520316 -0.05615136547670455 0.0032606444242765376
0.011774079501095935 -0.05836063917663687 0.050095329157963664
0.01023826485030399 -0.05825137463356548 0.04965383385209926
0.009501727493165524 -0.058260299091257614 0.04866262771761237
0.009126609564254484 -0.05832301258368202 0.04741845389827526
0.009207920447160123 -0.05845400324160032 0.04585038741929781
0.009156450573057251 -0.05856570024332235 0.044369312828775764
0.009210138433811799 -0.058693590213721426 0.04280773809492622
0.009173062294271284 -0.05880839495355669 0.04130431609212892
0.009138091397728476 -0.058923987848965874 0.03979338509492397
0.009073672379859121 -0.05903562296021358 0.038297664981535084
0.009123090309797077 -0.05916489391162127 0.03671344845437602
0.009049324602545428 -0.059276075694995344 0.03521235145745061
0.009090950149694188 -0.05940519999936683 0.03362071230162428
0.00901000612304137 -0.05951625263466455 0.0321127020660637
0.009040326663923515 -0.059644694120363294 0.03051626915994765
0.009013720550680393 -0.059764992848282926 0.028955492998335552
0.008989293345082527 -0.059886127115661866 0.02738669335511107
0.008460259689430982 -0.05993052038365489 0.026191950854383972
0.006872546674562718 -0.059812690821887525 0.025797471962214213
0.005069938345028779 -0.05966132998239068 0.025573093266371194
0.003580055680947325 -0.059557507885235776 0.025117160849015552
0.0023151342741259406 -0.05948797666412003 0.024493469412386393
0.0011921310390553552 -0.05944010674813248 0.023763581410193524
0.00018398409704939445 -0.05940984042138992 0.02294682173078988
-0.0006119291848130093 -0.05941241873816284 0.021965517347339703
-0.0013272912480503107 -0.05942754936368318 0.02092066286703126
-0.03956829818553764 -0.05358776565026075 0.04957392572575081
-0.04164726228317556 -0.05337729295542195 0.049771545839449205
-0.042215152069876694 -0.05340269565938781 0.0487718777484335
-0.0392243519558253 -0.0539870332502457 0.044908896678944876
-0.03919978317528072 -0.054107092387294775 0.04341215371877438
-0.03924500822729038 -0.054216662334191354 0.041965557546201016
-0.039249490169032175 -0.054333145393157145 0.04047964736073939
-0.03928133531185252 -0.054445798996713445 0.039009801635511654
-0.03931879189327775 -0.054558050988700715 0.03753837318004383
-0.0393207162217159 -0.0546764439352285 0.03603123523472418
-0.03934465867692355 -0.054791842860588 0.03453591289564384
-0.03930896419708174 -0.05491727469134516 0.032984138900771565
-0.03938087760627679 -0.055026025042881774 0.0315161543283381
-0.039367265254620254 -0.05514897773613603 0.02996957518880744
-0.03934341625330545 -0.05527411768464085 0.02840739429999639
-0.039345420032706024 -0.0553956422682403 0.026860356702811505
-0.03935022008550071 -0.05551725210494702 0.025308903019401863
-0.039315927614451796 -0.05564572951844883 0.02371674701130061
-0.03923011833692708 -0.055783136171742013 0.022072490400596445
-0.03918976479123054 -0.055913762044070066 0.020460249512621542
-0.03918957348603297 -0.05603842453466549 0.018875943254849148
-0.039091552097955895 -0.05617962414159671 0.017198029777783008
-0.03906378946665923 -0.05630995386558043 0.015574547844612985
-0.03898483519133533 -0.05644926797617273 0.013897876846572899
-0.03896048229498966 -0.056580229651876895 0.012262298868359223
-0.03895597077950985 -0.05670851150431556 0.010637136999124663
-0.03894381989075579 -0.0568386349423384 0.008997671733989077
-0.038929703892361445 -0.05696967301638377 0.0073489228284534525
-0.03876523003935539 -0.05712625635420287 0.005554667959391912
-0.038089873284685105 -0.05736852114422416 0.0032801974693443814
0.01171462117556088 -0.05959337848675974 0.05013618808675885
0.010221532060032623 -0.059488234318202896 0.04966539608208381
0.009421561207487605 -0.05948772809272235 0.04871832838679441
0.00902750806681063 -0.05954887510684434 0.047487691307233515
0.009015973950000533 -0.0596684910452078 0.045985230693537105
0.009062518983971146 -0.05979745331912955 0.044435663586676555
0.009046526544179312 -0.05991738623538166 0.04292394471084221
0.0089463103593867 -0.06002491327177963 0.041466252860520914
0.009046964001061975 -0.06016370605871469 0.03985882138116581
0.008977880574321806 -0.06027697035478786 0.03836682737830127
0.00891192241057931 -0.06039118362973069 0.03686674712733212
0.008972380108978495 -0.06052538828592045 0.03526851490095462
0.008900472835127626 -0.06063966909911485 0.0337605042102731
0.008881654110241166 -0.06076265557072648 0.03220741319203241
0.008827492148279992 -0.06088066262459372 0.030674174532039467
0.008879129946233077 -0.061015633853466936 0.029055890556097974
0.00879275612378455 -0.06112963696561794 0.027534095514083645
0.00861341926674164 -0.06122958330268164 0.026076459113093975
0.007268158746586484 -0.061147282303726846 0.025497541075426566
0.0052515593085047385 -0.060959234590880464 0.02543465386744953
0.003624911666941122 -0.060831746160513823 0.02508278499962019
0.002278300023670632 -0.06074787087436169 0.024521850003306145
0.0011231902859158427 -0.06069389742476308 0.023816986111619587
8.977080891742206e-05 -0.06065896258250644 0.023020196515949554
-0.0007291726385216246 -0.06065790989692448 0.02205731929150123
-0.0015182950623265357 -0.06066159446420683 0.021071022524678074
-0.0022634562679128 -0.06067229979057114 0.020049737804299084
-0.041795386237358456 -0.054489326640289035 0.04988940382569512
-0.04242684625580828 -0.05450504607417773 0.048941218367355876
-0.039347233143524285 -0.055115986779575354 0.045007718686682074
-0.03926862052603208 -0.055247243747055 0.04346780896204172
-0.03930490276703019 -0.05536056147396875 0.04201424089840805
-0.0393176958366766 -0.05547816052498649 0.04053538167859705
-0.03935605311800566 -0.0555921337485878 0.03907118250457631
-0.03943563796520916 -0.05569991829419744 0.03763487321779124
-0.039356403243785754 -0.05583397460558581 0.03606086484267296
-0.0393529116089984 -0.05595628300772442 0.03454280138379928
-0.03937880990029763 -0.05607433020731267 0.033042746407317525
-0.03941678648765845 -0.05619091923643699 0.031546445161761694
-0.03940971483135047 -0.056315403087401676 0.030005573027945764
-0.0393942886350771 -0.05644180681696248 0.02845076304158478
-0.039366742419342626 -0.05657076297529037 0.026878630139807957
-0.039414318797031056 -0.05668789532940677 0.02536412620195777
-0.03935038534029017 -0.05682398384131527 0.02374659015106173
-0.03930014778716184 -0.05695840678393434 0.022133461283740108
-0.0392047435474015 -0.057100928895907135 0.020473359416839587
-0.03918112857059647 -0.05723213709061607 0.018868513076530813
-0.03908590640556486 -0.05737587711486845 0.017193036341574486
-0.03904398128829345 -0.057511349813485255 0.015556936057474935
-0.03897254009525003 -0.05765237651922941 0.013886887656686164
-0.03898038922810304 -0.057780721019800536 0.012280184787694048
-0.039012971287039566 -0.05790548094784367 0.010688619202365135
-0.03891524612555536 -0.05805278815612093 0.008971729000740225
-0.03889819872730205 -0.058187120853088144 0.007320168828249762
-0.03874224380272673 -0.05834560412640975 0.005533579198188199
-0.03787870602189447 -0.058624996187005646 0.0030854486054632257
0.011804376479493117 -0.0608487398527878 0.050074509498615694
0.010162420936088656 -0.06071844416162065 0.04970624141622132
0.009330300589084406 -0.06071293402225159 0.04878173755527515
0.008859484104218107 -0.060763423627656174 0.04760508149923737
0.008835358854110076 -0.06088352215990259 0.046112113607616356
0.008845753607102103 -0.061009485637928185 0.04458878084128537
0.008820384345990973 -0.06113038523612637 0.04308456396428584
0.008785946393563837 -0.061250363011849523 0.04158077811211397
0.00873452762775434 -0.06136817385883163 0.040083174064376226
0.008702036479815822 -0.06148944098174704 0.038565988868188905
0.008810371848129273 -0.06163335987935367 0.03694046840087423
0.00869088506144533 -0.06174196452156839 0.035473984200522446
0.00863320991855654 -0.06186078217497501 0.033956649317125
0.008689850785516762 -0.06199818657743171 0.03234894512793951
0.008641025243297795 -0.06211943532840304 0.030812517346995916
0.008543057395538123 -0.06223337924239272 0.029306583117137353
0.008504021451360921 -0.062357185182097645 0.027750645406284247
0.008497966973849913 -0.06248677339080291 0.026163517242765777
0.007979546188610687 -0.06253495993746089 0.024958207012023503
0.005599482194896144 -0.06228498076576657 0.025169451908703844
0.003702312711847622 -0.06211150552299908 0.025023467907290264
0.002239241088669186 -0.062007165049605656 0.024551944701646233
0.0010342710241670883 -0.061944011939731244 0.02388586709142415
-5.976688158609855e-05 -0.061898521075602994 0.02313665881263327
-0.0009159499140197203 -0.06189136325039592 0.022203566407852204
-0.0017620162559162655 -0.06188581707479013 0.02126288170491636
-0.002544145658929131 -0.061890647562320315 0.02027188393605922
-0.04179715939793227 -0.05562423189649225 0.049890814678758555
-0.04252419037610877 -0.05562466547244722 0.04901908689032736
-0.03934723314347266 -0.056264236504158294 0.04500771868664061
-0.039331998967737924 -0.05638782975356598 0.04351905065790218
-0.03934209947285211 -0.056507790632544956 0.042044475045599716
-0.039335879444044375 -0.05663095932975847 0.040550240428431694
-0.03936789564092008 -0.05674834762143458 0.039080911167472476
-0.03941099735900783 -0.0568644110462042 0.037614523201832284
-0.03943049876888505 -0.05698489362242791 0.0361223836030547
-0.03937858486310086 -0.05711777169513085 0.03456423012030074
-0.03941096613900558 -0.05723718898097524 0.03306972869661806
-0.03937627336074451 -0.05736832665715048 0.031512270430285816
-0.03942263218627812 -0.05748647949295585 0.03001652712691677
-0.03938781480476522 -0.05761876328926212 0.028445244096646338
-0.03936766941963843 -0.057749164760223064 0.0268794245856544
-0.03935393660588604 -0.0578790624451272 0.025312104925942713
-0.039341073122793224 -0.05800938863224472 0.023738525027740764
-0.03929361291233052 -0.05814614571731771 0.02212777171901603
-0.03915980336336283 -0.058298150703023896 0.020434026277187434
-0.03911637043426186 -0.05843547679328922 0.018811536247793192
-0.03901626095566885 -0.05858306827612494 0.0171314371457304
-0.03895528813936727 -0.05872464090007859 0.015478077475396201
-0.038939433544955826 -0.05885913093492598 0.013857297471692565
-0.03892350616413076 -0.05899423839672833 0.01222907666933487
-0.03895217007423063 -0.05912229273675623 0.010633704245801567
-0.03886380138697143 -0.05927108107328439 0.008925021221041662
-0.03884663237453034 -0.05940825342147463 0.007273105468470431
-0.03863397567470428 -0.059579868152572414 0.005434248423223931
-0.03695580232679846 -0.06000637767077704 0.002234301303005226
0.010066542576070037 -0.06194248767847943 0.04977249262902561
0.009169028948067426 -0.06192650890111483 0.04889379137252231
0.008702717536105964 -0.061978689903026074 0.04771460669580174
0.00861705924113565 -0.06209143327453526 0.04626547006378634
0.008645960928987395 -0.06222283687724445 0.04472990903622931
0.008507350991153295 -0.0623281119232439 0.043306898336905264
0.008625713591768114 -0.06247481043873377 0.041695209691833046
0.008635730640366712 -0.06260479330818357 0.04015411769036592
0.008525475084679879 -0.06271604685829157 0.03869346750997338
0.008458736956741653 -0.06283474430815202 0.03719573997583647
0.008485389274628219 -0.06296895326484309 0.03562398000240763
0.008387785400430947 -0.06308369195897387 0.034136767153708614
0.008297749758362227 -0.06320012941699857 0.032638277012692174
0.008359387746175395 -0.06334159840675005 0.031021468764690807
0.008271204028107937 -0.06345935944972683 0.029509371523293526
0.008172445290636876 -0.06357589394132221 0.027999326249697976
0.008115517991426013 -0.06369972896429053 0.026451907297833255
0.008146367137368271 -0.06383840865859342 0.024831732724119038
0.006166755665589718 -0.06364887605367515 0.024737051392794196
0.0038740517061460755 -0.06340723304091529 0.02489185395047916
0.0022515159007669983 -0.06327463332588097 0.02454248702525924
0.0009142952980397689 -0.06318842979423848 0.023978805847390983
-0.00030541964685687484 -0.06312124084362127 0.023327977035710046
-0.0012757270728649406 -0.06309498839515854 0.02248527290490726
-0.0021154644116875287 -0.06309025069840771 0.021541118785673274
-0.002913363922476986 -0.06309243724192654 0.02056409451347141
-0.04176257944109929 -0.05676517233701135 0.0498633003979031
-0.04257991695266794 -0.05675057329629903 0.04906366427408221
-0.03938426097678488 -0.05740630055896367 0.045037496758439766
-0.0393546284620922 -0.05753481329207069 0.04353734668468928
-0.03935661307664823 -0.05765857582633083 0.04205627196212108
-0.039345879608002454 -0.057785011787243594 0.0405584120707001
-0.03937700471855521 -0.05790494226596519 0.03908839429807287
-0.039348010861209703 -0.058035545629133385 0.03756250434219388
-0.03934450839319009 -0.058162403242857624 0.03605098899035142
-0.03932631740864073 -0.05829230529064195 0.03452060395959833
-0.03941831529146583 -0.05840404570695168 0.03307589536802502
-0.03934311915033045 -0.05854475655921613 0.031484303291619775
-0.039346959575359 -0.05867259185754464 0.02995235568670762
-0.03930363280746785 -0.058809059665799246 0.028373478884166747
-0.03928514680656309 -0.05894186960136621 0.026808702119332395
-0.039283308971645 -0.05907240533960465 0.025251256858234927
-0.03927307864336721 -0.059204964603289986 0.023679636383666713
-0.039199296338152556 -0.0593490822320792 0.022045655340786063
-0.03909049755785937 -0.059499898726737555 0.02037336753746727
-0.03903562323892801 -0.059642037878321785 0.018740491597962483
-0.03895035415972414 -0.059790093861067165 0.01707314467096116
-0.03882688514833871 -0.05994546577580575 0.015363912199613583
-0.038787061313006244 -0.06008693456623541 0.01372110924032427
-0.03877552212983865 -0.060224091449360764 0.012096116434570536
-0.03874966115264877 -0.060364377834774906 0.010450800515454273
-0.03869888405830313 -0.0605096767269027 0.008775289247122675
-0.03868514887495195 -0.06064910932428637 0.007125723394102279
-0.038513171595837725 -0.060817109698455704 0.005323416519210811
0.009948431239751143 -0.06316235334263959 0.049854106658255404
0.008966792775142285 -0.06313246758287164 0.049034307925952314
0.008453927676516704 -0.06317811291801148 0.04788842410217142
0.008336745445696625 -0.06328793148411696 0.04646239176098205
0.008313796707963284 -0.06341346855258752 0.04496454094256569
0.008243896762943681 -0.06353189574086618 0.04349401874959513
0.008248619880871555 -0.06366295043119315 0.04196451428213177
0.0082343197218539 -0.06379144213678771 0.04044236075145674
0.008207616431913145 -0.06391843661252714 0.0389229638237229
0.008085253809503867 -0.0640302942725492 0.03746687243041463
0.008066034930430954 -0.06415953563342737 0.03593007577257484
0.008056893372887508 -0.06429096921064734 0.03437960986803518
0.008047714284673935 -0.06442294238796387 0.03282277853104387
0.007946749337090553 -0.06454031291747843 0.031327611879349127
0.007837476590587589 -0.06465679857187454 0.02983290952685913
0.007858479201826751 -0.06479536640613838 0.028234799607004812
0.007777075592424076 -0.06491750328970736 0.026707113682399253
0.007678258331428323 -0.06503725393928368 0.02518662656889087
0.006941639199618044 -0.06505111436736057 0.024146401455517774
0.00422923775979539 -0.06473475225227046 0.024619653439955314
0.002199074444988014 -0.0645313411263226 0.024582892883537877
0.0007566634593237365 -0.06442573641486253 0.02410091477278714
-0.0005319814557790403 -0.0643455516300045 0.023504426922819066
-0.001642530696753075 -0.06429505042439711 0.02277248114326319
-0.002567054622014009 -0.06427576208400511 0.021896614039412732
-0.0033979718087713273 -0.06427223950430579 0.02094762795223426
-0.04178208694495111 -0.05789716600543726 0.04987882195978238
-0.042571072682167865 -0.05788708855821834 0.0490565894730724
-0.039348136356192887 -0.05856058204975395 0.04500844505734136
-0.03930483964022813 -0.05869401161764167 0.043497092244874414
-0.03927314311040703 -0.05882603161943765 0.0419884260819644
-0.03926677149812263 -0.05895427911443309 0.04049376881313177
-0.039264018012944935 -0.059082460379070764 0.038995575430119334
-0.03928865462832892 -0.05920648037203656 0.03751348362101031
-0.039260305912207305 -0.05934018634118565 0.035981078800172095
-0.0392180640651299 -0.05947687883445714 0.03443024796638311
-0.03914710719370307 -0.059619147167041746 0.03284832474258781
-0.03921689044297211 -0.0597375844454807 0.03137782342923612
-0.039186275530321446 -0.05987402448213442 0.029816093352641848
-0.03912866141860122 -0.060015776597733946 0.028224315650898446
-0.03912091095710907 -0.06014943236572965 0.02666795082827378
-0.03912149949714078 -0.06028221696324109 0.025111852587283323
-0.03903535240003142 -0.06043082709885328 0.023473746490118907
-0.03899461022516809 -0.060572102461689 0.021867446129746115
-0.038958364541557045 -0.060713212780050756 0.02025772033899531
-0.038903153316653394 -0.060858306268665584 0.018623939200047124
-0.03876285253453604 -0.06101912994234555 0.016907305418744578
-0.0386964958785721 -0.06116753801549811 0.015247980889737112
-0.03861180849635454 -0.061319875801458285 0.01356447065311761
-0.03855900866591033 -0.06146720869099772 0.011901584091056128
-0.03848023094912778 -0.06161985182388327 0.010207454252448733
-0.03848606944264377 -0.06175801722720666 0.008582070300764522
-0.03841918338950423 -0.06190987370627094 0.006882983144739729
-0.038303000810504084 -0.06207129594732438 0.005130594981022696
0.009893856588775729 -0.06439188705416012 0.04989181732429926
0.008822466014286101 -0.06434665852794812 0.04913458820079092
0.00821764812168907 -0.06437801994713895 0.04805350116546547
0.008012438842017133 -0.06447539831408951 0.04669021860306921
0.007909940911235591 -0.0645901444979636 0.04524981385720722
0.007823774576042886 -0.06470806418585291 0.04379241379729387
0.007874483135803023 -0.06484917485370527 0.04223170713084523
0.007856088410983342 -0.06497937777911376 0.04071395912065323
0.007759225462411146 -0.06509704555181452 0.03924670544196601
0.007756235158901337 -0.06523086865291323 0.03770572560223673
0.007716134536542685 -0.06535903769607575 0.03618547560813412
0.00771980166650138 -0.06549507409015023 0.03462700254643697
0.007522663575886546 -0.06559794709240538 0.03321021416789138
0.007623143340436012 -0.06575134161565888 0.03156770040614837
0.0074624319649108095 -0.06586132181509138 0.03011267321931349
0.00747693916472747 -0.06600137666247256 0.028520953165254437
0.007351721106754361 -0.0661183524392657 0.027027857125794086
0.007221507562836071 -0.06623497118803388 0.025532909386712876
0.007079440938573489 -0.06635006428954154 0.024041362975673608
0.004662862544773494 -0.06607796916166327 0.024287340595365414
0.002167839511990566 -0.06579132654390137 0.024606959230615677
0.0005437331634500775 -0.06565254022637533 0.02426586044509038
-0.0008090165081597878 -0.0655597102474362 0.02372018616287097
-0.0019888589190827366 -0.06549620698161658 0.023043657086330105
-0.0030077213300387373 -0.06546016321251309 0.022243510228926122
-0.003910833064645403 -0.06544394703126793 0.02135352196806989
-0.0417820869448835 -0.05903240455457518 0.04987882195972859
-0.042265663697015066 -0.05907507657447358 0.048812283535511425
-0.0392442357520289 -0.0597268801131036 0.044924887382640666
-0.03919072357639114 -0.05986474341865042 0.04340482900080367
-0.03916420828723294 -0.059998490847352925 0.04189988191103944
-0.03911754909053489 -0.060136338908719035 0.040371831599067154
-0.03917375753253305 -0.060256757438613154 0.03892142621435518
-0.039147944149445 -0.06039210369590988 0.03739727460945075
-0.03915224666071271 -0.0605227383450512 0.035891361220185714
-0.03910698767971832 -0.06066268473967436 0.034337535660221186
-0.0390928141902559 -0.06079774763949034 0.0328027675012913
-0.0390075335400456 -0.0609459995173862 0.031201221017002068
-0.03898382157336061 -0.061083970634683855 0.029644409544769823
-0.03896185630276355 -0.061222237899740684 0.02808211417118678
-0.03893328609110913 -0.06136229264068009 0.02650715498368822
-0.038874772638668176 -0.061508317880650816 0.024899289151582682
-0.03884119874137065 -0.06165052254215292 0.023305593931307267
-0.0388102778603055 -0.06179288206697404 0.021706957834608076
-0.0387041214598659 -0.06194941112562106 0.020035198361133266
-0.03860307499962573 -0.062105716562956825 0.018359918154277288
-0.03850907049674901 -0.062261447720363954 0.016682843239654688
-0.0384221672548945 -0.06241658999891962 0.015004070660494473
-0.038341474953469956 -0.06257130105782409 0.013322850204208259
-0.03830035537260312 -0.06271950806670024 0.011669190084735048
-0.0382609485642913 -0.06286807089816059 0.01000940092288305
-0.03820700828020984 -0.06301996120042137 0.008328704696114297
-0.03815472457328151 -0.06317223591076014 0.006641617995844673
-0.03771431231929451 -0.06339645985652245 0.0045905017410963755
0.009699070800551546 -0.0655976568000317 0.05002641281283693
0.008505320941420147 -0.06553101284872019 0.049354945083201485
0.00782558844463499 -0.06555030524059273 0.04832741424343495
0.0076022736054189854 -0.06564637952184564 0.04697836151945728
0.007546849918141529 -0.06577111880042483 0.04550629160673891
0.007482325064648243 -0.06589483288659286 0.04403493096590838
0.00741421758870997 -0.06601844859742614 0.04256040957537505
0.007348084170255398 -0.06614290682984753 0.04107874415922924
0.0073621384712498905 -0.06628149231199808 0.03953340520588988
0.007293403808203924 -0.06640656436684932 0.038041720950616975
0.007171717728171767 -0.06652312609399688 0.03658285716517812
0.007132691178654005 -0.06665429244748702 0.035057884805936856
0.007089009882557784 -0.06678520660332588 0.03353020782190275
0.006951620668697089 -0.06690058978393966 0.03206591394556607
0.0069582216249082784 -0.06704120732353916 0.030488787784982152
0.0069399599876727724 -0.06717812940530653 0.028923685479766925
0.0067935720764104035 -0.067293506513246 0.027448735823330683
0.006668234278526752 -0.06741300923862235 0.0259523701628967
0.006624268742192074 -0.06754712074212482 0.024388315023867235
0.005587405649470301 -0.06750931107803836 0.023578807412504843
0.0021778787596342664 -0.06705829206358457 0.02459922404455933
0.00031664637461970013 -0.0668754725973193 0.024441772392712224
-0.001133001857996918 -0.06676383312420264 0.023972511030313115
-0.0023729310867067754 -0.06668846128538544 0.023344386641549753
-0.003535830900476322 -0.06662629249238973 0.02265924210586212
-0.004543161848927002 -0.06659122983375396 0.021853966223979004
-0.04170404354473428 -0.06018140375787582 0.04981672506235563
-0.042462250556665415 -0.06017639915716875 0.0489695393445867
-0.039096860264852595 -0.06090157089919709 0.04480636686858369
-0.03901759354987294 -0.061046711963326554 0.043264852757709304
-0.038980678652510814 -0.06118494720917437 0.04175070574429002
-0.03893448386476134 -0.061325433975944 0.04022223969806654
-0.03889355723037391 -0.061465588436945 0.03869124094869775
-0.03893849268853772 -0.06159098211397509 0.037224294264029456
-0.038872625979338715 -0.0617367981530818 0.035659202561856895
-0.038857952721717604 -0.061874046476451484 0.034129673249272074
-0.038838605506003765 -0.06201273674065402 0.032589461078127435
-0.03878498553283177 -0.06215822301449425 0.031013491286754513
-0.03871721754985291 -0.062306908183984266 0.02941832557665719
-0.03869555985904355 -0.062447884771775694 0.027855096263799617
-0.03864681022165378 -0.06259440719363804 0.026261643126094303
-0.03857263269193412 -0.06274620907643076 0.02463898548809912
-0.03855423460634244 -0.06288849970636191 0.02305706009514369
-0.0385226246917752 -0.06303383924733232 0.021456513661969767
-0.03834510313517747 -0.06320658241548306 0.01972097361540187
-0.03823643981224267 -0.06336744036242904 0.018037337680793963
-0.03815182188311994 -0.06352458788947453 0.016366868149410907
-0.03807342376466333 -0.0636812908701162 0.014693996912050644
-0.03803648539308946 -0.06383102603831657 0.013050254677565654
-0.03800795246096189 -0.06397987601333255 0.011406472826325564
-0.03795921805063307 -0.0641331516695376 0.009736881391019414
-0.03787192091795122 -0.06429430331942099 0.008024471705006364
-0.037735166967212797 -0.06446541840228177 0.006258697942336078
-0.03721736890853139 -0.06470861290986143 0.004134580178526637
0.00962343470062793 -0.06682247629351495 0.05007867677887423
0.008242900625290317 -0.06672269634553657 0.049537278430590526
0.007455294466705287 -0.06672382853660089 0.04858612068325657
0.0071830225324130414 -0.06681320385668087 0.047272887276629316
0.007062669871261307 -0.06692900987242033 0.04584830341962853
0.006955197747054442 -0.06704750439515876 0.04440932723913793
0.006907288336427675 -0.06717674633340616 0.042922437290639104
0.006892564242054977 -0.06731224832759922 0.04140584153609883
0.006820941906836575 -0.06743846561087263 0.03992415315459491
0.006736772548036507 -0.06756302879950954 0.038445810936953206
0.006667943784668062 -0.06769077182633321 0.036950572619568245
0.0066279756944115364 -0.06782406781557004 0.03542829710950918
0.006510431153449958 -0.06794438601826647 0.03395714185822857
0.006452020301343175 -0.06807554076323337 0.03243657554462903
0.00638212595007176 -0.06820523103792035 0.030918525054002943
0.006317603205834577 -0.0683364060490021 0.02939045066901874
0.006136508851105615 -0.06844762700006805 0.02794420190753233
0.006133497295451873 -0.06859070265716556 0.026357777755014244
0.006054528455105845 -0.06872096392516755 0.024822595854538554
0.005175451312717294 -0.06871015662867307 0.023894512884678087
0.002096464396404152 -0.06830910226449445 0.024661953371456546
8.761677908003529e-05 -0.06809656467900684 0.024619189328421776
-0.001464132609836688 -0.06796454584738747 0.024230400848806455
-0.002808736255704547 -0.06786894195972976 0.023685623278002443
-0.004046141267850967 -0.06779210686598489 0.0230609623145544
-0.03961221024232392 -0.06156105038570287 0.04960867906472588
-0.041645487563859274 -0.06132742136812988 0.04977013374613909
-0.04232501787319792 -0.06133650923392359 0.048859762746554514
-0.03887872986779439 -0.06209001200298237 0.044630944705196074
-0.03878345503906222 -0.06224087066197508 0.043075550937764495
-0.038796042979118595 -0.06237283565122056 0.04160063056954488
-0.038735715064127985 -0.06251861184622408 0.0400598156078511
-0.03869339569133473 -0.06266174237276875 0.03852680773187711
-0.03864446492149742 -0.06280670011934769 0.03698146461516588
-0.03861092976810332 -0.06294947469931411 0.03544192592483708
-0.038611319659800414 -0.06308665774761503 0.033923815632809495
-0.038530473167523005 -0.06323935312810192 0.03233090733447469
-0.038486263842551216 -0.0633859769761237 0.030761505465638772
-0.03841957780074429 -0.06353738865663973 0.029165922875973305
-0.03839722731737788 -0.06368127390641866 0.027600767560162665
-0.03834027452408395 -0.06383220158146605 0.02599893985313695
-0.03826715676500342 -0.06398679637333152 0.024375807766167212
-0.03823773969159211 -0.06413394692947968 0.022782950247648537
-0.03807002859993536 -0.06430753195906676 0.021062462540129945
-0.03795610657069981 -0.06447183920719174 0.019380510919884963
-0.03788509635280091 -0.06462884345925031 0.017728211488321932
-0.03781658322778514 -0.06478608055815724 0.016070360170565068
-0.03770971477821583 -0.06495123616560809 0.014370617087252346
-0.0376766460769985 -0.06510322054550356 0.01272863518424866
-0.03767016790415745 -0.06525086454641575 0.011102981208548413
-0.037548744027776304 -0.06542094097178873 0.009366145971539064
-0.03742860709747986 -0.06559154161814366 0.007621977595134832
-0.03726640069318049 -0.06577091746093215 0.005830866330802653
-0.036320228317579806 -0.0661005747501162 0.003311497044285572
0.009647902015595455 -0.06806417064356926 0.050061770051534005
0.007990777412714978 -0.06791451089851748 0.0497124572047849
0.0071606667230727505 -0.06790817741367028 0.04879196279566145
0.006610360850801411 -0.06795061513295095 0.04767518467367787
0.006445065451642085 -0.0680605078646286 0.046284562634694604
0.0064637576165295085 -0.06820306853957608 0.04475837641045366
0.006300929483089468 -0.06831436263151662 0.043355473477278195
0.006255067077197141 -0.06844668022816497 0.041863612179000476
0.006167930412477152 -0.06857227055011525 0.040395632315181174
0.006150566193900364 -0.06871069788956488 0.03887137114994205
0.006035037730912518 -0.06883233037747868 0.037412544383181756
0.005929144386153107 -0.0689561750872502 0.03594117163541943
0.005934684547933999 -0.06910033084134297 0.03438198606667853
0.0057945941784682264 -0.06921916055983827 0.03292433062627809
0.005763960971112758 -0.06935801253241398 0.0313796438255291
0.005451205331307163 -0.06944700995852189 0.03004024573781633
0.0054445284068915245 -0.06959121199336893 0.028465997722356473
0.00549645325644027 -0.06974653925428607 0.026840748819486837
0.005285420515478478 -0.06985521448388578 0.02540884338252264
0.005001425746954613 -0.06995119437377084 0.024027879179210565
0.0019705072683433023 -0.0695513307011069 0.02475900265794212
-0.00018310350443107026 -0.06930860139160927 0.024828901802575132
-0.001819924577925347 -0.06915859994834936 0.024507497208966167
-0.003236997142357534 -0.06904791305154272 0.024020952720794075
-0.00455833903421482 -0.06895419642119202 0.02346416829810899
-0.03971253850637363 -0.06268275153167434 0.04968808190814705
-0.04151233103950486 -0.062487478557159144 0.04966418491495583
-0.03861277303283295 -0.06315307095732117 0.04589022517473912
-0.038540579503543115 -0.06330196557015776 0.044359001549875654
-0.03852626187054431 -0.06344084292770083 0.04286760934494732
-0.038476328073223376 -0.06358689242909175 0.04134076058077546
-0.038418852069683374 -0.06373496825749554 0.03980089074926357
-0.03831987034529205 -0.0638913787974424 0.03821995570371706
-0.03829023269661269 -0.06403558746005454 0.03668891371886518
-0.038291765370464415 -0.0641746209859614 0.035176935588721425
-0.03821855518890255 -0.06432820518799255 0.033595986276997614
-0.03818108234669726 -0.06447577870423755 0.03203773361188578
-0.03814436465645149 -0.06462385707323037 0.030473097392334003
-0.03807028551478647 -0.06477960165511763 0.028869718096309893
-0.03802008805468304 -0.0649315367003825 0.027279256070882107
-0.037894873944867624 -0.06509829132523272 0.025617228388975122
-0.037821518790264685 -0.06525597946738365 0.023991875754972414
-0.03776096551196745 -0.06541194051423528 0.02237002576900521
-0.03764829071978709 -0.06557849041246987 0.020695278006743367
-0.03753220492361503 -0.06574643024699744 0.019009498138334247
-0.03747239418050807 -0.0659043857934751 0.017365099417448182
-0.03733341540209295 -0.06607817999241167 0.01564301352315578
-0.03724327535628402 -0.06624339603991078 0.013955897890961355
-0.03716224158661374 -0.06640760510555829 0.012268867437481012
-0.03712584356754306 -0.0665639631374943 0.010613918371936315
-0.03699511874255035 -0.06673921914310847 0.008866117977258836
-0.03687527050088385 -0.06691316449108906 0.007119591451004659
-0.036642620002079906 -0.06710975259123514 0.00526155681964402
0.0077754033620915375 -0.06911123201832498 0.04986210214146536
0.006757516697573074 -0.06907143081784298 0.04907362416210914
0.006036081955387074 -0.06908410759819551 0.04807861817066844
0.005905301079724035 -0.06920193128927948 0.046665837725567094
0.005811529341334554 -0.0693268357561787 0.04522162661088458
0.005654530411918379 -0.069440956346742 0.04381710471641326
0.0055456174861709395 -0.06956415465367582 0.04237305004522657
0.005540348820430474 -0.06970645366683546 0.040848750896972486
0.00548847490836718 -0.0698409618914677 0.039352020509167696
0.005344209575183445 -0.06995938319086162 0.03791679473686749
0.00528954229385542 -0.07009446863659896 0.03641057765083672
0.005230205733049276 -0.07022927042417683 0.034901821948665646
0.0051326865460157856 -0.07035771208874256 0.03341541061242026
0.005001274490643415 -0.07048053304016236 0.03194856808507851
0.004911941953383403 -0.07061152649359845 0.030444691194182527
0.004814427102301622 -0.07074157599987446 0.028941132860060614
0.004699706037648577 -0.07086902620102686 0.02744479787859494
0.004475502333392833 -0.07097695866717708 0.02602619825256486
0.004333894606335931 -0.07110050670400343 0.024539448581781753
0.0017800561795681125 -0.07078086860960033 0.02490574419262609
-0.0004468254945441674 -0.07052014588983109 0.025033193074429527
-0.0022188508441574606 -0.07034233902133252 0.02481818723645296
-0.00368606945441996 -0.07022020035470711 0.024372577566466824
-0.005058323163060985 -0.07011515825002758 0.02385775961316733
-0.0398799202892709 -0.0637913210800955 0.04982055294833532
-0.04141195116804475 -0.06364231539574589 0.049584315527352874
-0.0382594078394502 -0.0643672819594467 0.04560755760741925
-0.03821176537914406 -0.06451443189904564 0.044094566671324
-0.038144764062068126 -0.06466584510092149 0.042559167007975685
-0.038050944489519456 -0.06482295083367577 0.04099500120239963
-0.038029967851159086 -0.06496701837128215 0.03948311368771423
-0.03796390250805759 -0.06512021931993928 0.03792752721399767
-0.037902128476203445 -0.06527327381930202 0.03636838884969007
-0.03785575449502182 -0.06542407532365209 0.03481493196523355
-0.03779898794508141 -0.06557750857983298 0.033245785407384376
-0.037753085468612724 -0.06572954417263796 0.03167860157256114
-0.037723705777243044 -0.06587909330079485 0.0301182518068413
