# .PCD v0.7 - Point Cloud Data file format
VERSION 0.7
FIELDS x y z
SIZE 4 4 4
TYPE F F F
COUNT 1 1 1
WIDTH 771
HEIGHT 1
VIEWPOINT 0 0 0 1 0 0 0
POINTS 771
DATA ascii
0.01709708968964896 0.06418134225588717 0.046437431087123004
0.01577815232187907 0.06409936709343114 0.045825814018218114
0.014499126432474474 0.06402348713913056 0.04519036425005496
0.013243595317878998 0.06395109018801642 0.044542115662715764
0.012047529318553019 0.06388801441786233 0.04385554946474424
0.010889926219282975 0.06383091366681211 0.04314483207582909
0.009744507642011013 0.0637755576632501 0.04242819821262289
0.00863355410500577 0.0637255823628342 0.04168961032450291
0.007498672879881041 0.06367150044044442 0.040970610203159896
0.0063757220475917364 0.06361914495709142 0.04024560520762349
0.005255724116799809 0.06356705684678012 0.039520987419426945
0.0041243161769379255 0.06351288147719245 0.03880722120895436
0.0029684525473209766 0.06345446124552043 0.03811403281845904
0.0017961008464849049 0.06339308225773962 0.03743585264600552
0.0005922150675307658 0.06332624228366769 0.03678405989430289
-0.0006590687349057323 0.06325128292023448 0.036170888344917496
-0.001956012666658624 0.06316844136295414 0.035595630705966386
-0.0032710667002522897 0.0630822445682625 0.03503809248115314
-0.0045975148843208635 0.06299378937659854 0.03449342938653116
-0.005959634265508829 0.0628990118118504 0.03398031329946777
-0.0073420152373822045 0.06280044785378189 0.033487403006335126
-0.008697950467503157 0.06270589781890291 0.03297899168996826
-0.010061336779173702 0.06260969685703359 0.03248103895847243
-0.011405950138667187 0.06251624608248223 0.03197324413279218
-0.012739294272221813 0.06242429800726162 0.03146127730121606
-0.014040853101009332 0.06233732830678818 0.03092887560836305
-0.015316190548103736 0.06225442685123531 0.030380069202783355
-0.016562578327512623 0.062176082639455184 0.02981238155073851
-0.017796672544378556 0.06209949292373551 0.029238793182157774
-0.0189993589923676 0.06202792598636493 0.028643799892806354
-0.020188179060436517 0.06195841884790162 0.02804120407640487
-0.02132913101215622 0.06189680357865142 0.02740321239168253
-0.02245380753589754 0.061837713188099365 0.026755041373574373
-0.023524509448947517 0.061787643524093695 0.02606552884486185
-0.02455375077493277 0.0617444978552004 0.025344321623910093
-0.025531070105352438 0.0617101272224162 0.024582204621275527
-0.026471773624755723 0.061681941110045484 0.023791281120664642
-0.02735650869649059 0.061663335312609056 0.022954837429987496
-0.0281935915488698 0.06165292779233299 0.022079151409048925
-0.02899023652099464 0.061649516256515775 0.02116970862096762
-0.029717394792003637 0.061658216425424246 0.02020120416812038
-0.030307122279611964 0.06169099203308994 0.019114471246322318
-0.030790149555887103 0.06174261589920473 0.01793411612802337
-0.031061203153144756 0.06183170742676361 0.01656749703049626
-0.03103372748944505 0.06197375567943907 0.014936332871354652
-0.03069674113278964 0.062171051764033154 0.013026873509097647
-0.030453327336555314 0.06235267885298687 0.011189440386750849
-0.029625307193425432 0.06263873748517222 0.008825435808573923
-0.028582454609748675 0.06296424085342683 0.006255415362388883
0.02911648177950582 0.06390862950859254 0.0489839446837933
0.025880884015513084 0.06353355222457738 0.04960931729859425
0.023696722632028044 0.06332066803097697 0.049549866691015576
0.021874549962682066 0.06316339976250938 0.04925732067085392
0.020216087825158824 0.06303108939175053 0.04886168133998853
0.018696418244842083 0.06291998485361563 0.04837808213045952
0.01728453054601392 0.06282534759517469 0.04782618199164779
0.015960520226586283 0.06274414730403068 0.04721846570833299
0.0146752921906656 0.06266872929147373 0.04658788192626567
0.01345108635044262 0.06260264042436893 0.04591855732280542
0.012246432701553567 0.06253937624921134 0.045238784811469146
0.011089296245896274 0.062483387676381286 0.04452871249149115
0.009955566853360465 0.062430888998896115 0.04380483849841632
0.008850596168284541 0.06238275357858801 0.04306310578274858
0.007750673203825609 0.06233522593484228 0.042320127017050235
0.006639092565087268 0.062285639530896 0.041587853157356414
0.005543669887764224 0.06223843701074383 0.0408463530616322
0.004449906262401937 0.06219130598029056 0.04010597599099075
0.0033577979228243127 0.062144246277249196 0.039366719396076444
0.0022454381986390937 0.062093727638993755 0.038644655354863
0.0011196115843976617 0.06204082425024822 0.03793503499866363
-4.993991648843954e-05 0.06198062424093357 0.03726048507085644
-0.0012799820358758707 0.061910362931963024 0.036634057221047844
-0.0025266264423647877 0.06183710987303469 0.0360235888399173
-0.003802489336545367 0.06175879162969074 0.035438817833782776
-0.005118871733280683 0.061673532004093506 0.03488869291133062
-0.0064475495240428615 0.06158590305109625 0.034352223533966
-0.007781964183936674 0.06149696465132413 0.03382456243764215
-0.009102019279001727 0.06141000900690335 0.03329032452559849
-0.01042985164078436 0.06132140541434308 0.032766507643671616
-0.011722635308655305 0.061238206649987734 0.032219883505770985
-0.013002593103843718 0.061156774182600473 0.03166744100480684
-0.014259562662139014 0.06107880250534393 0.03110104544099257
-0.015508199971841274 0.06100188109591222 0.030532031307907215
-0.016729178871733308 0.060929231408213276 0.029944940830280042
-0.017938099627652915 0.06085828039404525 0.029351925008186286
-0.01912395643883752 0.06079087756729608 0.028744002129207635
-0.020286015300129523 0.06072716872040235 0.028120305024669723
-0.021398443434588077 0.06067151185581697 0.027459550767237773
-0.02248482470935409 0.06061999384609012 0.02678038708257746
-0.023520521961274965 0.06057679300212256 0.026062253113529166
-0.024521961948097915 0.06053918953945204 0.02531806808419923
-0.02549542463699167 0.060506157199680555 0.024552609513826817
-0.026395758658218582 0.06048538375009987 0.023727833585670044
-0.0272698735240966 0.06046897611289365 0.022882141885388396
-0.028099316720450684 0.060460106303949025 0.021999626149174334
-0.02887853712858568 0.06045977164681044 0.021074985962474535
-0.02960982205697532 0.06046763711203162 0.020109498335113773
-0.03023093701339724 0.060494428508253394 0.01904917993133226
-0.030723768912241656 0.0605433840540956 0.01787692698467419
-0.03104850613879262 0.06062150785220283 0.01655650040304507
-0.031113006871808624 0.06074489916846915 0.015005357173867195
-0.030989442241684706 0.06090137448754075 0.013283055227949092
-0.030838661697815795 0.061063266196018366 0.011528473150059892
-0.03031242394856809 0.061291125218037354 0.009433168828189398
-0.028808660744646553 0.061690251567947746 0.006456539071170608
0.02922411348448828 0.06252217591718968 0.05043235478478442
0.02630956497576492 0.0622039051734808 0.05083922264878671
0.024113061568261873 0.06199369829009452 0.05078433098052437
0.022291629629494658 0.061839875672720465 0.05048900670700107
0.02061528992828693 0.06170761760551609 0.05010368606786425
0.019052499184178673 0.06159222210182503 0.04964810289966032
0.017610588576438102 0.06149491631829237 0.04911603292024136
0.01625681859720607 0.06141077427720526 0.048528515210725154
0.014969452660208327 0.061336525881813236 0.0478995134634026
0.013754455735690119 0.06127315241388978 0.04722417286746139
0.012569111961111878 0.06121411021292601 0.04653136560339022
0.01141421869377951 0.061159549343439305 0.0458202123689051
0.01027260785373374 0.06110682977541404 0.04510243974602318
0.00916092462896001 0.061058554261236235 0.04436615247555564
0.008058798037593629 0.06101157205952905 0.04362548655753751
0.0069905743893509675 0.06096969712295722 0.042862957867588536
0.0059127471869600545 0.06092614570182324 0.04210942346236013
0.004857416948531534 0.060885946297683555 0.041341832792898936
0.0037869880794289545 0.060843206056253915 0.04058722564164641
0.0027191564839658122 0.06080069845159457 0.039832877540836586
0.0016397157503268978 0.06075618107027251 0.03908919699150709
0.0005466261416358642 0.06070931855464233 0.038357841741337106
-0.0005892079384645643 0.06065548158315867 0.037660576744943663
-0.00178454225325142 0.060591963456965346 0.037010432776953595
-0.0030053106227677095 0.060524129112224864 0.03638260013147532
-0.004268270773051974 0.06044927689933486 0.03579004568454658
-0.005554723337609202 0.06037035333441691 0.03521913115484859
-0.006851593028860847 0.0602894283337876 0.03466020306933831
-0.00814288194123075 0.06020905865735004 0.03410115549861176
-0.009419190265199495 0.06013076070560488 0.03353470305643924
-0.01067651657153279 0.060055193014384146 0.03295758572708385
-0.011943162288146125 0.05997779856856879 0.032391633373150486
-0.01315687374683061 0.05990864921279876 0.031788243169231956
-0.014399730446714332 0.059834474545085184 0.03121138658879491
-0.015605668073820855 0.059765988778620535 0.03060917053196688
-0.016803742283581613 0.059698491950280125 0.03000426880067175
-0.017996063244584748 0.059631645695212544 0.029398291868584503
-0.019139145414553915 0.05957257337549835 0.02875621722171995
-0.02026282178893446 0.05951643060923616 0.02810155298825784
-0.021356256428559317 0.05946501799461834 0.027425260414862096
-0.022418781731795012 0.05941847620900835 0.02672642000871589
-0.023435766930912982 0.05937925291515649 0.025992626639077365
-0.024420597424578194 0.0593451806197058 0.025234353842169377
-0.025365654719898267 0.05931755647455436 0.02444486637517268
-0.026249560911306258 0.05929997592733535 0.023605806475932134
-0.027100419217535254 0.05928782351303473 0.022739952832608157
-0.027899799679595605 0.05928421159476408 0.02183132412423855
-0.0286549267589577 0.05928798770510849 0.020885361218588527
-0.029375869908519092 0.05929751220408404 0.019910053962408913
-0.029998270724337694 0.059323638165886275 0.018849783266841447
-0.030498082980110197 0.059370525380042234 0.017682491010333368
-0.0308149130681169 0.059448505494394906 0.016354190166783078
-0.03097106172316577 0.05955401304548048 0.014881773152549072
-0.030937420223205447 0.059692166767953164 0.013237523831903297
-0.030751025378711883 0.05985689177934327 0.011451367170372928
-0.030059899704786452 0.060108306750878186 0.009209819128082497
-0.028289760124088847 0.06054501143451122 0.005995175733952418
0.029822441633417185 0.06121331974475658 0.051554798771152266
0.026946884985870945 0.06090789206921627 0.051929132601244044
0.02469961655315367 0.06069477565281531 0.05190334461680002
0.022841416731037067 0.06053884153561573 0.05162955165560862
0.02118593667164992 0.060412581534692075 0.05122803287838834
0.019616054391472126 0.060298634132263065 0.05077528554590954
0.018106187878759894 0.06019323472457161 0.05028767567180048
0.01673445492672243 0.06010818088861324 0.049711470250400513
0.015439581274321323 0.060034363868825096 0.04908701112039865
0.014189904187434432 0.059967071698024885 0.04843520825895614
0.012988269238994432 0.05990677449634763 0.04775360187136296
0.011842008713663366 0.05985462630946821 0.047036567224057135
0.010704478526183725 0.05980359204085376 0.046316073395281265
0.009595734011863422 0.05975673093786822 0.04557794665255893
0.008503217304098365 0.05971215334986688 0.044830739308441725
0.00742565995820843 0.05966967944827969 0.04407517779805903
0.006361812632705299 0.05962913085483047 0.04331199327278368
0.005321478835804694 0.059592023804257 0.04253399835956162
0.0042967377025074915 0.059557161583161086 0.041746647382775115
0.003245787027293834 0.05951811699353141 0.04098011397080109
0.0022005836271320467 0.05947979834042477 0.04021139504088589
0.0011567251962199543 0.0594415289958195 0.03944366529956567
6.971905541169887e-05 0.05939641090854126 0.038709752133183006
-0.0010491494568187765 0.05934615470381456 0.038001814802016254
-0.0022178075795411534 0.05928793712854592 0.03733362606968921
-0.003428130208374236 0.05922297593318473 0.036699713192109296
-0.0046528806483343566 0.059155487034317465 0.03608006518573398
-0.005903531388020855 0.059083657113050574 0.03548357785725442
-0.007161724865563768 0.05901034093800843 0.034896599046090715
-0.00840100759567225 0.05893969107975642 0.03429897276704447
-0.009632085753636999 0.05887003645253218 0.03369873787977118
-0.0108759089418351 0.05879807339505208 0.033112044295023735
-0.012079300419866545 0.058732206813757605 0.03249765988347714
-0.013272758415634356 0.0586676364582411 0.03187898118110544
-0.014457415626790981 0.058604190502481765 0.03125679680199128
-0.015642589848389232 0.058540391393163596 0.03063839154872272
-0.016809869433204172 0.05847917695664404 0.030009143998069254
-0.017961490670853564 0.05842020593926842 0.029370636215182377
-0.019084459167261092 0.05836557673735608 0.028712238115932542
-0.02017808984934466 0.058315427488006985 0.028033046913301385
-0.021247730344529592 0.05826892586789749 0.027337048474417758
-0.022274603944891003 0.058229126323371024 0.026608605010624897
-0.023262143702627858 0.05819551707150088 0.02584999471249072
-0.024210729950234156 0.0581680767713368 0.025061029922405387
-0.02514056304540646 0.05814356381805754 0.02425798112443145
-0.02600233281935066 0.05813002604828403 0.023399452204785565
-0.026830140897553312 0.05812197084527249 0.022513162383400287
-0.0276291599391309 0.0581185883266641 0.02160302675097614
-0.028344543327138094 0.05812889819027234 0.020622151695420254
-0.02898264271634815 0.05815194751206121 0.019574827501824876
-0.029593797120447074 0.058179533996976146 0.01850314651161422
-0.030086023346422686 0.05822686296048213 0.0173274878623485
-0.03042032721608301 0.058300512986089736 0.016012447337170554
-0.030612262767099108 0.05839808183128078 0.014569386161803533
-0.0306161138025709 0.05852732159397775 0.012956305795432943
-0.030358589423949645 0.05870064328160641 0.011106086137740279
-0.029594507806018078 0.05895924385994606 0.008798194725349984
0.030708593183086885 0.0599476660492514 0.05248854879090742
0.027761334413996086 0.0596388044412886 0.052901957165168656
0.02546511657548378 0.05942342200980589 0.052903070037537636
0.023573478188229524 0.05926615311510994 0.05264768434614042
0.02184682700662921 0.059132352822745045 0.05229062287116171
0.020247294906661717 0.05901662022360112 0.051855404903290825
0.018743899816074494 0.058914520845571625 0.05136147222165466
0.017353486992382094 0.058828612009997214 0.050796395148928475
0.01603561716229507 0.05875303766954097 0.05018641387663847
0.01476659580270584 0.05868436480900206 0.049546926034514716
0.01354921345311566 0.05862304779716446 0.048875481960875766
0.012373838550745142 0.05856770467131085 0.04817816877335007
0.011242247608791056 0.05851863548940977 0.04745328972290125
0.010110312452837333 0.058469315496705795 0.046731188408378865
0.00903047497061843 0.058427558566856275 0.04597504366158356
0.007961072100802158 0.058387189317753996 0.04521369615481213
0.006903117246575219 0.058348367914664453 0.0444463178192816
0.005867549466518074 0.058312744156113434 0.04366497539797831
0.004842051388543156 0.05827848701008649 0.042878263123165006
0.0038287300173132643 0.058245922158404795 0.04208455241579412
0.002809977773312211 0.05821240353455849 0.041296492457042866
0.0017771344687521062 0.05817661591543231 0.040520479704141465
0.0007401275283931974 0.058140049203421994 0.03974940765663676
-0.0003410542639499803 0.0580966242551329 0.03901286232791912
-0.0014378824047153738 0.05805063832025802 0.03829022206808569
-0.0025770359461031456 0.057998008219190635 0.037601591659337075
-0.003747303350101039 0.057940405051895405 0.0369390918190477
-0.00495254764913311 0.05787720620618612 0.036306032535194654
-0.006155165557928166 0.05781414507930751 0.03567435277304576
-0.007375238259067274 0.05774813546370905 0.03505934824250856
-0.00858411371978135 0.05768357267441321 0.034439298041503974
-0.00979343089337259 0.05761866906622691 0.03382305343801173
-0.010968746603314816 0.05755875102769181 0.03318396064880047
-0.012140581920277782 0.05749911847966693 0.03254538687630476
-0.013305854984446308 0.05744025204903796 0.03190489588479167
-0.014463595111077365 0.057382307759369755 0.0312616613390963
-0.015601565196471434 0.05732720082103798 0.030605923389889433
-0.01675165323331601 0.057269963438815345 0.029962823035848463
-0.0178567161271736 0.05721953594184739 0.029286823870521173
-0.018952739649177652 0.05717031131193607 0.028606308254096657
-0.020022645110895854 0.05712498497670001 0.027907369288602546
-0.021044571440217097 0.05708702984216614 0.0271719172865732
-0.022027030324437924 0.05705514843889724 0.02640630002143496
-0.02299739515970034 0.05702504451163123 0.025632503106605253
-0.023930856494424835 0.05700066778571296 0.024829889939659844
-0.024838674532665472 0.05698026435559466 0.02400733431340718
-0.025689345820073373 0.05696888274554941 0.02313821084016826
-0.026511000499810644 0.05696208756413699 0.022245371780849343
-0.027276217536519154 0.05696429977299372 0.021305303204202042
-0.027957769070588112 0.05697994814491686 0.020294161676612077
-0.0285422910405701 0.05701127069339055 0.01919942738549929
-0.02913433733085241 0.05704151852848658 0.018109386204166467
-0.029606196864908063 0.05709131515184357 0.016914101309776552
-0.029900045023199262 0.05717015216961877 0.015561841447788993
-0.030078596837849914 0.05726804687522302 0.014104751884354283
-0.03005266085306757 0.057399630667586916 0.012463153085350731
-0.02979899385095308 0.057568917043654425 0.01061373130899379
-0.02859109658706882 0.05789482927095956 0.00791070926462728
0.03177427470090449 0.05870697480834009 0.05330675066613322
0.028651102534204054 0.058380405984789385 0.053825819450777745
0.02633704097875683 0.05816751010344265 0.053832888287404956
0.0243781427254679 0.058004334092114335 0.053617516719881186
0.02261232207566294 0.057868052061627304 0.053282976334198984
0.020981276679350347 0.05775049111179599 0.05286592582567112
0.01946880192429873 0.057649442638605816 0.05237573623408731
0.01805923029022999 0.057562757403614925 0.05182164770506115
0.016721339730707052 0.05748603203867544 0.051223637404447575
0.015427985081289508 0.05741541517570389 0.05059937236094103
0.014196739703558281 0.057353481163635006 0.049936362849946736
0.013007660451282987 0.05729739730077495 0.04924762960111917
0.011856893765595233 0.05724664048039482 0.04853537366257005
0.010729454818114603 0.05719906634384591 0.047809585406939414
0.009637385888490613 0.05715644721450184 0.047061599257735065
0.008569199507712677 0.05711713783908747 0.0462990917409436
0.007510245169777885 0.057079017223926276 0.045532148220262914
0.006479234561891145 0.057044833106755184 0.044747383789750905
0.005457171995798982 0.057011821967458895 0.04395804986044305
0.0044340947289425725 0.05697852593685642 0.04317120651591405
0.003436301512336426 0.05694881865878969 0.04236788871801045
0.0024253571029352328 0.05691704681528862 0.04157571026703527
0.001415540079823474 0.05688531040315575 0.04078441523860965
0.0003819030826290315 0.056849910529542615 0.04001230971986658
-0.0006634188748965708 0.05681262745156699 0.03925073561567766
-0.0017439916539828682 0.056769940605535835 0.03851732947479636
-0.0028540600964271357 0.0567226748856878 0.03780823719932802
-0.003994347037361012 0.05667069351700235 0.0371243736329564
-0.005150642795730798 0.05661609590201962 0.03645540845946521
-0.00633969596241396 0.05655635088527218 0.03581425337712385
-0.007520964429503951 0.056497525923286225 0.03517042706874263
-0.008696624609326853 0.056439298680777565 0.03452552192687092
-0.009870910787323328 0.056381033167343525 0.03388275127759144
-0.01100628575989998 0.05632841279742964 0.03321304021869087
-0.012128119526775782 0.056277623961639225 0.03253568096895432
-0.013265517751507139 0.05622425260257141 0.031873311721337116
-0.014378093848875673 0.056174436379728646 0.031194354094150778
-0.015487673781957756 0.056124865088121895 0.030515786256158473
-0.01659529713765029 0.056075381208037504 0.029838414970494664
-0.017681618676718303 0.05602895210415572 0.029146758093554548
-0.018755996193288993 0.05598415925637937 0.02844808563528789
-0.01977304958951337 0.05594800271788113 0.02770557042055566
-0.02075049255299588 0.05591780420646652 0.026932884711893867
-0.02171381961900598 0.05588965868826896 0.026150359633841824
-0.02265113639728955 0.05586542339642287 0.025348050646712972
-0.023553682506847362 0.055846484796802265 0.024518392056701865
-0.02443768765254256 0.05583035055263288 0.023674409811401953
-0.025288397705715504 0.055819341182357554 0.022803550829441133
-0.02609417164493233 0.05581531066905653 0.021895610826115852
-0.026829600567995104 0.05582228693002409 0.02092856074726135
-0.027484227174931486 0.05584198489499385 0.0198925914773741
-0.02806236089439995 0.055873810168927514 0.018790286595056993
-0.028592844660533245 0.0559132928125799 0.017645323134504343
-0.02900580833980193 0.05597153034931657 0.016396846526726683
-0.02924900924565954 0.05605692544368122 0.014997992522013726
-0.029359581445306093 0.05616376177756273 0.01347874377875996
-0.029303205415304845 0.05629764467793266 0.011807204828190365
-0.02888062777427547 0.056490538706659356 0.009805715673723625
-0.02666307556542491 0.05697125777104407 0.006205435701442996
0.033089326296213195 0.05749909499603068 0.05396647056113757
0.02982666255689953 0.057161079174379 0.054565511613574647
0.027369588428885372 0.056933482811469385 0.05465874241651908
0.02531477374525465 0.056760898719763926 0.05450105143368089
0.023516934801055045 0.056623419898115625 0.054183571868674174
0.02181152691341648 0.056498292560347704 0.053812275106791374
0.020260493231344934 0.05639425272842084 0.05334500697685346
0.018825610756362743 0.05630607129420095 0.052805634157319425
0.01747880694406395 0.0562299023145898 0.05221175794630917
0.016170986342362748 0.05615891140830713 0.05159559855531254
0.01493458035908135 0.056097701525096494 0.05093469972860337
0.01371782813887601 0.05603902071397828 0.05026364862420174
0.012538533317366374 0.055985404138677086 0.049570007199009725
0.011413109356715467 0.05593921035002474 0.048842025291845115
0.010310786530682903 0.05589611189946903 0.048100482054801386
0.009231332978286655 0.05585609465857442 0.04734528872890981
0.008180078201998231 0.055819937924466184 0.04657245120160197
0.007140146552441884 0.05578525247728211 0.04579357596780981
0.006111437313980006 0.05575203292034498 0.045008614642954636
0.005092751795628736 0.05572011618077421 0.04421830355831058
0.004077424816272768 0.055688551430400315 0.043427322188621276
0.0030719912750463707 0.05565828289678082 0.042630923421617006
0.0020807252516584773 0.05562993601478318 0.041825897940705514
0.0010774335420027925 0.05559973114911498 0.04103120648454489
7.414795892685122e-05 0.055569402005203175 0.04023817218667364
-0.0009431540077854406 0.05553690957405028 0.03945715255321447
-0.0019797055146380527 0.05550147810748004 0.038692209403277
-0.0030653148074213377 0.05545873839298418 0.03796582217442124
-0.00416206757329779 0.05541419018158866 0.03725016338890108
-0.005294291567036202 0.05536425635175328 0.03656372846807027
-0.006453081852697551 0.05531021095635782 0.03590021620037137
-0.007596950600368135 0.05525813457734767 0.035228347033593954
-0.008744972997376144 0.05520522610411986 0.03456257421474879
-0.009863582985873531 0.05515644165292604 0.033877105246174544
-0.010957274794553773 0.05511114170483565 0.03317507405424208
-0.012064756074241512 0.05506360279869111 0.032486332519188255
-0.013149628543473069 0.055019224973507495 0.03178257015523395
-0.014221410332840523 0.05497660956802303 0.03107101163672804
-0.015314135887448954 0.05493068357234222 0.03037844308177151
-0.016383543935040656 0.05488805193124313 0.029669929014402296
-0.017449253763411388 0.05484579240256768 0.02896088233101496
-0.018459465645316364 0.05481169542807627 0.028209613460215388
-0.019432967286071134 0.054782982916230495 0.02743061266691771
-0.02037717129828892 0.05475857042039507 0.02662944252487287
-0.021318520278167885 0.054734484422619196 0.025827340449775693
-0.02221787726169766 0.05471666223947153 0.024992127157493882
-0.023088610362496154 0.0547031129648691 0.024134301442928052
-0.023956914765727366 0.054689874652626966 0.023275241953661818
-0.024774985267300098 0.054684246508475 0.02237502003955899
-0.025564058037042814 0.05468302976599152 0.02145079267247152
-0.026240966725230297 0.05469900384319252 0.0204320203652546
-0.02684392982624373 0.054726409698174966 0.019349610304551845
-0.02739698808341362 0.054761620806956415 0.01822305580116307
-0.02788939177709604 0.054806347752629166 0.017042459010308375
-0.028212343735696477 0.054877480968444685 0.015713250247830823
-0.028412251563088353 0.05496800222849059 0.014273293608791315
-0.028424146292776176 0.05508813377611315 0.012664310605542739
-0.028181012954435036 0.055248507354388215 0.010825024765419133
-0.027008370493966927 0.055554642330902786 0.008158427958991632
0.034819813508643216 0.05634393311760644 0.05436427418133971
0.031222452201160378 0.0559691016982843 0.05516627670044322
0.0285809315040767 0.055722187857680544 0.05537063988571822
0.026423435451028154 0.05553995177557334 0.05527369666563048
0.024514719184327904 0.055390805170342915 0.0550239743594112
0.022774816498601302 0.05526405522554998 0.054671351734847384
0.021130955998084844 0.055149905649580874 0.05426210968013795
0.019649500422733446 0.05505750575965932 0.05375111388583387
0.018272822832012814 0.05497909101895581 0.053175108106143176
0.016965172165483933 0.054909837701326035 0.0525569787040695
0.015694934408433003 0.05484545237772629 0.051917342418376033
0.014475246029137134 0.054787775076659245 0.05124687220041879
0.013298739451744923 0.05473582886604673 0.05055005174236449
0.012157060907894313 0.05468849243529514 0.04983214969756955
0.011040876563744972 0.05464449948252104 0.04909923530226917
0.009943228163164397 0.05460290351260586 0.04835586680739551
0.00886949473996168 0.054564468094083746 0.04759808755364836
0.007819443086080125 0.05452918001572823 0.04682579898630068
0.006780693401753357 0.05449532783742124 0.04604748404293185
0.005754246619219916 0.054463060593939475 0.04526231210936732
0.004736699926127019 0.05443191036406434 0.04447258094366735
0.0037323554667739733 0.05440248919127988 0.0436751077893634
0.0027509184358844307 0.05437617574056237 0.042862740401873434
0.0017649910439300198 0.05434911945937786 0.04205510718714367
0.0007930590147604 0.054323932147509045 0.04123877757838634
-0.00018337925101075125 0.0542980013419512 0.040427172227377184
-0.0011599638286917124 0.05427194206328743 0.039617136816889886
-0.0021721502654727942 0.054240703927129874 0.03883498727882878
-0.0032185151265737844 0.05420445768926396 0.03808010160688596
-0.0042848260435260355 0.054165207404831654 0.037342231768744405
-0.0053687331260813265 0.05412327097917114 0.036619861982078505
-0.006482741659249502 0.054076835554873554 0.03592270260235492
-0.007593785124035246 0.05403063159786547 0.03522593416983394
-0.008699778146033843 0.05398496132486825 0.034527938672384406
-0.009788194605257872 0.05394163845343566 0.03381901890631678
-0.010863387960036053 0.05390004736880919 0.03310234496242165
-0.01189845394020389 0.05386410391448991 0.03235681381117417
-0.012952864543655296 0.053825194112516454 0.03162850340649115
-0.01399026539094722 0.05378859788058346 0.030889052577629916
-0.015051978360672902 0.0537482942680536 0.030170963631713787
-0.016109026211201083 0.053708501159761814 0.029451503127117418
-0.0171093470936034 0.053676858946850044 0.028688980646101758
-0.018082012273225645 0.05364914643432024 0.02790606252002953
-0.019021183939896213 0.053626249047205664 0.027097684364845664
-0.019918043436900013 0.053609499948297265 0.026256255194589462
-0.020818381872490133 0.05359216369332745 0.02541865193696502
-0.02168692147489637 0.05357946751993961 0.024555945619160746
-0.022533955591889754 0.053569912017727435 0.023676226940160416
-0.023385697567148644 0.05355961380916904 0.022800981545652133
-0.024169139537329798 0.05355946459041081 0.021869337804800104
-0.02488173346886513 0.05356991202239759 0.020878254352221126
-0.025471033518992714 0.0535988876432933 0.01978254542757646
-0.026025119507468775 0.053633280819467256 0.0186552476180305
-0.02656499026204795 0.05366996561237398 0.017513777067588554
-0.02698823029480879 0.05372441135275608 0.016270157210756864
-0.027261054318280742 0.05380184511508136 0.014893682616793913
-0.02734725754738926 0.05390790698003578 0.01335092382140679
-0.027168841077463868 0.05405463567827546 0.011571383739262364
-0.02624102998504524 0.054316104318892666 0.009127087325014716
0.03282462681651649 0.05480046268748009 0.055639334491653925
0.02996836687739407 0.05453148659692901 0.05597225460471389
0.027684516226266775 0.05433717728010155 0.055950001925470505
0.025620625774685712 0.05417125662665496 0.05579548461456507
0.02383128203963797 0.054041144304963894 0.05547067508297193
0.022131897333959205 0.05392248702461101 0.05509392994515755
0.02056363210472656 0.05382084230988307 0.054637091766161716
0.019146161887379054 0.05373894121089922 0.054085666525214404
0.017807410705463433 0.05366725199271299 0.05348618157329399
0.01651211910748457 0.053601105723689 0.05286148168266558
0.015289252218715521 0.05354442955919314 0.0521915262743648
0.014093841974571253 0.053491223541825395 0.05150608175370591
0.01292445587475477 0.053441315329920205 0.050805835271767075
0.011789788463736628 0.05339590080876895 0.05008453417878783
0.010684998485072594 0.05335435121165126 0.04934514433031195
0.009589725414029582 0.05331392525962204 0.048601485517530296
0.00852053682310211 0.05327688414454612 0.047841887522589444
0.007471645056227105 0.053242459436696955 0.047070128660524235
0.006440653143960806 0.053210339681094745 0.04628767937062539
0.005428496960885876 0.05318066715464227 0.04549367833535378
0.004417468998129004 0.05315102770327288 0.044700562349325845
0.003433792612342612 0.053125026382339006 0.043889498248417536
0.002464152391459029 0.053100851464793285 0.043069787620916566
0.0015062577811699729 0.05307819808099247 0.04224293623681291
0.0005513465654938821 0.053055863680094906 0.0414152087024251
-0.0003930403933211646 0.05303489545747239 0.040581043208390066
-0.001337758227291208 0.05301379420687046 0.03974833154703017
-0.002325751423546518 0.05298658194350611 0.03894894646418945
-0.0033180826188586865 0.052958651173279296 0.03815437375313996
-0.0043616430337029 0.05292344364767777 0.03739984421550169
-0.0053825547567114 0.05289126081593956 0.0366302843416656
-0.006450963116541308 0.052852276725735656 0.035898609893438016
-0.007527297785559661 0.052812013903605834 0.035175254628230956
-0.00859883861679328 0.052772257079475 0.03445058261882028
-0.009650951476185055 0.05273507638808289 0.033713273817042144
-0.010688005700485503 0.05269986974898362 0.032966485738665174
-0.011698694450573144 0.0526682534725538 0.03220123799033314
-0.012694682969059734 0.05263859234013096 0.0314263465291148
-0.013709199571856512 0.05260616569008607 0.030667795423709454
-0.01473277317275834 0.05257230779026742 0.029918334925383816
-0.01571805196449566 0.05254378325371656 0.029140416121339607
-0.016682805799635325 0.052518078899186166 0.028347777289955578
-0.017619050357605692 0.052496359979662094 0.027533744943481542
-0.018520923815072365 0.052479496190723396 0.026693222272099415
-0.01939277071149309 0.05246689208887628 0.02582930413683332
-0.020261160406561396 0.052454733404915896 0.0249633179541488
-0.021076610235953475 0.05245019365596569 0.024054573373708976
-0.021898975627184347 0.052444629873940704 0.023151814013391836
-0.022661821786539582 0.05244770445203189 0.022199974391255872
-0.023385599533478463 0.05245649094476825 0.02121533920322549
-0.02404044756350643 0.05247539187503424 0.020172331626338802
-0.02461264711957728 0.0525064834709379 0.019058456053657358
-0.025143491781798644 0.052543783272040824 0.017907614885428913
-0.02559506244285209 0.052592911776599915 0.016686912912909968
-0.025891370769508315 0.05266515301197736 0.015330140796501412
-0.026015121109044304 0.052763216346222094 0.013820269510298744
-0.02593537124419265 0.0528918564785288 0.012128117636495295
-0.025106741325404358 0.05313223812712508 0.00977602417850798
0.03494222370091221 0.053692830477094236 0.05579050541266389
0.03158984447277402 0.053367097402973455 0.056428444585759796
0.029114234690065743 0.05315315523423268 0.056521189878308786
0.026925686685641215 0.05297546235033417 0.05644044094560324
0.024959499468494517 0.05282585670484479 0.05622518513943403
0.02322946365900541 0.052706294773403536 0.05586402904122462
0.021597685506641817 0.05259903021706005 0.055445056945765736
0.020115532877497233 0.05251082751646373 0.054933270342349405
0.018717533180426293 0.05243325571154161 0.05437056198851198
0.017394489429583604 0.052365175883014606 0.05376217105792691
0.016141995132091247 0.052306067716544155 0.05311024692321997
0.014924050246011678 0.05225125840998377 0.05243835122164775
0.01373799791990854 0.05220042437822161 0.05174792023797159
0.01258685532314252 0.05215398744291299 0.05103654980461958
0.011455681621801439 0.05211000060879748 0.05031412772253069
0.010354318037683163 0.05206978141181809 0.04957364198803127
0.009261326829646532 0.05203050940206191 0.048829661498915655
0.008179958528993336 0.051992622370374726 0.048079833055600874
0.007150979694508064 0.051961557897036895 0.047295397513820225
0.006138648051740414 0.05193258806294997 0.046501007676402806
0.005136227816212924 0.0519048250143881 0.045701264766360716
0.004143635085285091 0.051878264933163776 0.04489612310140789
0.0031749742248247115 0.051854809032628894 0.04407534920773165
0.0022224229347863056 0.05183342402361812 0.0432443180883057
0.0012815078219081122 0.05181351960289594 0.0424060948922213
0.0003618750026398998 0.05179640817557473 0.04155350807802255
-0.0005582298055110679 0.05177916194033388 0.04070227624483408
-0.001485255701423549 0.05176090514567055 0.03985717013512741
-0.00242235996981377 0.05174120226224105 0.03902062190836941
-0.0033876418131521535 0.05171757859262875 0.038206261277203446
-0.004360576344583034 0.05169281150698018 0.03739904420277035
-0.0053602270046708145 0.05166428593853401 0.03661344784337056
-0.006359834891628835 0.05163564653767538 0.035829521583848334
-0.007412208500139905 0.051599637989543874 0.03508752856846947
-0.008438906313447125 0.05156701236774018 0.034328016841890685
-0.009452766262901313 0.051536020034485375 0.0335605731812203
-0.010449722354679891 0.05150723347060898 0.03278190041927076
-0.01143514109524879 0.051479923227322234 0.0319959785072127
-0.012404966882270996 0.05145466177498781 0.031199498042646934
-0.01336762525797952 0.05143028994989915 0.030398905521745512
-0.014325240695468255 0.0514065172370044 0.029595801312450265
-0.01526755471011032 0.05138478085380568 0.028781968363824184
-0.016187509718386117 0.051366082131060906 0.02795157488798855
-0.017086316321982487 0.05135027076119841 0.027105316084873876
-0.017951888915216097 0.05133906496005395 0.02623315552877753
-0.018795689335410648 0.05133087919815681 0.025343985724598284
-0.019619909556247817 0.051325423474102246 0.02443931929022275
-0.020381074548304623 0.051328869062057435 0.023483189025433948
-0.021129181253163543 0.05133418191580501 0.022516061480825633
-0.021822873339614857 0.05134725334210235 0.021503426679233828
-0.022495728253946135 0.051363350392319256 0.020472588903898137
-0.023110556977745056 0.051387802709162544 0.01939206074233646
-0.023616213335665937 0.05142798377379587 0.018217917206308998
-0.02403002722565728 0.05148151194265284 0.016963381254243903
-0.024317772194727583 0.05155339435274885 0.015598022069290007
-0.024525636094230974 0.05163709958393394 0.014159696466424732
-0.02447041079391793 0.05175915321404035 0.012489449940114083
-0.023745521737653097 0.05197863145991603 0.010231533248248659
0.0384449667217055 0.05274997863586684 0.05507573615127964
0.03355632548295079 0.05224063251566382 0.05667120032250961
0.03067666239461808 0.05198170991526797 0.057012030186316176
0.028409910816725725 0.05179893018535143 0.05697384606413958
0.026298220418184026 0.05163498815232507 0.05684597858601237
0.024437525381908465 0.05150212169933161 0.05656444336720928
0.022746961167938617 0.051390274518889265 0.05617939705063707
0.021181745753850734 0.05129388918226788 0.05571844602171461
0.019729442760294924 0.051211476823329126 0.05518846297434776
0.018366578391065314 0.05114013042523745 0.05460383014272013
0.017063395532753878 0.051076117551024466 0.053983468528628675
0.015806629675581607 0.05101778553967023 0.053335650501503684
0.014592320583989571 0.05096466103110458 0.05266255361500993
0.013421100187300583 0.05091685664345177 0.0519632900504412
0.012271157890238749 0.050871597701816665 0.0512522958554103
0.01114227058932138 0.05082887087461646 0.05052949939579077
0.010042023061931193 0.050789671615094775 0.049789435425593664
0.008956797494651336 0.050752258211838666 0.04904125278821331
0.007893090704003347 0.0507174844615092 0.04828025368927541
0.006873863165445693 0.050688351475774586 0.04749007311706155
0.005860204941022629 0.050659825007001086 0.04669769242972305
0.004883868212583964 0.05063605360996242 0.04588050513573427
0.003911727042541613 0.05061273351417884 0.045061742146842276
0.00295574155225109 0.05059143515534345 0.04423277466309261
0.0020212131848520998 0.0505728673316672 0.04338959302576112
0.0011003791938525298 0.050556025257423476 0.042537586366153346
0.00019961972625159863 0.05054176109234127 0.041671941699796156
-0.0007006315938841157 0.050527504974136654 0.04080678537148241
-0.0016025263013113022 0.05051297201637255 0.0399437042713367
-0.0025071204046149265 0.050498020348566416 0.03908350704687935
-0.003412248962535114 0.050482935259364356 0.038224616924774024
-0.00434884236629518 0.050463593999524665 0.0373902437642501
-0.00528046347528921 0.05044483576785073 0.03655330123640366
-0.00624321122911764 0.050421833352563415 0.03574110406327452
-0.007225170021951832 0.0503961579229662 0.034944959704170886
-0.008217722301280705 0.05036895067312244 0.03415851018358346
-0.009186090505526934 0.05034488542947363 0.033355100951306615
-0.01015143893799264 0.05032112588723182 0.032550836265151595
-0.011110655340703435 0.05029809489917915 0.03174326391674226
-0.012034634426182633 0.05027974173288533 0.030909526719049507
-0.012938210162289243 0.05026408154978498 0.030060866687175503
-0.013848472155579217 0.05024744448118963 0.029218472171160748
-0.014748837691607397 0.050232086124203316 0.02836924009465608
-0.015605393650284016 0.050222650325112785 0.02748592253753185
-0.01647293015583995 0.05021166982945867 0.02661202615505226
-0.017330864015785152 0.05020196031587712 0.02573105468562159
-0.0181260985597389 0.05020083481938283 0.024799730376644846
-0.018868231890625586 0.050207025684186564 0.023825085262624168
-0.019561644813074708 0.05021997515352166 0.022810025399848888
-0.020265588003338497 0.050231522703535036 0.021802842971815783
-0.020906884382323854 0.05025181418331452 0.020742915095027126
-0.021511160869111368 0.050277342711012814 0.019650798453285656
-0.021998450931918934 0.050319288307829585 0.018458892925855563
-0.022386180019919377 0.050375324762940835 0.017180326146961966
-0.02271594013300443 0.050439722338369894 0.015849016885530642
-0.022876975806260746 0.05052807510554029 0.014369742124910989
-0.022677113299221674 0.050667562736240804 0.012575499284057101
-0.021684948863533948 0.05091931716738328 0.010089681379847726
0.03608525640439886 0.05117526056168758 0.05656679772381562
0.03264111664580349 0.05085449915111593 0.05725278687329327
0.030004282916083203 0.05063143874123402 0.05744172650993978
0.027794561343830737 0.05045995926585536 0.057369320015679404
0.025771501485569503 0.050310774214122375 0.0571864022297518
0.023987006277944534 0.05019041654444623 0.05685725926883639
0.022357368540762257 0.05008871511138166 0.05643403832936439
0.02082788665686286 0.049999008885243085 0.05595103069507762
0.019409606629282317 0.04992273988902891 0.055399863941232697
0.018058565370809798 0.049854524012376285 0.05480855630940934
0.016761322628448483 0.04979273563618629 0.05418536886666081
0.015513788606243362 0.04973690302863506 0.05353247287427948
0.014300674906327082 0.04968515028311423 0.05285966489697097
0.013132836550955207 0.049638862196393 0.05215919957870002
0.011989590544342288 0.04959547500394465 0.05144471757499808
0.010860626152232877 0.04955370912460684 0.05072304150948137
0.009759155520767837 0.0495152399759011 0.049984894731128326
0.008682681462189645 0.04947977219173376 0.049231712484736956
0.007635379671880271 0.04944785262932351 0.048460303886138145
0.006619175247070286 0.049419747152071106 0.04766899252080753
0.005630487073766843 0.04939502399461654 0.04685995897651596
0.004662501144460762 0.04937283613823868 0.0460377328159452
0.003713949822919893 0.04935303741210548 0.04520298638285469
0.0027716041201947816 0.04933395086837915 0.04436499911098246
0.0018571382457547858 0.049318358235116655 0.04350805635332433
0.000959499003371389 0.049304861863765946 0.042639859232088795
7.63975388825e-05 0.049293180251380936 0.04176188422898741
-0.000783650344531428 0.04928442267438237 0.04086771309735382
-0.001654145540710028 0.04927427889667345 0.03998179417875963
-0.002523209893706746 0.04926427816421479 0.0390954440992608
-0.0033876418134178854 0.049254836754850054 0.038206261277401676
-0.004273087370378514 0.049242623830568474 0.03733342780909754
-0.005157029506331734 0.0492305556417137 0.03646022443206953
-0.006071324822493618 0.049214473921261416 0.03561078942929041
-0.006994550094230445 0.04919715623779387 0.034769171163233414
-0.007947734901163017 0.04917583760099471 0.03395160254351148
-0.008863261173791714 0.04915937675957107 0.03310636269580758
-0.009782372866329159 0.049142374190376446 0.03226494058710783
-0.010689336304133268 0.0491269024035944 0.03141513404881191
-0.011592597512370573 0.049111854391066356 0.03056341060940343
-0.012412012697914865 0.04910785234493559 0.02964664003469869
-0.013305049183450601 0.049094057183291885 0.0287883906823988
-0.014169615486766818 0.04908399160876078 0.02790836958233406
-0.014984221630488126 0.04908054544385402 0.026989028143259375
-0.015821399096048183 0.04907406796243585 0.02608805980481249
-0.01660280179104201 0.04907503258699006 0.025142413783705242
-0.017317483856967908 0.049084956627769565 0.02414247389640828
-0.018006819965551202 0.04909833286341847 0.023121181793945456
-0.018679126179013905 0.04911406270939381 0.022085034082339416
-0.019309942099826116 0.049135465955212364 0.021013600644386066
-0.01986571935942788 0.049167121685616086 0.01987847447630503
-0.02032419244346062 0.0492121180255902 0.018660069598762374
-0.020647665982525265 0.049275668242941724 0.017325449720064334
-0.020958687757394956 0.049341193700798085 0.015976169162007836
-0.02100444216516778 0.049443236155305256 0.014397642495548646
-0.02070011684422074 0.049593645453118756 0.012513968313830948
0.04047165353668569 0.05031935510891086 0.0553075401576566
0.03500316994921454 0.04976705372702264 0.05725055009784791
0.03192992006890172 0.049498300329908415 0.05770473002255161
0.029433104152790768 0.04929738448393007 0.05780674867756075
0.02730762880108417 0.04914014637758447 0.05768226273407867
0.025402311900159902 0.049008704132946196 0.057425013101914446
0.023626140849187016 0.04889226844958138 0.05709180456327112
0.02199403653470211 0.04879272625188838 0.05667151542767673
0.020504636425968115 0.04871001389768665 0.05616349675856769
0.019113234434884274 0.04863882477566767 0.055595756032145616
0.017772731429395172 0.04857351985529774 0.05499854076879007
0.016471079036956715 0.04851267136746149 0.05437936269529836
0.015242896791693328 0.048460518595860064 0.05371454286134025
0.014051194372613318 0.04841260397131673 0.05302827849762082
0.012884320901902724 0.048367529718307385 0.05232809560800172
0.011738649822856884 0.04832486908227206 0.05161620921224419
0.010615074953064463 0.04828474634041646 0.050891780855436775
0.009524484397710975 0.0482485151901486 0.05014705068070496
0.008459898152841983 0.04821533966572166 0.0493865054791775
0.007423272159448879 0.048185479798588185 0.048608493115969376
0.006419846963004849 0.048159603924461065 0.04780902153342104
0.00544603014029954 0.048137291295982196 0.04699025441231863
0.004487340129990081 0.04811676562555967 0.04616214228751703
0.003542560882003054 0.04809788660119298 0.04532538521153201
0.0026387856634624285 0.048084042350617605 0.044460372696433825
0.0017518128564226187 0.04807224031577217 0.043584102068567776
0.0008631098331297604 0.04806017296307844 0.04270983356028979
1.2655765497249227e-05 0.04805285415172567 0.04180841072259878
-0.0008278404257637262 0.048046756845050956 0.040900144338905375
-0.001656296039281302 0.04804215101757377 0.03998338103459953
-0.002493175080433785 0.048036462684663855 0.03907316078515061
-0.003322363921225535 0.04803172343635138 0.03815756738098225
-0.00416099976011558 0.0480257668504259 0.03724936253312733
-0.0049972969648069965 0.04802008239649729 0.03633977627149548
-0.005844024437844653 0.048013046364941116 0.03543846302482512
-0.006706406914959551 0.04800398374774399 0.034549535897688166
-0.007599129864395093 0.04799100446587732 0.03368444546342769
-0.008480824273358889 0.047979383151312525 0.03281169713075244
-0.009354728424150693 0.04796871271651968 0.03193366738931103
-0.010208307425965901 0.04796061175981284 0.031040501220566896
-0.011069972132078443 0.04795143398246496 0.030154193510611715
-0.01184149298164655 0.047953863054026324 0.02919752256788838
-0.012692303885200096 0.04794603693249262 0.028303445393701943
-0.013491895787750174 0.04794482276444062 0.0273691274360795
-0.014283147115241757 0.047944687861915025 0.0264282173122955
-0.015058863775332998 0.04794657658728154 0.025474822963806376
-0.015747828107248174 0.04795980182425164 0.024451164515113255
-0.01641962638457084 0.0479753305418565 0.023412679298264627
-0.017076399857309577 0.04799289685759736 0.02236088823118426
-0.017680126415198893 0.048017511321546136 0.021264353218494902
-0.01821247310038837 0.048051634598357644 0.020107230424815548
-0.018634519738691513 0.04810046635228157 0.018856255194524496
-0.018915440504909176 0.04816818078433819 0.017484224341022425
-0.019174493494191758 0.04823909038893535 0.016089311170690013
-0.019078322775137435 0.0483575094204677 0.014389992699205767
-0.018577316853051085 0.04853035707807709 0.01233940603515954
0.03813223665392501 0.04875827414929308 0.056777423833241025
0.03427068322379062 0.04840600691306122 0.057713396236487025
0.03133530648802607 0.0481600023145396 0.05808258832932728
0.028988489704034948 0.047981570476986965 0.0580908876201659
0.026963563727074202 0.047839994716706 0.05790338712013754
0.02509359901707703 0.0477159766828649 0.05762453728458755
0.023335811634202397 0.0476046086407257 0.057280504687431066
0.021736732332314657 0.047511427817074674 0.05683969179074794
0.020242952417304283 0.047430261069768956 0.05633549654661185
0.018850540840614993 0.0473607169743638 0.05576938769673334
0.017528381007243188 0.047299190761975266 0.05516095249156261
0.016249412256494122 0.047242528709758265 0.05452752096195529
0.015017623327541085 0.047191232983865496 0.05386595214910872
0.013823436288856905 0.047144198102838986 0.05318221079048391
0.012657443435726279 0.04710032994462429 0.052482285910790794
0.011518219775668248 0.04705947770856927 0.05176685000687825
0.01040325425781874 0.04702135957118409 0.051037341071378084
0.009328954157308555 0.04698795708309774 0.05028216057999885
0.008272778850572038 0.046956594017677634 0.0495165186170593
0.007242279300607779 0.046928190801427155 0.048734944046675055
0.006246014327106364 0.04690379680373474 0.04793113973896829
0.005278194847332829 0.046882737625123544 0.04710880876660123
0.004339671092391417 0.046865136605515806 0.04626702536889615
0.003420388967583843 0.04684979612681925 0.045412635293959724
0.002534337055912106 0.046838429494865864 0.04453537460838608
0.001663904884601275 0.04682891748600195 0.04364757227869609
0.000812227209910199 0.04682165397085156 0.04274677212266115
-2.190717259170638e-05 0.046816504843891375 0.04183363895571468
-0.0008321511062957532 0.0468142607078242 0.04090330796109587
-0.0016315638430934865 0.04681333671512235 0.03996513111317235
-0.002422359970357224 0.046813468713389345 0.03902062190877259
