# .PCD v0.7 - Point Cloud Data file format
VERSION 0.7
FIELDS x y z
SIZE 4 4 4
TYPE F F F
COUNT 1 1 1
WIDTH 777
HEIGHT 1
VIEWPOINT 0 0 0 1 0 0 0
POINTS 777
DATA ascii
0.060798238792920775 0.00015525140986566432 0.021364810291786995
0.06069495138165877 -0.0013085024971118409 0.020905869537780397
0.06060637295451674 -0.002677181474729562 0.020377169746060797
0.06053744358330003 -0.003920440382175483 0.01975339175091667
0.06048872793859602 -0.005035540047075238 0.01903077219913185
0.06045803723233627 -0.0060369406997706765 0.01821931925565501
0.060461697555781194 -0.006823783976846631 0.01723604013416591
0.06049396241919875 -0.007433128159250513 0.016108290099233036
0.06056664068888683 -0.0077929627912108335 0.014774917199970539
0.06077427721844835 -0.007320442594111631 0.012753843997754033
0.06307367520707724 0.011347889018725188 0.022404517067378615
0.06276486468544788 0.0085936849584895 0.02288713861396735
0.06252272376588966 0.006262687545515344 0.023061296134550213
0.062351192048377 0.00437675047414543 0.02290500305493881
0.062195050409428174 0.002590733142616486 0.02268015701413617
0.06206612829986872 0.000977217997535751 0.02232903617297627
0.061953691866260985 -0.0005311350764385381 0.02190225263943002
0.06186507246774947 -0.0018898085237236684 0.02136347794784682
0.0617909705375638 -0.0031569095395351243 0.020756841044079544
0.061728612784363035 -0.004350022117415919 0.02009519753796002
0.06169712547211683 -0.005352529879568191 0.019284341941226302
0.06168148271590948 -0.006257429305967677 0.01839663786202944
0.06169872574780171 -0.006961475694867658 0.01734736434904849
0.06174071815433427 -0.00751544887866562 0.016175201833284858
0.0618407688943797 -0.007718174849189352 0.014713804187337365
0.06203825061547323 -0.00733350715916542 0.01276457656855734
0.06496533253327672 0.0167219364384103 0.02158724025567349
0.06439409345168084 0.01237915811953022 0.023236859134150634
0.06407809241441509 0.009615033435579512 0.02371827063525772
0.06384475209891227 0.007364472933994504 0.023824097237031105
0.06365648028881508 0.005394909585595242 0.023726326581536672
0.0634968033353751 0.0036042985986433074 0.023500172890389026
0.0633577646610928 0.0019431925232070157 0.023181771843853505
0.06324532340293515 0.00044692684916919356 0.022742035118391346
0.0631455073310487 -0.000970061042126158 0.022245932776127852
0.0630602011266959 -0.002296879324064749 0.021683927097177536
0.06300545707093749 -0.0034373784709939015 0.020978812638140998
0.06296822729279196 -0.004471178098590434 0.02019159785506658
0.06294155789304433 -0.005440669592529479 0.01935484755999678
0.06293611793424314 -0.0062823945083045896 0.018416715066754852
0.06296314566633891 -0.0069300431597131285 0.017321951039169448
0.06302381574273724 -0.007377866383791454 0.0160633723525343
0.0631442296876586 -0.0074719228497805434 0.01451257921518223
0.06333553824064246 -0.007148341038667683 0.012612462166705252
0.0663017073568998 0.01778119702137687 0.0224154131813335
0.06573933411334615 0.0135530118052401 0.023963920879594702
0.06542970526594842 0.010860508077761177 0.024382014359054627
0.06519099789280319 0.008601858267395734 0.02448640302034183
0.06499096879936112 0.006581091499649971 0.02442122448231554
0.06482515032174271 0.004770019177164131 0.02420521768828332
0.06467894463574972 0.003080205712456985 0.0239039835182413
0.06455583258450924 0.0015316446277201523 0.023500575825144143
0.06445033417945045 9.088794644440679e-05 0.02301932372070925
0.06436134954972696 -0.0012492544386630833 0.02246454190884717
0.06429486492198032 -0.0024539738060748717 0.02180759303706442
0.06424296142065049 -0.0035708937799363016 0.02108448069129537
0.06421926200648288 -0.0045202733050906385 0.020230661493767288
0.06419687472580328 -0.00546133838350199 0.01937138115022291
0.06420612377641689 -0.006216175199938223 0.018363460997634806
0.0642594502343478 -0.006713123895611739 0.01714657108810136
0.06432493312557008 -0.007140380858315809 0.015870339924796917
0.06446431854525324 -0.0071383714996239855 0.014240017525089521
0.06467800594343756 -0.006707566038514856 0.01225036447129868
0.06769459821713562 0.019168531578790615 0.02300198958427091
0.06711764557549435 0.014911048331595622 0.024556393539377996
0.06680228425788029 0.012215542049904105 0.02496701777224869
0.06655453844999784 0.0099270457680114 0.025085902161945506
0.06634483293837735 0.0078688005459287 0.025042166123975862
0.06616919010819673 0.006016009525040555 0.024851954428246337
0.06601326662913454 0.004283255977594602 0.02457825360661442
0.06588768014599108 0.0027319720192813257 0.024172295624715123
0.06577799285840169 0.0012766817613402703 0.02369808182086075
0.06567341577380947 -0.00014610424838207292 0.02320389690628183
0.06560514518884994 -0.0013550866714583942 0.022547408813695602
0.06554514656095033 -0.00251436024654611 0.021855129690304786
0.06550262733086357 -0.0035708937799117657 0.021084480691275942
0.06547355706596816 -0.004548633620385489 0.020253226978039385
0.06545922020877297 -0.0054406695924898996 0.019354847559965083
0.06550470476790755 -0.005988028966420034 0.018179984069394473
0.06556387251772114 -0.006457923801934051 0.016940240958192576
0.06564248677994382 -0.006817831285017784 0.015608165937246898
0.0658082872357622 -0.006681086245861501 0.013866346599873791
0.06603398837214174 -0.006206623639670172 0.011838839116888322
0.06913174942934161 0.02079583725878864 0.023415920877638663
0.0685426196107616 0.01652327405264553 0.024964548424284416
0.06820787711357729 0.013744778642587774 0.025426369546279193
0.06794649500188699 0.011400252376429665 0.02557848172110616
0.06772076030969791 0.009268563544148567 0.02558243812376887
0.06752860449363318 0.00733645763362939 0.025445758556704112
0.0673641774163815 0.00556896630411402 0.025192710125703344
0.06721693471259324 0.0039043832289977765 0.02486860658282225
0.06710882060062515 0.002468136422283107 0.02437557947168517
0.0670068701066022 0.001069842705252344 0.023858308893554725
0.06692688647900928 -0.0002003275682447847 0.02324612686616173
0.06686871351726069 -0.0013440652182941104 0.02253877898810719
0.0668195098442643 -0.002435305028366197 0.021792896836966558
0.06677499957224117 -0.003498675850530708 0.021027325238010097
0.06675286288067095 -0.004434075494881284 0.020162076384245498
0.06676287069782069 -0.005187020789813701 0.01915194622091787
0.06681835298497572 -0.005683403882916771 0.01793500227099154
0.06688435809120244 -0.006121835566266942 0.016668512494747767
0.0669878736509811 -0.006350947844928123 0.015228674834661282
0.06715942532626418 -0.006200830616099662 0.013473905417840049
0.06743146219920407 -0.0054922859523810486 0.011252009033013877
0.07068534494571853 0.02306606071739392 0.023364334113327112
0.06999748681213416 0.018281092819426303 0.025271553735788876
0.06962360808800819 0.015308841993195432 0.02586555498047516
0.06934672687208428 0.012899280316329753 0.026057066943847074
0.06911088666071899 0.010730137366885217 0.026081065260743608
0.06890581330448867 0.008741533909537746 0.025979850775238456
0.06873217510993253 0.006936162946578284 0.02574923945749663
0.06857714558494747 0.005240282294741161 0.025443247307823436
0.06845537242764524 0.0037359837963313325 0.02499766119719471
0.0683550168186213 0.0023553339746998914 0.024462493124555618
0.06827253358647237 0.0010776229387536307 0.023852281965844047
0.06820759723716462 -9.961488978926791e-05 0.023167690275017083
0.0681494765832955 -0.0012371240805690853 0.022455043807905695
0.0680942062343906 -0.002357315624529066 0.021731503000573804
0.06806807749350234 -0.003313628807499469 0.020880873412118528
0.06806199021760985 -0.004157759889684587 0.01994222003291868
0.0680938131741768 -0.0047911714437292585 0.018835294371849165
0.06813668365462017 -0.005364107990013911 0.01767822209659997
0.06821292171108699 -0.0057535173743137324 0.016370726003769986
0.0683506602113609 -0.005805330139757925 0.014785187131423183
0.06852535900717022 -0.005656883733204887 0.013029418889295485
0.06886056294184097 -0.004630614010380563 0.010544143513674664
0.07230410439723431 0.025658367099162138 0.023089053900574807
0.07147653244312789 0.020145376970985895 0.025507832643537454
0.07107380401232541 0.017043120541278267 0.02618505492535439
0.07076841836938441 0.014497069998956391 0.026467821598232744
0.07052189479572153 0.012288108794667685 0.026512968837687445
0.07030607425357217 0.010256656816500287 0.02643617375342422
0.07013514443999429 0.008480835067684989 0.026176433682862377
0.06996463633582661 0.006711357753727221 0.02591967410136331
0.06982557912883915 0.0051206935884653415 0.02553440299726778
0.06971881645550937 0.0037124195723783893 0.025015719879383114
0.06962670048424036 0.0023877160394294994 0.02443754292539385
0.0695561623865391 0.001184355094876799 0.02376960231500158
0.0694946089329196 3.2166289339941034e-05 0.023065057055183857
0.0694433975473391 -0.001061699129893845 0.022317685629667516
0.06939887493543792 -0.002117655340431124 0.021542840649692363
0.06938685159579067 -0.002994574287072005 0.02062836401607443
0.06939326352601809 -0.0037704587722495186 0.019634055713051657
0.06942574211405726 -0.004404336874742454 0.018525853715283702
0.06948476245548003 -0.004894537108316888 0.01730058963852127
0.06956945292469727 -0.0052467231518211754 0.015960981178613387
0.06972083928042293 -0.005239496729362025 0.014325267746084391
0.06993450100724097 -0.004899097198960978 0.012410193158666483
0.07036000847078755 -0.0034207562265849423 0.009550242509465678
0.07303222137951898 0.022402504560786796 0.025465577458666733
0.07255511417533211 0.018921120030137906 0.02640631847122582
0.07221184962289724 0.016190618233558884 0.026814117373645974
0.07194049845080358 0.013864734032782877 0.026936961758692257
0.07171319281789387 0.011787567472833105 0.026886346405983086
0.07153079053402049 0.009962314583734422 0.026656929234351034
0.07135846979980014 0.008196520573616306 0.026390824239899024
0.07121370571546659 0.0065854439459021585 0.026015134863289657
0.07110298620848064 0.005163556539574621 0.025501731000206695
0.07100105702652447 0.003792100651322683 0.024954655475821208
0.07091442062538587 0.002506124381680852 0.024346309962139212
0.07085178749143581 0.001352355961266316 0.023639461095346204
0.07079213237091792 0.0002161470846600011 0.02292176996717965
0.07074914465068893 -0.0008286534288914349 0.022135210258788285
0.0707336000536325 -0.0017245317316689213 0.021233370832883847
0.07071193083511984 -0.002652998367252135 0.02035803050347801
0.07073135074472292 -0.0033604150846541225 0.019307795786562332
0.07078660245502137 -0.0038763559899085975 0.018103505857167246
0.07084871003185647 -0.0043569227202368555 0.016868236077466903
0.07095740370755481 -0.004590461095988374 0.01543039110992317
0.07111579962111222 -0.004561992009849913 0.013774579949221766
0.07136762818359169 -0.004041006752139309 0.011709004024434866
0.07208207657947109 -0.0010744773970464139 0.007622768953427839
0.07462102758754006 0.024796514097323363 0.02533522729298665
0.07404968867496695 0.02083897684970032 0.026606829706060653
0.07369143544209279 0.018054075263298386 0.027042645216849237
0.07338093060031986 0.015536592787273984 0.027296723514133314
0.07315588780875672 0.013489325516501116 0.027215483337390378
0.07295166253498579 0.011559731932829997 0.027056299766848257
0.07278280467947075 0.009825641388320983 0.026759433576659553
0.0726261619112809 0.008161152893170986 0.02641749363899737
0.07249909506305091 0.006659167383019915 0.02595924190285387
0.07238446225155416 0.00522674025187686 0.025453569639189155
0.07229347836690266 0.0039234777504227325 0.024853973302530807
0.07221549453777505 0.002691702570614074 0.024203323008940625
0.07215189063085599 0.0015383294259170288 0.023495397472144075
0.07210906305118463 0.0004968917393017303 0.022703121689426786
0.0720800527760134 -0.00047024714140558865 0.02185457723293499
0.07206378385117461 -0.0013692529693531963 0.020953692759526743
0.07206545212153236 -0.0021730979647071047 0.01997822281216055
0.0721025911129791 -0.0027899260786965474 0.01885387415143569
0.07214457500765181 -0.0033820969087223762 0.017708133088398692
0.07223120354535524 -0.0037407884574652273 0.016372736238728813
0.07235501979362195 -0.003906582881303855 0.014877473284368392
0.07254809310804843 -0.00371306741678179 0.013084559052842226
0.07286884146492721 -0.002857812346630184 0.0107421559912238
0.07624429405700019 0.027328654594298285 0.025117432288940533
0.07559718982432961 0.023008095570890952 0.026633540685041757
0.07518605488649521 0.01996664886239463 0.027243560522481836
0.07486442210560645 0.01741304469742183 0.02751309946492253
0.07460983727469386 0.015224452987127102 0.02752705183713211
0.07439714556355176 0.01326465379049735 0.027382170882028933
0.07422021068416557 0.011499636461552942 0.02710112783588514
0.07404151927022971 0.009729223413966093 0.026831746666421463
0.07390030510271647 0.00816115289322178 0.026417493638959122
0.07379163159359871 0.006768102276200727 0.025876653598338017
0.07368649109373235 0.005396083716025679 0.02532448871919174
0.07359960138536176 0.004122397431382929 0.024701529186117066
0.07352955427789762 0.0029390449449940292 0.024012747097445997
0.07348733424362003 0.001903002736040993 0.02321290470662901
0.07344920733430475 0.0008892906858581351 0.022397515322793993
0.07342409502320736 -5.569453118015044e-05 0.02152998149495544
0.07341367207512109 -0.0009236689156227329 0.02060292569184813
0.07343728748761158 -0.0016146289191593666 0.019536233520764112
0.07347241956995702 -0.0022464264338629136 0.018421427171919302
0.07353424839207025 -0.0027409408484989073 0.017195252988887078
0.07363574485906085 -0.00303212466780739 0.015802823453948067
0.07377573400929904 -0.0031273470010190763 0.014247458467007756
0.07401837851868227 -0.0026982045400195664 0.01225966058995881
0.07444479153206697 -0.0013322306300707076 0.009495525957063433
0.07798141352669959 0.03041394740457659 0.024515730076451636
0.07718033802604234 0.025326006566666392 0.026563358676839788
0.07671658451906144 0.022036559896586205 0.02733883296320072
0.07636771551103669 0.0193625495378813 0.02768450551300644
0.07609224421653528 0.01708207691103708 0.027755997712476776
0.07587097146618957 0.015092000161202324 0.02762478893204079
0.07566097392180805 0.013165785841606381 0.0274555225936004
0.07549345726831176 0.011466129629858657 0.027126122174601197
0.07532866185495699 0.009784313603273365 0.026790429247848524
0.07520866338291135 0.00833919709727815 0.026283237394971848
0.07509692171951197 0.006939571080607443 0.025746655602105484
0.07500165648745703 0.005627758831729224 0.025147895915767993
0.07492709907472377 0.004425102302057948 0.02446954823621078
0.07487682393802068 0.0033493692155629473 0.023696594549512784
0.07483812979003007 0.0023343644394179797 0.02287875203589257
0.07480663882180551 0.0013572149336633643 0.022033088683818425
0.07478862488149393 0.0004498538738801905 0.021134135820420452
0.0747914457697294 -0.00035051290942389457 0.020151733038220543
0.07481706048545075 -0.0010345644745977656 0.019077152977518164
0.07486203718534724 -0.0016205301259118454 0.017923419545903763
0.07494191155209835 -0.0020300618713813834 0.016626599422082056
0.07504838489607991 -0.002306399053269237 0.015219189420427326
0.07522819749478978 -0.0022138096984055666 0.013508860500179354
0.07553570953898052 -0.00148010940072002 0.011269571356170238
0.07884375498637057 0.028019045150983857 0.026235448535740447
0.07827684668322026 0.024224955426952022 0.02735832557834872
0.07788266219857004 0.02133978395490077 0.027844661729220344
0.07759220300389183 0.019000482536531804 0.027948785945049515
0.07734062124788958 0.016868420862693023 0.027912800524886427
0.07713489831336254 0.014978371973239424 0.027708635304616702
0.0769347824031013 0.01312160200797835 0.027488303285996274
0.07677660499382945 0.01148461545392393 0.027112332719592513
0.07663341144453453 0.009927850192116838 0.026682777388300605
0.076524690873756 0.008550549440040967 0.02612386477260742
0.07641226897202828 0.00715667830016159 0.02558205712830547
0.07634439616522123 0.00599221678393852 0.02487009028560666
0.07628774252535798 0.004886256834676361 0.024116137779709557
0.07624092794869997 0.0038314350983692513 0.023325165491929756
0.07620701775453141 0.002842956234666627 0.022484773373979527
0.07617955710542275 0.0018877913517309497 0.02161986756594947
0.07615742583214787 0.0009600853220832484 0.020734623311309097
0.07618022124366607 0.000258890512325749 0.019672006150575294
0.07620768237296653 -0.0004193683461366504 0.018590268157211487
0.07627198334082774 -0.0009136547850990273 0.017360979240864216
0.07636418921688791 -0.0012698194490374237 0.016018458544354464
0.07650794048579805 -0.0013708312356252583 0.014466798698499594
0.07672963787038475 -0.0010869325236973482 0.012597776532700666
0.07711992159033434 2.9578199805091465e-05 0.010042470622048993
0.08064558825687335 0.03137008749709275 0.025452127929557145
0.07989182288068543 0.026655050916042644 0.02721489813986222
0.07943534957719009 0.023477251323544446 0.027898173359157175
0.0791134843181267 0.020996491668177353 0.028093876869107803
0.07882730990332516 0.018704406136205776 0.028164898428938656
0.07861826624947117 0.016810619517972136 0.027955221104521533
0.07841632672534798 0.01495729346474145 0.02772418916064967
0.07823241173843028 0.013199511714800327 0.027430500829208948
0.07808342895648467 0.011622158149581674 0.027009733083955434
0.07796305418850467 0.010192231783308747 0.026484492267054682
0.07784941663398356 0.008798751133517246 0.025936705480935962
0.07777195086074179 0.007589339080477098 0.025254038077353158
0.07771661536284855 0.006492476287848936 0.024488770833292484
0.07766882721436433 0.005434527383540777 0.023695965079985337
0.07762516721471233 0.00439818884517329 0.02288848491036355
0.07759013900848283 0.003405760011736425 0.022048799610578207
0.0775632678303399 0.002454608503959621 0.021178421603981756
0.0775639450269799 0.0016406439684919505 0.02020174417698345
0.07758404055555003 0.0009227618790099701 0.019149401693216273
0.07763036764683652 0.00033399364184349967 0.017994034697385974
0.07770369997701934 -0.0001226775536650737 0.016731621489021464
0.07782872886447383 -0.0003266944881208933 0.015264024399821607
0.07797103721916977 -0.00044856275202864726 0.013725103401699135
0.07828411525749064 0.0002626710582119829 0.011506617519520923
0.08160416927174213 0.02953250372088384 0.026764453208449834
0.08104482652780316 0.025864477536198527 0.027782588797257812
0.08065535357705743 0.023063313991617762 0.02819703911235555
0.0803596171626223 0.020741201407030896 0.028279206399085877
0.08010179211677616 0.018615311938978585 0.02822993018507214
0.07990001948346014 0.016775239185772006 0.027981186836060434
0.07971333267657368 0.015014679083677152 0.027681844245430687
0.0795592822201229 0.013420616456060297 0.027266459687565914
0.07942445170529203 0.01192532153195014 0.026783589104293293
0.07931352525128546 0.010551440300055503 0.026215087336194765
0.07923070733983892 0.00931904938863587 0.025544368702237752
0.0791617087479283 0.008156664112840828 0.024823924170190748
0.07911177142124717 0.00708970347217025 0.024033538416811828
0.079068589498591 0.006057020154581372 0.0232189114269874
0.07902660741533003 0.005031123926030667 0.022400811982286717
0.07898927623219096 0.0040288878268404105 0.021566096065045337
0.07897315638474667 0.0031311424173057767 0.02065152653207608
0.07897614957399672 0.002326989714735106 0.01966433372891091
0.07900494181783943 0.0016483891003409301 0.018578182569634227
0.07906328161231709 0.0011127505105340552 0.017377702960995667
0.07915476924443872 0.0007366098826277478 0.016047911278916416
0.07927777866089744 0.0005110696439840634 0.014593871564813732
0.07949414257378228 0.0007336451847044234 0.012774362828741836
0.07990874033263679 0.0019066479108471035 0.010177456731673973
0.08347662529040925 0.033151779944891435 0.025803002209585424
0.08271379894078806 0.028504770233494958 0.027498417369935524
0.08224914074582983 0.025353764341388696 0.02814931896639067
0.08189699169125197 0.02276971254763238 0.028409021482460717
0.08163491298162406 0.020638217870258768 0.02835396792888234
0.08140940402304146 0.0186925246263262 0.02817357099659218
0.08121460088105485 0.016902637694965583 0.027887688689421597
0.0810464922253089 0.015247905145973961 0.027509746461735096
0.08090261232790918 0.013715418226606158 0.027047741541934345
0.08079029434679609 0.012340321514448638 0.02647402088774703
0.08069791975151182 0.011064910002575423 0.025829987141581134
0.08062865922184921 0.009904024865203698 0.025103261333846327
0.0805739024003479 0.008815085748242857 0.02432474594605505
0.08052770025155077 0.007768778771142737 0.02351591782377921
0.0804822570248434 0.00672708980523562 0.022705396749422124
0.08044180159777167 0.005710431549193762 0.021877409270583403
0.08040796320336593 0.004726507930295054 0.021025687357216438
0.08039011552608198 0.003820223188387817 0.020114859773373128
0.08039175906056137 0.003007896757487971 0.019131181799370234
0.08044368234644028 0.002436460221048542 0.0179578071459211
0.08050391268663153 0.0019036839568538078 0.016751734312835886
0.08062086600302647 0.0016403183184167114 0.015328856561704907
0.08078839736768663 0.0016153707654635863 0.013710507740914535
0.0810904249506858 0.0022259755676076187 0.011574219436705613
0.0845025815839702 0.0316840613447083 0.0268454604614074
0.08389209728156023 0.027845463284123628 0.027969266746933563
0.08350128715380421 0.025092792194351343 0.02833671643446989
0.08319323103723877 0.022751602913409663 0.02842209676959878
0.08294226680240604 0.020694493059902064 0.028313114610000578
0.08273514045602762 0.018855362480138305 0.02805471217157346
0.08255779840747642 0.01716476755648627 0.02769531080065335
0.08240112182744665 0.015577700244321868 0.027266390273578522
0.08227601440991515 0.014146172939001778 0.026728157735694702
0.08217808542001491 0.01284808328266046 0.026095257245229875
0.08211051761263825 0.01169791245163937 0.025355237871801328
0.08204859773894473 0.01057619277957278 0.024596405522446907
0.08200576631232667 0.009547095096719471 0.02376977765981375
0.08196057715610278 0.008507594779258776 0.0229527602757994
0.08191903749633059 0.007486399357499507 0.02212349216752929
0.08187730017373222 0.00646509807255824 0.021295942949152435
0.08184255154601111 0.005477809946477952 0.020443694163866544
0.08182506856959387 0.004573005079805681 0.019528581597241357
0.08183560536076089 0.0038009961593531982 0.018510182970055022
0.08189672432790245 0.0032673610619970983 0.017303715849181056
0.08198100225889526 0.0028415016205447508 0.016009517053099775
0.08210232052224545 0.0025879166967276435 0.014574879884092506
0.08235185785125254 0.0029328138571572127 0.012656645216815254
0.08278290354208825 0.0041215433131490675 0.010049789504814166
0.0865587648611983 0.03609566181217816 0.02534017721378612
0.08562653188239004 0.030735021641980997 0.027519523097999488
0.08513522462321543 0.027519062809638006 0.028202368279095447
0.08478523348045405 0.02499288189020915 0.0284084594853809
0.0844991589013137 0.022780579104298926 0.028401175749804275
0.08425798398959457 0.020789118632973502 0.02824442059518595
0.08407091074214108 0.019061178547335467 0.027904482631301797
0.08391341818731944 0.01747812057911391 0.02746534008086371
0.083783448356944 0.01602926527430215 0.0269331799106855
0.08367483096860141 0.014684468742593382 0.02632878747497741
0.08359970449063639 0.013500671656538565 0.02560846055231436
0.08354584437124059 0.01241901888487168 0.024814410971183698
0.08349868160163756 0.011370065195010215 0.023997777056742997
0.0834586841468804 0.010355817624274122 0.02315664975906251
0.08342313578072136 0.009363287671430354 0.022300514106678215
0.0833768457598133 0.008321043028176656 0.02148385451939644
0.08332522813344515 0.007254760582411313 0.02068751241651251
0.08328881625629757 0.00626056904284511 0.019837332865339896
0.08327611624580813 0.005377689844003775 0.01890188066129489
0.08330542981064215 0.00469059773519509 0.01781362269544695
0.08336338477034759 0.0041359428999274694 0.016619961792501803
0.08347536554817858 0.00383051553839886 0.015226781529585065
0.08365757689917105 0.0038476508658400466 0.013572545767401412
0.08399159382983731 0.00456169781176996 0.011353651738997328
0.08753691994967246 0.03440986049433181 0.026530981768231876
0.08682893379217202 0.03018808419978647 0.027907989558651314
0.08643152387238277 0.027455075270620577 0.028248065496318364
0.08610298873250313 0.025056233968719865 0.028362967967434483
0.08584410004129546 0.022993197686539568 0.028247663592711414
0.08562717252542427 0.02113325856567211 0.027994590101506844
0.08544550517810641 0.019443627482627568 0.02762532499065329
0.08529815168895538 0.017918826119455278 0.027141904967719732
0.08519331784528987 0.016596343014778525 0.026514732583838907
0.08510581804699421 0.015357042360557405 0.02582979435750249
0.0850510964599845 0.01427256123479137 0.02503267141933241
0.0850082218699042 0.01324437088526681 0.024195400317941596
0.08498241767843362 0.01229642323489949 0.023299246308819466
0.08496163540512816 0.01137229010856089 0.022386017534501368
0.08492135176949187 0.010358225788628106 0.021542129198504012
0.0848491371385636 0.009197343427296611 0.02081229281463176
0.08478078400239847 0.00805568004656293 0.020070408463754075
0.08473992456611303 0.007041903614157963 0.019232075069622323
0.08474390911955558 0.006234906521633776 0.018234267058948428
0.08477255912226711 0.005540888263418808 0.017147843070140334
0.08485837575776181 0.005107783923066933 0.0158549213403526
0.08500521475697059 0.00495152123613124 0.01433958371989058
0.08524822266469147 0.005230387927937008 0.012472341799186881
0.08579250902257445 0.006873722969074014 0.009504192977992931
0.0887129657763101 0.03370396678550597 0.027029606033455666
0.08812754051389937 0.030108469189013554 0.027964536723032007
0.08775371772331735 0.027514139983166597 0.028205883955335964
0.08746111599008158 0.0253061791297699 0.028183488697822223
0.0872114919543736 0.02330406965089543 0.028023211781750046
0.08700438542105897 0.021504434906439274 0.027725132361660354
0.08684074668730905 0.019910460465045743 0.02728457363296094
0.08671520995782282 0.01849604996158638 0.026718278664895234
0.08663360041942157 0.017287023296574222 0.026005078797428083
0.08657313408202985 0.016177056414543034 0.02522141282387913
0.08654421185296925 0.015213400852339576 0.024330854419950976
0.08653474594228155 0.014339642381697437 0.023373951137278748
0.08654932942560417 0.013576268057532148 0.022334164857929828
0.08652604936413401 0.012639473503744003 0.02142531040877721
0.08644709286115794 0.01144906551738667 0.020710643929995665
0.08631938177480346 0.01003816564237392 0.02016792017628949
0.08623572067410129 0.008829877856157908 0.019473893395882624
0.08620550019912875 0.007865514983513122 0.018594067716247165
0.08621337072040032 0.007074085260816487 0.0175807016819573
0.08628070967564327 0.0065510154317999225 0.01635691095299474
0.08638790625255151 0.006206235624582279 0.014990212024340532
0.08659259708525484 0.006297732759880437 0.013274151209001717
0.08693513803741759 0.007003753442857585 0.011061326046378661
0.09165925495589954 0.04207863772597403 0.022758563710087165
0.0899544390477482 0.033321658155392675 0.02729965853200539
0.08945068648010586 0.03014454093934088 0.027938916489165855
0.08909980034854066 0.027681582347949096 0.028086303639648258
0.08882303231736116 0.0255662027899482 0.027996772314057672
0.08859445087856149 0.023677259860754862 0.027753765745953396
0.08841332561342827 0.022010040934114017 0.02735808456656541
0.08827619642955956 0.02054738183460203 0.026819671131223854
0.0881755910359345 0.019253944695114322 0.026162057454923726
0.08811544233010683 0.018146599319975032 0.0253707966460755
0.08809454027239734 0.017218700840043788 0.0244486001751249
0.08812093076560629 0.016505615275983487 0.02336693024791986
0.08822612704950032 0.01614858018751003 0.022017255118714163
0.08817716123537414 0.015093521626690143 0.021190062658978492
0.08811544233380791 0.013981929746674227 0.020407535646687902
0.08791909353279358 0.012266202225069966 0.020087786953958187
0.08777078458968163 0.010769722169152063 0.019607284407153425
0.08769746475081801 0.009611782863081675 0.01887143997571833
0.08768012427417125 0.008705328119146816 0.017943509727453455
0.08771015093695343 0.008010375130636849 0.01685150465494717
0.0877998355037264 0.007580259604713313 0.015551010173148638
0.0879620432740322 0.007470403073184695 0.01399505004471252
0.08825469372423125 0.007935325148708428 0.011978111069794961
0.08897865230492652 0.010301280097431864 0.008437579268987694
0.09353236456728373 0.045350360499882836 0.022110679218335483
0.09247964270537179 0.039667439371537216 0.024452440886321036
0.09126873192694017 0.033282583622400275 0.027327259727565945
0.09078089719461428 0.030211725813858448 0.027891197923202493
0.09045023789354958 0.027863954304209793 0.02795606123575861
0.09020962316091721 0.02593054802476763 0.0277351452581171
0.09000950434499581 0.024184830127437273 0.027387296335361522
0.08985042233928087 0.022628110849223393 0.02690939292299721
0.08973996008112282 0.021293407593496183 0.026275131007045205
0.08968069543685019 0.020190951910188548 0.025474385059451876
0.0896740263945671 0.01932558543335533 0.024500821416367446
0.08976267224366073 0.018887112447495524 0.02321077893593637
0.08986140317002903 0.01849204950037031 0.021885154522466532
0.08957730353142872 0.01638816871820792 0.021837564692295364
0.08954936473743637 0.015429373754748399 0.02093680956665117
0.0895530889038295 0.014611689320819854 0.01993008738412816
0.08934818912130801 0.012869546204399507 0.01962789205149934
0.0892194140041943 0.011467811369605285 0.019072296663218802
0.0891711200745771 0.010423579430476004 0.01824595527594841
0.0891740215122497 0.009605657434133441 0.017246073115000593
0.08922495927895728 0.008998734980679657 0.016081754722262642
0.08936010702741665 0.008760066053679072 0.01462721875191797
0.0896007323406558 0.008980342743273584 0.01280641435181784
0.09005225453890697 0.010116843982246104 0.01025159109328011
0.09424695092589724 0.042456760627300694 0.024132296520909258
0.09356619537673355 0.03852429307763011 0.025255506056294563
0.09276530974407916 0.03406420535203136 0.02677514323219654
0.09219539755729618 0.030655195750890596 0.027576220041722777
0.09188351280322403 0.028412043250543195 0.027564639092906018
0.09165166714142216 0.026532281217055365 0.027303055941406307
0.09147512914623547 0.024903417012286766 0.02686847139734644
0.09133798820933842 0.02345312109733494 0.026310471676166514
0.09127011657399489 0.022312972309408485 0.025530928959874688
0.09128019553693323 0.02151953677718138 0.02449933265497256
0.09139230362219429 0.021177158851641953 0.02313454322902153
0.09149428511192266 0.020788028264005443 0.021800459107738146
0.09107849584444963 0.018116596622614112 0.02216522267346832
0.09099043074048414 0.016893193818279473 0.021458797915272554
0.0911697210151064 0.016844016938307504 0.019870081888469004
0.09094443372267749 0.015020803555563289 0.01961991999869106
0.09077707324319914 0.01345472818495097 0.019181841010821876
0.09068313616335075 0.012211735483041886 0.018502182868523842
0.09066243696371216 0.011288995913835531 0.017579156731816148
0.09067775884057938 0.010522969452474717 0.0165354809172516
0.09078192341653399 0.010141426768478068 0.015191808690259379
0.09097987437706244 0.010163285426556479 0.013528494448533157
0.09133198746501843 0.010846331780197671 0.011337493959980183
0.09603309619128986 0.04528352241613487 0.023800933245722078
0.09523441680051493 0.04085923755688986 0.025248408085263574
0.09471855753829071 0.03770566556252658 0.025830595393560973
0.09422971952783084 0.03468121443980948 0.026339304664458774
0.09379976009560319 0.03192607969543054 0.026673565094835594
0.093436987731627 0.029475341793422982 0.0268052758601125
0.09317961786112201 0.027495540131077356 0.026611364189464026
0.0930038978045238 0.025879380765068016 0.026163818495633984
0.09292728070903217 0.024701222711064397 0.025404404658966095
0.09289639101159419 0.02372466938598361 0.024500501133199792
0.09289750379796048 0.02288850854104274 0.023494640186181637
0.09287052626148701 0.021929842670261823 0.0225791369603896
0.09272478529017379 0.020454885103499354 0.02204762334342375
0.09251903120705122 0.01872197224578087 0.02171364421585964
0.09251378869188272 0.017861648462833946 0.020732460859235857
0.09254083541072218 0.01714104408643935 0.01964610521098159
0.09233836965861725 0.015429574445862626 0.01931001291768608
0.09221320296932332 0.014054626273994064 0.018724572715127008
0.09216416225056002 0.013009059323759842 0.017891145650853035
0.09217100837977915 0.012204021315369906 0.016874134794611362
0.09223266933607477 0.01163340727480866 0.015675284564365344
0.09239722739551007 0.011501033046035614 0.014132926299820325
0.09268239825247643 0.01187958709940412 0.01218462591568159
0.09361858755854147 0.01502094789525893 0.008051205231501879
0.09698514910242173 0.04352199477795404 0.025024867222635305
0.09634503657654041 0.03984662603413819 0.025955870438499562
0.09586820562643594 0.03689788956654011 0.026398061492147795
0.09548322754780633 0.03435917923507209 0.026566781641984838
0.09518621913643947 0.032211095157702097 0.0264711307041392
0.09492885100038943 0.030240884149048186 0.02625855761066065
0.09471277672994438 0.028454668506167624 0.025922638472581083
0.09455477585659153 0.026924090651050947 0.025409530387589307
0.09442450258315314 0.02551630060774923 0.02481269386353785
0.09434181386816058 0.02431629190954465 0.02406866322598822
0.09427480648150607 0.023185326725932487 0.023276804433223663
0.09429176137775333 0.022416581770930144 0.02221997160966488
0.09422708295211606 0.021297253218509893 0.021422656974622367
0.09417546045010361 0.02023498468834939 0.020585016304508152
0.09406957184452625 0.018941756102860197 0.01992238450938222
0.09389352557742588 0.01735125730924192 0.019487591554895434
0.09376394885451231 0.015961638831169966 0.01890663164844608
0.09368799266127646 0.014802021080151828 0.018154876035865908
0.09367515929329873 0.013911232402851137 0.017199756155200863
0.09372372141890956 0.013280278322123862 0.016044884810338167
0.09384926693917768 0.012973287402367695 0.014637351619494532
0.09408110664581662 0.013111612570665232 0.012878582064152544
0.0946611905382785 0.014708991197477872 0.009969195380201301
0.09899230753025541 0.04725721171711578 0.024074027922907415
0.09805796353935395 0.04233256626235404 0.02585129874820352
0.0974864036865809 0.03899486201896807 0.026550956472022547
0.0970719097966781 0.03634577636985542 0.026785923378682686
0.09673040353894799 0.0340186671701983 0.026807310174856935
0.09646767620659141 0.03203652381911054 0.02659512131952263
0.09623540056441791 0.030189759600955934 0.026295068619139328
0.09603488224156541 0.028483164671858963 0.025902176100020824
0.09590205142614534 0.027069543094641768 0.025304512669312995
0.09579144764880151 0.02575311123735341 0.024640779735355833
0.0957066517250784 0.024548531004995544 0.02389914695343559
0.09569545265134004 0.023658211302393595 0.022929753029301503
0.09569459129342378 0.02281193036408763 0.021928243421144633
0.09566961863495912 0.021863622535188643 0.021002458525823275
0.09557386753518309 0.020616834441278764 0.020300176420199434
0.0954283154932142 0.019161845751108186 0.0197573181657269
0.0953091166378146 0.017820254181921236 0.01913393916333672
0.09521238002351504 0.016575033662695582 0.01844159021263725
0.0951868061344859 0.015629553299230547 0.01752409515097547
0.09521380119970117 0.014904224425603685 0.016438766640318625
0.09532164986426266 0.01451561917829891 0.015093061612787173
0.0955183395755867 0.01449484296228326 0.013458684505470775
0.09597535168304983 0.01555169010431251 0.010978211953824257
0.0999809535289283 0.045681797223008136 0.0251626269737123
0.09920754303881432 0.04150377527952187 0.026427154284989318
0.09867103855613325 0.038350892949614634 0.027000866297241577
0.09828350608513185 0.03584221976658275 0.027139674050275453
0.09801089010380436 0.03382903173069857 0.026941263531429893
0.09777791319068825 0.03198882482705623 0.02662899988988643
0.0975737135677999 0.030274558443820765 0.026234508841374016
0.09740409979017431 0.028710035744451634 0.025739265747069695
0.09728334949257707 0.027354583755679507 0.025098711246530736
0.09718713988229008 0.026104537965375263 0.02438565934794462
0.09714567352879311 0.025086139681087638 0.023506734906333315
0.09711386771982591 0.024108961751377944 0.022598945927684355
0.09710628408988128 0.023233672797252136 0.02161703918726443
0.09703837592172819 0.02210666456401361 0.02082214175989372
0.09694642890160711 0.020880684238972547 0.020103358312361486
0.09684218130074079 0.01960516084427183 0.019424833643632122
0.09675581722033068 0.01840564501504849 0.01869251859063803
0.09671037860816724 0.0173770687613653 0.017833532344058878
0.09672021519737767 0.016577651579910313 0.016801413594097758
0.09682014092233862 0.016149484540992354 0.015484448912281845
0.09700431192575718 0.016066177622804545 0.013898365032275262
0.09734925610423896 0.016639716511578695 0.011797166528148828
0.10108447513306146 0.044634396365277273 0.02588637274589012
0.1004172320110149 0.040950874509066315 0.02681131745345422
0.0999242278065847 0.03801295333817911 0.027236968244914617
0.09958471902918974 0.0357289270655235 0.027219262658240928
0.09934499867394762 0.03386947281847713 0.026912697038449007
0.09913161448544215 0.032124419091977 0.026532693036277866
0.09895379605093763 0.030531661613583727 0.026050896538451163
0.09881056974246727 0.029086225231807372 0.025469133634318353
0.09870936837267029 0.027818156802061955 0.02476400814781604
0.09863330639269931 0.02665624080818574 0.023985147287333974
0.09858938651073938 0.0256288569691141 0.023110593974344784
0.09856447640585846 0.0246808581968348 0.02217922941720052
0.09852209885981213 0.02366118361133457 0.02130157845836944
0.09844928282677982 0.022516851097023227 0.02051781781469897
0.09836505725603875 0.021326865550389262 0.01977053046017707
0.09828716625482647 0.020164308930684216 0.01900547484633902
0.09824001959494588 0.019128941176251302 0.01814710894695898
0.09824915072817016 0.01832427562792377 0.0171154134121847
0.09833553857132754 0.017834384106350798 0.015843477652967564
0.09852417244269122 0.017758932929262505 0.014251031805040004
0.09883441200519538 0.018173879407372362 0.01227439263466279
0.10322387847471498 0.04881242416048093 0.024643100412297503
0.10227325873737594 0.04397052914162963 0.026345099787075943
0.10167075936261087 0.04059517904379112 0.027058459624799247
0.10127075640496579 0.038072021528628264 0.02719570017707451
0.1009631426343594 0.035939012632087985 0.027071676647490273
0.10073159319746988 0.03412620386096271 0.026731349158705953
0.1005251396133097 0.032421026242436535 0.02632202556125418
0.10037502579444989 0.030951701421425948 0.025750921720916697
0.10025592308827376 0.02961255183786743 0.025091191871267904
0.10016005871419036 0.02837086505643871 0.024364948783021922
0.1000954462907497 0.027258898461352432 0.02354764426979833
0.10005201567181334 0.026234667747262574 0.022668399757283575
0.10001043001292723 0.02521870277908289 0.021784503670892574
0.09995654066749715 0.02415332186405106 0.020938429067044018
0.09989369303256561 0.023052436453439462 0.020120458478064485
0.09982222108408838 0.021917628658036092 0.019329852172591366
0.09978292510460536 0.02091428308391141 0.01844299727279264
0.09978232540658329 0.020067923398439547 0.017439058791718365
0.09986154802976455 0.019543356582197302 0.01619117484967103
0.10002669855059365 0.01936311867681917 0.01467820997771474
0.1003383253661777 0.019768090175024677 0.012711293758065012
0.1043663350081434 0.04792155109846724 0.02525529573522789
0.10353031174663327 0.04360522963454 0.026597518879425686
0.10301515635255508 0.040622419255637865 0.027039532745598005
0.10266494940906867 0.038325175063034234 0.027018834132044534
0.10237222417271197 0.03626920878641576 0.026839712434149288
0.10214532144531063 0.034487173118139036 0.026476370217290934
0.1019703942781979 0.03292093710978511 0.025966960081551194
0.10183180803218211 0.03150555501366592 0.025355382709682295
0.10173080695083513 0.03024517128824944 0.024636923917369158
0.10164474490099562 0.02904703690732907 0.02387674780688076
0.10158029386192738 0.027937770347516766 0.023054813062633905
0.10153277526030714 0.02689794149740321 0.02218426209050728
0.10148315814884759 0.025850451172132805 0.02132086163719732
0.10142319235953802 0.02476218111002776 0.02048915111850247
0.10136879500308338 0.02369725430862013 0.01964205780464212
0.10133764977533136 0.022726335546808085 0.01872659925735365
0.10134650284482953 0.021915753152516537 0.01769189878260552
0.10141249164260592 0.021332836327091542 0.01648523690421677
0.10158642854131479 0.021178330700938997 0.014951629498760832
0.10186233253858247 0.02142578507369669 0.013105956348116343
0.10559954860796582 0.04742346560656374 0.025597573015308128
0.10485937193349312 0.043542219606259036 0.02664105831443425
0.10439201371781524 0.04078074123565728 0.02692952842523544
0.10405923101353201 0.038572196444231766 0.02684625232380411
0.10380312794991796 0.03667917101855961 0.026551712209336387
0.10360274176615242 0.03501518442399476 0.026103397280827056
0.103438593342221 0.03350042140053905 0.02555537697521032
0.1033144135109985 0.032148978490060764 0.02489587664305387
0.10321553420266134 0.03090104448379022 0.02416595803989663
0.10314743024863998 0.029777904382082443 0.023349056193965212
0.10308159865488842 0.028664962102168623 0.022526903750746008
0.10302550538479328 0.02759191749833556 0.021677714195586284
0.1029710287579091 0.02652622731205917 0.020824907508488644
0.10292811065744249 0.025507311672192057 0.019939318406628714
0.10290200410838629 0.02455569119130252 0.019005169760264395
0.10291381257457298 0.02375436368805034 0.01795974419310109
0.10296760644053982 0.023118446842538887 0.01678988339237869
0.10311590796126706 0.022853636207012196 0.015338460569561174
0.10342132830537308 0.023203523982951335 0.013416241942078966
0.10692655129280079 0.047315454394555534 0.025671796787060774
0.106217776380888 0.04359866522164496 0.026602054837215394
0.10579453932786846 0.041037942045534015 0.026750821714494943
0.10550769196196899 0.03902969236817205 0.026526622203393135
0.10527695537387058 0.037250108410478155 0.026150626244985986
0.10508528443253361 0.03562991396024012 0.025669168926771402
0.1049424672148741 0.03420707078697005 0.02505347389655621
0.10482390824205726 0.032882800026548364 0.024371812072503884
0.10473452905076225 0.031675996456349276 0.023609484718168094
0.10465069589779695 0.03049256187538002 0.022833068305124438
0.10458695831665032 0.029389733279391705 0.022000751671880314
0.1045356442052242 0.02833682959002043 0.021133986960873263
0.10449481896658806 0.027325950447246894 0.020237988309531163
0.10447837129803941 0.026411267336783284 0.01927228846622181
0.10450684169435227 0.025672512895189348 0.018176581887054122
0.10457174888832223 0.025075492016414236 0.016974251764937442
0.10473071554608504 0.024843722472342733 0.015495933666545003
0.10506609176372693 0.025294944574067058 0.013497564408337548
0.10833576350850097 0.047536869023596606 0.02551964379680094
0.1076613674391589 0.04399157261340336 0.026330558913239765
0.10724711979971857 0.04148684164170435 0.02643892001277487
0.10699924619458076 0.0396459779063576 0.026096053513116668
0.10678349869287528 0.03793574376929487 0.025668964467396638
0.10660047110296686 0.03635770096423252 0.02515507982869919
0.10646053106188685 0.034951765106817245 0.024524549115802707
0.1063491021543813 0.033659786339861664 0.02381692102834243
0.10625922232694014 0.03245385561986108 0.023050923816481383
0.10619175077928987 0.03133680610430162 0.02222351785412846
0.10612694265335955 0.03023121207781937 0.021389874979997447
0.10608700095952814 0.029223288449085505 0.020486941719553398
0.10607766409506814 0.02833468866666594 0.019497672315596237
0.10611663224286619 0.027633172063468547 0.01837064354164203
0.10619110553682842 0.02706814355634274 0.01714114119201071
0.10636722585307125 0.02689364355259105 0.015618006096982218
0.10675642839206001 0.027535773285594034 0.013476906473694095
0.10982203233138177 0.048055282088680984 0.025163397696965684
0.10918605320539304 0.04469245101647745 0.02584625743755209
0.10879166619091493 0.0422841857300566 0.02588491421696859
0.10852876735677974 0.04039517184688557 0.025572628195225988
0.10831982551850909 0.03872041178354174 0.0251177318250021
0.10814835889796352 0.03719458006746851 0.02456393101590376
0.1080094002669872 0.03579752348834514 0.023923842819812968
0.10790072722896722 0.034519868149413435 0.023202686665151018
0.10781657380233335 0.033338626252070847 0.022415592505499904
0.10775485717700159 0.0322451872916103 0.02156766005441607
0.10770599363629417 0.031202159284811293 0.020685009903291474
0.10770697702972176 0.030351216602666764 0.019663642886378896
0.10775551336769051 0.02968238654011318 0.0185085928185591
0.10783825705131941 0.02914352914286178 0.017256149289187284
0.10804633301633311 0.029081393133249034 0.015647479151449817
0.1084921693218932 0.029920918693768728 0.01335981764885974
0.11144657939182484 0.04909720661397493 0.024447401952533088
0.11079347402988561 0.04569638058279818 0.025152549986554695
0.11038962384186814 0.04326834016918857 0.025201109983372993
0.1100948370006907 0.04126694519922841 0.024963562612344836
0.10988177055022344 0.039584469507220055 0.024510727571538604
0.10971621083851717 0.038087673352266704 0.023933074022363554
0.10958566373120339 0.036727582813222526 0.02326326114034022
0.10948419297417068 0.03548068320221148 0.02251651284360756
0.1094109696383828 0.03434312866147882 0.021694284847424306
0.10937255823457177 0.03333924480907885 0.02077774259884707
0.1093865836217589 0.03253516946901713 0.01971730298887442
0.10942400224454599 0.0318195612947208 0.01859186675611052
0.10952804010601158 0.03135540718141905 0.017280757969934668
0.1097521742523068 0.03134304108729047 0.015633126857130197
0.11051391242068857 0.03335265104231677 0.012478564637620038
0.11311532896062364 0.05028334900463316 0.02363230173808828
0.11237745594106702 0.04658651424774052 0.024537474610283938
0.11198669344119908 0.04422539198063019 0.024536137033587535
0.11170555019632603 0.04228768871308902 0.02425041883297735
0.11148679092441018 0.04059137888614295 0.023803369418131215
0.11132388098753455 0.039110234218708295 0.023210764623227353
0.11120610278468368 0.03780239974475602 0.0224998642743911
0.11111886888934293 0.03661173833264142 0.021708760697173868
0.11107666415331623 0.03559212936670414 0.020797409175267567
0.11107870558079105 0.03473958186097886 0.019766689100000623
0.11114168641361043 0.03411572105612792 0.018569891875619304
0.11130713787625984 0.03387468485664008 0.01709178820484336
0.11165292846837055 0.034305143187412124 0.015115937899589704
0.11410125506919915 0.04798359952424458 0.023572099649228184
0.11363667308734325 0.04535911426716788 0.023748410973092493
0.11334433123581594 0.04338972266277913 0.023480481385223406
0.11313643485179875 0.04174185074172837 0.022995158009687877
0.11298770805004754 0.04031885650539885 0.022357026458261153
0.11287025749052247 0.03901508460141301 0.02163854567045448
0.11284388210661735 0.038052955827641344 0.020679503595779136
0.11287650610003985 0.03731093450402451 0.019563178877084864
0.11297344806712752 0.03680743106161305 0.018273686992721194
0.11321181825088576 0.03682693445742247 0.016601669887535864
0.1160821510632186 0.05030754400448878 0.021966272252832375
0.115381761163495 0.04682047727890609 0.022733035566029458
0.1150525450668578 0.044723965965388246 0.02254831057198975
0.11486216781333351 0.043147563636029784 0.022007638677811525
0.1147684566107677 0.041931966923148545 0.021217568793858443
0.11476384599492799 0.04104702729882781 0.020195342980316833
0.11482736322670845 0.04041338461920496 0.01899378433100324
0.11507286546218137 0.04044849019478769 0.017310179853697816
0.11740305285206272 0.04838735561276464 0.019988878645212427
0.117117254435445 0.04646179352156077 0.019679377981397517
