# .PCD v0.7 - Point Cloud Data file format
VERSION 0.7
FIELDS x y z
SIZE 4 4 4
TYPE F F F
COUNT 1 1 1
WIDTH 719
HEIGHT 1
VIEWPOINT 0 0 0 1 0 0 0
POINTS 719
DATA ascii
-0.03230574919893541 -0.034132208585428925 0.022392590639816745
-0.03220388694221406 -0.035998959127921226 0.02242167268612255
-0.03217788530472602 -0.03704520524228039 0.021750113232157198
-0.03218016755044779 -0.03778677798831581 0.020815844432338804
-0.032251166261049465 -0.03779289093034599 0.019237652373865433
-0.03096035411049938 -0.03350570202366365 0.02656015968024189
-0.030838985380101522 -0.035638273451781555 0.02680733010391373
-0.030760904552322485 -0.03727829988208986 0.0266468734527614
-0.030720724425901267 -0.038489409329912905 0.026126741688332622
-0.030688854799530783 -0.03960553528567712 0.025528857786375148
-0.030674269975482057 -0.04052709108179009 0.02476570338015499
-0.030676009482064913 -0.04126605914513298 0.02384506697642741
-0.030693415402666645 -0.04183096368660161 0.02277190666273965
-0.03073393983080057 -0.04214031261689788 0.021472115345227083
-0.030802609756909804 -0.0421401885822853 0.019894444852541937
-0.030931354185692757 -0.0414801209482043 0.017722942088846394
-0.029711267948667845 -0.03266238298273477 0.028958399639062604
-0.0295867660564124 -0.0348912487034459 0.029277227578554166
-0.02950612285420847 -0.036598779053910124 0.029169315210769653
-0.029444320977638463 -0.03808143597992697 0.02887916580523403
-0.029401126426209886 -0.03934340810174258 0.02840737921466513
-0.02937321659986166 -0.04042488415462603 0.0277854569438159
-0.029345359711598424 -0.04150430891309215 0.02716471430673989
-0.029344334829502057 -0.04227072325914644 0.026275827565188037
-0.029343310018990695 -0.04303708407327028 0.025387002909930456
-0.029358847524454435 -0.0436119193756202 0.024330657745779916
-0.0293889439500025 -0.04401961594316367 0.02312560202502134
-0.02943123034025444 -0.044288561855721886 0.02179461251211945
-0.029497198480046255 -0.044287730128852676 0.020219234350979443
-0.02959357972612678 -0.0439418201955844 0.018328355320924472
-0.029769165590110527 -0.04269538394815969 0.01561801479245234
-0.02859811826716869 -0.030205547002748634 0.030011981354110873
-0.028438421906392623 -0.03293739153423558 0.03073139036798378
-0.028327791013771485 -0.03505798642673813 0.03095794131103452
-0.028247283284771916 -0.03680344437754307 0.030881749915977474
-0.028188281923554243 -0.03828156853523207 0.03058882705576088
-0.028141605415313808 -0.039606130268209305 0.03017212770345873
-0.02811014649941021 -0.04074289681424481 0.0296004440229074
-0.02808680531634716 -0.04177935119645698 0.028946244527641607
-0.028071767048826666 -0.042713900729612175 0.028206817815796814
-0.028073871437048006 -0.04344028691254764 0.02728876273687919
-0.02806973811681562 -0.04424207016818077 0.026436119345049303
-0.02808311945173731 -0.04483271267704042 0.02539913625565554
-0.028107509263403486 -0.04529179778279607 0.024244918793479453
-0.028138735741908522 -0.04567022534213555 0.02301664981157936
-0.02818775150245059 -0.045837528385272386 0.02159718589139803
-0.028255427668508 -0.04578473911767883 0.01997553079409098
-0.028344483982149258 -0.04548096873016444 0.018120797691054236
-0.028499405645649154 -0.04439937293410379 0.01555354817951854
-0.027371966310473186 -0.029885529046857595 0.03129111539099694
-0.02721805534362615 -0.0326318668885206 0.03201581336001774
-0.027102218142475366 -0.034880525132606366 0.03234470154328417
-0.02702052542068649 -0.036685059814963894 0.032316012928128746
-0.026961079228489435 -0.0382005038341619 0.03205402173691008
-0.026917026449039174 -0.03951617956046938 0.03163027935489482
-0.02688282262349501 -0.040703979178797645 0.031103118802662866
-0.026856814018846 -0.04178574039534194 0.0304894686831233
-0.026836588017937594 -0.04279273704573611 0.029814723180232316
-0.026823622125429655 -0.043706763703919405 0.029062202231768697
-0.02682448135506658 -0.044445565937440035 0.02815941435016739
-0.026829064841953226 -0.04513751297178353 0.027215733123113928
-0.026840960564160694 -0.04573783040176321 0.02619132510257066
-0.02685738825224056 -0.046281990557670016 0.025116130236996603
-0.02688404526236594 -0.046699098688778196 0.023926655481108228
-0.026922002248410862 -0.04697664833317883 0.02260999648170381
-0.02697381635789514 -0.047083739560835336 0.021136559444862146
-0.027038919703222416 -0.04702859091878059 0.019511300099089912
-0.02713962133671835 -0.04653572115944937 0.017483072840396296
-0.027283233289781047 -0.04551766213519892 0.014966196739906734
-0.026186802536064598 -0.029054029867403797 0.032148411184451775
-0.026028105288922673 -0.03195962702844157 0.03299499174269249
-0.025909326220506082 -0.03431870744265203 0.033408929375367324
-0.02582648382559161 -0.036188239251566945 0.033430447682400055
-0.025762799808419903 -0.037796204518094956 0.03324345362916087
-0.025717925861625936 -0.039148939731700416 0.032849853776396876
-0.025680890289201317 -0.04039447516932143 0.03237116289024339
-0.025649709421113654 -0.04155990553942551 0.03182895622494686
-0.025629738699490794 -0.04257460605094665 0.03116197703829976
-0.02561498583590912 -0.04351898162101708 0.030437119783303157
-0.025605773917810177 -0.04438921682030905 0.029650158249363567
-0.025605160025722166 -0.04514545715641077 0.02876557582756245
-0.02561007198879509 -0.045828905807924536 0.02781769159432168
-0.025620106433790122 -0.04644534633360997 0.02681056635143192
-0.025632130811217985 -0.0470362891909189 0.025779792523564382
-0.025655391713956942 -0.047480974631035455 0.024618199821958453
-0.025684046863033536 -0.04785662676269253 0.023392400015493253
-0.025731970919266944 -0.04798306551239068 0.02194036455642967
-0.025778829627047577 -0.04812614479457822 0.020497426634669136
-0.025848500121171725 -0.047976277920473154 0.01878416681131939
-0.025950736851274175 -0.04740931309691815 0.01668366670642868
-0.026097572601643755 -0.04627284010061683 0.014050818098579998
-0.02504213528398358 -0.027641194210792586 0.032533762944338684
-0.024862311799432105 -0.03095413628281346 0.03370108430568752
-0.024744569209021267 -0.03337886032491211 0.03416089522115223
-0.024650698199759517 -0.03545979912677222 0.03435132615153963
-0.02458128784864495 -0.037190857080565964 0.03426288377914388
-0.02453173234849801 -0.03863893793762968 0.03394685910928785
-0.024493944650997718 -0.03991914561243659 0.03349613310690497
-0.024463641660768396 -0.041092425791799836 0.032959916971977254
-0.02444207043834132 -0.0421420737018503 0.03232264289916059
-0.024427493960813295 -0.04309306329182799 0.03160396208837418
-0.02441800257635361 -0.04397255283049628 0.030825833433826944
-0.024412480166730335 -0.044796472666003506 0.030001022681551248
-0.02441222035037262 -0.04554730425365122 0.029113607383821183
-0.024413129732777622 -0.04628199270047034 0.02821216992690534
-0.024416767939370358 -0.046979180559064304 0.027277795649848335
-0.02443035582649518 -0.04753996023715368 0.0262229425751328
-0.024447085122884644 -0.048058529462814914 0.02512902865535971
-0.024470427191205835 -0.04848771979918193 0.023953515385300828
-0.024504084154387994 -0.04877764017437253 0.022650544412485762
-0.024546499205032806 -0.048950425538242304 0.02123802364044558
-0.024600532929772087 -0.048968035796103315 0.019679910892712538
-0.02467662085026238 -0.04869015180799141 0.01784656729577827
-0.02477831586819882 -0.0480707708722829 0.015691745491542175
-0.024946133047360052 -0.04656580483375611 0.012711311400011582
-0.023928349768110545 -0.025699494891705976 0.032497115586992975
-0.023724679508961084 -0.029503405279529327 0.03404740097696263
-0.02359215220157569 -0.032236417177436305 0.03474890092417182
-0.023493961190407114 -0.03445147610125415 0.035042051594666
-0.02341827917980217 -0.036326989560100276 0.03506751528872182
-0.02336136845606951 -0.03792034257969035 0.03486854831448194
-0.023321776168636392 -0.039254760350608764 0.0344608684627008
-0.023289702234994353 -0.040476052825871245 0.03396343364310661
-0.023267377267605905 -0.04155220863322423 0.033347765361077586
-0.02325078534108695 -0.042542976058099646 0.03266261365626422
-0.02324082917618873 -0.04343571764273729 0.03189607508922149
-0.02323495841956096 -0.0442682560623428 0.03107925314019394
-0.02323081977446927 -0.045075219472115624 0.030241172309566744
-0.023229955169335834 -0.04583439345235779 0.0293622494700701
-0.023232796257341787 -0.04653984201306205 0.02843666542338169
-0.023233661074384276 -0.047274032166297164 0.027535859488799663
-0.02323909854075616 -0.04794234579492357 0.026576977578750882
-0.023252765224128315 -0.048492617988842635 0.02551296611573972
-0.023272024774297163 -0.04896348573750642 0.02437652683526037
-0.023294358665793418 -0.0493915595769841 0.023199257093417858
-0.023327566336924923 -0.049665680068476326 0.021880663138615475
-0.02337199079143637 -0.04978200505885649 0.02041507838415685
-0.02344152364597897 -0.0495439944211688 0.018621789085603635
-0.023519888197939764 -0.04918509771075763 0.016708764312723945
-0.023628450987697083 -0.048403580259318846 0.01439738109800004
-0.023885508191004056 -0.04553088256920934 0.010142656730390942
-0.02260472826050316 -0.027699012129534017 0.03411373196628392
-0.02245552930728857 -0.0308039585211361 0.03510451361204309
-0.02234828494415847 -0.03324216526355056 0.03557074858879705
-0.022267476182602004 -0.03526025802521898 0.0357064678402621
-0.022205054211414558 -0.036986349723600376 0.035612063024075824
-0.022158348627303013 -0.03846383078572163 0.03531978625157978
-0.02212238694260422 -0.03977144939459287 0.03489213402857888
-0.022098006657197123 -0.04089732966947646 0.03431692681065229
-0.022080901925894323 -0.04190916516067095 0.033648874932109274
-0.022069924194188933 -0.04282539867791835 0.03290211195400744
-0.02206499657272614 -0.043647834677089103 0.03207690496419874
-0.02206382365397364 -0.04441231444887822 0.031202712169665914
-0.022059543558036812 -0.04522429508602627 0.030369605900344487
-0.022055909711962522 -0.04602611195829487 0.029528292948903412
-0.022060071151760226 -0.04670884113104107 0.028583803845095623
-0.022061243671952425 -0.04743731786878502 0.02767877251418671
-0.022062826771871814 -0.0481596422921709 0.026768163779904708
-0.022071449858029814 -0.048775461315801794 0.02576313201998942
-0.022084955293510684 -0.049318091388324936 0.02469181264795406
-0.022103302149276676 -0.049788645086865424 0.023554166636526208
-0.022129876708086596 -0.05013667609617045 0.022303842074341107
-0.02216645464828665 -0.05033636914845041 0.020915773527994397
-0.022221400132845227 -0.05026348869860148 0.019275033176390843
-0.022289538538171578 -0.049997212283664494 0.017449961398789626
-0.022376175970112055 -0.049459780577023216 0.015366393593170269
-0.02250972151276847 -0.048230536952685255 0.012632410496787094
-0.021537048169168682 -0.024904955710265853 0.03339311977269177
-0.02134270833968912 -0.028898588710346784 0.03508359364692748
-0.02121924480897482 -0.03170487519424431 0.035836794588960885
-0.021127580516311424 -0.033976993869949956 0.036171214234625326
-0.021058222541346056 -0.03587484339680386 0.03621135116305563
-0.02100636189408348 -0.037479918542894064 0.03601968816988527
-0.020965928834549764 -0.03889372072779179 0.035676707797413054
-0.02093567817248689 -0.04013786792003893 0.035197973090901946
-0.020914743706793856 -0.04122760667539699 0.034594062064494446
-0.020902180889581824 -0.042179337387528604 0.03387677787568533
-0.020894572721259684 -0.04304955444797248 0.033092199155208724
-0.02089285193342138 -0.04382364561632818 0.032226783875429876
-0.02090240310968273 -0.0444150143734276 0.031205026023600646
-0.0208980706806624 -0.04523147613111883 0.030375792609106445
-0.020892352403436332 -0.046069979450151455 0.02956628568684988
-0.020895516500466775 -0.0467651364521362 0.02863281714643634
-0.02089368453830328 -0.04754073915451351 0.027769290230114596
-0.020892518911505713 -0.04830553573211588 0.02689652669835796
-0.020898292813740272 -0.04895931945327325 0.02592574868027514
-0.020907237555522085 -0.04956294234897002 0.024909513730657085
-0.020921253402883273 -0.050086503743148325 0.02382038858867913
-0.020941922076705928 -0.05050543227168891 0.02263516088962314
-0.020973980617859184 -0.05074539486585006 0.021285200758673573
-0.0210170842759158 -0.05081306107740541 0.019774001577077205
-0.02107424859928267 -0.050662056224651364 0.018056748185023508
-0.021148943446819196 -0.05023928770374436 0.01608155352373042
-0.021252445866940816 -0.04936958962100124 0.013682900770068673
-0.021438707304480692 -0.04721096437957517 0.01007366130050924
-0.02024684009800427 -0.026554740493429707 0.03471988918547031
-0.020105766909818006 -0.029798706246563 0.035811341687706943
-0.019999495114549768 -0.03242191936233296 0.03641962074766608
-0.01992267627009892 -0.034521885885240966 0.03661647307868643
-0.019863588856093198 -0.036306543981473094 0.036565994204880214
-0.019816951354789364 -0.0378698933134371 0.0363417577911635
-0.01978069424753823 -0.03924931272254262 0.03597194253549785
-0.019755650584085644 -0.040431533436897316 0.035443087297950426
-0.01973947962454439 -0.04145833064202542 0.03478766241787301
-0.019729884085915673 -0.04237037518314918 0.034037927215358754
-0.019724958855860005 -0.04320123415028648 0.033220825645996654
-0.019725482699808318 -0.04393805020881936 0.03232431384618506
-0.019738063303093495 -0.04446810414107161 0.0312505243201307
-0.019742890123628558 -0.04513181185149506 0.030289928523300813
-0.019733238842658502 -0.04604312315781356 0.029543026001059236
-0.019738325570153467 -0.04670258493177504 0.028578356909650382
-0.019730513016959838 -0.04758173339463251 0.02780516973940167
-0.019731246819290907 -0.048315316718515355 0.026905132403727994
-0.019732085517339855 -0.049047180123402756 0.026003458641571497
-0.019735178832241577 -0.04974103172360744 0.02506785597107275
-0.01974525192943427 -0.050317508888981455 0.024026857796754286
-0.019763535651531536 -0.05075671037094076 0.02286092839584425
-0.01978933745254086 -0.0510711844576342 0.02157945009693535
-0.01982774326853835 -0.051176663548228696 0.02010412396013278
-0.019876718638182134 -0.05110855004452036 0.018464252162016193
-0.019940273034271507 -0.05080124183793727 0.016597119149509676
-0.020023001877597996 -0.05018000301897507 0.01443030377924398
-0.02014770712964864 -0.0488688338946936 0.011610620068390531
-0.01901164322272896 -0.02738168357628079 0.0353849230733036
-0.018884173688157663 -0.0305248444166214 0.036398426828628205
-0.018794966820138013 -0.032945078539316275 0.03684485376270524
-0.018727797480624437 -0.034948556880263715 0.036965127543620635
-0.018678458334702643 -0.03661596370249792 0.03682018323070424
-0.01863593404742333 -0.038153293221112994 0.036575810114108265
-0.01860567791045342 -0.03946066948276966 0.03614742415113947
-0.018583568909296605 -0.04061550176531009 0.035596640399531254
-0.018569401321975494 -0.04162255419562638 0.0349254623112904
-0.018563582585705295 -0.042475309501850966 0.034126444234270914
-0.018562448850011338 -0.04324183966290229 0.03325525968374021
-0.018564223454514667 -0.04395515922045784 0.032338899286930234
-0.01857507563597551 -0.0445031882389757 0.03128059163367841
-0.018591773275900458 -0.04494579424926626 0.03012966818309215
-0.01857946944239644 -0.04591594526262688 0.02943287982584114
-0.018581790605933696 -0.04662033896102097 0.02850674977658485
-0.01857700075650095 -0.0474533701787051 0.02769282202458584
-0.01857364439602261 -0.04826018005214622 0.02685662094624508
-0.01856713256883371 -0.04912346603122231 0.026070931094665406
-0.01856880942123712 -0.04983929808102494 0.025155226232339956
-0.018576260279204473 -0.0504518929759708 0.024146968437227412
-0.018592366644644406 -0.05091047491499956 0.022999082249127667
-0.018612910599318397 -0.051291261471874516 0.02177822107501426
-0.01864448308230216 -0.05147758440516442 0.02037733637856831
-0.01868889491101847 -0.051438644872933426 0.018765521629536486
-0.018745173061363595 -0.05119321488275469 0.016956735381233157
-0.018814998990985612 -0.05071302680559536 0.014921884475069147
-0.018913091403925032 -0.04974034402686872 0.012418569745207109
-0.01915138540480804 -0.046310576967368844 0.007608735437480918
-0.017997962087044104 -0.023127600765876777 0.0335031580619346
-0.017791335937457967 -0.028021785430905943 0.035899697830863664
-0.01767621777299613 -0.031076272608356104 0.03684425836730976
-0.01759965045100263 -0.033354971090945984 0.03717802166501871
-0.017542694076480535 -0.03523832031687896 0.03720190791334127
-0.01749716948501463 -0.036890642866043155 0.03704583280715812
-0.017460296220156362 -0.03836829263290531 0.03675337231649012
-0.017434609735554413 -0.039622442390768176 0.03628173814815633
-0.017415938207852005 -0.04073652159432728 0.035697652189216444
-0.017403312459187716 -0.04173043836256879 0.03501598785637883
-0.017399708464195817 -0.042546736393251905 0.03418669616686254
-0.017402665478635032 -0.0432346216143466 0.03324913867847784
-0.01740881373980795 -0.0438605878197697 0.03225827712183571
-0.017415382845727023 -0.04447890002264765 0.03125977646499867
-0.017430807323583025 -0.044926012221207456 0.030112625309145102
-0.017431502763141076 -0.045659506636912706 0.02921078357429413
-0.017432383732873324 -0.04638947792455339 0.02830575151726078
-0.017427748049756935 -0.0472258191333616 0.02749366185425528
-0.017413670700536673 -0.04824327969522152 0.026841751332240704
-0.017406085780763775 -0.04913499458985088 0.026081127737184906
-0.017406316930818577 -0.04987646483666036 0.025188271816155794
-0.017413346819357002 -0.05048812272676095 0.024179350087979945
-0.017424504538912984 -0.05102173284113409 0.02309904489850112
-0.01744338015786824 -0.051409575758785464 0.02188508115129789
-0.01747263214221287 -0.05160221802089637 0.020490493877583893
-0.01750735917025894 -0.05169375158292999 0.018998351277462244
-0.017556322438096846 -0.05151944924281804 0.01725603956241567
-0.017617818286388146 -0.051113237084707996 0.015290978036033909
-0.017706113056275504 -0.050208568399379316 0.012852645858015321
-0.01785206040495259 -0.04823026851264878 0.009397715462381884
-0.016758931433635337 -0.02396673260749238 0.034174404969093464
-0.016582558346151282 -0.028506839239496262 0.03628978177596781
-0.016482821368331332 -0.03139587968421198 0.03710266175788374
-0.0164124127255447 -0.03365144974697026 0.03741900475074594
-0.016362275400540315 -0.03546996987850187 0.037391200494515164
-0.016322629471814305 -0.0370615192466211 0.037186208154183775
-0.016289983497830254 -0.038501384293280594 0.036863289121089216
-0.016267758350538453 -0.0397183373957683 0.03636135618540909
-0.016250816225463944 -0.04082200282208637 0.03576900092496127
-0.016240417781842577 -0.04178661990811011 0.03506312976031323
-0.016238391420185933 -0.042574756482238685 0.034210332425976264
-0.016242315260077366 -0.04323823067695509 0.03325219921361394
-0.016248959926176115 -0.043845271297348165 0.03224521977902006
-0.016261271224488606 -0.04433489829898396 0.031136365995998005
-0.016266849842198568 -0.04496557396255818 0.03014670906279071
-0.01623865007722285 -0.04629719128776805 0.029763069214687077
-0.01625310480773096 -0.046743692837912076 0.028614147347501784
-0.016269056398488434 -0.047160620239528106 0.027436597634745152
-0.016259066780475964 -0.048113356836823384 0.026727439974005063
-0.016250211803763466 -0.049041856549907836 0.025998750110557134
-0.016247880878149414 -0.04983575795748657 0.025152078649315623
-0.016250945752426874 -0.050519044317969164 0.02420698737902882
-0.016259585420145377 -0.05108880476246985 0.023159307454062084
-0.01627481356805096 -0.05152515966451998 0.021989475179326423
-0.01629992428450368 -0.05176207140828126 0.020635628153111596
-0.01633335156514464 -0.051832654920667076 0.019125124952766415
-0.016380152654553354 -0.05163574272352378 0.01736273318295506
-0.016433842955420816 -0.05130406894255529 0.015466972541008983
-0.016511608885532145 -0.05049246263450674 0.013115835288697919
-0.016628313999408586 -0.048905583046914725 0.010027047927432142
-0.015545934978733333 -0.02433428026927925 0.034468417446003985
-0.015383118255815051 -0.028851536281339296 0.03656698974664352
-0.01529212569117158 -0.03170261085850179 0.03735065493894513
-0.015235845941907076 -0.03374891507010952 0.03749822628607147
-0.01518907207083521 -0.0355722067803782 0.03747474344150725
-0.015153128536416132 -0.03714366454850171 0.037253690712153564
-0.015124640947636514 -0.03854175040243013 0.03689662639946795
-0.015103887649228324 -0.039761244476539115 0.03639698033032901
-0.015088921179338131 -0.040847457063019454 0.03579024685178672
-0.015081148729151036 -0.04176940494858583 0.03504868469725364
-0.015083511668281663 -0.04246174404838432 0.03411500113809496
-0.015086516473531007 -0.04313985629226963 0.03316877637131882
-0.01509196824176468 -0.043763259325756865 0.032175304533340665
-0.015101598627120127 -0.04429347512780396 0.031100866052992004
-0.015096982534482427 -0.045143487285055794 0.030299987296944275
-0.015069025291120818 -0.04651427662122504 0.029951082384280237
-0.015076905309208433 -0.047083787619824624 0.028910249540472832
-0.015104610644056124 -0.047213317197777105 0.0274827197484227
-0.015101879698483124 -0.04802074752949376 0.02664595857930191
-0.015093933448342457 -0.048943339819064846 0.02591161520332763
-0.015090003548828524 -0.04977644970319667 0.02509934668886865
-0.015088881096331249 -0.050547310455090644 0.024232251261899374
-0.01509613990155008 -0.05113379835923865 0.023199733150406743
-0.015111482536929842 -0.05154368088915873 0.02200620333219311
-0.015134272765254581 -0.05179208191413043 0.02066287532688682
-0.015165266261823272 -0.05186360475854457 0.019153372111990363
-0.015204034482655136 -0.05176880303535697 0.0174848095567417
-0.015257168628279508 -0.05136555206603005 0.015523675294953354
-0.015327987850596783 -0.0505839960112367 0.013200693007979158
-0.015426444658331604 -0.049211397141035784 0.01031203918400192
-0.014345382167782519 -0.02445205060041661 0.03456262549128425
-0.01419192188700399 -0.02904806835500129 0.03672504232818369
-0.01410988208733333 -0.03185010546091166 0.037469904818666966
-0.014060501027147442 -0.03383227972386876 0.03756598654838811
-0.014019857087857105 -0.0355926469433539 0.037491446133203155
-0.01398649577935371 -0.037168577321662954 0.03727415661367872
-0.013960649399313307 -0.038555509414089306 0.036907989595266644
-0.013940270773726199 -0.03980505340531704 0.03643335324593011
-0.013926015205971429 -0.040901989115648574 0.03583576319630655
-0.013916367612885172 -0.041884440376111665 0.03514521086116068
-0.013913967034367123 -0.04268859713384132 0.03430636235436907
-0.013912527084800407 -0.0434690513239705 0.03344793832289511
-0.01391348701826296 -0.04419090755594246 0.0325398748576195
-0.013919323309073979 -0.04479437523609292 0.03153014089577655
-0.013930159272934348 -0.045277248117284175 0.030415226694843478
-0.013927827932372678 -0.0460798256847858 0.029574813309387438
-0.013931602875238865 -0.046734757191431664 0.028606367561809176
-0.013943644538346844 -0.047190989997258626 0.027463178247079334
-0.013939084784686593 -0.048047467008501044 0.02666946745198473
-0.01393201009951404 -0.04896375796922148 0.025929674406109493
-0.013927235970709153 -0.049824252036447636 0.02514184854255569
-0.013927198974859313 -0.05057115627043679 0.02425356432223258
-0.013934824297477277 -0.05113556256545754 0.023201318248509906
-0.013948912356457819 -0.05154720850681871 0.022009389435089788
-0.013969427934855195 -0.05180796762771367 0.02067729830265147
-0.01399788507831141 -0.05188305598177695 0.019171124767171366
-0.01403791289841069 -0.05168809253151646 0.01741076158932303
-0.014086075414723712 -0.05130585138285437 0.015468616394931578
-0.014150095638900973 -0.050556182374490444 0.013174907858741591
-0.01423739760707336 -0.04926759871416442 0.010364414000123945
-0.01315382064459532 -0.02434606078357593 0.03447784103523538
-0.013009367373638381 -0.02904519384849319 0.036722730628287625
-0.01293562514728855 -0.03180757165225406 0.03743551609200407
-0.012891385517810253 -0.03376203124927968 0.03750888734805741
-0.012853563556073916 -0.0355378247182383 0.03744664811836934
-0.012822493751567571 -0.037127054039044594 0.037240045139714406
-0.01279712564688852 -0.03855917829824024 0.036911019627510366
-0.012778309735777316 -0.039812353806303324 0.03643941449591587
-0.012763988300817384 -0.04094287674991531 0.0358698909350979
-0.01275372515843253 -0.041963199420942565 0.03521129753231944
-0.012748109441668352 -0.042858313140744175 0.03444952576533472
-0.012745371037504524 -0.043676161969580685 0.03362357102221636
-0.012746756996431716 -0.044384120412046646 0.03270458891144401
-0.012750138648387133 -0.04503933865157628 0.031740076230046654
-0.01275352209508988 -0.04569490463571729 0.030775051651903695
-0.01276887162727901 -0.04603506543526231 0.029536047372275664
-0.01276836277329736 -0.046794616956604695 0.028658484232458425
-0.012772808135857815 -0.04742393977060233 0.027667063561987726
-0.01276880377805752 -0.04827529997780344 0.02686992406518507
-0.012766836454664122 -0.04907290833620348 0.026026214425450944
-0.012765005353626152 -0.049866731487835436 0.025179617732986437
-0.012765717386210563 -0.05059411567479877 0.02427408512067364
-0.012773962400593584 -0.05112585919910101 0.023192600000358665
-0.012787931938936833 -0.051510164776172096 0.021975931972038787
-0.01280780010096464 -0.05174353279073651 0.020618796549661367
-0.012834410067579573 -0.0518052373755421 0.019100101630649458
-0.012872222657084384 -0.05158160095002329 0.01731306073526384
-0.012916122361520191 -0.05120600521698443 0.015376533360504485
-0.012973862263989808 -0.05048079299424574 0.01310501673165615
-0.013053819108930722 -0.04919417028908163 0.010295985305912136
-0.011964764631715905 -0.02414372118235536 0.03431598347629261
-0.01183127732398791 -0.028908121533480602 0.03661249603481015
-0.011765739484908298 -0.031625978244909314 0.037288697214361566
-0.011722019660381973 -0.03368519389858737 0.03744643259290831
-0.011687558420761286 -0.03546346185760352 0.037385882461251685
-0.011659861142027201 -0.0370365910471645 0.03716572957992087
-0.011637004135949825 -0.0384628441813587 0.03683145988446085
-0.011618993061247723 -0.03974298745529331 0.036381822208196635
-0.011604858550422545 -0.040906532668800955 0.03583955557016111
-0.011594110995029884 -0.041968629738728835 0.03521585410898437
-0.011587561375653695 -0.04290612802940824 0.03448985986628966
-0.01158387470707628 -0.043758935501823915 0.03369376412531544
-0.011582677044902382 -0.04453853211529635 0.03283622496358374
-0.011581633131219094 -0.04531349160917825 0.031975027202957196
-0.011588544884059426 -0.04585684905752052 0.03091457214793253
-0.011597250055595866 -0.04634903133812801 0.029807966822576304
-0.011593680276993446 -0.04719789086121051 0.02900959308173351
-0.011602393168426779 -0.04769129923406912 0.027901065371134126
-0.011604951023677 -0.04836332418005834 0.026947371299962886
-0.011601160869950333 -0.049218331253053416 0.02615483635860205
-0.011600514018027674 -0.049982609891276675 0.025282647158824112
-0.011604827727986744 -0.05060471125342253 0.02428355530247267
-0.01161377348332064 -0.05109498107645 0.0231648567279904
-0.011627589330682772 -0.05144752439940664 0.021919355918424643
-0.011646123760758615 -0.05166759108448815 0.020549847466385718
-0.011671853400212751 -0.051685785440069965 0.018991080773924862
-0.011706723808250915 -0.05144839017202707 0.01719084631608031
-0.011747612300278109 -0.05104541217782904 0.015228426578191345
-0.011800504636508754 -0.05030924458115743 0.012945979584759015
-0.011875849778706128 -0.04894826729701529 0.010066825813101032
-0.010783111948344196 -0.023649683858666892 0.03392078809804494
-0.010659406943645061 -0.028533747811200216 0.03631142185305103
-0.010599069828068543 -0.03129730917876211 0.037022967174305976
-0.010556955235583284 -0.03344884785852348 0.037254326359030365
-0.010524855783551732 -0.035263453869577355 0.037222445811324
-0.01049919868521168 -0.03686106874509937 0.03702153759750759
-0.010477768881579468 -0.038315945681658525 0.036710140384486833
-0.010461767767020694 -0.03958955176951967 0.036254430295074414
-0.010447536178712746 -0.04080290965599365 0.035753064405355806
-0.010436804766939745 -0.04189983293382954 0.03515812674786778
-0.010428805238088338 -0.0429061280294078 0.03448985986628933
-0.01042410535865649 -0.04380390418295088 0.03373189819045719
-0.01042170176458516 -0.04462644791935261 0.0329111732293117
-0.010421480800171318 -0.045377933564053785 0.032030254402133584
-0.010431931621498877 -0.04578439591852168 0.030852151363200242
-0.010430216028929663 -0.04658479140962607 0.030012153801033004
-0.010428860556558247 -0.04737335151148209 0.029162357211289902
-0.010434506069220377 -0.047936893979954875 0.028116017982531993
-0.010439243048429152 -0.04853035388894006 0.027094330758239693
-0.010439741928104814 -0.049259983986286116 0.026191676873051017
-0.010441405204567872 -0.04995254232694851 0.02525591358468887
-0.01044698104421928 -0.05052081109231876 0.024208566497535
-0.010456092725823322 -0.05097759179272787 0.023059385196957938
-0.010468870240433404 -0.051319523302572334 0.021803746829030413
-0.010486794534524278 -0.05150057353874893 0.020398208699776987
-0.010511323128558223 -0.051475872399214695 0.018799498281257376
-0.01054294420193119 -0.05123147173206305 0.016991834182458865
-0.010581187087087223 -0.05078366967519604 0.014987034796433929
-0.0106296412238872 -0.050021436611966896 0.0126791618541236
-0.010707736122774189 -0.04833966878590812 0.009499666686817343
-0.00948845491545446 -0.02803142242065043 0.03590744797097567
-0.009434135479430764 -0.030821689324489365 0.03663842693019759
-0.009393972718794028 -0.03307585960200943 0.03695115491930484
-0.009363070977442513 -0.03497932637981055 0.036990270859022734
-0.009339079446140338 -0.03662151709106559 0.03682474535242475
-0.00932000438530733 -0.038077888064201204 0.03651353503335064
-0.009305340372343226 -0.039368290068369394 0.03607072497731806
-0.00929183385698991 -0.040613681265150414 0.035595120880120734
-0.009281273714958287 -0.04174856346295919 0.03503119661813808
-0.009273295538004385 -0.04278701693189885 0.03438938406960734
-0.009267664909470038 -0.04373824590465186 0.033676219060026824
-0.009264987229870993 -0.04458070151718613 0.0328721743992097
-0.009265895993602556 -0.04529200549087681 0.0319566134515859
-0.009273984468926338 -0.04574234093036861 0.030815919594657293
-0.009268107244336589 -0.04670076409731738 0.030112595375099083
-0.009268549621186456 -0.04742942460683036 0.029211177032652413
-0.009271893388936803 -0.04805333664836253 0.028217932441500115
-0.009276371913439958 -0.04863688144762274 0.027188057990481018
-0.00927994306640848 -0.04925378104653422 0.026186190570620937
-0.00928322109422576 -0.049881773696263454 0.025192992011986215
-0.009290179165518156 -0.05037852564932965 0.024081393734224354
-0.009298804851258042 -0.05081681920761505 0.022914934782386542
-0.009311314539573462 -0.05111805261820768 0.0216217808698701
-0.009329034150815008 -0.05123600586623939 0.020158002107312
-0.009352223269427199 -0.051162723539517785 0.01851369498446226
-0.009381466713019692 -0.0508788190309738 0.016668292456440692
-0.00941748620449794 -0.05036025766637603 0.014596543461635858
-0.009462357020624939 -0.049535532733847254 0.012228695626828101
-0.009553341527749441 -0.04709651503138457 0.008341159092099037
-0.008321486476041109 -0.027215246693000628 0.03525107327171262
-0.008268951665107757 -0.030220821735984227 0.03615262347375048
-0.008230941761176338 -0.03259836559067375 0.03656303935708871
-0.008200771319483009 -0.03463589161826219 0.0367096329332573
-0.008179977987058634 -0.03627037808957562 0.036536283839946004
-0.008161728549614918 -0.037793442870747485 0.03627861943713789
-0.008148811248851934 -0.03908810437225796 0.03583809726964271
-0.008137017080916973 -0.040333093008240395 0.03536092188789519
-0.008127027486569807 -0.04150008198708349 0.034822695948526106
-0.008119238819023268 -0.04257294887373414 0.03420880762343159
-0.008113509346880033 -0.04355822993092301 0.033523563018161895
-0.008110475573835645 -0.044429919968920206 0.03274363305595962
-0.008111013311460958 -0.045152279052335764 0.03183686693138166
-0.008113896800647552 -0.04577723836331227 0.030845984891752554
-0.008110669151353755 -0.046656168680632715 0.03007397219633945
-0.008110733679246572 -0.04739827520036721 0.029184056923629798
-0.008113509347305299 -0.04802845493978469 0.028196155150558677
-0.008117127020211359 -0.04862445672887966 0.02717712622302515
-0.008121481115021504 -0.04919085248323124 0.026130532262853612
-0.008126595591236298 -0.049726862423618234 0.025055257809559917
-0.008133078856856364 -0.050207799301819234 0.023928800883355528
-0.008142628059233867 -0.050564746916996195 0.022688453713762158
-0.008154373285232391 -0.05083398790535315 0.021365216952885346
-0.00817202203975246 -0.050865433432480234 0.01982155154730808
-0.00819518975123696 -0.05067630563586828 0.018069753273744382
-0.008223372831936946 -0.05028850102501303 0.016126704355858335
-0.008254690304380427 -0.049779336538791075 0.014060789487261749
-0.008298771014748964 -0.04876184206440709 0.011511431302235586
-0.007161482859321084 -0.025779579895960247 0.03409649916441482
-0.007103594652709784 -0.029428286191207853 0.035511855833133654
-0.007067913574445987 -0.031961569279933155 0.03604544007355237
-0.007039557708513789 -0.03412415139606634 0.03629146409723066
-0.007019125590824261 -0.03588878600137568 0.03622280504538039
-0.007002532124968448 -0.037459612057557434 0.0360029175925663
-0.006991270935476963 -0.038764315555247786 0.03556926752095341
-0.006980956711598858 -0.04002007801501867 0.03509965722638969
-0.006972341473489187 -0.04119033460911231 0.034562787094194136
-0.006965338727074684 -0.04227986264637279 0.03396157564583663
-0.006960031214471048 -0.043285141515106706 0.03329198025484292
-0.006957223542039966 -0.04416752733587492 0.032519943208637714
-0.00695609741564299 -0.0449675912631981 0.031678588224041904
-0.006955783642136258 -0.04572802194543846 0.030803583313741667
-0.006954657981790242 -0.04652766777838019 0.029962680191746804
-0.006955027010690469 -0.0472549134200172 0.029059239549746152
-0.006957297399440512 -0.04789065001399739 0.02807554374026716
-0.006960733487139888 -0.04847084646897909 0.027041973735890457
-0.006965153660762001 -0.04900458678296876 0.025965786190044193
-0.0069702651188036325 -0.049506197319239165 0.024859060776019404
-0.006977296350253815 -0.04991725062615254 0.02366911249089204
-0.006985160642649874 -0.05029012832055735 0.02244171531569028
-0.006998979911597766 -0.05038166881490608 0.020956687655437956
-0.007015124728551938 -0.05036589305873368 0.01936800826351165
-0.007038499262639673 -0.05001151875889559 0.01746301856843896
-0.00706454222280481 -0.04953618805109672 0.015436493739762303
-0.007088477793908882 -0.049165692202754185 0.013494856564059798
-0.007137538376383037 -0.04761966658281641 0.01045255627927305
-0.00593926481897682 -0.02825738087114449 0.03456517496277045
-0.005904701801661795 -0.031080996827389684 0.035329695238271785
-0.00587816837005059 -0.03341816647824852 0.0357145680891946
-0.005857866580603788 -0.03537868817271694 0.035803758483925696
-0.005843466580001359 -0.036984498500878926 0.03561053414927201
-0.005833106204755958 -0.03834790761444429 0.03522353957669605
-0.005824257297158637 -0.039619535618970136 0.03476533594533826
-0.0058174329427716 -0.04076977948555044 0.03420989952153952
-0.00581115009598936 -0.04188648023090402 0.03362973912999956
-0.005806778693874799 -0.042889602498332735 0.032956557683983756
-0.0058039091968399535 -0.04380381965268432 0.03220988223177845
-0.005802213516645171 -0.04464884438269978 0.03140541995206575
-0.005800950108618817 -0.04546827945762333 0.030579806536893017
-0.005800426417887987 -0.04624444106120623 0.02971738332179552
-0.005800996321270321 -0.04695711357947696 0.02879996128221579
-0.005802598811711796 -0.047610245218462965 0.027830124226786823
-0.005805467012945206 -0.048190788761138914 0.026795567696473954
-0.005809589229610565 -0.04869990538604113 0.025696305209213233
-0.005814475528406735 -0.04916620976343988 0.024556772156003104
-0.005820796591082187 -0.04955157353962325 0.023342275362677245
-0.0058284840037244835 -0.049860460669043316 0.022055668961173003
-0.005841091681919073 -0.04989070974250792 0.0205132591794831
-0.005859343488911277 -0.04960302776343012 0.01867538670715696
-0.005878959321876106 -0.049242595620077934 0.01676124124672418
-0.005898197295800018 -0.048908611483870934 0.014860722718750274
-0.005924478420187177 -0.04818150766987156 0.012587193285911458
-0.004785709268531142 -0.02569655943821686 0.0324947422630219
-0.004740341223128565 -0.029845729289987744 0.03432564797613963
-0.004715642204568206 -0.03244370508969141 0.034918286368642415
-0.004697112599553802 -0.03457607682196484 0.03514441137868213
-0.004685200255250291 -0.036212667999178605 0.03497310020187222
-0.00467462321425537 -0.037746802899916276 0.034724464806805355
-0.004666696797691033 -0.03908218482357462 0.03431682460655633
-0.004660984026171282 -0.04025222719320137 0.03377562167795495
-0.00465558285549237 -0.04139756837717884 0.0332173190529651
-0.004651939492723867 -0.04241246893959122 0.03255194181012744
-0.004649340580097682 -0.04334989292260977 0.03182290947356009
-0.004647535427632176 -0.04422861851429677 0.031045283488512376
-0.004646188658954782 -0.04507342257814401 0.03023962422575227
-0.004646139251137303 -0.045823636422679836 0.029352933026564
-0.004646213363359049 -0.0465648896358688 0.02845847303830623
-0.004647708463845879 -0.0472034935952908 0.0274741218079409
-0.0046501818150441925 -0.04777205206621826 0.02642714630450621
-0.004653611757458035 -0.048272594693197224 0.02531836252617342
-0.004658052182068288 -0.04870171474387486 0.02414378186834787
-0.004663782656165926 -0.04903987901542328 0.022884929865861825
-0.004672423590814128 -0.049171929097305 0.021437039417377957
-0.004683793913995092 -0.049112176812382224 0.01981009736805145
-0.004697655509988617 -0.04887887510075939 0.018017913169764255
-0.004712755592230972 -0.048562134141033775 0.016140200715900832
-0.004731012010432802 -0.04802675108307669 0.0140516586302043
-0.004757516945118195 -0.04691449659402508 0.011418693489247511
-0.0035751840593385128 -0.02786608225708892 0.032716555918599954
-0.0035502292115111855 -0.031105759573873515 0.033824983370851935
-0.003533766234738343 -0.033494805841056075 0.034256144734336746
-0.003522503091763849 -0.03536359201729011 0.03427187130046805
-0.0035144183841591277 -0.03691453229096764 0.03403346163779175
-0.0035075060466203765 -0.03834680165609233 0.03370302131122027
-0.003502005080015015 -0.0396377187798983 0.03325998800665464
-0.003497762318451733 -0.04080317653753568 0.032715921661131686
-0.003494852543170299 -0.041836683156427246 0.03206366748202644
-0.003492692000568151 -0.042795959430347585 0.03135068090192478
-0.003491082644196049 -0.043700736406671714 0.030592884886456617
-0.0034903947017904556 -0.04451546281393892 0.029758923364313294
-0.0034899486138420806 -0.04530649062010378 0.028905043618579707
-0.0034906177886081034 -0.04598964435182995 0.027957637979496186
-0.003491315118590503 -0.04667037237960353 0.027007516559158895
-0.003493343607155708 -0.047223441172459024 0.025944456366941204
-0.0034960084126911426 -0.04771634938342434 0.024826381285533883
-0.0035001160614816476 -0.048072324040383974 0.02358418007127011
-0.0035053298359633213 -0.04832444323412305 0.02224548324807779
-0.0035124124153357167 -0.04840075883279715 0.020744160937286815
-0.003521320179786786 -0.04830661831924565 0.01908252638507879
-0.0035317571572436924 -0.04807126481856344 0.0172846666922718
-0.003544210146127169 -0.04764961774941806 0.015307369348238231
-0.003561351297587829 -0.046790691901631876 0.012917634362730857
-0.0023824163067659365 -0.028786705430221105 0.03192996685686211
-0.0023655892546816473 -0.03204896349125197 0.033068381856215745
-0.002356193535817322 -0.03420023568499864 0.033311086753224195
-0.002349465604710414 -0.03595137394582254 0.033233787275149196
-0.0023443347456217297 -0.0374627760741813 0.032965150444259794
-0.0023398526273992505 -0.038875462994054644 0.03262037959639413
-0.0023365053936584106 -0.04011871418774565 0.0321385455699677
-0.002334482935869808 -0.04116581660963131 0.03149476334795376
-0.00233304313505661 -0.04212648330581431 0.030779952180068237
-0.0023319784519278018 -0.04303153424670758 0.03001937402619559
-0.002331424703015514 -0.04386157339792879 0.029195575922926154
-0.0023315988878274603 -0.04458559544183793 0.028280691041407457
-0.0023314620261777933 -0.0453547785520757 0.027404894551642356
-0.002332140271011155 -0.04600608314953164 0.026426108743562327
-0.002333747231372088 -0.04652391408424256 0.025328984289413714
-0.002335662277375181 -0.04699845471871544 0.02419142634463528
-0.0023387754620898607 -0.04730223925063348 0.022899484809874582
-0.0023427885490077097 -0.047479137473104005 0.02148996063653802
-0.002348196561353833 -0.047459277038062186 0.01989826152312074
-0.0023544540190566514 -0.04732177801499304 0.018193030173020763
-0.0023620211774541327 -0.04700198366788816 0.016313843692037255
-0.0023719012469333336 -0.046358762870032655 0.014129237706406672
-0.0024012383930429064 -0.042966443049112235 0.009409071772268518
-0.0011900141801986929 -0.029906689485251603 0.03130849874071867
-0.001183428969682585 -0.03262142704424159 0.03200719137483532
-0.0011790250796176434 -0.03468323499425202 0.03218089891784942
-0.0011760545538589088 -0.03631682007481174 0.03200865374998363
-0.001173518025393052 -0.037818921210044376 0.0317338359670839
-0.001171435103664372 -0.03918461957350716 0.031350592956779055
-0.0011700892387472939 -0.04033177430030077 0.03078748390461916
-0.0011692281302129095 -0.041335537142656587 0.030105670191190648
-0.0011686776855930267 -0.04224760649690301 0.029347542545261562
-0.0011682589444650291 -0.043120649458926796 0.02855724535038673
-0.0011684682775285353 -0.0438108214260044 0.02760967510442275
-0.0011686339225073052 -0.0445139172654605 0.02667280195806876
-0.0011690466764651742 -0.04514580691880038 0.02567316664925051
-0.001169879324619009 -0.04565713979367564 0.02456636139410473
-0.001171183891817324 -0.0460337563220341 0.02333818137213206
-0.0011728879635540426 -0.046297356045521154 0.022006026351852948
-0.001175260514142151 -0.046371662299805994 0.020500114626099186
-0.0011783636668345177 -0.046240209028102275 0.018802957374681073
-0.001181898737694733 -0.045989578420614186 0.016989803124139558
-0.0011866753731153198 -0.04539024337536712 0.014850510549583529
0.0 -0.030043816986086547 0.029878412905200324
0.0 -0.03288041494237176 0.030684084834045444
0.0 -0.03491410191400651 0.03083784502386383
0.0 -0.03648885257366857 0.030617776106537042
0.0 -0.037964332560764424 0.030321223633935135
0.0 -0.0392850968003533 0.02989988687119305
0.0 -0.04030465520437787 0.02922684283729665
0.0 -0.04118602824221751 0.028437762669309308
0.0 -0.04204113589083047 0.02762720857101736
0.0 -0.042799938785993086 0.026734170314630656
0.0 -0.04345397204827073 0.025749964796398406
0.0 -0.044071999312345955 0.024733334861262557
0.0 -0.04449507702249872 0.02354393181268971
0.0 -0.044820748229234264 0.022265314390754576
0.0 -0.044964213611061565 0.020820707124946103
0.0 -0.044879038500965085 0.019166028094869003
0.0 -0.044528467156660145 0.017264997262914916
0.0 -0.0437520599205618 0.014968902657726657
0.0011965256133421047 -0.029512760877054345 0.027888047576145103
0.0011883149588323015 -0.032702405294458115 0.0289918051178783
0.001184012652508612 -0.034731810383335004 0.02914344297192395
0.0011810265506972087 -0.03636935443608896 0.028975784786349712
0.001178395448438892 -0.03789908895819982 0.028724533002343733
0.0011773094860957857 -0.03897390056758965 0.02809237386203889
0.0011765264239309515 -0.03995899344971565 0.027386185400856244
0.0011760260638261774 -0.0408608282906765 0.026610334386612144
0.0011761780269595118 -0.041572647605586543 0.025671238511881023
0.0011766658405569213 -0.04218737930931232 0.024647210777363704
0.0011775950716098444 -0.042675160200451645 0.023510775259177108
0.001179066442693746 -0.0430077955194349 0.02223536170585816
0.0011811702292391624 -0.043160355470021006 0.020796749936772663
0.0011841795249020275 -0.043055657007372405 0.01912377753999156
0.0011882147757046706 -0.04266094480397531 0.017183526590833997
0.0011953569357216244 -0.04138345052617831 0.01443927323920613
0.0023893084216769596 -0.031601478112216363 0.02651678288655468
0.0023785706956464107 -0.0339452464212891 0.02693093599287888
0.0023714699600063775 -0.03574951995894704 0.026901668684559676
0.00236658230140146 -0.03722586247651222 0.026602170538996328
0.002364277149959057 -0.038322546729292084 0.025983739290323937
0.002363714351367713 -0.0391642829695974 0.025148704266248767
0.0023638742101085826 -0.03990076216535582 0.024223252709207277
0.002365134653761729 -0.04047794554199441 0.023158898947364115
0.002367813554533916 -0.04085095874450306 0.021914174056420432
0.0023723198091417422 -0.040962211424855344 0.020435574515832167
0.002378654867866553 -0.04081325683635606 0.01872081603242165
0.002391237251524219 -0.039771600789404615 0.016203868251395415
0.0036025604702085443 -0.031321678717476875 0.023146797914329054
0.0035864240459020464 -0.03366543604934713 0.023566905277734362
0.0035731178836142094 -0.035727186553682067 0.02375949774412034
0.0035708206080995015 -0.036715566992328974 0.02303905415309171
0.0035716963392448025 -0.03739591710911727 0.022053857610682903
0.003574735535561459 -0.03786775159579808 0.020886343787293427
0.0035840018319834217 -0.037740972166530606 0.019192211361589606