# .PCD v0.7 - Point Cloud Data file format
VERSION 0.7
FIELDS x y z
SIZE 4 4 4
TYPE F F F
COUNT 1 1 1
WIDTH 768
HEIGHT 1
VIEWPOINT 0 0 0 1 0 0 0
POINTS 768
DATA ascii
0.01801892658173481 0.0038556284386460082 0.013566198242988825
0.01803438632247111 0.0033595390724467378 0.012315294827324241
0.018067626703853496 0.0032421590745429496 0.01075699696712612
0.01818699390587083 0.004959061514105856 0.00770957011682355
0.019419030207544125 0.010281585590901865 0.016722467989552625
0.01934925549131397 0.00803923756408148 0.01682902614552556
0.01930479852344296 0.006313473397925817 0.016542906963837867
0.019275330556862768 0.004893172595951012 0.016023864966752233
0.019260092549301208 0.0037611650345716896 0.01528166761555333
0.019254377435050176 0.0028212952154979543 0.014389187333075038
0.019262470130757832 0.0021580218539571927 0.013276424743758342
0.019285597218177 0.0017940445231940938 0.011921581652677982
0.019331904345636072 0.0018896160487890112 0.010191227049154594
0.02073458265035147 0.010679385646306772 0.016414313719268492
0.020626843287183647 0.00780499768501719 0.017011455785027774
0.020564646940928993 0.0058003633654393205 0.0169446734116937
0.020526423899520172 0.004253034556028601 0.01652778637348412
0.02050180233634375 0.002964851718696704 0.015911894055172682
0.020490865021924695 0.0019357305612049958 0.015093805567062468
0.02048960377515313 0.001088881911773587 0.014131662078250395
0.02050324549154298 0.0005209163028139785 0.012945441006081748
0.020538123278101207 0.00034825318206438416 0.01143742408593762
0.020613219007803295 0.0009218916271900857 0.009317182515138966
0.02192682567454082 0.007997677007607285 0.01686139414949389
0.0218325962450174 0.00549177559976749 0.017186298409484047
0.021776459105122065 0.003669417189948121 0.016987214287101093
0.021742355077565598 0.0022417200325270392 0.016484202339946075
0.021722388581855028 0.0010665775331085703 0.015785365543799668
0.021714958211348674 0.00011413098175122594 0.014911394790773747
0.021722642701896906 -0.0005716402005306875 0.013824083217576777
0.021743691726787858 -0.0010232007514893726 0.012546249181556335
0.021789683219786214 -0.0010391001582544246 0.010911111258203265
0.023110413120899266 0.005383314882104362 0.017271223424604576
0.023028867284608717 0.0031904428852199684 0.017364266407697282
0.022981827127501554 0.001580850838302783 0.017007234205704103
0.022952449132417514 0.00026956570510444644 0.016419524849947353
0.02293718618268601 -0.0008044126864149015 0.01564616561672616
0.02293772138135082 -0.0016146099194738195 0.01466284736164547
0.022952516120521148 -0.0021882474440354516 0.013488193331962661
0.022984648148488603 -0.0024758960256111573 0.012078964304755746
0.023045332972800328 -0.002294123488953803 0.010281537295893817
0.02441060841861695 0.005642579508748247 0.017068218568908
0.02428506610517075 0.002822113138182869 0.017654218312899816
0.024221929809527542 0.0009995450541172568 0.01746729718266793
0.02418037317238501 -0.00047735074539584366 0.017013824710196246
0.024158136649676285 -0.0016464350490191793 0.016319724738935726
0.02415342719802254 -0.0025379141791641024 0.015405375637422114
0.024158980327939127 -0.0032677573604807386 0.014360980712594618
0.024181993252605873 -0.003724116820171486 0.01309354020298642
0.024221859135181305 -0.003918262396637839 0.011608703399151488
0.024307323491531842 -0.003402971860385906 0.00953563261096263
0.025558965505276324 0.0027577840708864487 0.01770485863118132
0.02546429874586869 0.0005105032349734251 0.017854339667528696
0.02540979984468311 -0.001126991816874534 0.017530725359168553
0.02537880434389109 -0.0024084960058523563 0.016929320317332408
0.025367090056000616 -0.0033994612348173803 0.01609823830216195
0.025365175540929853 -0.004243333187008813 0.015149737033654798
0.025377330254372943 -0.004877438047828031 0.01403098005785619
0.025404997972078736 -0.005281665204145969 0.012722808838440125
0.025459327900070296 -0.005292093953502719 0.011087550836864912
0.026878345541134295 0.0033533646988355703 0.017236013149205642
0.02671579262610674 0.00019892838597723728 0.01810092942540814
0.026639930035943872 -0.0017046923087549737 0.017990384965487716
0.026597764412620274 -0.003122370000938679 0.017500369689479045
0.02657296001947141 -0.004290024744808163 0.016814436219157236
0.02657242130754966 -0.005111056126845703 0.015851293934834865
0.026605322770513862 -0.005457494174915145 0.014502459918413091
0.026643488559222467 -0.005731399763389489 0.0130903097090046
0.02668898200896691 -0.005904101151797958 0.011590316184260041
0.026736344987875794 -0.006053228130617649 0.010065234077856366
0.027976894391056256 4.723306130294258e-05 0.01822098569279751
0.027871030628314995 -0.0022166158534630553 0.018397707753564363
0.027814092013406354 -0.00380723720856474 0.018048215656149058
0.027822626023778 -0.004503795982243097 0.016986352666717497
0.02786707127151187 -0.004713341108014302 0.015529740010933102
0.027899182550249355 -0.005092562599520345 0.014205837091336049
0.027945416522402105 -0.00528276342203482 0.012723706247860678
0.02800795358384462 -0.005255772664055913 0.011057712812479858
0.028042599319532704 -0.005607814775485942 0.009697379228170211
0.02812111330070189 -0.005372757495370195 0.007845505334008074
0.029104392451722045 -0.002654472086882076 0.01874609731996868
0.02907576071674226 -0.0038412511867619292 0.018075424464744694
0.02911375208532536 -0.004159450799261222 0.016709427663601728
0.029202248420233362 -0.00382395465860097 0.0148106680897514
0.029207171228623822 -0.00457629188571318 0.013786203140777165
0.02926305086852754 -0.004670065637532639 0.012223039877955255
0.02933669143672818 -0.0045378218955205996 0.010467914573895787
0.029333180417242553 -0.005402901671791971 0.009528147034995882
0.029242613445263 -0.007386063018583078 0.009517077634861093
0.030389076036223994 -0.0024130588654998064 0.018554011788001035
0.03034361168157072 -0.0037951662655059115 0.018038559744178062
0.030262519485488422 -0.0056191522263554505 0.017883330602349756
0.030500629066720193 -0.003466586458905352 0.014521734704164124
0.030542116879283758 -0.003768307995476561 0.013129459570436763
0.030605766575114473 -0.003797652253362871 0.01151014674669626
0.03064207799526636 -0.004168412091115736 0.010164443554012137
0.030621139226915794 -0.0052474159849902335 0.009399735609321613
0.030507905705996374 -0.0074614722701874525 0.009579687117007019
0.03167263593018656 -0.0030188204611665825 0.01741753728476908
0.031496733047790056 -0.005939104539809781 0.018140638675118392
0.031406893178081645 -0.007822197955890564 0.018043261177975778
0.03183343473540212 -0.003545037195999634 0.012947981122941654
0.03188435711399594 -0.003757800850054893 0.011477582148072762
0.03188193740787383 -0.004606315711802977 0.010524182404459792
0.03184995737140766 -0.0058048062120982236 0.009860069130638582
0.031773152168174494 -0.0075313900228581865 0.009637737212908948
0.03161762719344429 -0.010182299997100741 0.010194917380894786
0.03277295147998387 -0.0057508990036985175 0.017989282358114977
0.03263689293437258 -0.00812402860861855 0.018287292270952105
0.032541809453451975 -0.01002076543525604 0.01821156735998647
0.033042059824161404 -0.005103669553248036 0.012577359583280101
0.033055135935051036 -0.005771320325759333 0.01148123642455029
0.03304350153520078 -0.006721022314626401 0.010616747242761848
0.03299589558117173 -0.008078905780288193 0.0100923190753478
0.03288956777186008 -0.010100259588577132 0.010126440598546171
0.03273045883593258 -0.012713515732719394 0.010667904052215682
0.03389546907626423 -0.008087403649863378 0.018257680869212534
0.033769909736401225 -0.01028023709651249 0.018422470507035327
0.03368534026220746 -0.012015634324655078 0.018225475830063065
0.034191079573087986 -0.007259462607767053 0.012703748796089598
0.03421478062819491 -0.007813535459902488 0.011519024316867299
0.0341831534996217 -0.00897416372603066 0.01083561827508056
0.03412027170615907 -0.010474545213694841 0.010438846103938249
0.033975715426273215 -0.012861764320498903 0.010792299360606883
0.03384315266830193 -0.015111718390445672 0.011043971866056157
0.035021048150536374 -0.010275968880312403 0.01841900122555573
0.03489139856219661 -0.012456884629133524 0.018586043786649353
0.03479107883075161 -0.014321022232857417 0.01850483657405988
0.035316057361082155 -0.009568260510848747 0.012968204303097364
0.035349324838738545 -0.010027973221731212 0.011710556898691882
0.03530841265894335 -0.011270229418564981 0.011102980950358832
0.03521338576796639 -0.013079122976328905 0.010974684889052455
0.03505275750298227 -0.015571339354115477 0.011431683703678919
0.0350079196359395 -0.016845031777042274 0.01087040057232791
0.03614494239049996 -0.012380772508200577 0.01852384872040752
0.03599880897507171 -0.014677186706796685 0.018797426523930905
0.035903635228926686 -0.016446825545213317 0.018649025225102867
0.03640237451756158 -0.012161568818844282 0.013482001550403189
0.036461770832068426 -0.012364628433475522 0.012016444504419244
0.03641032469567493 -0.013694649885232613 0.011491173179450531
0.03629049995519903 -0.01571447247888641 0.011552423206913354
0.03612834917935821 -0.018156440424467513 0.01198249328963813
0.037262273716327475 -0.014458331844620032 0.01861763674185335
0.037100795674305125 -0.016850454096570988 0.018982371134869835
0.03699367530873162 -0.01870033015788114 0.018910890613788034
0.03749335707379664 -0.014582695384095568 0.013867801543536229
0.03755232953695231 -0.01480779066986787 0.012425208999026105
0.03749475136687328 -0.01617573782768289 0.011941522160506923
0.03736541775714211 -0.01824173129978862 0.01205482113457329
0.03720536969690186 -0.02060137474587398 0.012429786661018072
0.03838072682391985 -0.016437476563298636 0.018641304153659166
0.03818928894682067 -0.01905780985966954 0.019207692644447105
0.03807741678305992 -0.02091355000702888 0.01915198481244862
0.03855476813216446 -0.017173469384873852 0.014410248706422157
0.03861478448866403 -0.017404650846992775 0.012978167924422634
0.03856212273357748 -0.018702858571895575 0.012445863455416706
0.03842667875690201 -0.020779258967039083 0.012581433046099821
0.038254653719499314 -0.023194128570897754 0.013018580730652152
0.03948064608552213 -0.018508975304576847 0.01875201583361713
0.03926443636502951 -0.021293885550591474 0.019469440011717576
0.039153927340720096 -0.023098452528933222 0.019381898800750585
0.03959357035269072 -0.019852339729166002 0.015042908285390844
0.03967514153539904 -0.019901091342330923 0.013461981459716776
0.03962139714388983 -0.021188858692599788 0.01293061701140552
0.0394706147779111 -0.023358694903651833 0.013159615211283338
0.03931091481316373 -0.02560355323397545 0.013465685375197267
0.04058902504139518 -0.02042220376365722 0.01874187215734796
0.04034607681164326 -0.023378447152483717 0.01961684213522774
0.040197820819799585 -0.02548298654184189 0.019792622931382453
0.04023023581488329 -0.025978292586051388 0.01861553238226049
0.04068982727803895 -0.022691984467232362 0.014212032465532043
0.040398530725400304 -0.026058470948577994 0.015473341876661717
0.04041427084950632 -0.026706596014429873 0.014415993352196121
0.04036460098755024 -0.0279307525589077 0.013856272083062948
0.04168685402080737 -0.02235607457116401 0.01875896986508413
0.04141570566677259 -0.025484980182344852 0.01979430466064208
0.04123132103281294 -0.027856251978212565 0.020208067987029565
0.04156217220812966 -0.025792059068748374 0.016854847571472653
0.041600348795545826 -0.026250404278028883 0.015637830061953906
0.041643031157276085 -0.02667163586128457 0.014385874019564815
0.04152452992065204 -0.028470725433202393 0.014323931551225855
0.04139885433474659 -0.03032645591726213 0.014320544171962213
0.0427667603686877 -0.02437006595249075 0.018853822221814476
0.04246911471361554 -0.027646153400912643 0.02002990148020406
0.042263589714547085 -0.03014214612685978 0.02056329890477654
0.04258572936960671 -0.028234541243203293 0.017338249106976067
0.04259450722346392 -0.028943675065495722 0.016343311226965307
0.04266390826760098 -0.02915029770373878 0.014912495202747122
0.042548404626158394 -0.03088974894030716 0.014810973041440745
0.0424158697026247 -0.03276559651228744 0.014837598701991417
0.042399169836704144 -0.03368217456833372 0.014030305178822866
0.043538506411293254 -0.029595138743916505 0.020096974844705073
0.043293434610031954 -0.03235754089237525 0.020871688203734806
0.04320258363741178 -0.03386479950494092 0.02058302331563161
0.04352766250391015 -0.0320147514901577 0.017393340071267027
0.04358024557831028 -0.03236885544770951 0.01609875134258565
0.04353706024654615 -0.03349369460542212 0.0154748541363805
0.043403344693395386 -0.03534217888186253 0.015490843763764806
0.043315849222302784 -0.036816470001980905 0.015185785514770345
0.04464619967945858 -0.031174082476126075 0.019857456189865286
0.044349908763873507 -0.03427956935473392 0.02094036131181931
0.04412824080165411 -0.036789265087380896 0.021528448695992963
0.04414221844681764 -0.03744646227046283 0.020519549882354493
0.04445002699364459 -0.03580893840440963 0.01750123177251517
0.044471670817440384 -0.03641246173892593 0.016432521683998613
0.04437450014089404 -0.03794070673556521 0.01618013705939214
0.0442562976489898 -0.03962876558118472 0.016076871079745925
0.04416682131507791 -0.04109032448117306 0.015779727843987013
0.04544134191704895 -0.03586910755890865 0.020731519070678828
0.0450712620251333 -0.0394587667223078 0.022271554890387513
0.044872944063433236 -0.041729526184568266 0.022683125219646882
0.04528294743315995 -0.03937712198666066 0.019040949052392342
0.04529332442690927 -0.04006453008441463 0.018058591093445486
0.04532609256205655 -0.040583123927389664 0.01692540704100226
0.04525073495156411 -0.04191788854011014 0.016519393167302554
0.045150074059711984 -0.04344041426934436 0.016287407143691035
0.045070650259636115 -0.04480016579285645 0.015915539588827243
0.045061964943194865 -0.04562758661504329 0.015065999502963334
0.04577605552727904 -0.043787899284713216 0.02448468115893021
0.04579709402690139 -0.044386803872517366 0.02344866873899032
0.04611550745573971 -0.04279243681193362 0.020471337614762886
0.04610228178756509 -0.04364985822535744 0.01965209177718308
0.046132862054138704 -0.04418509736479237 0.01854579309395754
0.04619489586015723 -0.04449084264285863 0.017231192515588967
0.04618963653342545 -0.04529066989506342 0.016358557141041508
0.04614148177980597 -0.04640326161100877 0.01577025125781245
0.046105525119251284 -0.0474254774745288 0.015102802007421756
0.04612149893694889 -0.048069368056498696 0.01409075763354678
0.04672261200470345 -0.045429443111512535 0.025921414387981845
0.04675473624211315 -0.045948664436468445 0.024822856504262136
0.04699613551694363 -0.04496353379405965 0.02239160367013182
0.0470263592694691 -0.045501823284314014 0.021298704873577934
0.047055354921030586 -0.04604987881231004 0.020212508990322786
0.04708755789015258 -0.04657594957036404 0.01910461241421474
0.047143574166750926 -0.04693328902060789 0.017842151469702472
0.047191566871812904 -0.047349500315995885 0.016629361416009403
0.04722255298564063 -0.04788794834745963 0.01552488784954581
0.04721005163396618 -0.04873532013670001 0.01470173632393601
0.047210434230612254 -0.0494912679756121 0.013795118520435301
0.04724297759251623 -0.05002053643217946 0.01267832732570967
0.04729450044833153 -0.05041737499319904 0.011435902178188517
0.04769355160839867 -0.04681902915754188 0.027137625867908965
0.04777151887311647 -0.04701836897340034 0.02576402559517571
0.04794464032575166 -0.04655237253332095 0.023796880874962623
0.047985481681990655 -0.0470180567869945 0.022646813430287405
0.048007343665987995 -0.04761762154763627 0.02161373578923681
0.04806002273208636 -0.048003050551931326 0.02038682933122199
0.04810907031885346 -0.04841538889752606 0.0191807666956611
0.04815679400801748 -0.04883845233401107 0.017981212483824338
0.048209801753217554 -0.04922642633554897 0.016746483936639578
0.0482611059416607 -0.04962783082735056 0.015520571536174144
0.048320860043294146 -0.049972603289562545 0.014239029569991457
0.04834146324197589 -0.050588481646411276 0.013204851499493853
0.048363650871529655 -0.05119413507916459 0.012159772781957956
0.04841724610026474 -0.05158548576297528 0.010912460024473991
0.04846977987587038 -0.05198576641095409 0.009669971044711123
0.04868996872104375 -0.047221949615164405 0.02903053974185521
0.04873833464190161 -0.04763429830032201 0.027851176276329326
0.04881651766685617 -0.04784340034485984 0.02648992139073697
0.048925457027084375 -0.04784419027716169 0.024939452479843915
0.048959788137349684 -0.04835829838083339 0.02383844463848722
0.0490103934790345 -0.04876246410908125 0.02263698025498151
0.04904838341520274 -0.049254025097423826 0.02151080075699624
0.049105084659046734 -0.04961970713350056 0.02026849280149373
0.049161917150926354 -0.04998623562455001 0.019023309239234676
0.04920436405144712 -0.05045173538796255 0.017864793507083587
0.04927928594836057 -0.05069953409433431 0.016503807234378776
0.049325780618140525 -0.05114089455070553 0.015316485108553157
0.04938977114644857 -0.05146622757968372 0.014018582191694273
0.04944819762038566 -0.051830785912570954 0.012753074151962362
0.049488471097247494 -0.052318438957089264 0.01159907142225397
0.049556096415108254 -0.052624966259303074 0.010271879921887273
0.04960579695513394 -0.05305279611994612 0.009055083400907715
0.049679526218940076 -0.053322679961767316 0.00768474081235232
0.04971115241746818 -0.04815224335864077 0.029840496354542778
0.0497803051268363 -0.04843055211902353 0.0285480838467585
0.049875191771086735 -0.048538345810493266 0.02710136237237537
0.04991335387701477 -0.04902854687400304 0.02598697812659767
0.049972168753425056 -0.04938200021177569 0.024748635051357548
0.05002499433231078 -0.04977711008456037 0.02354385681081872
0.0500839392423587 -0.050133126394073746 0.022300652749873195
0.05015078667705465 -0.05043849800482697 0.021008015113250844
0.05020305168086516 -0.050842356125248844 0.019800599171378164
0.050267931072734376 -0.051164499420832676 0.01851531578785587
0.05032178849737018 -0.05156118224619627 0.017294327566174716
0.05038427274789486 -0.051902780774916335 0.016019133976461875
0.05044352611763367 -0.052267432069702024 0.014761353715369685
0.05050291901883582 -0.05263294205539104 0.013500611598738776
0.05055673722484952 -0.0530366139513993 0.012271838988660355
0.050621579791456324 -0.05337010325705388 0.010973545566547671
0.05068098280688567 -0.05374087268561312 0.009706394971944754
0.05074545933364944 -0.05408053062635387 0.008405835438239306
0.05080171910534793 -0.05447525596830388 0.007153804303407341
0.050711840307490014 -0.04843433987360479 0.03161400991674185
0.05076446820908033 -0.048828718454809406 0.030429466753733814
0.05083131411475808 -0.04913124219396514 0.029161350880815173
0.05089132973319701 -0.049480484712100814 0.027930294084756002
0.05095729469446754 -0.04979257566461037 0.026662737230869094
0.05101760834404967 -0.050143467533658226 0.0254256683779987
0.051080507899150265 -0.050479286930442846 0.02417145277529481
0.05114029746833636 -0.05083714521644661 0.022933197226821578
0.05120322734080329 -0.05117639824443432 0.02167447795516869
0.051258794017050954 -0.05156510291451161 0.020456796286532464
0.051324756441560794 -0.05188836046483064 0.0191759660389742
0.051389515079551557 -0.05222129420933924 0.017899948232799
0.05144796527181923 -0.0525966361688579 0.01665904147387126
0.05150806662252166 -0.0529631054260869 0.015406290638889097
0.051567340257837546 -0.053336622536591605 0.014156378577488915
0.05162827560911203 -0.05370127190354351 0.0128944731885412
0.05169463697201608 -0.05403317005530284 0.01159792899382428
0.05175531636639634 -0.054403084653290246 0.01033322393044761
0.0518165573749579 -0.05477121440690358 0.009063020798911137
0.05187556364004186 -0.05515525763397355 0.007804194344014748
0.051937791313831735 -0.055520711807344525 0.006523783667603811
0.052003825817900425 -0.055864035198566975 0.0052180612365030354
0.051748349782243706 -0.04918288868284332 0.03226231273839697
0.051811625365302705 -0.04951477065711041 0.03102677542295701
0.051876424625581015 -0.0498386742798651 0.02978051874494192
0.05194646385818989 -0.05013084950485319 0.028502511196700386
0.052009399658844956 -0.05047044548354873 0.02726229147187398
0.05207152275814717 -0.050817024294758095 0.026024538955296272
0.05213407092300692 -0.05116267210340958 0.02478225300212039
0.05219690810828726 -0.05150827117703988 0.02353618823532777
0.052257952292808746 -0.05186702753275574 0.022298246228304508
0.05231983555833234 -0.05222222260334608 0.021053409167461512
0.0523814468882884 -0.05258090104487745 0.019808030869525872
0.0524487995144657 -0.052905203430224645 0.018527401727644055
0.0525136604619408 -0.053247077206431626 0.01725891012114328
0.0525653275445375 -0.053673470292651015 0.01606484760016036
0.05263301327793552 -0.05400120315881496 0.014775708001019072
0.05268689216708089 -0.05441698222653035 0.01356493191526198
0.05275843059955406 -0.05472441116977528 0.012248843045423008
0.05281852561518473 -0.05510492889284102 0.010997567547268716
0.05288487380529004 -0.055448430687165484 0.009707391838061019
0.05294240600316613 -0.05584830908397054 0.008467065897811099
0.05301335394434413 -0.05616711598576524 0.007145256375819864
0.053073028564154905 -0.056557294661168156 0.005888048369915855
0.05314432726666878 -0.05687784165498877 0.004559508550602276
0.05273840502402162 -0.04945511531796942 0.03401459799576201
0.052799366786943636 -0.04980733538961951 0.0328031332660364
0.05285741114604687 -0.050179630041222056 0.03160563264783345
0.052929379632721256 -0.05046606134595538 0.03032962857107835
0.05299357844860982 -0.05080321237673535 0.029094083103750834
0.05305135064507862 -0.051182356541965235 0.027891954103793914
0.05312104033642845 -0.05148873705365847 0.026621769999409017
0.05317979449949132 -0.05186516207546171 0.02541012883444116
0.053247706063335565 -0.05218633282371182 0.024145410795865685
0.05330575121212236 -0.052570565149859694 0.022933673152600864
0.05337370157242463 -0.05289515395189104 0.021664377789075873
0.05343727839275191 -0.05324863189328294 0.020417452465474828
0.05349986751337447 -0.05360996815218144 0.019173989131836155
0.05355946313295911 -0.05399144352350954 0.017945401270850037
0.05362534355361736 -0.05433606295620946 0.01667911645214365
0.05369425511993246 -0.05466398710198722 0.015393363081115441
0.053755147489159424 -0.05504276514373818 0.014151148998346352
0.05382208702247424 -0.055386433540208724 0.012872242976887882
0.05387879185463089 -0.055794132274555264 0.011649945726829536
0.05394531588551354 -0.05614391692268583 0.010369146732853773
0.054002280810486865 -0.05655334997700112 0.009141404797549657
0.054079440051175785 -0.056842573205413194 0.0077946615646976025
0.05413960540287457 -0.05723621385312716 0.006544176627484577
0.054209261010880444 -0.05757456078691531 0.005236339054155492
0.054264147680128716 -0.058003314004688555 0.004012562365918293
0.05436013644578805 -0.058187991600160804 0.002545874391911951
0.05378102379458316 -0.05009809794506237 0.034568548876385496
0.053842647245658924 -0.05045299612965182 0.03336232683421625
0.053908232859857526 -0.0507851610205684 0.03213283582892329
0.05397241796870588 -0.05112773203006227 0.03090874454899245
0.054034765430131505 -0.051483333851666535 0.029692481341929533
0.054100535138536535 -0.05181969010423393 0.02845565531827099
0.05415917927112937 -0.05220137053584839 0.027255384342740385
0.05422553876118143 -0.052537632788530575 0.026011173867790227
0.054290338606654685 -0.052885194276822145 0.02477332149692779
0.054361337035510986 -0.053196919686416155 0.0234993892237918
0.0544206924742026 -0.05358106911336774 0.022287134689401522
0.054480900377657834 -0.05396169324618305 0.021068246102958543
0.05454761639127599 -0.05430474473472496 0.01981141290320898
0.05461623909396754 -0.05463815697762703 0.018541832157715932
0.05468212226043184 -0.054989880427112614 0.017285250098570515
0.05474568327792416 -0.05535730452833665 0.0160394726239243
0.054809099649151524 -0.055727330953931675 0.014792432359390317
0.054875155925190267 -0.05608336378401918 0.013528514253556001
0.05493328797767816 -0.05648830652531239 0.012307029174215611
0.055003327087258816 -0.056824224359113884 0.011016459005947665
0.055073840434010715 -0.05715925196433069 0.009720921934107396
0.05513831589527455 -0.057531850911885674 0.008457354191470146
0.05520442653626811 -0.057896583067640006 0.007182377619888547
0.05526742327771918 -0.058281420204564116 0.005923020377611665
0.05533160758891179 -0.05866101877846164 0.00465481149420266
0.055405207943337746 -0.058987303645351596 0.0033304559081548946
0.05475436503896852 -0.05040097037459229 0.03633503154524581
0.05480759647405017 -0.05081155138603838 0.03518321270283964
0.05487801490958157 -0.051119610979948715 0.033939668328947015
0.054946167107667414 -0.05144323245029603 0.032705783147838785
0.055004821197431705 -0.05182586947115558 0.03151977743382228
0.055068805858332806 -0.05217805223164468 0.030303722524471666
0.055133954151742416 -0.052524973354091176 0.029079455864847614
0.05520361578177931 -0.052846644837627355 0.02782910851260939
0.055269374939566594 -0.05319347067889957 0.026597352713987832
0.05533280896291963 -0.05355590220782641 0.025375936915606967
0.05539785208585894 -0.05391047321707604 0.02414386240373978
0.05546216823305657 -0.054271095401721314 0.0229136241688776
0.05552869221255856 -0.05462038282751186 0.021669415955822058
0.05559419694053259 -0.05497746625202926 0.020428602223370007
0.05565631125641566 -0.055356264486059015 0.019204106145356503
0.055733668229087104 -0.05564719218384806 0.01789462318766666
0.05579535253961325 -0.05603204178902377 0.016668267121870417
0.05585375197642101 -0.056437750577779666 0.015457934897421033
0.055925096449872994 -0.05676950542690684 0.014174626337157215
0.05599168980633505 -0.0571308242618665 0.012915216194810508
0.056062188368197506 -0.05747124927475428 0.01163210297287326
0.056130460864220307 -0.057826459307123323 0.010359074798549472
0.05619257541188532 -0.0582190919141502 0.009118088668648106
0.05625754389170025 -0.05859693010235756 0.007859214399618841
0.05632856264180099 -0.058941698725890446 0.006564450508630082
0.056399760924727316 -0.05928733891202592 0.005266413501439082
0.05646642591387795 -0.059660846410243884 0.003991585947309473
0.05653827820260866 -0.06000650318935319 0.0026853895454715393
0.05578221010184066 -0.05107264405719775 0.03691066051743319
0.05584317652863135 -0.05144240121650284 0.03572671077635209
0.05590705017219135 -0.05179653387035854 0.03452593740649995
0.05597677761504977 -0.0521177378240652 0.03329303861591931
0.05604095742671957 -0.05247349299096715 0.03208659887083676
0.05610513754337756 -0.05283093019893753 0.030878150828493767
0.056177423982450035 -0.05314245006493523 0.029625594327374383
0.05623467835368476 -0.053543939160353604 0.02844908455281059
0.05630611446283417 -0.053864025798732784 0.02719668561656624
0.05637268491503727 -0.054214366820488136 0.02596755199856926
0.05644432348655687 -0.05453695980148693 0.02470969773900411
0.0565025708303997 -0.05493918868084963 0.023520200204815656
0.056570055345880346 -0.05528943114350632 0.022280039972181254
0.05663560360093692 -0.05565263627133982 0.021048037925205654
0.056714522395593055 -0.05594045107966161 0.019742871692755015
0.05676790950681732 -0.056377246827897354 0.018571433923355862
0.05683527527705663 -0.05673519281861139 0.01732354069929165
0.05690824642678919 -0.05706279970126027 0.01604346458171818
0.056976400782360485 -0.05741984755122237 0.014787027449013224
0.057038943188455725 -0.057810680441012674 0.013558746607286676
0.05711365750400988 -0.058133914877372295 0.012262629047649076
0.05717818154625953 -0.05851694274492292 0.01101949016783671
0.057250505422130046 -0.05885749913408128 0.009731872856869994
0.05731134992646645 -0.05926480112658783 0.008504665370218822
0.05737586036985195 -0.05965303828948021 0.00725548408724086
0.05744806887845762 -0.0599996828041619 0.005962017763421923
0.05751597790520788 -0.06037234078977921 0.004689968190455696
0.05758435744756978 -0.06074414715209575 0.0034131971125758165
0.05767386718801169 -0.06099976691169262 0.0020172768048765666
0.05680517383952568 -0.05174591769770032 0.037487660664558276
0.056870241112045215 -0.05209756809347599 0.03629115879277128
0.05694139380854848 -0.05241555896502692 0.03506206238672277
0.057007368751424314 -0.052765375203612574 0.033856901569815856
0.05707588260998483 -0.05310221187081671 0.03263687434424478
0.05714037618348982 -0.05346399720583911 0.03143514865247404
0.05720261900947163 -0.053840393063298686 0.030242902655548354
0.057279862532247657 -0.05413225815173672 0.028972168803987064
0.05733894807130485 -0.05453013551434005 0.02779204527825946
0.05740494292711448 -0.054890037731389896 0.02657462653882814
0.05747003153129404 -0.05525680534672578 0.025359853792723652
0.05754299709038329 -0.05558042357927123 0.02410239094814598
0.0576055130218095 -0.055965245935753416 0.02289683958573907
0.057677604938345145 -0.05629743083863076 0.02163960562505335
0.0577434663111355 -0.056666683232508674 0.020412638626217394
0.057808407427357975 -0.057042818313216836 0.01918846434745436
0.05787886144747531 -0.057389606942738425 0.017933395860114165
0.05795271575169086 -0.05771912040339616 0.016658288663670973
0.05801828273836408 -0.05809694502122814 0.015424622997514514
0.058090330843515114 -0.0584402419604535 0.014154669681478216
0.05815899667584975 -0.058804246465229026 0.01290044930453238
0.05822285898417965 -0.05919673284496507 0.011669677855738247
0.058291216502199844 -0.05956591742754164 0.010412967828227093
0.05835848749796387 -0.059942874698066195 0.009159976394309544
0.05843404059471732 -0.060275817405158694 0.007860485275167972
0.05850132850875126 -0.06065624719829915 0.006603153310269394
0.058574582074657315 -0.06100561060089543 0.005311567466465494
0.05864597253903986 -0.061367076003048526 0.004027819280437606
0.058712645104986055 -0.061756192535002696 0.0027674870154418274
0.05783720427656455 -0.05234095005402273 0.037997607492249286
0.057899272203452666 -0.05271582352669424 0.036823806374915
0.05797187850371834 -0.05303227459372134 0.035596187185676254
0.05803816611453657 -0.053386443745536694 0.034397632469051864
0.05810475700745109 -0.053740565122386064 0.03319558213713453
0.05816679345381728 -0.05412211788401655 0.032014189704471674
0.05823915935330459 -0.05444695742752065 0.030779389495427467
0.058306059967379836 -0.0548043864387327 0.02956976930107663
0.05836745699008928 -0.055194413419571375 0.028385767693144714
0.05843833089431198 -0.055532879456711204 0.027152204822223247
0.058513832857423086 -0.055847254649703415 0.02589314067806231
0.058577362323000294 -0.05623032532586486 0.02469245050646446
0.05864211019261684 -0.05660821552452944 0.02348366218630371
0.05870700135737155 -0.05698694204150684 0.02227219866630431
0.05877808256363698 -0.05733300528480806 0.021027153524679765
0.05884793731714566 -0.05768764061178516 0.01978625885207147
0.05892045100875642 -0.05802937064607344 0.0185295981451829
0.05899751713639611 -0.05834787565156624 0.017247290148724004
0.05906225836200373 -0.05873599419253278 0.01602638998815742
0.05912572980591462 -0.05913270052683828 0.014810129116160309
0.05919625655901745 -0.059492446890510864 0.013555271753589226
0.05926632121863035 -0.05985649073759697 0.012300705666761835
0.05934097650934888 -0.06019732692177404 0.011020024189361155
0.05941201800970456 -0.060559659050365144 0.009756055643743988
0.05947910153272473 -0.06094521424137861 0.008510773428563212
0.0595499968895327 -0.06131186754105844 0.007243366990348166
0.059621061453657184 -0.061679395939261306 0.005972935608704877
0.059686539656811546 -0.06207875438960386 0.004730007519264501
0.05976883041588893 -0.062389571632138985 0.0033956617509180997
0.059854563821442296 -0.0626840383594296 0.002040475691581889
0.05884982860080301 -0.053021916301161154 0.03858120025624456
0.05892431263193028 -0.05333262821187018 0.0373552040894547
0.05899147901375176 -0.05368603435831332 0.03616239515346492
0.05905864517055597 -0.05404110228557396 0.03496760836889412
0.05913365905902001 -0.05435421262283818 0.0337326666428483
0.05919204939363552 -0.05476136660987646 0.032576626453511615
0.05926013702738178 -0.055116305793409204 0.03137140678291589
0.05933179008334786 -0.05545324369263216 0.03014667913357838
0.0594043932381764 -0.05578671931905699 0.02891516252356713
0.059464253538252 -0.05619202776032861 0.02774443418554884
0.05953686940181184 -0.05652886605234425 0.0265087641026181
0.05960919363807273 -0.056869095242940315 0.02527240324103114
0.05967056462190235 -0.05727090806725893 0.024088485444025143
0.05973960112199572 -0.05763248559436818 0.022864453524036987
0.059811159347010215 -0.05798206571914938 0.02162574891189356
0.05989078210314561 -0.05828968842311244 0.020344398472750325
0.05995922170770656 -0.05865977730297123 0.019117080503756434
0.06002543897246815 -0.05904355294783775 0.017898982459546353
0.06009434580862583 -0.05941448232626534 0.01666529506895048
0.0601602248130351 -0.059803382692257157 0.015444975696645158
0.060239662198997145 -0.06012123513652612 0.014153563536139613
0.06030313922623224 -0.06052640606283993 0.012941448590765126
0.06038423862897217 -0.06083912123957946 0.011637064836868494
0.060454133043741816 -0.06121348767009366 0.010387935605441934
0.06052370574714047 -0.06159129062562596 0.009138406838420654
0.06059198435819436 -0.06197767030354573 0.007893523809742453
0.060668354397263584 -0.0623229658691023 0.006604645182457791
0.06074264348149233 -0.06268112392253111 0.00532434452519287
0.0608145100309083 -0.0630538644767275 0.004054496221166437
0.06089127920005711 -0.06340264780490262 0.002756875664209346
0.05987609039054185 -0.05360215650908773 0.03907847011087845
0.05994010101376645 -0.05397694699410255 0.037910306112091896
0.060014357025950385 -0.05429717161960834 0.03669168864244826
0.060076014048976 -0.054688054822447374 0.03553087506719255
0.060141077855901295 -0.05506185576509809 0.03435201923045339
0.060207065438101295 -0.055432208590693255 0.033166860219410066
0.06028433883048494 -0.05574289216489958 0.03192560244982312
0.060357090822588694 -0.05607994161511998 0.03070388673404645
0.060423395874932985 -0.05645359934356914 0.02951121067671797
0.06049616799353769 -0.056793991435785396 0.028285284495417506
0.06056277913193432 -0.057169297335223024 0.027087194125987646
0.06062906088968673 -0.05754798717344334 0.025888783601228982
0.06070169304693604 -0.05789427099526778 0.024657413525376648
0.060775137462137925 -0.0582379758599354 0.02341996143593933
0.060841405541390545 -0.058621725735194086 0.022215674771999316
0.060917752648932774 -0.058953464847399495 0.020959764752133292
0.06099268504220119 -0.059294564650131776 0.01970864527202476
0.061052989171388364 -0.059714946282496795 0.018527926189749577
0.06113051406050306 -0.060045806642149924 0.01725978787286714
0.06120063291113532 -0.06041758663609531 0.016026361774240383
0.06127626327067682 -0.06076208167042135 0.01476332877512937
0.06134752969526098 -0.061131308803634876 0.013520009994378357
0.061421405764898136 -0.06148860340784612 0.012261496818476103
0.06148615261954333 -0.06189536957862829 0.011046927122861705
0.06156249074290022 -0.06224330852447624 0.009771812155688564
0.06163458894927143 -0.06261514032563598 0.008516013690188617
0.061710474040325244 -0.06296908077659502 0.00723885283244613
0.06178885436817039 -0.06331195095496606 0.005946759553214109
0.06186082302936411 -0.06368982007126389 0.004685226283428878
0.061944391057966446 -0.06400969832595665 0.003362059717113508
0.06201007974202227 -0.06442346509340857 0.002128531052376814
0.06089120528582601 -0.054221097489904946 0.039608906794433574
0.06095539124932821 -0.05460008608503192 0.03844716112749391
0.06101687210157078 -0.05499514544768319 0.037296189506784205
0.061092553114587826 -0.05531549735567898 0.03607715545705442
0.06116477481451432 -0.055656165931508295 0.034872179064449116
0.06122890351455848 -0.05604177290124929 0.03370317942551987
0.061302244542261734 -0.0563798196804704 0.03248894452894274
0.06137352626442375 -0.05673056076112787 0.03128236309427829
0.06144833464519092 -0.057064291379018195 0.030057038781465373
0.061505202065587884 -0.05749475875805132 0.02891490757542442
0.061587565692073666 -0.05779194015314543 0.027649557816441406
0.061650812352754 -0.05819180728321571 0.026473321512690162
0.061727429117611324 -0.058522893862285486 0.025231142224271974
0.06180083681566062 -0.05887263622718231 0.02400223149943287
0.061870525107733096 -0.059243590469798546 0.022789188950201933
0.06194102120915978 -0.059611985993962724 0.021570259028562133
0.06201249310146846 -0.05997697657098172 0.0203445918636303
0.062082823184076506 -0.06034960317932486 0.019122456185036052
0.06215478662516756 -0.06071543426840642 0.01789034936891143
0.062228558367556794 -0.06107362307368086 0.016647345170771488
0.06230546697639798 -0.06141737645709 0.015386841521266903
0.062382895816139455 -0.06176028169333653 0.014121593378547181
0.06245836776573636 -0.06211508465216681 0.012863815009713286
0.06252258809252904 -0.06252936056426056 0.011659635388652334
0.06260005955980735 -0.06287739730918518 0.010387800165469863
0.06267772325438886 -0.0632262976258045 0.009112809181007542
0.06275407761563664 -0.06358371180757644 0.007842156822569668
0.06282426060046084 -0.06397428459318505 0.0066002610501303405
0.06289409775561204 -0.06436828037291797 0.005358111799306564
0.06297501450222112 -0.06470793571740552 0.004058150272661598
0.06304451354667556 -0.06510709359534417 0.0028135895650203135
0.06196476601831941 -0.055231858083265306 0.038991453679155796
0.06203851421505312 -0.05556678091198286 0.03779127129689569
0.06210874581078669 -0.055921947976909414 0.0366051593207572
0.062176723318238473 -0.05629060162050464 0.035427458077532004
0.062248397095534314 -0.05664146389517705 0.03423081169040948
0.062325085365794765 -0.05696776809524812 0.03300896615510707
0.06239467156542664 -0.05733293638500686 0.03181794533241572
0.06245873084233744 -0.05772851616902158 0.030650713722693568
0.0625323584082942 -0.05807587212910176 0.029437024373523524
0.0626017561282321 -0.05844687982254071 0.028241091644350402
0.06267604842729557 -0.05879418958723809 0.027020237162806993
0.06274543794949106 -0.05916854101291463 0.025820408569979802
0.06282220687717228 -0.05950651260567014 0.024583782291315803
0.06289093299083738 -0.05988760271280291 0.023383128647608997
0.06296426379645134 -0.06024669406283639 0.02215867694843121
0.06303098653724448 -0.06064129734183871 0.020963679129036128
0.06310580454250192 -0.06099615043177392 0.0197281247547344
0.06318578428550538 -0.06132647253320772 0.018465739611615906
0.06325930510591264 -0.06169147271017544 0.017232182146028452
0.06333266338310728 -0.062059015121324446 0.01599736047198025
0.0634065266075722 -0.06242571909758993 0.014758053378902958
0.06348056232269009 -0.0627932794270687 0.013515852167774345
0.06355830120901067 -0.0631439328318869 0.012253576811849132
0.06363690481811465 -0.06349206141324287 0.010984917993876686
0.06370607485870723 -0.06388928435639601 0.009760216143471556
0.06378301297560096 -0.06424930101322479 0.008495479878695866
0.06385962803235046 -0.06461272683392205 0.007230189738544945
0.0639333654557785 -0.06499225795475716 0.005976962270039077
0.06401716340169258 -0.06532358515800735 0.004671906806441806
0.06409246188831584 -0.06569895208635124 0.0034066861026817996
0.06417907730859078 -0.06602018090341683 0.002083062638151667
0.06298015239331187 -0.05580983358913266 0.03948939876657065
0.06305448924050842 -0.056147379044042045 0.038294115470336454
0.06310995017332667 -0.056584267222233975 0.03718180498372409
0.0631904686041049 -0.056893105610268224 0.035954789415628075
0.06325794247569833 -0.05727096632257822 0.03478467325392526
0.0633357239823143 -0.05759741442569294 0.03356586825814295
0.06340087984084566 -0.057990374966605085 0.032402484966843226
0.06347917816616537 -0.05831760576303108 0.031177233863713794
0.06353901896284164 -0.05874083494160309 0.030034477937344595
0.06362344911156642 -0.05904022447241425 0.028776993573047305
0.06369467005092058 -0.059408664286036195 0.027578131754214197
0.06376688156791226 -0.05977371763842304 0.02637273845833088
0.06383542614441697 -0.06015897517669855 0.025182385012181896
0.06391329948782386 -0.06049873083167839 0.02394674099185351
0.0639766384300258 -0.06091345182688429 0.022776807134287924
0.064064417004197 -0.061206859041398554 0.02149073181406219
0.06412704750667342 -0.061628319249264985 0.0203203239823197
0.06421085792342712 -0.06194531020448241 0.019048474242785496
0.06428002306876042 -0.062337288589406625 0.017843491084438445
0.06436254093074752 -0.06266439301875287 0.016573377316544957
0.06442609526885727 -0.06308756308418872 0.015391076442009488
0.06451171026519256 -0.06340289395448162 0.014101954182530463
0.06458646927835614 -0.06377385096357674 0.01286234894710725
0.06465986381369783 -0.06415325309137493 0.011627235214616505
0.06473376788415916 -0.06453183320031292 0.010387665496649157
0.06481745558313975 -0.0648640867082419 0.009098935682550158
0.0648975726957544 -0.06521574674068376 0.007825168445648956
0.06496891602238727 -0.06561211093633734 0.006591722031608016
0.06504871645908072 -0.06596889221599533 0.005315229770801899
0.0651262861388715 -0.06633835275660277 0.004047424268082411
0.06520577875998297 -0.06670026559445097 0.0027681001747125733
0.06399245761247432 -0.05638325650669335 0.039983421648010775
0.0640591224630215 -0.056765369781381414 0.03882934461482129
0.0641203127710223 -0.0571768070425942 0.03769769746300489
0.0641953517955668 -0.057519404402059104 0.03650294674825033
0.06426907390407147 -0.05787035676615443 0.03531204108252295
0.06433764630796386 -0.05824896731103035 0.034142146010491814
0.0644118623852326 -0.05860069909163268 0.03294513435024049
0.0644829104411011 -0.05897002530296075 0.031760357435512254
0.06455679283501861 -0.05932674221732753 0.030560901946882102
0.06463386401533919 -0.05966917247352377 0.029345052031005014
0.06470657977961687 -0.06003508133600338 0.02814686905914393
0.06478266105331565 -0.06038586901621318 0.026931434032312573
0.0648467617553448 -0.06079790423523318 0.02576857139261496
0.0649211422794966 -0.06116042054281451 0.02455698371794851
0.0649968810593662 -0.06151789586978568 0.023337168226013894
0.06508010896765587 -0.06184011919955856 0.022080873379408616
0.06514906044305477 -0.06223451543532954 0.02088819272753445
0.06522669893032715 -0.06258779074791843 0.019653472419030316
0.06530246780400713 -0.06295198074599062 0.018425339288817788
0.06537446559100292 -0.06333632052157778 0.017212716085927726
0.06545057835232003 -0.06370220800993648 0.015978955793485128
0.06553635265779398 -0.06402278438846931 0.014697935767533088
0.06560765749008407 -0.06441556258498626 0.013482518671286248
0.06568483426218585 -0.06478149964178098 0.012237547763220002
0.06576132456173138 -0.06515249553392671 0.010993742658649386
0.06584147448984391 -0.06550756834960902 0.009730558594898298
0.06592269253150862 -0.06585931002466666 0.008460149888799118
0.06600096253117671 -0.06622703366870158 0.007201592054928596
0.06608239941312181 -0.06658135773943458 0.005925812176851786
0.0661578856869457 -0.06696594639468662 0.004676330703423992
0.06624006288803956 -0.06732034842622475 0.003392698877112521
0.06633551734971067 -0.06761347382859634 0.0020429391681398013
0.0650130612241156 -0.05689527874498157 0.04042454580572086
0.06506130043267494 -0.05737433964144867 0.039356760961907766
0.0651278509650396 -0.05776301999313238 0.03820808147779703
0.06519990547080111 -0.05812574869029552 0.03703363924206787
0.06527363275624735 -0.05848175742151651 0.03584997597867806
0.06534752697034574 -0.05883857220518274 0.034663632739846295
0.06541804204241568 -0.059213751055151975 0.033490209100446755
0.06549666486918963 -0.05955045068639092 0.032279133624810386
0.06556631481079087 -0.05993310841345523 0.03110570781879901
0.06564393425886937 -0.06027812716463493 0.029895052765864683
0.0657137275270611 -0.06066325771885883 0.0287172036996593
0.06578503556260841 -0.06104252133621296 0.027530744526643447
0.06586385878477771 -0.061386666294772574 0.026308731987923162
0.06593429229227823 -0.06177343522245404 0.025122335941118512
0.06600745552960381 -0.062148495622195266 0.02392177745469648
0.06609077724189576 -0.06247590815471876 0.022673371556332367
0.0661639428636897 -0.06285431293674798 0.021468802829525846
0.06624506263344469 -0.06319593739725249 0.020226139743349303
0.06631093469197896 -0.06361280573427602 0.019050855376382014
0.06639345921626753 -0.06395110634932266 0.017797684572694428
0.06646642522911919 -0.06433706612301937 0.01658616812073921
0.06655056087895693 -0.0646712121572422 0.015321354017282518
0.06662825212453889 -0.06503797907532882 0.014084040991066471
0.06670419349463565 -0.06541479993889315 0.012852769793666563
0.06678382806154808 -0.06577576007583846 0.011602360878701201
0.06686135955734124 -0.06614845233421501 0.01035963172272536
0.06694579122204349 -0.06649023781751723 0.00908266433360766
0.06702795420482288 -0.0668445963385288 0.007814080323822636
0.06711120776899374 -0.06719564371266168 0.0065382094354428655
0.06718504829112097 -0.06759273004158828 0.00530442545324783
0.06726672860392965 -0.06795473261945273 0.004031703093339223
0.06734574399705313 -0.06833099820839927 0.0027694313157494155
0.06606042133495327 -0.05797770848874134 0.03987932638632752
0.0661276988919303 -0.05836711682356649 0.03873403602274028
0.06619630352886686 -0.05875149023160314 0.03758130885071159
0.06628055549269828 -0.059060878606033484 0.03635951009762639
0.06635101485644933 -0.05943936700113028 0.03519501658054913
0.06642419151456481 -0.05980616847472031 0.03401693733264316
0.06650130385898027 -0.06015545649203935 0.03281987945591558
0.06657498451476383 -0.06052304835557126 0.03163575508494881
0.06664986256809319 -0.06088645834909234 0.030444490356827447
0.06671402995149371 -0.06130315060186098 0.029298175998771214
0.06679822101366299 -0.06162489777978203 0.028062265247200957
0.06686961240967437 -0.06200992513750653 0.026880541706412187
0.0669463720759629 -0.06237079579442312 0.02567325117792063
0.06702034581949833 -0.06274665231541138 0.024476309741961355
0.06710356541396698 -0.06308003750878421 0.023236365829832628
0.06717893757257866 -0.06345256619902323 0.022029230851309423
0.06725061917122889 -0.06384425296135166 0.020836632524676935
0.0673273772996783 -0.06421346322511362 0.019619418808902556
0.06740307711710687 -0.06458934579032988 0.01840496916376949
0.06748760387303221 -0.0649252727995776 0.017148760513620354
0.06756437297226325 -0.06529952212233275 0.015925430396488416
0.06764486695311005 -0.06565796845433314 0.014683217676267346
0.06773000161228084 -0.06599644694355472 0.013417813032778947
0.06781124773035992 -0.0663549393101947 0.012167929767994412
0.06787910187429307 -0.06677759438394426 0.010977179307900264
0.06796285644553483 -0.06712782205491363 0.009711746460055515
0.06805094962019387 -0.06745975593149234 0.008424185261501682
0.06813116725148853 -0.06783004358401912 0.007170658748958558
0.06820976929825984 -0.06820953563709031 0.005922521279633719
0.06829416143703153 -0.0685640800983649 0.0046454882606377645
0.06837658613088854 -0.06892950101351764 0.0033754143324661867
0.06847775970853939 -0.06921079783632816 0.0020157558592424074
0.06706082130266493 -0.05855477640340628 0.04037911311064879
0.06713037154691552 -0.0589374401736204 0.0392305858189585
0.06719972167839748 -0.05932255808392656 0.03808112624582549
0.06727266780055752 -0.05969187861797004 0.0369146892962714
0.06735148234486722 -0.06003461978221719 0.035721498685814534
0.06743360398003302 -0.06036322574517827 0.03451222626508926
0.06749541363939546 -0.06079056322165449 0.03338752907702652
0.0675705709646688 -0.06115564458862732 0.032204128032719326
0.06765008549501185 -0.06150162780291024 0.031000104192473732
0.06772576283678511 -0.06186751061666007 0.029810570407326598
0.0678002068146479 -0.062240850295477934 0.028624430026678416
0.06787305726561257 -0.06262330737135263 0.027443290115922336
