# .PCD v0.7 - Point Cloud Data file format
VERSION 0.7
FIELDS x y z
SIZE 4 4 4
TYPE F F F
COUNT 1 1 1
WIDTH 781
HEIGHT 1
VIEWPOINT 0 0 0 1 0 0 0
POINTS 781
DATA ascii
-0.05913084083880216 0.048295736493912875 0.036421077180561645
-0.06087306176896817 0.048143263288539476 0.03646308559991873
-0.06259858703499527 0.047992607969845544 0.03649973528264655
-0.06431902777857917 0.04784203977256407 0.036541234087294205
-0.06600053986194931 0.04769665121399906 0.03655716567168005
-0.06770857501551036 0.04754660775801763 0.03660615866436734
-0.06940352398952349 0.047397864086123356 0.03665268929050847
-0.07105494784692479 0.04725503974592413 0.03666885400387282
-0.07270656553129984 0.04711153771086278 0.03669420292057979
-0.07432271423206849 0.04697277993253503 0.036695910285995226
-0.07597453198175919 0.046827949572837736 0.03673947515422066
-0.07759190828449164 0.0466877220127488 0.03676013916095677
-0.07922822954594838 0.04654394960330875 0.03680747394766132
-0.08082464879408474 0.046405644509999705 0.03682640481615118
-0.08245454162469573 0.046261550944310455 0.036885862523400925
-0.08340357029713508 0.04622182893257755 0.036306711161445404
-0.08378678596028544 0.04626941238095353 0.03518893692345343
-0.0839304094529939 0.04635434918639204 0.03383774826487501
-0.08401173624308367 0.04644935785832369 0.032420873737695644
-0.0840867316488349 0.046545794637322516 0.030991704005206122
-0.08416871674008264 0.04664159052052276 0.029563108239369473
-0.08423097041636962 0.04674092108353108 0.028108920240744795
-0.08430987447937582 0.04683810651367482 0.026664691361120485
-0.08436075398424225 0.04694015318226015 0.025186323786162756
-0.0844118556766506 0.04704264548201001 0.02370150027609569
-0.08444819584896024 0.04714795265243458 0.022195161933404317
-0.08446066882411063 0.04725753595805947 0.020657859170148174
-0.08447169445908476 0.04736786870170497 0.01911186935644915
-0.08447145429087843 0.04748051772404401 0.017547125602812463
-0.08447953228434929 0.047592377593817896 0.015983432327129343
-0.08448082587018618 0.047705855992843445 0.01440533820771861
-0.08448364540802772 0.0478196334018144 0.012821271392156997
-0.08449714170253458 0.04793224268819947 0.01124070921146142
-0.08449085203219586 0.04804857839103015 0.009631956015812349
-0.08447993944330678 0.04816622109616869 0.008010554050065954
-0.08446206738970763 0.048285558168151006 0.006373906255757067
-0.08442102601951584 0.048409229867092785 0.004704649714760922
-0.08407626899862164 0.0485828604517738 0.0027032698495821905
0.08414572327245218 0.05885649393157498 0.04098224197286282
0.08196384971280568 0.05869478101551354 0.040682152114986714
0.0802091449664813 0.058586467586082894 0.0401316007382187
0.07857711525904132 0.05849327926319651 0.03951211189278836
0.07712600178107987 0.05842269880727183 0.03878666173796225
0.07571047811783721 0.05835637097989518 0.03804313750433386
0.07423715997255509 0.05828241787749291 0.03733919657142809
0.07304823021530649 0.058244494766240745 0.03646169457177584
0.07186806118195288 0.058207544139429655 0.0355808008108357
0.07157998623514356 0.05828482442781118 0.034138270251606206
0.07118857873738538 0.05834913421450484 0.03275708205778283
0.0707703048716089 0.05841023924784294 0.03138945941633581
0.07051301075596106 0.058492347027004336 0.02991494695318303
0.07003951011597259 0.05854684031947411 0.028575551421249734
0.06998321389470008 0.05865556960438648 0.026961921010755674
0.06965417466856627 0.0587293455274832 0.025520416376628996
0.06945335268782399 0.05882008275659491 0.023990461558364817
0.06956429759334232 0.05895179104114602 0.022249293584940044
0.06964659044743793 0.05908028595616358 0.020519685623870465
0.07018841721070146 0.05926939155636129 0.018475617007126688
0.07041636332538675 0.05941812505508016 0.016631723084840122
0.07053503293325675 0.05955310806106532 0.014853182202686332
0.07064686459750269 0.05968773501371098 0.0130715565942644
0.0706497571665865 0.05980854354545477 0.011356652331419248
0.07065117982368802 0.059929646380904436 0.009635810190699867
0.07071200206373668 0.06005910237611693 0.007866944376505092
0.07078648412975952 0.06019089570902437 0.006081111978783471
-0.0503714482738829 0.04791432273974665 0.036309741324703826
-0.05214408922396063 0.04776428795523087 0.03633124893184658
-0.05388516639397156 0.04761815527509474 0.03633487019070508
-0.05564611225712579 0.047468493131947065 0.03636501509756124
-0.05740274101403259 0.047318792640138885 0.03640085039306007
-0.05914499475533608 0.04717051840943297 0.036433530369056
-0.06089122232866223 0.047021001643418145 0.03647914804010549
-0.06260267965901667 0.046875902075720954 0.03650337410403487
-0.064323897220806 0.04672872022092702 0.03654558632861887
-0.06601341695096874 0.04658553443461412 0.03656873543856265
-0.06772134243723982 0.04643899224811016 0.03661769005292542
-0.06941460072836869 0.04629395305733687 0.03666274609888187
-0.07106122520521851 0.04615515658745289 0.03667458319657235
-0.07272134988617346 0.046013728220339854 0.03670776685166244
-0.07434200873371055 0.04587752206087611 0.036713704626956445
-0.07599442930623879 0.04573596351274993 0.036757921343714806
-0.07760936475093694 0.04559935471578873 0.03677640702332857
-0.0792455390253673 0.045458941877636515 0.03682368901982003
-0.08083733789837311 0.04532454024327243 0.03683835364015037
-0.08242049233935572 0.04519081970570571 0.036853632535690684
-0.08324130999231905 0.04517135225856698 0.03615232050182121
-0.08354191412129591 0.04523036240769025 0.03495472831127133
-0.08368003118944312 0.045314243179097005 0.03359702689757216
-0.08376091259008411 0.04540719794120099 0.03217847003077856
-0.08383025668425997 0.045502340060868326 0.03074255034169443
-0.08390137853152985 0.045597655114213605 0.02930205224208965
-0.08397503290797137 0.04569302898812906 0.027857699342316966
-0.08404675797665828 0.045789145442277995 0.026405083419235975
-0.08410981610451451 0.045887044027221546 0.024937447753617614
-0.08416191038938414 0.04598709076908655 0.023452323419095367
-0.08418871414904633 0.04609151060042963 0.0219351373840605
-0.08420285129349214 0.046198382868106125 0.02039816396774824
-0.08420875974073289 0.0463070372787593 0.01884564835724517
-0.08420638178603268 0.04641749550656118 0.017277351034164168
-0.08421914521519042 0.046526122546172326 0.015717055294020676
-0.08421981852698712 0.04663715557469708 0.014136945786182797
-0.08422353991130399 0.04674824344505646 0.012552423670159574
-0.08424101266840961 0.046857707958886205 0.010974603540095274
-0.08422568221732424 0.04697285609701873 0.009355034243763327
-0.08422177750151644 0.04708675912101387 0.007739558491263898
-0.08418403177610728 0.04720655865018698 0.0060805424096144756
-0.08417384073206013 0.04732257556007026 0.004442491006528326
0.08663571845799461 0.05765022559600844 0.04110730138139468
0.08400341950705997 0.057437647457237645 0.04106765798598022
0.08201591086379317 0.05730370139511042 0.04065072284561888
0.08021949783438637 0.05719282987876464 0.0401253147420505
0.07849767368673283 0.057090755087259255 0.03956062393397258
0.07698833316756432 0.05701461924828126 0.0388712130489825
0.07556318327136935 0.05694864201761199 0.03813411879953693
0.07428218586292618 0.056900343631703446 0.03731122598663872
0.0732553290678386 0.05688353983107664 0.036332308605527164
0.0720672719651928 0.056846534221932435 0.0354556342873133
0.07120920012078152 0.05685068367438015 0.034372563809887624
0.07045319163306696 0.05686764860019512 0.033224397529543814
0.06984917173939276 0.05690377789580278 0.03197812628246871
0.0694558082316562 0.05696657126344268 0.03059439185121432
0.06908172625954534 0.057032045334915994 0.029194576578939146
0.06876006440762616 0.057104404699606766 0.02775690976202294
0.06858894074461513 0.05719611692982029 0.026216662941931312
0.06838117606265143 0.05728354430488326 0.0246951823138179
0.0681930067974516 0.05737381188600946 0.023155670857619992
0.06811133593978341 0.05747800882620901 0.021540119013289116
0.06822519047050118 0.05760758421169964 0.01978780402168767
0.06840358042641731 0.05774593462603529 0.017984541208858562
0.06882520476544968 0.05791601789631835 0.016008784523936948
0.0693255945027782 0.058096902277800934 0.013969517239740381
0.0706660228045845 0.05838662388205653 0.011345536475552476
0.07522320635636498 0.0590923286343331 0.006493977573194087
-0.050378396796500025 0.046772528510740236 0.0363156962580059
-0.05215011786143858 0.046626193453843806 0.03633644280454795
-0.05388602048837049 0.046484269048610916 0.03633560990459789
-0.05565034648749023 0.046337691582453606 0.03636870161464639
-0.05741617496527457 0.04619024898907115 0.036412608232765986
-0.05915664999306974 0.046045753738840185 0.036443785118834726
-0.06089865105837278 0.04590039544229296 0.03648571851638205
-0.06260759066985427 0.04575910781704993 0.036507740567013336
-0.06433120110518553 0.045615086219996416 0.0365521144412746
-0.06603112124039762 0.04547381528244028 0.0365846423334521
-0.06773410882507686 0.04533146643189013 0.036629220507683746
-0.06942646779461498 0.04519000600305684 0.036673520462425335
-0.07107691749590439 0.045053957865401 0.0366889051697703
-0.07272835250991377 0.04491714958525383 0.03671419142051402
-0.07436361571234246 0.04478206523532497 0.036733631648242115
-0.07601432405211367 0.04464411896939652 0.03677636514266491
-0.07762909574517657 0.04451078001886868 0.036794794541773757
-0.07925757923900106 0.04437482724901321 0.036834967980218125
-0.08085077225913434 0.04424341748746577 0.0368510042424805
-0.08234570488108733 0.04412582325169404 0.03678284106865104
-0.08306557582518753 0.04412169323732963 0.03598510946389849
-0.08330773145857512 0.044187975401880485 0.03473074340284216
-0.08342256930135139 0.04427337909284577 0.033349495115655936
-0.08350818425706552 0.044363507870248266 0.031934225582402
-0.0835844883522659 0.04445543852776368 0.030503797680619005
-0.08364994194972436 0.04454941278924291 0.02905652419740351
-0.08373133664955734 0.044641448825970716 0.027618494102860547
-0.08380036548989905 0.044735765098014295 0.026161976484768867
-0.08385695873431898 0.04483238812778254 0.02468666800222119
-0.08390404393142281 0.044930894461796114 0.023195249744199065
-0.08392953294468042 0.04503311749631431 0.0216754139589172
-0.08394232727949785 0.0451377401806425 0.020135742570793702
-0.08394838300050872 0.04524387855550551 0.018582017306973564
-0.08394538133812479 0.0453518950482794 0.01701172075579066
-0.08395982137112584 0.04545777520007485 0.015451765944517193
-0.0839583543999311 0.0455665848447886 0.013868083656308594
-0.08395993061515533 0.04567545078440525 0.012279954384967262
-0.08397068654957168 0.045783433948931085 0.010693747784765062
-0.08395391104505345 0.04589616180075719 0.009071218551341798
-0.0839600964574917 0.046005901231681294 0.007464868890381615
-0.08390470763048224 0.04612566638188625 0.00578581899407804
-0.08390617348500173 0.04623722345291957 0.0041586096297389075
0.0864015540428128 0.0562160800553657 0.04124704804155277
0.08412025201695889 0.05605074753988005 0.04099753076783835
0.08214537052979559 0.05592161355049388 0.040572568163329326
0.08029198087150086 0.05580661345577897 0.040081304898813175
0.07853003547016796 0.05570220321177107 0.03954086178519861
0.07690928419012877 0.05561446025502246 0.03891976220268062
0.07546261047092667 0.05554746590907484 0.03819624075333161
0.07406585217496636 0.05548626946106793 0.03744561488404874
0.07280805741925672 0.05544173565389111 0.036611743637251615
0.07171516259395944 0.055417123151188324 0.035676868826830466
0.07085916836403217 0.05542134088705007 0.03459374303592583
0.07010507564571328 0.05543804238920593 0.0334456143361786
0.06945821121026013 0.05546795442373358 0.03222797671278865
0.06893264208385336 0.055512883046060946 0.030930621250761958
0.06850813582174442 0.05557042731864307 0.02956529373900213
0.06816029952152336 0.05563765422519808 0.028146728294341006
0.0678691080974878 0.055712147142165776 0.026687152096365963
0.06767208801577695 0.05579859543354813 0.025161252038100157
0.06754793692518346 0.05589442798461896 0.023582040430920215
0.067502744584641 0.05600045798951175 0.021944629754799716
0.0674443647391601 0.05610526993196743 0.02030969452181214
0.0676060719252673 0.05623796891704332 0.018520557266510307
0.06799694772590331 0.056399858712923155 0.01656856928799283
0.06841784113427085 0.05656616171203054 0.014586443940777849
0.06910541604174131 0.05676661882231511 0.01241204735219742
0.07050454486990865 0.057057405810040006 0.009736575677811055
-0.04860340309831973 0.045774320942005266 0.036301539661540205
-0.050381002417628995 0.045631377696020645 0.03631792929384514
-0.05215442389655822 0.04548837722079848 0.03634015259773765
-0.05389285308420061 0.04534956494980572 0.03634152747772057
-0.05565119332039037 0.04520738704185844 0.03636943890659461
-0.057417014550383616 0.04506354135229876 0.03641334306550087
-0.05916081237465215 0.04492210921960893 0.0364474473505787
-0.060892873187005536 0.04478167682855508 0.03648060817205312
-0.06261659379879975 0.044641777620179304 0.03651574540156377
-0.06433931613965016 0.044501389945075825 0.036559367548859134
-0.06606089217714001 0.044360531225469374 0.036611390832081425
-0.0677468741791456 0.04422403029846324 0.03664075002875439
-0.06942805000219304 0.04408758829523373 0.03667495698256379
-0.07109417719235739 0.04395264884307607 0.03670465767620501
-0.07273613283229224 0.04382051056646112 0.03672132949028062
-0.0743867626901526 0.04368654334748104 0.03675497893271812
-0.07602121009416268 0.04355426109551057 0.03678274897766903
-0.07764882419016761 0.04342234596615011 0.03681317968454767
-0.07926660877287645 0.04329122750076904 0.036843426613768326
-0.08086868288216514 0.043161751263613234 0.036867869962664335
-0.08224938900414652 0.04306337375754729 0.03669167147436714
-0.08286966285072583 0.043073669049749394 0.03579869829333909
-0.08305244733961148 0.04314693936551483 0.03448657592543297
-0.08317801496067445 0.0432287981891687 0.03311437304701964
-0.08325428568047033 0.04331816087247077 0.03168885017457418
-0.08333087238757902 0.04340789378263987 0.030257421404355445
-0.08340404837583687 0.04349854055377399 0.028816408904855595
-0.08347977197128459 0.043589240544835005 0.027371565448737534
-0.08354608144161563 0.04368173887429869 0.02591108321981933
-0.0836036732053731 0.04377594639881722 0.02443546361006832
-0.08364498054109404 0.04387298407778343 0.022936982816776863
-0.08367140817650648 0.04397266560794047 0.02141674918008618
-0.08368059366252639 0.04407535760561792 0.01987210276138579
-0.08368528200607966 0.044179200452645465 0.018315627953496394
-0.08368316604017739 0.04428454368178136 0.016744854077415605
-0.08370004701449507 0.04438757185839354 0.015186015718822221
-0.08369567021858809 0.044494252169141386 0.01359796695129295
-0.08369738356419787 0.0446005359059371 0.012008583047351806
-0.08370446500894052 0.0447065280585036 0.010417156487555035
-0.08368778607395722 0.04481658766107128 0.008793299291873446
-0.08368025913849703 0.04492580459108611 0.0071711204388913985
-0.08363334872697592 0.04504147464282924 0.0054994999481586815
-0.08361559456592771 0.04515330830363415 0.0038504286904597618
0.08915945244844614 0.05502679929156116 0.041223260771273806
0.0865118088318938 0.054823551581263306 0.041181249237201845
0.08438708882744955 0.05468069522227248 0.04083736538892324
0.08234937848731122 0.054547485545821686 0.040449408745446336
0.08042073114899317 0.05442656850431322 0.04000313102869435
0.07860948818390778 0.05431899712475989 0.039492342940352754
0.07694148604878948 0.054227895219973635 0.03889998493248431
0.07536062516070458 0.05414673218901346 0.03825923518822327
0.07395413576891974 0.05408589041832545 0.037515014360259835
0.07267216809925092 0.05403957751184621 0.03669664111860821
0.07158830598156779 0.05401662202568547 0.0357565743573276
0.07049961594678328 0.053993001676649145 0.03482093820846044
0.06962549498880805 0.05399488370200227 0.033750372822713204
0.069080828232782 0.0540361500869912 0.032469150162004856
0.0686657766960811 0.054093101792943986 0.03110213079790597
0.06829717974203703 0.054155853062875445 0.029701636735002812
0.06797938875216547 0.0542249615512906 0.02826431165446386
0.06769525331776716 0.05429839899889009 0.02680078515903911
0.06749947752073937 0.05438279461200823 0.025274705545298592
0.0672843797217012 0.054465189686222104 0.023756242912263525
0.06725746024447293 0.05457071980854571 0.022107662222290325
0.06717843030801435 0.054670344301070685 0.020487440525433998
0.06732637819928955 0.05479798682888901 0.018708543135165456
0.067554901478106 0.0549359663930637 0.016867330110672374
0.06782100852672074 0.05507909319074232 0.014992062894583547
0.06828449795361002 0.055246960212048946 0.012973058678478977
0.06947485237746354 0.0555046654554571 0.010444165941262684
-0.048599899420763926 0.04463043050278946 0.03629855277393573
-0.050385345028815365 0.0444900124315862 0.03632165094251727
-0.052157007463824234 0.04435082147604961 0.03634237842729604
-0.05388602048830876 0.04421674372917477 0.03633560990454443
-0.0556520401489104 0.044077088348904184 0.036370176194729265
-0.05742373107567744 0.043936046494971404 0.03641922159121258
-0.05916663952914247 0.04379826842402816 0.03645257431689075
-0.060914332807087135 0.04365922622274492 0.03649958852672264
-0.06263378018560478 0.04352339848256686 0.03653102610938519
-0.0643385046547364 0.04338896568057314 0.036558642254664986
-0.06606169671938011 0.04325140815959956 0.03661211369469042
-0.06776442485330064 0.0431160292343506 0.03665660159592482
-0.06943754291276871 0.04298409736294098 0.036683575799338286
-0.07110594407217702 0.042852216044356954 0.03671539702208976
-0.07273768884988319 0.04272478354567924 0.03672275706121947
-0.07440527777292227 0.042591824521190244 0.03677205445515663
-0.07603421621979234 0.04246360551740046 0.03679480655144968
-0.07766551549899886 0.04233447324378575 0.03682873448859253
-0.07928165680321347 0.04220685578516383 0.03685752321897845
-0.08088584523697084 0.04208031717950846 0.0368840310684701
-0.08212853648766616 0.04200365998386791 0.03657727626512791
-0.08266460459680841 0.04202551872028454 0.035603585390527825
-0.08281972347866962 0.04210090346751347 0.0342639862935758
-0.08293083235938553 0.042182823850592674 0.032876724087753384
-0.08300367765273292 0.04227051577037814 0.03144665485455456
-0.08307906333266785 0.042358257151834444 0.030012800458055544
-0.08314803960102007 0.042447315188807976 0.02856641610964694
-0.08323002912534622 0.04253494340233533 0.027126425052844794
-0.0832906150299747 0.04262602629928038 0.025659023357888444
-0.08334770459784518 0.042718035580022254 0.02418159818502058
-0.08338546801712848 0.04281323961316123 0.02267826813653162
-0.0834075558826804 0.04291113818047264 0.021152344893316688
-0.08341386392173722 0.043011765378101384 0.019603430441648084
-0.08341868552110293 0.04311308379594415 0.018045699421198935
-0.08341289191283385 0.04321641512067512 0.016469785615813637
-0.0834352515623431 0.04331616835415332 0.01491512889194263
-0.08343863134893914 0.04341914893693028 0.013333655289374302
-0.08343207941640296 0.043524065549583234 0.011734361946031224
-0.08344007018861105 0.04362736798604282 0.01014246306433636
-0.08341888009894566 0.04373542726409405 0.00851247577826636
-0.08341994086931775 0.04384075180558943 0.006897861358434398
-0.0833622700289765 0.0439552005765113 0.005213476555605945
-0.08331437424956223 0.04406876675524684 0.0035309617438440966
0.09328732904460979 0.05398088972571514 0.040403973587467557
0.08918537623832246 0.05361879934584097 0.041207878804784104
0.08682321826077938 0.053453247832592254 0.04099540363126419
0.08467675655520485 0.05331164449491809 0.040663496044247405
0.08260426736201043 0.053177942239607943 0.04029553256426649
0.08080444615860699 0.053074923343949705 0.039770149105016694
0.07903222410056182 0.05297466911592866 0.03923419369175618
0.07717435179389737 0.052864186367920604 0.03875696682880925
0.07548884259965222 0.052773111845171396 0.038180037653870846
0.0740644009617355 0.052711788632327984 0.03744651639387758
0.07258402794427532 0.05264376302201987 0.03675170708820391
0.0712685956209741 0.0525945666385561 0.035957452210016005
0.07038324311621186 0.05259506647943669 0.034894472258161224
0.06970009350838502 0.05261906995130312 0.033702967800019634
0.06915395975455302 0.05265912446168916 0.03242241413413788
0.06874035248076399 0.05271480120448982 0.031054202292955746
0.06833447735117038 0.052771602197825555 0.02967753092217218
0.06800953047104319 0.05283810900673226 0.02824472097670544
0.0677340357377178 0.0529106847171187 0.026775436617204662
0.06748941265605918 0.0529871801961827 0.025281320984279876
0.06748598045757526 0.053092405013794294 0.023622991580234343
0.0680129248316812 0.05326067994507012 0.021605529653737632
0.06753259714029775 0.05331044624981658 0.020250721501189672
0.0673481036092155 0.05339548598789968 0.018693941198555886
0.06758540970427312 0.053530976165502696 0.016846710859194536
0.06785452936040265 0.05367079895333461 0.014969281489350672
0.06834303608561054 0.053837353723302776 0.012933054011087075
0.06887721235197264 0.05401004026521379 0.0108548557988552
-0.04860778259197818 0.04348503541459514 0.0363052731829942
-0.05039229297089182 0.04334833742613261 0.03632760537829194
-0.05215528509008749 0.04321384588105295 0.03634089454474948
-0.053895415234454846 0.04308175132422145 0.03634374650426009
-0.05566304852143411 0.04294546243444635 0.03637976059375708
-0.0574245706218216 0.04280937081723779 0.03641995638984413
-0.059174963671837055 0.042674139007844336 0.03645989823446377
-0.06092176047094083 0.04253877793587802 0.03650615806028262
-0.06264769162457168 0.042405572553286086 0.03654339500557263
-0.06434661931726299 0.042275351611796214 0.036565895029816387
-0.06608422224570182 0.04213940274784158 0.03663235235950485
-0.06777878304244739 0.0420085766857061 0.03666956974732999
-0.06944940824282814 0.04188035630302502 0.036694348586560455
-0.07112241621259013 0.0417512362959136 0.03673043074522375
-0.07275013642938344 0.041627606247687306 0.036734177113831146
-0.07441839127920052 0.04149796308308412 0.03678414837736521
-0.07604033636814406 0.04137397026681436 0.03680048035027339
-0.07767917066727364 0.04124712932753374 0.036841459881721494
-0.07929294184753843 0.04112310078723665 0.03686809475632019
-0.08091195812341412 0.04099779104555035 0.03690862053334726
-0.0819979363335549 0.0409444068967476 0.03645365424722269
-0.08244888038844184 0.04097735113337606 0.03539832383339969
-0.08257772333451108 0.041054461411760994 0.034032524324959346
-0.08268100948021445 0.04113542930413553 0.03263653668408362
-0.08275041370269198 0.0412214245604506 0.03120189276938351
-0.08282832451593386 0.041306649630016956 0.029769219199052732
-0.0828968309478319 0.041393569420045 0.028321110637457347
-0.08297986948683189 0.04147888675707947 0.02688087554534485
-0.08303696564590451 0.04156819882042639 0.025408756294140578
-0.08309054539725291 0.04165841895496324 0.023926551949492836
-0.08312852183692493 0.04175123631635038 0.022422111910096743
-0.08313870282303087 0.04184837069529395 0.02088292937885733
-0.0831481736702196 0.041946064070355275 0.01933580518172867
-0.08314401951639616 0.04204613122070628 0.017767600512546777
-0.08315126408186191 0.04214507214188606 0.01620351682536364
-0.08316922426180828 0.04224297501745975 0.014642981879146255
-0.08316356164734096 0.04234468152319578 0.013050802621712931
-0.08316400472956725 0.04244601080679442 0.01145727718700551
-0.08315907068561729 0.04254858948835228 0.009850518179395196
-0.08315103129322954 0.04265210346016005 0.008232756286226772
-0.08314604172909884 0.04275568189785551 0.006610346281485879
-0.08309999256685435 0.042865629497766476 0.004936739615153118
-0.08289988542502852 0.042998181714318184 0.0030913649703667168
0.09196536564981767 0.05241446249733783 0.041183840986192044
0.0894768334204542 0.05224000212915765 0.04103494172150546
0.08718048665075251 0.052086159407512225 0.04078218991883892
0.08500287421669361 0.051944901442446845 0.04046774809355347
0.08299085927501931 0.05182151243960463 0.04006214737898128
0.08116949017146308 0.05171888697460052 0.039548503732249496
0.07906318639686355 0.051584055295100406 0.03921528615821046
0.07741625435672855 0.05150008038993586 0.038608398623579177
0.07576300212544024 0.05141507021072664 0.03801069439885141
0.07405279159315536 0.05132333272505253 0.03745372826299431
0.07250747483104009 0.051249788158649716 0.036799533999865575
0.07141687377037104 0.05122721393490056 0.035864287270987616
0.07061748634197174 0.05123744295506955 0.03474645787266828
0.06990967469455855 0.05125807578214058 0.033569785520491224
0.06932038625673759 0.051292229534846405 0.032316056253766434
0.06885082724975311 0.05134012132290025 0.030983202161547485
0.0684133964568584 0.05139186005029075 0.02962652472540306
0.06805116137373118 0.051452381147076495 0.028217662878172234
0.06774121839952457 0.051519119205378085 0.026770741964227296
0.06746065837821408 0.05158948776539516 0.025300220609518642
0.06920399938821703 0.05189237692346364 0.022487438627181666
0.06868529024544634 0.05193639028180058 0.021158630384153776
0.06796268198281469 0.05195708900368101 0.019963260183577136
0.06730320673803969 0.05198515876570298 0.018724116982078987
0.0675229449090029 0.052115040896744395 0.016888928237390632
0.067890970703332 0.05226263320386735 0.014944515249692703
0.06841623010908782 0.05242908185195578 0.012883033580570857
0.06914345279753226 0.05261970651587247 0.010671899092462522
0.07037663117133197 0.05287010218202501 0.008098683095823678
-0.048610410233117296 0.042340359687948116 0.03630751324893139
-0.05039229297087222 0.04220759170439477 0.03632760537827512
-0.05214581171410798 0.04207784414806653 0.03633273291468475
-0.05390395544737764 0.04194693255506342 0.03635114301002601
-0.05568506304561455 0.0418125066545331 0.036398927458222874
-0.05743212634261291 0.04168184114863418 0.03642656940728978
-0.059181622677891454 0.04155028096775488 0.036465757097442264
-0.06093001302903034 0.0414182752035712 0.036513457186682474
-0.06266896560643159 0.04128689465812925 0.036562310063443015
-0.06436771550605214 0.04116011739624483 0.036584750516823694
-0.06609548380825553 0.04102901318613425 0.03664247061319431
-0.06779553261022186 0.040900914555746966 0.0366846977644254
-0.06946601819652781 0.040776081639761534 0.03670942911917785
-0.07113418096202406 0.040650986152730675 0.03674116814675715
-0.0727602493523602 0.04053082183185381 0.0367434552319143
-0.07442533327250811 0.04040500249854532 0.03679055062595171
-0.07604722124337421 0.04028427807454695 0.036806863103556076
-0.07768675634413014 0.04016068081397968 0.03684852905276392
-0.07929745563042118 0.04004031886820665 0.036872323151258046
-0.08091718015898447 0.03991821180140183 0.03691353791620816
-0.08185904939088173 0.039885316352999835 0.036322188214653384
-0.0822105568433355 0.03993063556464436 0.03517155901020608
-0.08233458858058756 0.040006429879320765 0.033799977154469474
-0.08243002492289747 0.04008638881778388 0.03239523240729686
-0.0824982153589926 0.04017036100972253 0.030958160519015676
-0.08257941048095851 0.04025298175046444 0.02952741063182518
-0.08264819913553473 0.04033765408110934 0.028078321452678634
-0.08271352315477165 0.04042318877491426 0.02661943764492969
-0.08277536290704651 0.04050959454456118 0.02515064193063682
-0.08283294446639511 0.040596982193832454 0.023671067613204533
-0.08286886823827794 0.04068771728658241 0.02216325658888918
-0.08288375372503032 0.04078173935229399 0.020627446913869585
-0.08288732446579483 0.040877747397280895 0.01907305622599853
-0.0828779791935988 0.04097597415863111 0.01749823509360321
-0.0828945166233363 0.041071126030847234 0.01594221497923065
-0.08290960253515889 0.041166930510165484 0.014377387794544338
-0.08289411575622607 0.04126739641341793 0.01277373288757122
-0.0829146483062293 0.04136337894639844 0.011199539818037008
-0.08289063165181887 0.041465977120338164 0.009571623014097586
-0.08288964870924376 0.04156587901125421 0.007959789589865984
-0.08285075088804655 0.04167152634391371 0.006300376090197679
-0.08284190979924083 0.04177350176664244 0.004664428624665873
-0.08216590667148743 0.04196903963799076 0.002312924943134176
0.09526255365764674 0.05125360763615062 0.04086922508643481
0.09179755803046341 0.050979838450404394 0.041282835929703776
0.089727377093891 0.050855061898194436 0.04088628080396978
0.08759292817338388 0.050722878297273136 0.04053604950824968
0.08541681091745518 0.050585685287662045 0.04021928788897211
0.08353226926719731 0.0504795096269675 0.039735298660506346
0.08131804636229234 0.05033718357304658 0.03945830421894808
0.07942028967439857 0.05022867878603824 0.03899721634408937
0.07755564698767259 0.05012335602190131 0.03852278848055596
0.07582575490187826 0.05003231621744042 0.03797193317254355
0.07415874894417873 0.049947791643640826 0.0373879063759327
0.07278058389294118 0.04989455469286329 0.03662890784992173
0.07175121431721454 0.049879364974395705 0.035654217096871665
0.07096570525478779 0.04989091464923798 0.03452642415246027
0.07023735426960992 0.049908803463921736 0.03336155541378638
0.06959037228998705 0.04993574001919642 0.032143516773278646
0.06896135606333303 0.04996476894385843 0.030912167296660353
0.06850095720385524 0.0500125894531327 0.029569933350581445
0.06800665965694375 0.050056837287648814 0.028246586868765355
0.06758181714786538 0.05010898451671581 0.026874928069717585
0.0672350647357503 0.05017004045220202 0.025448498904726613
0.06928095039453558 0.0504984716294286 0.022436576590153468
0.06873318569973202 0.050538062142055536 0.021126795844335855
0.06782212629861378 0.050537087861852126 0.020057205187409055
0.06709766446356147 0.0505570681478257 0.018862264675160334
0.06732984942057602 0.0506847943801069 0.017019433512043658
0.06785744445059805 0.05084634879997221 0.014967300337817846
0.06850409427822324 0.051022008200329316 0.012822987645693895
0.06950138532986011 0.05123808006277407 0.010425932867879906
0.07120408327443928 0.05153506056526653 0.007526920026892425
-0.04861041023310292 0.04119602564232966 0.036307513248919177
-0.05039663528727367 0.041066309875632895 0.036331326774314554
-0.052149256640835084 0.040940178863059756 0.03633570083421073
-0.05390480944426829 0.04081312577292153 0.03635188263946887
-0.05570876768366967 0.040679492823932316 0.03641956581411426
-0.05745395201083825 0.040552586309347584 0.036445671956037096
-0.0591982689950713 0.04042522232415009 0.036480403200878087
-0.06093991554056688 0.040297623398399686 0.03652221564467795
-0.06268205588330794 0.04016939117132552 0.03657394885049681
-0.06438962013059968 0.04004492887383424 0.036604328572731604
-0.06611398320948964 0.039917790751565936 0.03665909189766492
-0.06781387533283084 0.039793168773559054 0.036701264700655656
-0.06948262639066233 0.03967192395717287 0.03672450805424837
-0.07114672904988545 0.039550719556317435 0.03675262048227873
-0.072775806408243 0.03943341685792443 0.03675772807882899
-0.0744446149487949 0.03931051906012913 0.036808333138737825
-0.07607169829908472 0.039192388496350566 0.036829555019163074
-0.07770420197075056 0.03907302440691894 0.03686478681339039
-0.07931325281428653 0.03895612181583737 0.03688712154409712
-0.08088136828858261 0.03884394527127812 0.036879815304525776
-0.08169400108965036 0.03882860265196576 0.03616595865896183
-0.08197408767794129 0.038881970450897065 0.03494655862907531
-0.08209105999428479 0.03895670073373129 0.03356705330148574
-0.08217264737016372 0.03903636861370846 0.03214778170798899
-0.08224484498279921 0.039117627683468936 0.030713295580331645
-0.08232858460496106 0.039197760433977234 0.029283744798741296
-0.08240215802445683 0.03927959541889947 0.02783806208993367
-0.08246927000984233 0.03936265937585011 0.026379685781683926
-0.08252159399554981 0.039448054012021956 0.024900256933316267
-0.0825749006661331 0.03953372060284297 0.0234151440463769
-0.08260422393314398 0.03962295391558018 0.021899425904592262
-0.08262002749589331 0.039714395864556856 0.020363168955523148
-0.08261385633980606 0.03980918255970296 0.018797596445749243
-0.08261070426714817 0.039904017843109534 0.017227619640353575
-0.08263885677265204 0.03999513593326055 0.015682020033779165
-0.08264723408597041 0.04008932757975238 0.014108983801589037
-0.08262879035087406 0.040187557424561024 0.012500900226372513
-0.08264718492803541 0.04028131753781726 0.010923086913923574
-0.08262325403357373 0.04038121734932116 0.009293830608193776
-0.08263012921950852 0.04047744679245634 0.007688768557500225
-0.08257813512231821 0.040582092093544096 0.006014208186208958
-0.08257094954400485 0.04068117629105106 0.004378530204681208
0.09455602579668748 0.04975628700719117 0.04128361929610652
0.09184527106600848 0.0495687123187773 0.04125468852330627
0.08965554778517959 0.04943490903612607 0.040928900961934744
0.0879802497736803 0.049354495362116155 0.04030490038165635
0.08594318965548337 0.04923579087069461 0.03990333579123079
0.08382593367087049 0.0491081918582733 0.039558013727850894
0.08171069195966729 0.048980311175751724 0.039219899871169084
0.07978534073617793 0.04887198671301899 0.03877429311096642
0.07789641345721532 0.04876709507682099 0.03831350147594542
0.0761163926135236 0.04867334019509462 0.03779241164769426
0.07448418521234001 0.04859491982400469 0.03718574174005057
0.07316116991201649 0.048549098524961316 0.036391134973748185
0.07223919532890716 0.04854586190713229 0.03534761277663795
0.07141399546225441 0.04855295220845906 0.03424315705107278
0.07061448428487166 0.048562820421055954 0.033121901101163365
0.06982615535821896 0.04857392695598392 0.031992835319090474
0.06914952288981369 0.0485970818934423 0.030791235888257718
0.06847655161425653 0.04862072268304848 0.029585706923970168
0.0678803800323507 0.04865274391472356 0.028328662593872234
0.06738810263041584 0.04869612482953278 0.027001541637302007
0.06689207856382268 0.04873927248224002 0.025673937016802484
0.06666486865826954 0.04881177088720361 0.024165718969239136
0.06810988840480497 0.04906643546232284 0.021541081142380403
0.06736194929407369 0.04908312950716677 0.020364779588975923
0.06647206205528777 0.049084389897393534 0.019282740364205353
0.06694850082064874 0.0492351568031496 0.01727717129855283
0.0677554386990668 0.04942276642382731 0.015036625414388494
0.06876789211969725 0.0496337110545044 0.012642709516785311
0.07010659079870302 0.04988142241871867 0.010010044143544283
-0.04861566539152107 0.04005106219912601 0.03631199327520268
-0.050399240622687524 0.0399252663231913 0.03633355956529388
-0.052156146279114635 0.03980212287112467 0.036341636487882634
-0.05390993333268673 0.03967881008271561 0.03635632033564501
-0.05570961421435816 0.03954940462527763 0.03642030284294301
-0.057471578299121584 0.039423991045391626 0.036461099068173575
-0.059217410144323634 0.03929997633313732 0.03649724435852286
-0.06094899230792489 0.03917714086835668 0.036530243758085945
-0.06269596313037185 0.039051879278100124 0.03658631401959228
-0.06441395507060199 0.03892959633976993 0.03662607881158397
-0.06613087208110202 0.03880689499918386 0.03667426615849134
-0.06782902640669625 0.038685943373263164 0.036714948976425354
-0.06950002356425139 0.03856778596431597 0.03674030332065936
-0.07115692362782594 0.0384508315366587 0.03676192482636398
-0.07280224982314337 0.038334776478365744 0.03678198863401483
-0.07445618279801819 0.038217127473338726 0.03681900157978313
-0.07608928877194404 0.03810152742137982 0.036845862598405055
-0.07772543743438509 0.03798502050180396 0.03688457636248904
-0.07932980048259325 0.037871943745028384 0.03690262297133001
-0.0808015070945613 0.037774928737809334 0.03680461319963013
-0.08151387736330729 0.037772596036072054 0.035995459177742384
-0.08173724644148428 0.03783165532098004 0.034721204222375124
-0.08185086931006114 0.03790480005805677 0.033337321997783276
-0.08192529949742045 0.037983227853232285 0.03190997385166067
-0.08199554273801823 0.03806254930014815 0.030472362209196358
-0.08207809018301693 0.038140680604014036 0.02904040095806637
-0.0821534575801719 0.03822008856685717 0.027595205885958207
-0.08221633176273485 0.038301458667679554 0.02613140887189147
-0.08227343511278179 0.03838394674008744 0.024655407157075093
-0.0823179257709466 0.03846843592785637 0.023160280601897676
-0.08234745173779956 0.03855524196337315 0.021643443128118556
-0.08235659722893485 0.038645077353842656 0.020099187578523803
-0.08235588454557241 0.038736607952887504 0.01853774585624024
-0.08234753386196164 0.03882955910575364 0.016961160008590825
-0.08237281414243747 0.03891859874060649 0.015411258130918093
-0.0823721350851368 0.0390114311481009 0.013827556402410068
-0.08235915099859142 0.03910630753458566 0.012223631557171488
-0.08237153787797286 0.03919833044972259 0.010638175282227658
-0.08234844600554259 0.039295431872678796 0.009008318366109047
-0.08235776985200188 0.03938875389757089 0.007404338601848526
-0.08230347053920928 0.0394908811628915 0.005725889615057211
-0.08230027817177499 0.03958677456017053 0.004092936593956986
0.09810608788971864 0.048600980545328215 0.040835356543873214
0.09457778180577497 0.04833688068641164 0.04127085891581639
0.09225815809093862 0.04819433092216258 0.04101111360181614
0.09010522214771727 0.04806816847766019 0.04066208519121445
0.08801977720647708 0.04794839050665599 0.04028131085925313
0.08646772602852443 0.04788255063905715 0.03958848954948324
0.08420554750376336 0.04774389168250679 0.03932884120316721
0.08216216124809 0.04762709661429888 0.03894577928515408
0.08017022816938135 0.04751512669093805 0.03853925653668577
0.07830835546024828 0.04741608937815533 0.03806050091516916
0.07651277829086528 0.04732349362939395 0.037547571565442195
0.07485959266367759 0.04724522889055494 0.0369525344483867
0.07367734933707776 0.047215346025088686 0.03606864948987093
0.07274126054445151 0.04721084435025674 0.03503215918226338
0.07189498004073036 0.04721564616996231 0.033939230922222174
0.07101966153766742 0.047217447105007554 0.032864423647553986
0.07016444376752135 0.04722134960076246 0.031776645964057715
0.06923863357799731 0.04721789736253219 0.030733966064307727
0.0684306188376993 0.047226754122310866 0.029615393730717476
0.06772406350033966 0.04724628074585014 0.028430260874294344
0.06696251641413964 0.047260109347457405 0.02727970865269641
0.06639217024548233 0.04729411399829672 0.02600251699092887
0.06590252873475344 0.04733676410847109 0.024669600117426027
0.06549926658258926 0.04738871104780377 0.023276275965943338
0.06546894842649831 0.04748034833446076 0.02163002883712528
0.06548591153198569 0.047577368731731164 0.019945545230848627
0.06613576446951674 0.047742050393653174 0.017826466269600993
0.06737405506532329 0.0479700676006389 0.015295821089290729
0.0689762169056733 0.04823783770577236 0.012500341397276793
0.07121044670361437 0.04857428196821188 0.009251489821453351
-0.046816398608061416 0.039030233077580086 0.03628654522319846
-0.048620044564034404 0.03890623663864359 0.03631572652288023
-0.0504001090587457 0.038784443166757526 0.03633430382117214
-0.05215872981948405 0.03866461744869545 0.03634386229426867
-0.053921888451943456 0.03854372962927316 0.03636667442275199
-0.05571300029342319 0.03841902418352596 0.036423250920220474
-0.057483328097682196 0.03829620906165035 0.03647138288159252
-0.05923405278265076 0.038175157672027484 0.03651188722515519
-0.06095889365250551 0.038056623993678144 0.03653900118394582
-0.06270087128218166 0.03793553002825565 0.036590677940560645
-0.0644439630445392 0.037813760351403915 0.03665289953111506
-0.06614534682409151 0.037696404621776314 0.036687271380542785
-0.06783779741530716 0.03757958493402617 0.03672287085058923
-0.06951741880733742 0.03746377049387715 0.03675609683432529
-0.07116711753930843 0.037351015420871755 0.036771228562189284
-0.07282713362558613 0.03723651004325493 0.03680481832014543
-0.07447854484748162 0.037122519049249646 0.036839624964627504
-0.07611146519040352 0.03701023810726635 0.036866421664907945
-0.07774666994429147 0.03689716793175078 0.036904363158977826
-0.07935311459123473 0.03678706389314633 0.03692446302467817
-0.08070591673168392 0.03670725164341634 0.03671459956304213
-0.08132384441575335 0.03671650589885309 0.03581557993789797
-0.08149928570939202 0.03677977734118724 0.034494784615718754
-0.08160805171562507 0.03685149313075611 0.033105078175704905
-0.0816745480580145 0.03692872116579705 0.03166889370160708
-0.08173982260114299 0.037006457946080006 0.03022522638938585
-0.0818076284267199 0.03708424496074018 0.028777659767974417
-0.08189229316579372 0.037160314489747576 0.027340178604154497
-0.08195768446098317 0.037239123749798486 0.02587752811823163
-0.08201276707921784 0.0373195805415598 0.024398215034917514
-0.08206051091426486 0.037401327400611986 0.022904980810895093
-0.08208796205970903 0.037485987049320726 0.021384751223511078
-0.08209194337208997 0.0375739768111438 0.01983398005182324
-0.08209060267602675 0.03766304903626249 0.018270531952517655
-0.08208925560844987 0.037752544571044135 0.016699653672898218
-0.0821162643285423 0.03783889989531175 0.015150157435390887
-0.08211881370528851 0.03792874988483107 0.013568407598266385
-0.08209749993065185 0.038022044253723755 0.011954577197010596
-0.08210310512366192 0.038112376025005945 0.010360720420969471
-0.08208087506781542 0.038206675309180635 0.00873032511061883
-0.08209267451105684 0.038297097670282776 0.007127494604306894
-0.0820259692247936 0.03839797100404226 0.005434593294434409
-0.08200181981833876 0.038493890119262186 0.0037780240928437236
0.09751495120555115 0.047113582786357605 0.04118006375828159
0.09501020483923794 0.04695768514633683 0.04101723324710965
0.09271347287739917 0.046821662448353674 0.04074250922175793
0.0904070135887855 0.04668415802523122 0.04048301624120587
0.08829361072860581 0.04656519801077326 0.04011789012717004
0.08653129419817868 0.046480532862171894 0.03955033356957599
0.0848416186714947 0.04640274512581602 0.03894484561934819
0.08277744939116177 0.04628744206500454 0.038572192087371004
0.08063442349482292 0.04616384043899157 0.038255789554714426
0.07874316310152857 0.04606487413306754 0.03779345706855053
0.07692011450849018 0.04597234040254118 0.03729596753752584
0.07537423078826483 0.045907202994273415 0.036632835511153705
0.07424562445831218 0.045883681875717994 0.03571361697879222
0.07334462153373267 0.045882951793306544 0.034653060238776956
0.0724016180721429 0.04587798784165676 0.033619094804545335
0.07139086712360015 0.04586616628139669 0.032628534124210684
0.07029413491669023 0.04584560253511338 0.03169376447855221
0.06932921751942966 0.04583831485533184 0.030675749407201025
0.06832873885469987 0.04582738767821309 0.02968123976906778
0.06738169347914275 0.04582185323070474 0.02865278503712071
0.06653058933930639 0.04582607676945325 0.027562020110820373
0.06582913717386785 0.04584560254151508 0.026372587632516764
0.06513991779018846 0.04586645810741501 0.025173660401446085
0.06463100968020463 0.0459058875280771 0.023853377892281313
0.06449200482809164 0.04598348349663525 0.02228300114925713
0.06432251750842438 0.046058252249563544 0.020727477808502315
0.06494368718245586 0.046214890489541846 0.018632142129886176
0.06634377113253109 0.04645267887385166 0.015996021925597848
0.06942432521195185 0.046865493902108854 0.012194106416152983
0.07281725894774266 0.04731240055351428 0.008147310945252895
-0.046834064745064796 0.037880294498438695 0.03630152635627515
-0.04862092038476312 0.03776183666010678 0.03631647316067349
-0.050401845917273036 0.037643527685213146 0.03633579232128298
-0.052158729819462346 0.03752742281785393 0.03634386229424991
-0.05393555038189829 0.03740853751881342 0.03637850674410026
-0.05572739034799068 0.03728741348164966 0.03643577956827532
-0.057494237865502895 0.03716860430036398 0.03648093147224574
-0.05925069371029912 0.03705045462988024 0.03652652858666311
-0.0609770445365449 0.036935229805782614 0.03655505506632223
-0.06270414329981444 0.03681940303849157 0.036593587146899365
-0.06445531593903242 0.03670028302682823 0.03666304659401598
-0.0661582121522371 0.036586201364017495 0.036698830580552066
-0.0678497570949626 0.036472919005988945 0.0367336726957902
-0.06953164984325455 0.03636024430257009 0.03676901749655037
-0.07117652671227748 0.0362513623485315 0.036779816086201844
-0.07284579385779072 0.036139144438312946 0.0368219381813617
-0.07448240004560808 0.03603023005676592 0.036843180418466515
-0.07611987609701859 0.035920717256074326 0.0368742191543342
-0.0777550104794254 0.035810978679799294 0.03691213579028846
-0.07937492132343399 0.03570252741324218 0.036944891006802816
-0.08058484844837405 0.035641894352256495 0.036600594383773555
-0.08111341120399829 0.03566146503518194 0.03561639044651893
-0.08124449786976357 0.03572818412408462 0.03425235401835819
-0.08134836467157985 0.035798441718942586 0.03285669950366776
-0.08141212243592016 0.035873795464304956 0.03141658963307503
-0.08148742671429704 0.03594812263408735 0.029981303227234246
-0.0815547584852166 0.0360237484786514 0.02853200821901336
-0.08163671162106872 0.03609797594181596 0.02709060299950866
-0.08168725122913478 0.03617632186409081 0.02561207863450854
-0.08175164679599872 0.03625336770598119 0.024140576693685856
-0.08179202789556578 0.0363336721451996 0.022638703800138216
-0.0818219383077809 0.036415620737686276 0.021119545333382783
-0.08182148552408303 0.036501635841594646 0.019562956391704467
-0.08182943814968524 0.036587036951969 0.018007465378397425
-0.08183359765782827 0.036673305016178395 0.016440800389864507
-0.08185083044669 0.03675838765002515 0.014880015079347553
-0.0818442848862933 0.03684678488993032 0.013287563497432153
-0.08183153514460317 0.03693636528985256 0.011681087064143225
-0.08183187230549127 0.03702476593196986 0.010080371384849074
-0.08182135657363271 0.03711492825906939 0.008460697954282004
-0.08182089367387263 0.03720428271897097 0.00684366881863635
-0.08175886746675964 0.037301690801604295 0.0051542135077259355
-0.08164726543540901 0.037405723069118275 0.0034039229620709266
0.10102825270204863 0.04593219877682695 0.040768950292602246
0.09778361243200245 0.045711440769800465 0.04102340039180491
0.09547772770115276 0.045579258632636 0.040743020753063575
0.09316501727293458 0.045445918269911734 0.04047612911279114
0.09097179869355138 0.04532349154037555 0.04014789913075062
0.0887781621660208 0.04520055356528089 0.03982871533944249
0.08676149438251246 0.045094128581107444 0.03941215885641569
0.08529830974428348 0.04504052339965532 0.0386691416352391
0.08357435959665638 0.044961583148156785 0.038088328626149304
0.08115310699643258 0.044815013830652076 0.037939048651174034
0.07922905194291485 0.04471597141294704 0.037495040911808664
0.07740164224152557 0.04462591055074113 0.036998536786360225
0.07593537908149395 0.04457057020614194 0.036284243938931315
0.07483428108049844 0.04455054498669633 0.03534585103070009
0.07390881331322324 0.04454756404772896 0.03429857177941631
0.07290648109343628 0.04453706296233934 0.03330008028614284
0.07176123224786429 0.0445125324315991 0.03239317868793373
0.070582603397989 0.044484631706124655 0.03150941345379238
0.06929901884036876 0.044446307607388734 0.03069515755080976
0.06815665182985214 0.04442173578173418 0.029792461311358154
0.06709416123739037 0.04440494655121437 0.028839667262257895
0.06600538710590037 0.04438549257230554 0.02790529705955075
0.06513372915069654 0.04438746538878378 0.026829665744398323
0.0644154175661864 0.04440466449142678 0.025652530776026583
0.0639493355509338 0.0444470141036408 0.02430646436018785
0.0636230694383878 0.044503464409977635 0.022863782630842655
0.063479549402714 0.04457838636140401 0.02129404787026029
0.06384363485656858 0.04470439019976657 0.01937562211531818
0.0647194582023623 0.04488219873138429 0.017099936328151155
0.07043840995152734 0.04554718566981948 0.011501085963885715
-0.046839364224137925 0.03673182775757202 0.036306020389193394
-0.048630554110135615 0.036616483669387946 0.036324685918395105
-0.050411398315033384 0.03650176641462712 0.03634397879410206
-0.052165619063240964 0.03638947046921572 0.036349797608046075
-0.05395091869733165 0.03627325143636125 0.03639181693141563
