# .PCD v0.7 - Point Cloud Data file format
VERSION 0.7
FIELDS x y z
SIZE 4 4 4
TYPE F F F
COUNT 1 1 1
WIDTH 759
HEIGHT 1
VIEWPOINT 0 0 0 1 0 0 0
POINTS 759
DATA ascii
0.00923484712522904 0.0 0.041260191944451685
0.0068369501170568725 0.0 0.04144577663723842
0.0045587001601375965 0.0 0.04155750853806045
0.0023904296041496464 0.0 0.04160106610584097
0.0003250850956582618 0.0 0.04158036182370983
-0.0016676608119134406 0.0 0.041516491198735905
-0.0035606715058411065 0.0 0.04138862229860513
-0.005376190458969976 0.0 0.041212116558924705
-0.007138881877638725 0.0 0.04100449034082437
-0.00882267684915694 0.0 0.04074560239456271
-0.010446675293152685 0.0 0.04044894269216426
-0.011994473912262715 0.0 0.04010138889452358
-0.013519540116939177 0.0 0.03974280239734507
-0.014946000431243112 0.0 0.03931479580658476
-0.016312858884733217 0.0 0.038846237473695255
-0.017643140981188965 0.0 0.03835425576044066
-0.018944369601798683 0.0 0.037844283340936036
-0.020221918010497164 0.0 0.037320192105191885
-0.021502852195399214 0.0 0.036803018140252886
-0.022769335303461313 0.0 0.03627871492949253
-0.024002894546680476 0.0 0.03573242798388504
-0.025181488509054162 0.0 0.03514613211346862
-0.026300951909424775 0.0 0.03451579775720581
-0.027375561666906634 0.0 0.03385222851375025
-0.0283826401805658 0.0 0.03313643068892408
-0.029301700039424006 0.0 0.03235080240968424
-0.030110477095546928 0.0 0.03147591812946232
-0.030507439044714146 0.0 0.030261313126267675
-0.029355863800939574 0.0 0.027757788660298766
-0.0295461779568415 0.0 0.02635739915417412
-0.029696326081500413 0.0 0.024918177426499877
-0.029785716519017624 0.0 0.023422183840154986
-0.02981404220598821 0.0 0.021868307448421997
-0.029750631298300856 0.0 0.020229538313342343
-0.029553592987497934 0.0 0.018468691283737404
-0.03118888248909324 0.0 0.01827763787808334
-0.03103971536042177 0.0 0.016548886887609915
-0.029857976155186816 0.0 0.01391266929886159
-0.02974357442986264 0.0 0.012192630395945148
-0.02959884928569395 0.0 0.010437636021775887
-0.02942750157080931 0.0 0.008650482996799602
-0.029138443612362064 0.0 0.006749754608749048
0.026579972153619957 -0.0012935135023669495 0.03679642176834247
0.021775690059993524 -0.0012809418925940062 0.03858115494902986
0.018043265205027748 -0.0012717177328668526 0.03964351814158834
0.014793027748525922 -0.00126398796094481 0.04038778572807078
0.011880714060538866 -0.0012573024413559113 0.04091094100501552
0.009179801507300467 -0.001251263946306967 0.041299503227444856
0.006670202908384826 -0.0012458122476371872 0.04156551360412025
0.004296737697648656 -0.001240774199633624 0.04174664738628325
0.0020654710037695256 -0.0012361718325945156 0.04183697185850738
-5.970324738385768e-05 -0.0012318917051348222 0.04186122712496321
-0.0021038525192838553 -0.001227855017620064 0.04183661368391928
-0.004055033698811217 -0.0012241018638384814 0.041753412837616244
-0.005933232866357441 -0.00122056932218808 0.041625395337244464
-0.007728489206587308 -0.0012172910811398545 0.04144430659774889
-0.009435234258310388 -0.0012142868340344263 0.04120501809204519
-0.011092329920133759 -0.0012114317227563262 0.04093580599155011
-0.01268940588300388 -0.0012087605345155192 0.040628247342434975
-0.0142183688924849 -0.0012063009011799562 0.04027548008930382
-0.01568241705755108 -0.0012040436773543025 0.03987915631449257
-0.01710073535654799 -0.0012019271290000092 0.039453292037463006
-0.018467023391117554 -0.0011999728874858622 0.038992473245871406
-0.019841821767452528 -0.0011979822867435664 0.038543233151006495
-0.021234844636641825 -0.0011959229839439516 0.03811331641731025
-0.022592555193975572 -0.0011939718881093361 0.03766084064198405
-0.023913510845623098 -0.0011921344809206569 0.03718425029663086
-0.0251777626664883 -0.0011904778578580289 0.036667236884099175
-0.026401632113098095 -0.0011889487665628124 0.036122162098296384
-0.027556668635224657 -0.0011876430846054847 0.03552565492343629
-0.028670684371395527 -0.0011864691315702784 0.03489933983329657
-0.02943909313475157 -0.0011864498001731897 0.033995134528743254
-0.028526722611869393 -0.001192082438590721 0.031717528962307284
-0.028846527243425568 -0.0011935869979250206 0.03043758008968761
-0.029133260071156297 -0.001195209785155957 0.029126415558654417
-0.029362646540483983 -0.001197033734184582 0.027763420116830084
-0.029547148003468027 -0.0011990178908653202 0.026358208824559914
-0.029678841037495796 -0.0012011902410963902 0.024903505731839082
-0.029754578480316096 -0.0012035627434786617 0.023395917437327718
-0.029791616771251583 -0.0012060777951227568 0.02184929036381389
-0.029763337721917527 -0.001208827422268807 0.02024037054849931
-0.029646734950581233 -0.001211892076018735 0.01854851460854312
-0.029443997702687796 -0.0012152663197835419 0.016774361309831842
-0.02913056063202013 -0.0012190368293249322 0.014895406572263736
-0.030709387080120998 -0.0012162914020528094 0.014653947087525654
-0.02951016705956283 -0.0012231457570144944 0.011988344523774286
-0.029147196717490886 -0.0012271308093599969 0.01004025381648116
-0.028927529283486852 -0.0012306356257163766 0.008208273335014504
0.023139144053987537 -0.0025705128087115513 0.037628575783095475
0.01876366416568831 -0.00254800401710111 0.03913743464409536
0.015192785595048441 -0.002530516242349937 0.040105407495661216
0.012051249972609313 -0.0025156907962397596 0.04078981654836167
0.00921237765993349 -0.002502735751641546 0.04127623869880159
0.006580218711458474 -0.002491049152217447 0.0416301289874485
0.004118629572935406 -0.002480407262423308 0.041875242778337984
0.0017998052623339755 -0.0024706380354583397 0.04202983358494794
-0.000401688223657215 -0.0024615832552242504 0.04211084932667991
-0.0025016619893264425 -0.0024531454313937192 0.04212856732271536
-0.004493033532476376 -0.0024453741612467956 0.04207661351453196
-0.006426653673053673 -0.0024379444153118253 0.04199147222023325
-0.008258912001258278 -0.0024311412364873154 0.04183997428484437
-0.009998177880097991 -0.002424914145353853 0.04162722364010024
-0.011680246968630903 -0.0024190335765834807 0.04137913160564022
-0.013323548316636125 -0.0024133814069756923 0.041109018572433154
-0.0148871679923549 -0.0024082267235380843 0.0407852678561636
-0.016365471913206586 -0.0024036096048104584 0.04040262247684595
-0.017835110413071842 -0.0023990299153861514 0.04001912404987629
-0.019300155925710993 -0.0023944610831314007 0.03963785630642841
-0.02079232497686373 -0.0023896939376421137 0.039283499945287736
-0.022232282764823974 -0.002385251712436931 0.038894313193262475
-0.02363458365482396 -0.0023810400564974765 0.03848113338443576
-0.024998830508941194 -0.0023770630825947813 0.03804320532894023
-0.026291680593692635 -0.0023735441456634843 0.037553549462424174
-0.027542142317223406 -0.0023702927663200824 0.03703449090413452
-0.028552012098948087 -0.002368635101165269 0.036326117885384535
-0.027740619680675538 -0.002379166502266079 0.03414737921814576
-0.028140029492893015 -0.0023816176283618495 0.03293923238656682
-0.0284715826604377 -0.0023845357217673214 0.03167247130528428
-0.02876136111880706 -0.002387748022703892 0.030367615900251443
-0.028993799409051668 -0.0023913615875397094 0.029011238737260858
-0.02919203008868232 -0.002395222441480884 0.027621763618660977
-0.02934817705306736 -0.0023993856349390098 0.026192133419760677
-0.029451377882613705 -0.0024039270034462604 0.024712641473553787
-0.029529637810882026 -0.002408658207072133 0.023206169383758413
-0.029584778594777983 -0.0024135680552488004 0.02167388867602582
-0.02957264534106996 -0.002418959916774664 0.02007780515840263
-0.02952220779653031 -0.002424638277340893 0.018441793951860685
-0.029344638675549373 -0.0024312156436210345 0.01668876018676335
-0.02910291120868358 -0.0024382641444359253 0.014871459965664746
-0.02866243758662418 -0.002446716192641112 0.012871778043636983
-0.02957943022609799 -0.0024458122152451784 0.012048965944455148
-0.028657515569972036 -0.002457657748908017 0.009609412528305938
-0.02838812959998044 -0.0024650205562735694 0.007731191389357461
0.025799352495052275 -0.0038810230918009483 0.03577001718913958
0.019862085695917298 -0.0038324548091548645 0.0383657885978127
0.015793352711036546 -0.0038014989525947977 0.03968118297541412
0.01238023143669087 -0.003776678454115511 0.04055615490723102
0.00935622673663744 -0.0037554804166220184 0.04117350769176753
0.006584661400084513 -0.003736616336975395 0.041626938804745495
0.004012062967461594 -0.0037195867369882434 0.04195218466087647
0.0016181878563327201 -0.0037042080204803965 0.04216167989032327
-0.0006623510900649054 -0.0036898594270687425 0.04230111276844728
-0.002835734910968668 -0.0036764875878743807 0.04237374450536585
-0.004879285887865403 -0.003664318340796797 0.04236162965638163
-0.006876862251218696 -0.003652544890039561 0.042325489251442305
-0.0087400042114254 -0.003642030487495867 0.042198843933714925
-0.01051607619796846 -0.003632321172382454 0.04201564538371816
-0.012244787134867485 -0.003623033987571317 0.04180482961272325
-0.013881225061653402 -0.0036146113658309634 0.041531817805576354
-0.015497937980836152 -0.003606346880078236 0.041250823310041096
-0.0170379525402658 -0.00359880176102544 0.040917984969607746
-0.01860748124598538 -0.003590933949703295 0.04061423160266464
-0.020169170301008343 -0.00358311026004848 0.04031103510321027
-0.021711256896497555 -0.00357544737467285 0.03999917852435475
-0.023198769163301547 -0.003568293127242876 0.0396510746804018
-0.024641392684918717 -0.0035615545125122984 0.039273701122700067
-0.026032104491036656 -0.0035553041337326174 0.03886096982420595
-0.027355345958488875 -0.0035497004044781175 0.038399877516694436
-0.026789393028911812 -0.0035629679941760434 0.036432343850283766
-0.027240423113544743 -0.0035660990699058256 0.03527132781303377
-0.027645796069086126 -0.003569702242188797 0.034070713990433044
-0.0279793953605888 -0.003574043468245609 0.03280866609332189
-0.028268287372057554 -0.0035788544810034404 0.03150634839185418
-0.028495922273355734 -0.003584305654321997 0.030149557209075195
-0.028661168718273955 -0.0035904126203053937 0.028736527968764802
-0.028705452333365467 -0.003597774430402393 0.02721777619436916
-0.02866707246207084 -0.0036060095487485096 0.025623634749816215
-0.02870863068115176 -0.003613465408895793 0.024089402541631
-0.028769933828250438 -0.003620752115290319 0.022565323278179228
-0.028968685984723686 -0.0036266628805121195 0.0211514334625848
-0.0291229711463179 -0.0036330561370022463 0.019694457588031178
-0.02916775712496117 -0.003640604154223296 0.018138027205405582
-0.02909648933416259 -0.003649382171132991 0.016474971234483993
-0.028902323606961655 -0.003659469085580827 0.014697735098834597
-0.02853737460402006 -0.0036713695556965104 0.012762892418055338
-0.02794353868748123 -0.003685698794541108 0.010617179410405353
-0.02949869192470117 -0.0036777357930731064 0.010349513522780351
0.021816388015691968 -0.005134726928817104 0.036992882462241194
0.01675455029303824 -0.005080881415001132 0.03900221875604215
0.012915282462949207 -0.005042385310798384 0.0401761307583533
0.009632983137603801 -0.005010839027593389 0.04097585982063867
0.006689093758218467 -0.004983490560061229 0.04155194856108946
0.004001080055298312 -0.004959308247850224 0.04196011440522596
0.0014888764260967968 -0.004937283614348138 0.04225555434153794
-0.0008721311021361866 -0.004917113336511246 0.042454235718642486
-0.003117053182079499 -0.004898356237099359 0.04258020488174108
-0.00524470487491957 -0.004881036428407704 0.04263127282721457
-0.0072580141280230714 -0.004865124972706987 0.04260827199816131
-0.009174215024798149 -0.00485040707918237 0.04252274251040716
-0.01099341584537783 -0.0048368888211060895 0.042373648280709775
-0.012738120193171054 -0.004824284542834347 0.042176833080869724
-0.014448385615684234 -0.004812077008244814 0.04196180713085462
-0.016084510461617352 -0.0048007881518305155 0.04169793437095165
-0.017718983612134087 -0.004789473381970815 0.04143990018429755
-0.019386533119630234 -0.004777676255352956 0.041214486861231525
-0.021009360419083967 -0.004766418039850737 0.04096188529491235
-0.02259513669463531 -0.00475560094712376 0.04068755796191886
-0.024105519810856624 -0.004745734763534886 0.040361062911575374
-0.02558543359773946 -0.00473623029846487 0.040016857320884724
-0.026891833347780614 -0.004728989331626045 0.03954138542237551
-0.02620154273374864 -0.004748287774784499 0.037481829349927054
-0.026680904997044785 -0.004752070759094954 0.03634556097345987
-0.027090324141306688 -0.00475680473773902 0.03515061705108874
-0.027425959092140018 -0.004762547295018252 0.033892975011556914
-0.027689693228790502 -0.004769279678321413 0.032573191023662296
-0.027740569958535855 -0.004778904317727333 0.03107512366992099
-0.026622735007283016 -0.004804325085683149 0.028610729073828778
-0.025590740684268365 -0.004828696568544892 0.02620074378462578
-0.02534682530635851 -0.004842504436255074 0.02442923301299421
-0.025436376819892914 -0.004851847923375593 0.022927064795873753
-0.02576576604454539 -0.004857970932797332 0.021620045795080034
-0.02626677255483062 -0.004861781998980002 0.020453788798458383
-0.02686375717584566 -0.004864298955316299 0.01936642417636142
-0.02753560684928491 -0.004865802252024727 0.01834122839751129
-0.028202930939616844 -0.004867374258018832 0.017311164302538706
-0.028573449943293694 -0.004873033746739945 0.0160243553160625
-0.028569816452836738 -0.004883873611946145 0.014409757374515886
-0.028284994978612976 -0.004898644573512388 0.012543159025933226
-0.027785712077640856 -0.004916449369056139 0.010479044326660636
-0.027228539989189227 -0.004935136506374089 0.008352141989885209
-0.0287339339121907 -0.00492523382095469 0.008037044357259548
0.01831221406802247 -0.006375847781820999 0.03790192679856169
0.013732623774638408 -0.006315993003326203 0.03959560774078352
0.010100754839884374 -0.006271010575044152 0.04064179679334362
0.006920377245549891 -0.006233060164464825 0.041385869719449686
0.004073578796926047 -0.006200296556462026 0.041907769774018944
0.0014367417987704578 -0.00617076772985435 0.04229340180421476
-0.001021526129673933 -0.006143988844152529 0.042563282367725996
-0.003340531958483439 -0.006119343480852468 0.04274421666848377
-0.005528314682492319 -0.006096715095466658 0.042840548892505326
-0.007590366826885797 -0.006076027385907827 0.04285484984490273
-0.009533907747790171 -0.006057175408275968 0.04279105448568643
-0.01142125766983676 -0.006039157857297657 0.04269452800113893
-0.013209752353014026 -0.006022674793290508 0.04253247273687477
-0.014952079313029498 -0.006006876018386257 0.04234367944466261
-0.01667624683009472 -0.005991307794684242 0.04214898157169461
-0.018435382457215654 -0.0059751008883894815 0.0419889198582582
-0.020143452778690396 -0.005959664206049353 0.04179768936806566
-0.02181913170688754 -0.005944695300575364 0.04158917165137288
-0.023420038528273956 -0.005930896129878 0.041330004436521184
-0.024980556995992165 -0.0059177058562763065 0.041046219415141805
-0.026261258647103103 -0.005909094064810315 0.040548871948113574
-0.025554083771275826 -0.005933441325141308 0.03848264966963377
-0.026056063064005874 -0.00593777962917869 0.03736607534504527
-0.02645887991348911 -0.00594378953146163 0.03616795635526904
-0.026780041405130073 -0.005951189337916509 0.03490108525920638
-0.026891212950249876 -0.005962136525192427 0.033460630851180284
-0.024470496819447296 -0.006015609739475359 0.029956570655587766
-0.022852621316231114 -0.006055815330360517 0.027080932384787704
-0.02226004539138049 -0.006078918595853878 0.025026768383996978
-0.022234354490571095 -0.0060925493032297755 0.02342879442395729
-0.02247662092048236 -0.006101704537683333 0.022046208996028605
-0.022912018747456908 -0.006107624104436767 0.020820054763033113
-0.023506222757582518 -0.006110870234724879 0.019724063767778965
-0.024209516947664877 -0.0061122722625102845 0.018718396758697964
-0.024952215484264795 -0.006113007729453963 0.017745409890232766
-0.025752085015563753 -0.006112768255907682 0.016820774767659474
-0.026559871120474532 -0.006112391978137686 0.01590305035178069
-0.02749885741234326 -0.0061097593291922145 0.015098557931168266
-0.02805299585672666 -0.006113743373950571 0.01396214950412139
-0.0278848242111136 -0.0061302132748878675 0.012194751819809002
-0.0274716398157121 -0.00615099513505393 0.010204157865833008
-0.0266740774115517 -0.0061785341697945095 0.007864303378158466
-0.028146866783843427 -0.006166743865541209 0.007517802065527879
0.022217601130279874 -0.007725469420209424 0.035143266011516294
0.015026166501675153 -0.007603902098031076 0.03867685896776141
0.01080280703883335 -0.007538651467404959 0.04014042041303556
0.007316865490885671 -0.0074872774247276815 0.04110116150586762
0.004258243670275608 -0.007443905305340728 0.04177444036063388
0.001481272579020032 -0.007405778966647313 0.04226107440244942
-0.0010838290903397718 -0.007371584137587076 0.04260875864093644
-0.0035042493648508866 -0.007340045809791565 0.04286436939516003
-0.005752581138076418 -0.007311711696237248 0.04300603541711823
-0.00785436615506524 -0.007286105752625515 0.043050715219567715
-0.009873269721772437 -0.007262006026203556 0.04304420078460636
-0.01178456037264608 -0.00723990427257869 0.0429670036289157
-0.013639501868600967 -0.007218811198166506 0.04285653030314118
-0.01544430468825031 -0.007198611526308681 0.042716857119787954
-0.017286106641244692 -0.007177600805467101 0.04261384324881723
-0.019108246977387555 -0.00715688822388031 0.04250457655148254
-0.02087159376475578 -0.007137246880174548 0.04235871806288022
-0.02256069337293687 -0.007118988777724952 0.042163619674651986
-0.024214931563885156 -0.007101343210882261 0.04194907958896904
-0.02555961508542709 -0.00708976223407482 0.04149962347917324
-0.024858418730903054 -0.007118795456681784 0.039444545679382326
-0.025351047403512628 -0.0071241737135689836 0.03832196050520931
-0.025771550331877835 -0.007131014661150124 0.037139696716045556
-0.02605775890026013 -0.007140571298712082 0.03584708745495396
-0.024444413211371363 -0.007188248496679137 0.033022754883687444
-0.02121634597133748 -0.007268570185604433 0.028872480685992463
-0.02056897286420095 -0.007297281176515249 0.02678534226511159
-0.020421119670839427 -0.007316037700839207 0.025094028799558632
-0.02041860235912102 -0.007331936758475807 0.023514018218107058
-0.020580652265882293 -0.007344570032714111 0.022063046098252104
-0.02083474596244117 -0.0073553890309525525 0.020683021246361732
-0.021195328489626908 -0.007364087892760949 0.019387182130571334
-0.021886862212790847 -0.007366074362970699 0.018365258868417
-0.02268511171862475 -0.007365888086100318 0.01743248912007933
-0.02364488333378395 -0.007362391965199809 0.01663677380765166
-0.02466611419759135 -0.007357618608590606 0.01589498387411359
-0.025818273531188873 -0.007350130112192411 0.015267495943380172
-0.026932183590706538 -0.007343397315414256 0.014610349492109709
-0.0275884594880359 -0.007346093070895853 0.01355982394613181
-0.027418814104869182 -0.007365908784389615 0.011789021835690361
-0.027042645843203372 -0.007390100033665932 0.00982868811216836
-0.02638963618695278 -0.0074201591370191495 0.00761404047905101
-0.026838757835470628 -0.007427370180863972 0.006360821108171433
0.017317286119673647 -0.008922280806595292 0.03704957345651644
0.011857752967808222 -0.008818652947845331 0.0393870220587792
0.007936597079678087 -0.008749025585516136 0.040656147875271775
0.004610474147240917 -0.008692454768666893 0.04152012733391547
0.0016366680182286486 -0.008643567310579307 0.04214826409983069
-0.0010763108458576864 -0.008600350783634388 0.04260327091232008
-0.003577557474734927 -0.008561732664848548 0.04291817045080515
-0.005904046987543821 -0.008526905563509553 0.043117802274808215
-0.00807425572942938 -0.008495474509978371 0.04321385485391743
-0.010137709403976514 -0.008466336265546017 0.04324145896899273
-0.012118499514316039 -0.00843895706119799 0.043217456698937395
-0.014008369620020444 -0.008413536192708494 0.04313467927472503
-0.015938235328301853 -0.008387094840607874 0.04309132763107543
-0.017874975158702344 -0.008360384915342594 0.04306270444876076
-0.019742003661756324 -0.008335161908689132 0.04299026254973809
-0.021541815185557756 -0.008311377887237537 0.042875120045662574
-0.02328166766630918 -0.008288874752845593 0.042722119765236655
-0.024766168216302786 -0.008272172296713513 0.042378391331985954
-0.0240762782374781 -0.008305712462030995 0.040338166679832144
-0.0245975662955516 -0.008311310128321646 0.039239200655125095
-0.025020255752333243 -0.00831922291087428 0.03806016191901418
-0.025259647312539935 -0.00833143810664801 0.036732390150776006
-0.021474432785154984 -0.008437629996600457 0.032180745473763706
-0.019643710308229423 -0.008498567041179643 0.02916199223708571
-0.01926877140578198 -0.008525645762162911 0.027297859712871186
-0.01911837693830659 -0.008547567074906644 0.02560627197461146
-0.019097731209141433 -0.008566528960266504 0.02401262082100275
-0.019158709620995695 -0.008583647459356487 0.02247901310786804
-0.019463265399279506 -0.008595081748219215 0.021140226246259164
-0.020050549614117286 -0.008599867122268194 0.02003193216668908
-0.020785244795804958 -0.008601173149401554 0.01904489691096567
-0.021668557690695034 -0.008598948304551697 0.01818207961588386
-0.022673974008097675 -0.008593801719271115 0.017423093936455802
-0.023755873338667077 -0.008586804526928477 0.016730894895528203
-0.02484907472061121 -0.00857950582903282 0.016050957849921166
-0.025960435181201835 -0.008571739019663524 0.015389329488521952
-0.026825419174138276 -0.008569865551071478 0.01451836837851378
-0.0272155548196662 -0.008579433627483571 0.013236858751390301
-0.026933545775620515 -0.008605287308902601 0.011366524750581974
-0.02652809491284741 -0.008634245735596641 0.009378336071232118
-0.02591961774359125 -0.008668261492290321 0.007200499233630198
-0.025627686101831526 -0.008694728279643769 0.005289666495586487
0.013655803352202622 -0.010124351873974915 0.03810292951596128
0.0088423630167348 -0.010022051612937857 0.04000574019005909
0.005128975805105185 -0.009947522159567275 0.041145765276701995
0.0019315035069358277 -0.009885934263145034 0.041934226410737796
-0.000938782166988672 -0.009832511478650927 0.042502885766771914
-0.003572246244593291 -0.009784974293316734 0.04291427252206509
-0.00597027505936637 -0.009743323543424477 0.04316667205967717
-0.008221052537365714 -0.009705312486470642 0.04332276578177602
-0.010354352912043396 -0.0096701912896977 0.043403063705105716
-0.012387466879124232 -0.009637528460401295 0.043419181186564015
-0.014367383045056858 -0.009606115047706427 0.04340539747813088
-0.016433852193895315 -0.009572309760561821 0.043467076544004
-0.018423142869989473 -0.009540381836599708 0.043480541723745214
-0.020334087397385958 -0.009510373760698323 0.04344401205216197
-0.022179217441487487 -0.009481968395266108 0.04336623503926906
-0.023833630824391605 -0.009458464945680561 0.04314969600009322
-0.023235424668920313 -0.009494305527426524 0.041186224269878446
-0.02377969463264923 -0.00950008589893987 0.04010594090800024
-0.024240713136295944 -0.00950809714052896 0.03895828312968619
-0.02446920257117785 -0.009522317992668684 0.03762404165046912
-0.01982186415992182 -0.009666366998321381 0.032405701901431494
-0.01860813191426547 -0.009719454126692784 0.029887904216182093
-0.01819807840962573 -0.009751287959724072 0.027999403810459178
-0.018020307734493368 -0.009777036831780425 0.02628847238785731
-0.018000276112395297 -0.009798662425199053 0.024697459643015562
-0.01822306691786124 -0.009813849083955837 0.02329788817029277
-0.018770231715936447 -0.009820356305906427 0.022159877514190796
-0.019520472964463964 -0.009821404885867994 0.021187472440405752
-0.020378899007949647 -0.009819528638572092 0.020304548463740635
-0.02134772808537644 -0.009814648236556187 0.01951438574750325
-0.02236418078828678 -0.00980845133416429 0.01876577672778218
-0.02337834214537099 -0.00980228974195188 0.01801726164912476
-0.024426406011258672 -0.009795175044107542 0.017299516049005703
-0.02546694186534515 -0.009788235130324039 0.016577690029597858
-0.026329326712722534 -0.009786152333654381 0.015705472154661726
-0.02680445789425079 -0.009794708418243358 0.014500309535236067
-0.026708788556909946 -0.009819032107098993 0.012797958735857984
-0.02648110633546369 -0.009847109739373326 0.010972610016953432
-0.025953502367652426 -0.009883614056490716 0.008875433617521022
-0.025342788646185832 -0.009922586703773687 0.006692981652766883
-0.02465982961029467 -0.009963742153913472 0.004433628065794448
-0.025919502822942253 -0.009950948915719455 0.0038877397911173395
0.010323217740015489 -0.011317415520153643 0.03894237574533832
0.005934845707847358 -0.011214196828702715 0.04056392120723529
0.0023838814037885903 -0.011134745670062498 0.04160581981333783
-0.0006957161283309143 -0.011068612340651285 0.042325466628675534
-0.0034659904093821137 -0.011011178632431512 0.042836291025722395
-0.005961866434851137 -0.010961483432626725 0.043160467324135365
-0.008301169654791607 -0.010916142624799882 0.0433822059679686
-0.01051100456511822 -0.010874392206998155 0.043519917652323825
-0.012621345290790065 -0.010835377846830028 0.043594589094485714
-0.014767153400476962 -0.010795160417796964 0.04370684891377935
-0.01689208417566379 -0.010755387522161354 0.04381448233458868
-0.01893493720201911 -0.010717863558390968 0.043870653626807865
-0.0208907976501303 -0.01068274772695263 0.04387065271964863
-0.022757790984236026 -0.010650110695878252 0.04381202282728586
-0.022309923746113347 -0.010685912084928974 0.04196936190348821
-0.022927313308308717 -0.010690240708657876 0.04094626231399734
-0.023427842731927884 -0.010698064359185792 0.03983043990968088
-0.023699204500901627 -0.010712753666800749 0.038532003406743454
-0.019300681891656235 -0.010867029353387766 0.03353351699002255
-0.01777843790112399 -0.010935845554730308 0.030779806176243263
-0.017277848286409436 -0.01097430156827097 0.028823769875921
-0.017096556165530408 -0.01100332153849965 0.027113551046768936
-0.017238604634839616 -0.01102272270280916 0.025656462647517697
-0.017711477352484406 -0.011032216818418688 0.02446271885016915
-0.01845747172056128 -0.011033486000580371 0.023489432249138964
-0.01933121397501464 -0.011030886039583725 0.022620725876380143
-0.0202248946467512 -0.011027668737353408 0.02176923541974457
-0.021177908452316707 -0.011022630008680425 0.020967936306459656
-0.02214825209306792 -0.011017040248565996 0.020182560415017092
-0.02313575249309824 -0.011010901140083414 0.019413202290964382
-0.024135210053633782 -0.011004368506745042 0.0186557153923419
-0.025113461913244095 -0.010998458845061374 0.017882149133804537
-0.025904974333836372 -0.010998274270721663 0.016951113020064357
-0.026398221855280624 -0.01100729490838732 0.015764515781829302
-0.026391717452168395 -0.011031814459445597 0.01414471984806226
-0.026178491280267446 -0.011062851370093366 0.01233867898489499
-0.025889500129459342 -0.011096380103133676 0.010457530250763347
-0.025366924858493012 -0.011137331748444515 0.008362041525829533
-0.02468563708453836 -0.011183419255150215 0.006114793117673878
-0.023911513342580293 -0.011232616492545575 0.0037717660145466514
-0.025344165942126573 -0.01121285377328302 0.003376198018296639
0.0134176338107308 -0.012673831881710057 0.03672035357460074
0.007138782669858068 -0.01249878675454545 0.03969466975737468
0.00307265953082142 -0.012394050132953248 0.041105796972619735
-0.0003003431508885046 -0.012311176285897233 0.04203687537474399
-0.0032415952304022944 -0.012241876095354279 0.042671606688206576
-0.005874604820318596 -0.012182244673568024 0.04309607685930422
-0.00830741110859362 -0.01212884533623893 0.0433868366035684
-0.010599578099371731 -0.01207978506413908 0.043585988880385784
-0.0128070120501389 -0.012033273907246799 0.043733838448866136
-0.015095428792048615 -0.011983930262011422 0.04395438874942653
-0.017297219572151468 -0.011937207023930953 0.04412163327190971
-0.01940471858030479 -0.011893371457815225 0.04422874142895222
-0.021386943761985855 -0.011853457326297556 0.04425087943056244
-0.021314749551194445 -0.011880855312536857 0.042700167201471684
-0.022012663126926013 -0.011883020304971806 0.041739090055698924
-0.02255099637313196 -0.011890458374898534 0.040653180787834364
-0.022924280191701174 -0.011903383921265526 0.03943614906667475
-0.01954312371082817 -0.012040735413077045 0.035260304948176835
-0.017090000778131775 -0.012147865120436892 0.031783916635885534
-0.016594274764732186 -0.012190334274945393 0.029837601497657185
-0.016485052989268167 -0.01222009966485731 0.028189588801434518
-0.016862945243246996 -0.012233717976247421 0.026925679324484364
-0.017561308986562996 -0.012236664615637239 0.02591737026529417
-0.018375441028355366 -0.01223573935553879 0.025002400390849056
-0.019241403400724666 -0.012233067167067582 0.02413002267145814
-0.02013136767589091 -0.012229574527259823 0.023278054190388753
-0.021064377183412364 -0.012224612931246224 0.022462541537246805
-0.022005717258182955 -0.01221934778064459 0.02165523518856788
-0.022946246810182758 -0.012214087163499985 0.020848623955476764
-0.023893995129981027 -0.012208558153928427 0.0200494434376412
-0.024811871573373334 -0.012204022645775815 0.019226511267622537
-0.025536418168882247 -0.012206068322916963 0.018240821997606904
-0.02597288314736984 -0.01221798095268574 0.017009005331828475
-0.025991455424278775 -0.012244277625454748 0.015415914057460733
-0.025795407006252713 -0.01227806711475382 0.013630978466549426
-0.0255509283381688 -0.012313674494431819 0.011795159407375189
-0.025244351009011623 -0.012351583741981571 0.009895833543147048
-0.024643192941661785 -0.012399854056491013 0.007728607347389338
-0.023937053153989474 -0.012451980005614526 0.005456158684677692
-0.02335156638260355 -0.012500145624637903 0.003276510653264564
0.009169511009249565 -0.013820225130744362 0.038228468777598335
0.004124770645998865 -0.013670606402318982 0.04034201024955936
0.00032724901241393267 -0.013564500739002247 0.04157878233425166
-0.0028677238764959756 -0.013479320240781202 0.042397221309188604
-0.0056546947633200895 -0.013408282786887948 0.04293380492717186
-0.008228337327209512 -0.013344545293777115 0.043328170485272655
-0.010610904234083063 -0.013287359462467958 0.043594437585022905
-0.0130057342796972 -0.013229496222672747 0.043882879355617965
-0.01537878932865172 -0.01317217086033664 0.044168060021963385
-0.01765359615114709 -0.013118132442681419 0.0443918180082391
-0.019806142312228547 -0.013068265652676912 0.04453472405946368
-0.021708465500905272 -0.013027210554211504 0.04449728094486516
-0.02099775743628346 -0.013080394163249744 0.0424559264899908
-0.021622440730059922 -0.013085451387317575 0.04143680570797481
-0.022074574698129013 -0.013096790916332895 0.040282136121610634
-0.02064763982218748 -0.01317650450567363 0.037653533445359655
-0.016745024671942887 -0.013346768840638585 0.033057620069119
-0.016082003913235166 -0.013399460391818057 0.030986157220923904
-0.016204334522998354 -0.01342363749863443 0.02952733722000861
-0.016760618829669338 -0.013432003736003091 0.02841002229970019
-0.01751794006767249 -0.013433017396666849 0.027452431261206833
-0.018338577295790415 -0.013431703422387552 0.026545794461778294
-0.019203788256372367 -0.013428738538946335 0.025675695820222888
-0.0201172790859811 -0.01342397494960031 0.02484574521376004
-0.021012938622529287 -0.013419851736571342 0.024002266980254205
-0.02192518380400127 -0.013415094448870946 0.023173458643890033
-0.022811654866822184 -0.01341127607681178 0.02232437522856434
-0.023695616594256674 -0.013407534684364533 0.021474101644474997
-0.02454409293229559 -0.013405103898630802 0.02059494028927844
-0.025140757332973218 -0.013412099464658546 0.01950394190249949
-0.025514445089164117 -0.013427500433871186 0.018222188516427706
-0.025519001925842555 -0.013456863699064936 0.016622071268143412
-0.025379060949524856 -0.013491807489008042 0.014891087637130984
-0.02514874484500762 -0.013530322544147745 0.013073857399216793
-0.024829126670226187 -0.013572391927284605 0.011170021574504807
-0.024550165591530337 -0.013613104054950856 0.009291443563968493
-0.023898142911928377 -0.013668195928505416 0.007076514849455373
-0.023066084252272467 -0.013730400810182545 0.004689845001829784
-0.022905444748624104 -0.013767215356564331 0.002881930189748083
0.005821460498931674 -0.014978747428928987 0.039110287512172714
0.001205648294222983 -0.014831544178826747 0.040937619774711775
-0.0023049999186881 -0.014726479651654415 0.0419842364018605
-0.005335421999359435 -0.014639592980737675 0.04269821311753719
-0.008035715532594967 -0.01456516756087767 0.043185261258075036
-0.010568685139068001 -0.014496944518321007 0.04356294434633917
-0.01314013290153504 -0.014426935593735923 0.04398367780433421
-0.015611403169062954 -0.01436054903836862 0.04434346516442311
-0.017963487476900686 -0.01429855217193596 0.04462676023248824
-0.020165286664877546 -0.01424219332894272 0.04480847950792777
-0.019920128391717695 -0.014281842831680821 0.04312677028120515
-0.020608141003647662 -0.014284877988714676 0.04215572913417226
-0.02117022397997481 -0.014292900121671762 0.04108649766203171
-0.021384731069807705 -0.014314714386474374 0.03974487509372937
-0.017210587776230357 -0.014510706627454037 0.034962312315118094
-0.015895744228721476 -0.014593871735088873 0.032389060034478945
-0.016158716629320224 -0.014614537192928292 0.031046870000532023
-0.016826207497932066 -0.014619141996971724 0.03002214372804951
-0.017559358189063567 -0.01462113967274152 0.029048958210397213
-0.01839135799381819 -0.014619182761258257 0.02815484075668484
-0.019248490024167897 -0.014616207628739511 0.027281462143597945
-0.02011639976003987 -0.014612785686548536 0.02641748275863548
-0.020997017323636347 -0.014608836150897605 0.025564624043956652
-0.02184999446743041 -0.014605987296656355 0.024689910500064638
-0.02269059542032592 -0.01460362765908396 0.023805591574392382
-0.023518910459523257 -0.014601756764527496 0.0229115832587079
-0.02421512381510421 -0.014605254914897158 0.021907719576261753
-0.024724979575891592 -0.014616370621372827 0.02074672221229612
-0.024970891804823037 -0.014638325900403312 0.01936065232566969
-0.024967244580868964 -0.01467060276283024 0.017758154775897705
-0.024867159565736485 -0.014706981657294 0.016066375193233784
-0.02469100277315439 -0.01474665157503846 0.014301416886381257
-0.024454228639112174 -0.014788996916389642 0.0124755084728419
-0.024106435484194277 -0.014836118853454008 0.010544113347999595
-0.023660524861689514 -0.014887514704262188 0.008516881136345356
-0.023099727219719035 -0.014943909253218292 0.006377714953683611
-0.021938561045330096 -0.015025537950975647 0.003697804459962928
-0.02256780117338647 -0.015032861917721144 0.002583295135374586
0.0025767929596390293 -0.016124844240452407 0.03993679174424358
-0.0015345684132721527 -0.01598597067762729 0.041418814262902115
-0.00481267396928281 -0.015881509931082047 0.04231247663046289
-0.007737542701822586 -0.015791478238996202 0.04296404200870457
-0.010451245133345388 -0.01570997524997816 0.04347534023900518
-0.013188980924194238 -0.015627116178087853 0.04402031363318104
-0.015789440660901488 -0.015549722823845797 0.04447771638336995
-0.018211221155855495 -0.01547958640095301 0.044814578014781836
-0.020264813514159208 -0.015424810790997428 0.04488434320189466
-0.019519101837638053 -0.015489084381373475 0.0428194394284519
-0.020161271292663874 -0.015494366075183228 0.041811418436789094
-0.020627848729043052 -0.015507183860834122 0.040666348664264496
-0.018763144574491852 -0.015620025170813399 0.03770314244979578
-0.016229943296850347 -0.015762073170882965 0.03419446501200074
-0.016328522596015638 -0.01579139043553018 0.03272974646207655
-0.016960740622039783 -0.015797803026885795 0.03168161621205201
-0.017719513156887357 -0.015798769759712252 0.03073292144558576
-0.01850677000289591 -0.015798506094161533 0.029806821739915945
-0.019327383426070543 -0.015796792480024014 0.02890759969595269
-0.020169009080546696 -0.015794156876095335 0.028025705079384344
-0.0209771366510344 -0.015792971141488553 0.02711710508487586
-0.021798199032255328 -0.015791214824621688 0.02621931034132846
-0.022577996701032055 -0.015791258728258286 0.02528796619896828
-0.023292790093905225 -0.015794156877952315 0.024302928008310687
-0.023852011023132558 -0.015803913010342587 0.023188144275425704
-0.024238111534809315 -0.01582134579890676 0.02192690677342668
-0.02435901995582851 -0.01585057453525374 0.020439645615728586
-0.02433797517365205 -0.015886218434291517 0.01882675732509692
-0.024285661051556995 -0.01592340675878522 0.01718016234022607
-0.024159486031379518 -0.01596404438967618 0.01546308300262561
-0.02398005573662837 -0.016007235474278115 0.013692130219688348
-0.023676779587979147 -0.01605615104090162 0.011805710128169944
-0.022355097937212076 -0.0161508880274367 0.00902731530309403
-0.02263206605985818 -0.016174298126584795 0.0076214572651840395
-0.022193646753024876 -0.016229990325707176 0.005584683276244173
-0.02051318751306269 -0.01634192201087576 0.002443703149580312
-0.022289570429563144 -0.01629817108413851 0.002337208849706174
0.005317560132942101 -0.01748864565629954 0.03793624673888024
-0.0003282212769387671 -0.017270100402944 0.040533472252149705
-0.004104929821648562 -0.01713516972128544 0.04179023125496939
-0.007296714342411803 -0.017026183685467405 0.04263698431361734
-0.01021923817662801 -0.016928970312378586 0.04330227517303009
-0.013163540855738898 -0.016830359684165824 0.04400123367982689
-0.01589396980793395 -0.016741088808079122 0.04455653778924168
-0.01840797434769159 -0.016661333025454195 0.04496374525076585
-0.01834450729846876 -0.01669926908277926 0.04342060227046379
-0.01906949538694991 -0.016701184101641807 0.04247487886883888
-0.019641837514156546 -0.016710126665069415 0.04141119751752281
-0.019841541134289153 -0.01673627918969087 0.04005723837151959
-0.01707240720668085 -0.01689964419856863 0.03638636969316689
-0.0166792956572272 -0.016953745053257602 0.03454630913626783
-0.01723566730579501 -0.01696404222739981 0.03344385768815539
-0.017947719979214405 -0.016967147939007235 0.03246274173136565
-0.01870349617370387 -0.0169682304999793 0.03151584853865397
-0.019465420367699382 -0.016969030742662407 0.030573675328225747
-0.020234461855256736 -0.016969501509117902 0.029637079230011798
-0.021019615121414537 -0.01696921904690756 0.028713423093113977
-0.021748617061440767 -0.016971573190677647 0.027744178148694232
-0.02242979057569383 -0.01697618920725312 0.026735415894634018
-0.022963399215900404 -0.016987787420223617 0.02560457535172933
-0.023378796466746454 -0.017005025381782942 0.024373958365502102
-0.023622007543281864 -0.01703049754526228 0.022997180935265316
-0.02365952561228485 -0.017065848984906457 0.02144397752621302
-0.023658015771059138 -0.017103212375779983 0.019851433235353266
-0.023623264032073765 -0.01714232495943314 0.018223864800948286
-0.02355301248388314 -0.017183306185400222 0.016558866032569397
-0.023394319802145624 -0.01722870464596343 0.014810778248805279
-0.0189680621353987 -0.017479200312628628 0.009396816057185564
-0.019872289686232225 -0.017474306735103563 0.008528014908402715
-0.0207780802075494 -0.01746931611235098 0.007661492127969682
-0.021582220443409184 -0.017469216329475082 0.00670741304257777
-0.02114615363651612 -0.017529191440040517 0.004667882557294778
-0.0203347461997202 -0.0176076558566492 0.00228670326160485
-0.021702743160371296 -0.017580429331690316 0.0018181787058049181
0.0015938722119128723 -0.018596614353979492 0.03912284171055769
-0.0030372656426436717 -0.01841084034489019 0.04100240039557029
-0.006625130051867212 -0.018274946628965175 0.04213872505821031
-0.009887740961090297 -0.01815431098857559 0.04305499557292963
-0.013045453127616735 -0.018038285622052567 0.043912668338572824
-0.015921097453578947 -0.01793555548332236 0.04457699370252932
-0.018551926714922007 -0.01784438036728571 0.04507288186264358
-0.017858005530226373 -0.01791594310870776 0.04304976945975303
-0.01854205186426716 -0.01792005814941756 0.04207066706302143
-0.019070134177599896 -0.0179318748949169 0.040970703186249624
-0.018723162803566895 -0.01798694665325908 0.03919089070176457
-0.017490508864168086 -0.018086074468352868 0.036711993815849775
-0.017640371710600344 -0.01811707290195986 0.035298834308427895
-0.01828565673655802 -0.018123586054644664 0.034270417366769834
-0.018954570553536998 -0.01812895039494948 0.03325959393705957
-0.019665102979296134 -0.01813226082433827 0.03228097152158177
-0.020357830510021102 -0.018136475846919603 0.0312875413475891
-0.02103885644233633 -0.018141295415713212 0.03028397961888879
-0.02159815548199634 -0.018152249371021188 0.029181175035288998
-0.022089108871996554 -0.01816669059110607 0.028020935976851902
-0.02250783400356987 -0.018184837533628352 0.026799189146420377
-0.022751279596502028 -0.01821192358815139 0.02543031854127581
-0.022828045096374594 -0.01824757132195086 0.02391910757632404
-0.02288300801496096 -0.018284481099503543 0.02238361709528902
-0.022914032343028523 -0.01832276985896569 0.020821735454103818
-0.022907856756956224 -0.018363122867929512 0.01922197505388651
-0.022814663568175853 -0.01840809957858856 0.017541772209484496
-0.01688485685749297 -0.018752203503652937 0.010904176113895325
-0.017734424990728692 -0.01874984292637984 0.009985713902582183
-0.018587949276542337 -0.018747268428839715 0.009071056633710939
-0.019485949780848444 -0.0187423895503 0.008195170166062804
-0.020366893185914503 -0.01873837040516981 0.007305371360970203
-0.020833316604537966 -0.0187557991645057 0.006055382671175835
-0.019478180037333037 -0.018867843952121207 0.003208016739735642
-0.020285670144755352 -0.018867898272893393 0.002243524162620192
-0.0014368202028890442 -0.019720943279470316 0.039821429514447004
-0.005641201678293295 -0.01954423319511375 0.04140873267200784
-0.009288313632515366 -0.01939570692954756 0.042607854109436905
-0.012797835101379718 -0.01925371550368392 0.043726955772643517
-0.01585779337629284 -0.019134558236991225 0.04452925853477219
-0.018187357853799047 -0.019053044878467287 0.04479648619743448
-0.01732916130314377 -0.019138015611313654 0.042646661385006
-0.0179700932257425 -0.01914472438297551 0.04163234063717958
-0.018494631139555406 -0.01915757851681876 0.040527281205513965
-0.018495056180909797 -0.019198089832381564 0.0390141887436114
-0.018343934678434315 -0.019246771171862184 0.03737665521354777
-0.018667744399206487 -0.019270540493356927 0.03610326992687074
-0.01920623921393183 -0.019283032266464755 0.0349951069058666
-0.019749443473423 -0.01929532720769792 0.033888680571770635
-0.020285325978365742 -0.019308064461121696 0.032774465191103275
-0.020777864326186057 -0.01932316841019329 0.031623539174287396
-0.02122413364852338 -0.01934081065921393 0.030432980990426628
-0.021572125861059943 -0.019363793801582686 0.0291601299940496
-0.021814762769846174 -0.01939253241084239 0.027797942562500066
-0.021947775121118673 -0.0194272935124422 0.02634153656634064
-0.022021967461165637 -0.01946537682916452 0.024831186754743217
-0.02205818203972737 -0.019505677729942716 0.023283298320618318
-0.022127846727472367 -0.019544342491153853 0.021756634747403525
-0.02210881571615181 -0.01958798967618816 0.02014964399054925
-0.015034471111679548 -0.0200155800471801 0.012615419754155976
-0.0158112449572842 -0.020017070194457122 0.011634058619535648
-0.016624857646070967 -0.020016554349929133 0.01068369311948636
-0.0174373816271019 -0.02001609584384446 0.009732484224138915
-0.018287463901501544 -0.020013574433156694 0.008813538530192011
-0.019140456951548868 -0.020010881809653564 0.007897516545129546
-0.01992047249223372 -0.02001219938681853 0.006918735422885514
-0.01975105329408483 -0.020065966626589746 0.005113114102579586
-0.018636836630793685 -0.020172276760295645 0.0024716450845505
-0.020167624409614948 -0.02013230770431743 0.0021396627482096475
0.0026596411262473363 -0.021178445882430112 0.036798645091318194
-0.0042188878914009575 -0.020844011932542962 0.040353495051965504
-0.00844233098413344 -0.02065458666420586 0.04197679526134229
-0.012393598465211042 -0.02047940917219098 0.04342377985251211
-0.01568786978921849 -0.020339877061412454 0.04440112569905891
-0.015967426355021186 -0.020367039154656742 0.04311345863047944
-0.01674455583153761 -0.02036664822116065 0.042201049664054135
-0.017357219624626163 -0.020375419922880833 0.04116265860603996
-0.017877214793634688 -0.020389403206052297 0.040051565247563536
-0.01829572952335784 -0.02040912423648647 0.03885978107981242
-0.01855967743521547 -0.020437596382290448 0.037544679053310215
-0.01895878657915201 -0.020458594119287975 0.03633115674789872
-0.01944192343636164 -0.020474949274793233 0.03518063932118293
-0.019868725859121972 -0.0204945534613146 0.033983084284266496
-0.020202150536796193 -0.02051952253058315 0.032708284875417104
-0.020508312504038395 -0.020546143782150667 0.03140791647216523
-0.020749043336130424 -0.020576595772433665 0.03005090966277818
-0.020953320859373847 -0.0206092537941261 0.028659823946127205
-0.021096891578188892 -0.020645515627807757 0.02721444402966977
-0.02120973684007188 -0.020683690702727825 0.025738447973154832
-0.021272537779124967 -0.020724898244057738 0.024215528352083404
-0.021285020991773984 -0.020769173699050916 0.02264476534232379
-0.013513005217490437 -0.02126156191838334 0.0146040520527142
-0.014140584507499165 -0.021271730784611073 0.013498787567306936
-0.014861594457771632 -0.02127654459651485 0.012470359010845367
-0.015608196109018757 -0.021279897271379272 0.011462777348635211
-0.016393903913571373 -0.021280994740341896 0.010487841100424777
-0.017204849132468614 -0.0212806289056105 0.009534250107326336
-0.018025178144724985 -0.021279714372870157 0.008588757771208433
-0.018842306666760955 -0.021278982803395775 0.007640650108771574
-0.019276944210330604 -0.021300646374774985 0.006361388587311778
-0.017292416884228445 -0.021464384913913705 0.0029725113599401998
-0.018757717226166204 -0.021425933895738145 0.0025774437910030534
-0.0015273947352241746 -0.02222694412062299 0.038356632714935224
-0.007029764067583488 -0.021952033997235495 0.0409230941565743
-0.011698417249229376 -0.02172475272642702 0.042902396618149985
-0.015398940700992292 -0.02155327995878237 0.04418325539610751
-0.015350408549028527 -0.021601351138576662 0.042645670332795704
-0.01611474736552021 -0.021601766478178196 0.041720982254419725
-0.016711080992490357 -0.021612095754229056 0.04066748357388561
-0.017208413849684023 -0.021628321954507472 0.03953625773451869
-0.017676328664950447 -0.02164635980578624 0.03837996447787684
-0.018113862472726727 -0.021666278007417557 0.03719747137441287
-0.018531095309610224 -0.02168748877592674 0.03599627331685945
-0.018899895160256364 -0.021711677807914075 0.03475395053311392
-0.019235333381345976 -0.021737963585136594 0.033481798188933765
-0.019533359216358293 -0.021766602128017152 0.032176146784178794
-0.01979895245286134 -0.02179730972164658 0.030840477788969922
-0.02002298004325964 -0.0218306489549133 0.02946700391048729
-0.02019423231899764 -0.021867312416053594 0.028046098157512023
-0.02032363254194347 -0.021906661859922037 0.026585925266985666
-0.020388734250983753 -0.02195007338024235 0.025067565026876293
-0.01233173225145262 -0.02248636594689665 0.016870633718780448
-0.012811878895552076 -0.022505992849344226 0.015647024480268057
-0.01340296761210752 -0.022518946040528523 0.014512691919029153
-0.014023281549126576 -0.022530171297377093 0.01340087811742674
-0.014736051744828838 -0.022535788123857595 0.01236501616179636
-0.01544180235403464 -0.022541860027342892 0.011322416376056244
-0.016208931188579523 -0.022544186304183308 0.010330981623555113
-0.01698881098374405 -0.022545737422390764 0.009350077432114745
-0.017800210927122972 -0.022545349623656532 0.008395959265714015
-0.018456907638449038 -0.02255453112310593 0.007308615963478982
-0.018077548562783485 -0.02262799278086223 0.00532261626360836
-0.017348424385673133 -0.02272351540146572 0.003021274084969494
-0.018671532313071504 -0.02269165051873849 0.002502011896470757
-0.004684251789886906 -0.02331614022572451 0.03917346456430543
-0.010664667233251213 -0.022995524286117945 0.042127088087853315
