# .PCD v0.7 - Point Cloud Data file format
VERSION 0.7
FIELDS x y z
SIZE 4 4 4
TYPE F F F
COUNT 1 1 1
WIDTH 756
HEIGHT 1
VIEWPOINT 0 0 0 1 0 0 0
POINTS 756
DATA ascii
0.002474435100245826 0.02146654446281382 0.013167345405700692
0.002162492430041598 0.07538594559521627 0.04208424791339077
0.0021559509953156778 0.07700941887635115 0.042103345099006095
0.002149718704837944 0.0785849080586477 0.042087287694577924
0.002143701136842611 0.08012605240613851 0.042048024385300864
0.0021376282600936596 0.0816711258730009 0.04202059909883493
0.0021315012987732614 0.08321990295019427 0.04200491493034031
0.002125497248476917 0.08474749378042912 0.04197776670620429
0.0021196091890929867 0.08625498574105872 0.041939925542309076
0.0021137536609923905 0.0877541488713488 0.04190229344917873
0.0021079354804116597 0.08924434331961573 0.041864194384215514
0.0021020430441291075 0.09074112285264463 0.04184042745014793
0.0020975068058810354 0.09204597959640465 0.041640295258214
0.0020942793040557663 0.09316678988502064 0.041268587687225244
0.0020959118332296842 0.09361445335803759 0.04024743662118163
0.0021141522115860328 0.09177529457630573 0.0369909266160916
0.0021155136572370355 0.09226765126912728 0.03599748344368692
0.002121147103518205 0.09217512481772883 0.034425049983495104
0.0021285669430149015 0.09184185102414671 0.032605940522329235
0.0021338845276308006 0.09180024737714387 0.031067165847870948
0.0021422601433251764 0.09134570617227733 0.02910709106851911
0.002147102902456231 0.09137641701399163 0.027623963332310764
0.0021525295280690965 0.09133112166773644 0.02605701791667192
0.0021588687037045837 0.09116594921161497 0.024360361863784208
0.002165207770078677 0.09100486617709286 0.0226588647571509
0.0021709313526477873 0.09093066777681647 0.021037664679478874
0.0021746700795299626 0.09112656207262859 0.019687447939349845
0.0021791605545138045 0.09122419911891655 0.018229785817911737
0.00218516040822436 0.09112309909236721 0.01655812464868922
0.0021907868568039387 0.09107561525891517 0.01493410051305294
0.002194147980457481 0.09133289499103209 0.013623515546934084
0.002198813397096284 0.09141936472310191 0.012126907512323537
0.0022032986759387436 0.09153266460696635 0.010652130819712557
0.002206564592175006 0.09180977109980909 0.009346355078577395
0.0022167638110957917 0.0911761929017263 0.007054944559560239
0.0022162352450228687 0.09195805835941567 0.006281015252059319
0.002215948546848205 0.09270789715462335 0.005473008980964811
0.0022199117500552763 0.09290214077794207 0.004057708631390156
0.0014138999556287625 -0.0774228945266956 0.025474095845308298
0.0014055893044947144 -0.0738130789367909 0.02613666222663502
0.0013981359747963803 -0.07049202985828262 0.02663122017689129
0.001392734130635517 -0.06784466912192305 0.026703130625735372
0.001385231662725655 -0.06452558834728062 0.02722938947873388
0.0013811590504208481 -0.06232205613890579 0.02703617700785227
0.001378183286362622 -0.060476716043188494 0.02661460512271585
0.001375614344183269 -0.058765851692513416 0.02611026766989355
0.0013730808518605362 -0.05706965153029325 0.025602229411935296
0.0013706254680246044 -0.055401692144804504 0.025081186828883495
0.0013682516902689 -0.05376293942834587 0.02454620162175636
0.001365493377429 -0.05200473364767444 0.024098572016658326
0.0013628311793278862 -0.05028063186423193 0.02363416900933274
0.001360111591404535 -0.048541742880844174 0.02318642709169133
0.001357196219453799 -0.04674435485387374 0.02278592664421525
0.001355452956923195 -0.04532110936582412 0.022131115724246253
0.0013537351389931907 -0.043908129071218494 0.02147333837030696
0.0013515030617356851 -0.042335508417846 0.020932518159892888
0.0013491991648970786 -0.040743200000002866 0.02041113882572626
0.0013464880064600216 -0.039026202665437326 0.01998445174657293
0.0013434984653547305 -0.037225614192381795 0.019624445489060838
0.0013399260410710049 -0.03524692135786511 0.019400386615195275
0.001335718862489399 -0.03307508985066282 0.019325344844273507
0.0013318546280670811 -0.031015275965196765 0.019178932200154764
0.0013295969426646646 -0.029458816877162453 0.01867267169183978
0.0013262066503609154 -0.027554627980212743 0.018428601779987563
0.0013203270807768206 -0.024885767778232315 0.01876028122482154
0.0013172657583332497 -0.023093314621348504 0.018452852709102074
0.001316999641788396 -0.022164745532102625 0.017505156064880845
0.001317436410857978 -0.021452310355036863 0.016395146671382643
0.001317933101266215 -0.02075767146382762 0.015270550111844694
0.0012222416082325585 0.009344552916732862 0.036560442696909834
0.0012191685239285887 0.011067711734611962 0.0363426260946364
0.0012149475086218285 0.013136393489883769 0.03639878483804865
0.0012134020185199973 0.014386838513687883 0.03583176968879054
0.0012121462443951364 0.015547468892321115 0.03519872043453931
0.0012114806639613677 0.01652794596897922 0.03442779845080263
0.0012103428531745415 0.017650118072747467 0.03377011293982263
0.001208762225787652 0.01890421449772217 0.033219736970977354
0.0012084512208442812 0.0197746546626541 0.03236813495886287
0.0012079666776465506 0.020696745882906764 0.0315586463106573
0.0012073056774407527 0.021671027101202223 0.03079237236871013
0.001206262276477827 0.022758663735697515 0.030119446199080024
0.0012054035637304298 0.023789920216773675 0.029403381868680023
0.0012059990927385893 0.024387628996358046 0.028335261211820673
0.0012074388697654048 0.02473559433274336 0.027060434233372177
0.0012081600143233645 0.025298184571912352 0.02595912558897351
0.0012088050922601486 0.02588417498320922 0.024875370524476914
0.00120972546465255 0.026389838960148015 0.02372288863655586
0.0012107277581100296 0.026872588803153352 0.02254877647278858
0.0012131650755235611 0.02693543223665751 0.021017830884181077
0.0012148415543245673 0.027224234229130617 0.019672109974773533
0.0012184667267856116 0.026945733969187813 0.017838357650614145
0.0012403461196730983 0.02134928306282957 0.011437536528144054
0.001081692718415183 0.07456268679100403 0.042796703732376595
0.0010803899815698438 0.07562861681198407 0.04230457435601498
0.001076949105586055 0.07729982454711876 0.04236839135441761
0.0010738704681119403 0.07886401346992489 0.04234335346380069
0.0010708251284414784 0.08041483542299033 0.042314354367147144
0.0010677813529874306 0.08196130161691312 0.04228961203027776
0.0010647652109730117 0.08349608183654417 0.04226228894650075
0.0010617918636674295 0.08501497427016314 0.04222833554875949
0.0010588068485661091 0.08653331163985217 0.04220201399668011
0.001055858982592028 0.08803743345623505 0.042170441812671156
0.0010529528612210472 0.08952613046724561 0.04213231486264751
0.0010501005509236854 0.09099612766723003 0.042084327832988544
0.0010479368604774033 0.09227140628944847 0.04185702746980918
0.001046506011640446 0.09334105363470963 0.04143700160492425
0.0010479518245973866 0.09361445326641077 0.040247436621170696
0.0010566042598482693 0.09190418919728266 0.037116792396835574
0.0010574532551794102 0.09234998606672801 0.03607830099067666
0.0010613321390457102 0.09196599389856885 0.03421870787329773
0.001064193908099969 0.09186525584695115 0.03262915312632131
0.0010676735276553277 0.09159955901534184 0.030867094607419876
0.0010711339570589533 0.09134356083437184 0.029104941336648316
0.0010732230874643091 0.09146453420177675 0.02771272235280786
0.001076632081747837 0.09123049127727895 0.02595512991282417
0.0010801883090423361 0.09096102312584442 0.024151800769232068
0.0010828387131544752 0.09094045321445088 0.02259297014158851
0.0010855884671327745 0.09089655685399006 0.02100258870776217
0.0010880161362944534 0.09094265692046671 0.01949736180862871
0.0010899949158386664 0.09111209073716364 0.018113310752949863
0.001092354950256247 0.09118221318943143 0.01661985868976551
0.0010956284344790488 0.0910119215132823 0.014867240567501272
0.001097364842103749 0.09125450401898494 0.013540802959116416
0.0010994110021635907 0.09141716330651911 0.012124572845722992
0.0011022317727736304 0.09137750138043593 0.010486719598165273
0.0011035179378028309 0.09174651555368857 0.009278573983373284
0.0011084510341754178 0.09115694178350497 0.00703420984805081
0.0011087266424462615 0.09179703824810148 0.0061066912889798375
0.0011082850109636092 0.09262541715808331 0.0053832541548716195
0.0011099348950905318 0.09290656286405302 0.004062545656547734
7.371676515663941e-09 -0.08432215365220869 0.024411113249466376
6.958176326385311e-09 -0.07959226258612412 0.025751633235998272
6.6404919074684035e-09 -0.07595837624020946 0.026415315104718895
6.357069064897501e-09 -0.07271639666744639 0.026845458747293716
6.094974031596216e-09 -0.06971837880917692 0.02713405639716432
5.878844604679145e-09 -0.06724614623008757 0.02709433063001271
5.595904285296627e-09 -0.06400968607860097 0.02756848198124373
5.416270944117402e-09 -0.06195492008220804 0.027278841676143972
5.2495322225639755e-09 -0.06004765134976364 0.02689979039978152
5.096051950428196e-09 -0.05829204160925 0.026426954209485876
4.960793876250387e-09 -0.056744869528922215 0.025820519750297977
4.8228198576218465e-09 -0.05516663066345634 0.025240055238956005
4.676084528785042e-09 -0.05348817408509482 0.02473293749701061
4.5300024473354195e-09 -0.051817189786155626 0.024226738614413046
4.3869306156294115e-09 -0.050180638732480354 0.023702882958854088
4.231560419478939e-09 -0.048403410779153166 0.023282013579911387
4.08068660019021e-09 -0.04667761538478726 0.022832298245405114
3.9514121874895905e-09 -0.045198888416734084 0.02221650564001082
3.8283965854852735e-09 -0.043791753902017116 0.02155509251654497
3.6992472276009838e-09 -0.04231445739422457 0.02094738811977387
3.56131155989986e-09 -0.04073665721127967 0.020415785975200773
3.416327815348658e-09 -0.03907823642180974 0.019947291500096387
3.2648759113611883e-09 -0.03734582850817192 0.019538122719177986
3.095855646096205e-09 -0.03541246195415382 0.01928086517804095
2.916444030758321e-09 -0.03336023220333045 0.019118344070123416
2.748995486020956e-09 -0.03144484403722453 0.018865381350505195
2.6218502510028023e-09 -0.029990472023368908 0.01828248843869773
2.4780016011343934e-09 -0.02834503520355558 0.017845359396207405
2.313839491428341e-09 -0.026467239474052884 0.017586962068302125
2.067545280920667e-09 -0.023649961965483912 0.018037623037404193
1.948811696831694e-09 -0.022291808027840865 0.017409859785561643
1.875740363442885e-09 -0.021455969385897 0.016392387624398985
-8.084834572252894e-10 0.009247973936022669 0.03801914382212934
-9.757133858446894e-10 0.011160861428677893 0.03794491189421484
-1.1245101444634026e-09 0.012862898021796132 0.0377183855385102
-1.2434551366151542e-09 0.014223470188809595 0.0372363714958685
-1.335861824659543e-09 0.01528047952332695 0.03652402537929106
-1.4552621397573985e-09 0.016646259978223554 0.03605447608471096
-1.5457023735867173e-09 0.017680775697239803 0.03533046720003863
-1.6243106543976254e-09 0.018579949641642668 0.034502083390791916
-1.712519900538575e-09 0.019588945834706994 0.03376165419282878
-1.7988673564181258e-09 0.02057664562833489 0.033006256165226455
-1.8927818604272203e-09 0.021650902368381963 0.03232190506106658
-1.9741259340308924e-09 0.02258137013660072 0.03152447728331764
-2.072795024814855e-09 0.023710013013256537 0.030888615431489352
-2.1476495422740044e-09 0.024566248907533728 0.030034395678685766
-2.204389679181986e-09 0.025215280428359133 0.02901157723573844
-2.207229287631039e-09 0.02524776173381088 0.027481181079349326
-2.2763615485424667e-09 0.026038542638860962 0.026570567447419258
-2.344972142140218e-09 0.026823356365041184 0.025655137871184563
-2.3556846116828145e-09 0.026945892709448305 0.02418701092735681
-2.399324423001793e-09 0.027445073963368427 0.02302914858891658
-2.4188618437673593e-09 0.027668555989094512 0.021636255297282803
-2.45835127580444e-09 0.028120262434859766 0.020431954478114633
-2.4594999684905163e-09 0.028133401916678236 0.018850845337991917
-2.4437061774916025e-09 0.02795274196316566 0.017096746902670934
-1.951421927231834e-09 0.022321666143359953 0.010638231841392287
-6.543622943486191e-09 0.07485032578616191 0.04305649600837547
-6.64226289478466e-09 0.0759786353499603 0.042622363713562594
-6.780079744907486e-09 0.07755507642834458 0.042601353603763104
-6.9158649081101805e-09 0.0791082777160016 0.042567454153003836
-7.053085431355417e-09 0.08067789760991895 0.04255696333498127
-7.187585581125616e-09 0.08221640005667485 0.04252610589139322
-7.32152030844234e-09 0.08374843482421973 0.04249745936380889
-7.45489145592773e-09 0.08527402298969472 0.04247100572846396
-7.586384010119065e-09 0.0867781225514942 0.04243254272794378
-7.713416858911418e-09 0.0882312090267629 0.04235386375894823
-7.846209732305362e-09 0.08975018250773381 0.0423455004029174
-7.975795387745719e-09 0.09123246968946291 0.04231037811913746
-8.084472726446928e-09 0.09247559359053298 0.042053339479665
-8.172077870031917e-09 0.0934776796606262 0.041569041272604135
-8.180939642113035e-09 0.09357904649497506 0.04021304066158249
-8.04442439644255e-09 0.09201749397681247 0.037227434686068706
-8.077365898631138e-09 0.09239430083436195 0.036121799175741987
-8.033554027120646e-09 0.09189315137876997 0.034146836784980095
-8.028945176289428e-09 0.09184043223735738 0.03260453357788412
-7.996987518272625e-09 0.09147487918672281 0.030742798207477773
-7.991757252087644e-09 0.09141505188142857 0.02917658202865281
-7.991762249948646e-09 0.09141510902014427 0.027662937312929015
-7.957254082847252e-09 0.09102038154380865 0.025742394260558132
-7.951559782084538e-09 0.09095524630082219 0.02414592156744888
-7.950393093898586e-09 0.09094190091206694 0.02259445123874715
-7.946302073338747e-09 0.09089510505776166 0.021001095931491354
-7.941681101722592e-09 0.09084224726942519 0.01939357747410686
-7.95074742285528e-09 0.09094595387036486 0.017940702716095436
-7.965787225822986e-09 0.09111798914314806 0.016552788434019805
-7.959906951016819e-09 0.09105072660401353 0.014907974811212199
-7.969069979688904e-09 0.0911555394099362 0.01343638250379875
-7.99239089507538e-09 0.09142229957308945 0.01213002034624433
-7.988731794019084e-09 0.09138044430129633 0.010489856993452062
-8.014687620766143e-09 0.09167734433893993 0.009204453979859861
-8.003584745454493e-09 0.09155034220884173 0.007457930033941462
-8.01306410821515e-09 0.09165877345453327 0.005957002755239915
-8.089002837362069e-09 0.09252741128891001 0.005276604036735244
-8.122342608302314e-09 0.09290877380804169 0.004064964113833225
-0.0014215686725300779 -0.08175234538247156 0.026044145690164888
-0.001413104380670616 -0.07807656706315819 0.026720265900370743
-0.0014057798281871374 -0.0747828463727756 0.02717080677985939
-0.0013997225922639787 -0.07191045101375337 0.027366349358797837
-0.0013943622694182118 -0.06927190878718853 0.027424240614464968
-0.001389246012848186 -0.06671927178952308 0.02743870056439124
-0.001382879158806418 -0.06376915001463401 0.02772658168863984
-0.0013788641795813548 -0.06158558251338475 0.02752296146979255
-0.0013758595663836857 -0.05973232283701302 0.027109378976292398
-0.0013732865816517973 -0.058021551022777396 0.026607745516228076
-0.0013709898725844034 -0.05640264033325726 0.02605053657745149
-0.0013689452704690982 -0.05486732685404655 0.025442342380307514
-0.0013666758728735553 -0.0532628786954612 0.02488605264345578
-0.001364477902380525 -0.05168410465929324 0.024317688391254755
-0.001361896331469088 -0.04998618961438789 0.023836505727859225
-0.0013594979248289691 -0.04834971355121098 0.0233191180287855
-0.0013570194362898416 -0.0466909617626588 0.02282302507738443
-0.0013548818029353407 -0.0451431151466527 0.022255471794066173
-0.0013529100663826276 -0.04365033769265286 0.021654438102483742
-0.0013512950260540148 -0.04227236147919411 0.02097712362443449
-0.0013491878748971666 -0.04074189163840608 0.02041206826710068
-0.0013467883174118173 -0.039122475221283926 0.01991569808554
-0.0013440746965632177 -0.03740790157668733 0.019493549705837887
-0.001340943845130951 -0.035566570897767213 0.019169597477824707
-0.0013376637123226438 -0.033682760627079866 0.018884202645985948
-0.001334831719268521 -0.03194248611964895 0.018502141823105667
-0.0013326495457643256 -0.03040745212432089 0.017976465552322962
-0.001331098711130596 -0.029070683933932084 0.017309902384931686
-0.0013286821983279247 -0.027468455339889786 0.01684414402878015
-0.001325296870262847 -0.02557063750362193 0.01660489979094809
-0.0012228553587524478 0.006799233969036145 0.03922802548384369
-0.0012182388406660404 0.009002677642224621 0.03936007688168086
-0.0012137649379691266 0.011156491205906782 0.039466074412365104
-0.0012114563403894283 0.012642533716145377 0.03907430684829788
-0.0012088119421667064 0.014228059736677623 0.03876459125484727
-0.0012078228919913685 0.015306208960297107 0.03807061580414178
-0.0012073657063835183 0.016221500251445364 0.037252983588050015
-0.0012061059485291722 0.017379518003052596 0.03662554890787767
-0.001205008316063714 0.018486869035397646 0.03596164045635608
-0.0012046495703071309 0.01936975186151685 0.03512382169017442
-0.0012045201190265403 0.020183100790926 0.03423188652075948
-0.0012036309110840307 0.021224663658289622 0.033521865539133666
-0.0012018464429618461 0.0225336201252454 0.033028017808765686
-0.0012011394602404728 0.023517778869759975 0.03227754443093389
-0.001199263607227211 0.024850133194751656 0.031810406585354056
-0.0012001893630748887 0.025345124716045664 0.030667479830790545
-0.00120077324942788 0.025942972427003164 0.02960621133946062
-0.001201767444235877 0.026419815823965742 0.028444026436722614
-0.0012033429844802743 0.02672580261816143 0.02713815702618183
-0.001203303283628867 0.027511044789777783 0.02622609999882275
-0.001206313288655162 0.027397147613755057 0.024563660611488625
-0.0012072032660008446 0.02791076578001489 0.023419910460680204
-0.001207336766802137 0.028647573442065866 0.022462102597200828
-0.0012086460397389667 0.029040188991490135 0.021212065115814915
-0.0012114544127593235 0.028996390444778475 0.0195865436362907
-0.0012137665086422418 0.029100915467660582 0.01808073968588747
-0.0012220636387849787 0.027467040099395823 0.01507114283450256
-0.0010802775960706452 0.07496995357519726 0.04316454251954677
-0.0010782143098883195 0.07625141488779014 0.04287002614065305
-0.0010752134593677346 0.07779638253733212 0.04282158788694762
-0.0010721792752184328 0.07934693353895417 0.042786409385768
-0.0010690522974932096 0.08091980686536698 0.042780064029335596
-0.0010660553408326436 0.08245199985493401 0.04274452317247035
-0.0010630622087415443 0.0839792638664072 0.04271257139600598
-0.0010601707209562056 0.08547415126783114 0.042658480773296925
-0.001057174685804704 0.08699459722847014 0.04263638836021544
-0.001054261672587521 0.0884879963143167 0.04259693061408665
-0.0010514405708351613 0.08995203075398767 0.042537559039173056
-0.0010486018109901439 0.09141734888538322 0.04248720659523625
-0.001046645111304341 0.09263428504079207 0.0422059103857238
-0.001045615725371301 0.09359201347473839 0.04167953706342603
-0.001048033548797726 0.0935964037014021 0.04022990247763708
-0.0010559232148361138 0.09209626266064913 0.03730435245285829
-0.001057402863888385 0.09236827619193289 0.03609625423010515
-0.0010616705837304978 0.09187758798353901 0.03413148101598096
-0.0010643784807612762 0.0918191514751851 0.032583427766263995
-0.0010685695132272932 0.09135936615303641 0.030627640418683266
-0.0010708191573333354 0.09143363374434865 0.02919520285651811
-0.0010748231517072884 0.09103418922566198 0.027279243457800917
-0.0010773807601648058 0.09103190214204893 0.025754058942034308
-0.001080190860546311 0.0909646332775515 0.024155475152243644
-0.0010829539189351185 0.09091366627865738 0.022565567195344083
-0.0010856313339276402 0.09088929801330231 0.020995124678065358
-0.0010883653960310083 0.09085316460048382 0.019404861836467058
-0.001091151412124482 0.09080663215988327 0.017795954324430152
-0.0010927943709623032 0.09106907231019534 0.016501703783375676
-0.0010954905119312291 0.09105292271982535 0.014910280199379455
-0.0010981089079908888 0.0910609104772716 0.013336536752024342
-0.0010995874637677809 0.09137459771857998 0.012079429029078659
-0.0011022421884156724 0.09137897270375234 0.010488288303726168
-0.001103963369076112 0.09163317528465037 0.009157124929999594
-0.00110598940720086 0.09180931756240002 0.007736864910017072
-0.0011097283052277401 0.09153814672402849 0.005826409593457149
-0.0011089031498026653 0.09246769104725527 0.0052116164310026525
-0.0011100159956069023 0.09288961023569303 0.004044002925870704
-0.0028728310723273322 -0.08845197957632761 0.02516093325323271
-0.002850926926518829 -0.08394085647005306 0.02632764935520976
-0.0028355791687355485 -0.08051561219685022 0.026830050825809193
-0.0028187308780595896 -0.07685541783733846 0.027500663435957473
-0.0028066986973548412 -0.07399026641904444 0.027680183532795277
-0.0027963339172993895 -0.07140381826020331 0.027693791125033007
-0.002785237309870331 -0.06870533882533658 0.027792484042298893
-0.002775620722223099 -0.06625355867467636 0.027743094908128374
-0.002765256258063475 -0.06368714406061465 0.02778048267010408
-0.0027563071624705296 -0.06135558340246222 0.027674983227958472
-0.002750139522662257 -0.05947731915136273 0.02727887162320869
-0.002744559623131255 -0.05769739965711934 0.02682440275892911
-0.002740806428889346 -0.05621381465378178 0.026177448882311105
-0.002736832029575429 -0.05469726306206113 0.025557281541391974
-0.0027323307899496715 -0.05309917355327026 0.024997309877119567
-0.002727810271048772 -0.051500906409511216 0.024442885220035904
-0.002723482928881407 -0.04993625526777051 0.02387081998728635
-0.0027187209120929407 -0.04830542342066174 0.023349722246530646
-0.00271421155641403 -0.046717656887105885 0.0228044770131155
-0.0027092802638652522 -0.04506611875154731 0.02230926551337048
-0.0027054218359306766 -0.043586929154629694 0.021698982959610535
-0.0027019335793107857 -0.04216847268460833 0.021050507955793385
-0.0026982709927066174 -0.04072488072432717 0.020424150482613534
-0.0026934057045662294 -0.03909515035249539 0.019935212447018125
-0.0026885331148756107 -0.03746740547669969 0.01945082154732708
-0.0026828871243301127 -0.03572207906335584 0.01905731952916767
-0.0026772483929408284 -0.03398151265828342 0.0186673218415625
-0.0026725157703565467 -0.03238541544821094 0.018178838306563083
-0.0026686553249522303 -0.03092765036768136 0.017594690555644443
-0.0026653587327335085 -0.02955964911126735 0.016949094460874004
-0.0024718891680205707 0.0011831414575987909 0.03810122377740843
-0.0024489658131304766 0.005511312152946646 0.03979040601568001
-0.0024311555525699633 0.00903819068840761 0.04090723418406739
-0.002421092203434176 0.011364388649544754 0.041140952004173725
-0.002417294797875626 0.012724243747777697 0.04065465634068566
-0.0024137826253264627 0.01403805490790705 0.04013803370050145
-0.0024105067051866658 0.015313568961280555 0.039596482426079216
-0.002408048975726679 0.016462428232689286 0.03896147643089454
-0.0024077570983550016 0.017280707200015955 0.03807349430237944
-0.002406775687972264 0.01820331933465158 0.03726713826459532
-0.0024062588121240144 0.01905503477373699 0.03640651578485521
-0.0024048483566193536 0.020041294162900458 0.0356524648966402
-0.002402765467703283 0.021127927335025387 0.03497965097376898
-0.0024010028050023865 0.02216509271130651 0.034270137945227264
-0.002398880470345804 0.023255066814120873 0.033605124945329856
-0.0023951786314473735 0.02458005518936046 0.03313183525347513
-0.0023923589968934643 0.025770922412594544 0.032554867903952345
-0.002391390097311676 0.026684197551378908 0.0317559020580902
-0.0023969658940214884 0.026623722639053604 0.03016248692960627
-0.0024010230023579437 0.026792156636198272 0.02874990540104766
-0.002404028577645815 0.027118874441598217 0.02746278453663681
-0.002402713223273638 0.02808583452291108 0.026703326554972096
-0.00240408823856699 0.028655378261403353 0.025613869928140298
-0.0024071081281119887 0.028983873728693266 0.02432035492116086
-0.002405736415952282 0.02995882630727892 0.023568206073429743
-0.002406776772600736 0.030579674658991418 0.022517570518302943
-0.0024106477102240156 0.030787592262865593 0.0211135442880645
-0.0024226242332301066 0.029816229531256455 0.018693768912304287
-0.002432456694284832 0.029164473613745967 0.016533538388832647
-0.0024480003931037792 0.027690028917487175 0.013647787906563236
-0.0021597369719449553 0.0750856831063525 0.04326906816953574
-0.0021550977068604373 0.07643980399286027 0.04304106869965063
-0.002148902400802531 0.07801180715118777 0.04301820076095647
-0.0021427373588854834 0.07957554194113825 0.04299614659697837
-0.0021366337119898475 0.0811266388379207 0.04297081472881081
-0.002130647858017175 0.08265720630059181 0.042934763728062764
-0.0021245404789553765 0.08420101903439431 0.042919227391889636
-0.0021187145631286265 0.08570140730982057 0.04287136840054995
-0.0021128745325211364 0.08720002686164924 0.04282983331637763
-0.0021071479038071964 0.08867905125316589 0.04277777729576099
-0.00210159880117573 0.0901296529173175 0.042706566564323756
-0.0020962146104443876 0.09155375699491436 0.042617674722007226
-0.0020921344433120666 0.09279349811110654 0.042358982793175015
-0.0020909180328058793 0.09363425942359122 0.041720364931621956
-0.0020958125834164114 0.09363041787591836 0.04026294577140799
-0.00211146076805558 0.09214828283357246 0.0373551502793929
-0.0021152634994915246 0.09230424994152764 0.03603340800512855
-0.0021232867010894537 0.09188395489739498 0.034137763119929554
-0.002129029005527364 0.0917808383380962 0.0325454295301692
-0.002137225125015861 0.09134652563799184 0.03061483947571131
-0.0021418087943483066 0.09140933369264054 0.02917085206570047
-0.002149886914242254 0.09100042512898143 0.027245233559281212
-0.0021551627633855036 0.09097645037424257 0.025697914216900763
-0.0021606355117408066 0.09092924799616586 0.024119462281137538
-0.002165894521551866 0.0909143902147207 0.0225663078816159
-0.0021711522221870023 0.09090308904667638 0.021009306017376994
-0.0021766957387989025 0.09085680346611913 0.01940862310320557
-0.0021822948856812996 0.09080663206450895 0.017795954324447305
-0.0021866417794009726 0.09092734019850807 0.016353690426237688
-0.002190209744372394 0.09115464420980102 0.015017058499752545
-0.0021968724204922277 0.09097282845096488 0.013243598839508208
-0.0021994603115266416 0.09133569079017645 0.012038165395262146
-0.0022045041952949837 0.09137529378947107 0.010484366510161658
-0.0022081976988314123 0.09159635749175088 0.009117673091545708
-0.0022117692345961864 0.09183585303201441 0.0077654455916461584
-0.0022202550122484917 0.09143223852795235 0.0057117510549117845
-0.0022185639917813075 0.09236736484641372 0.005102441322470175
-0.0022201592403626267 0.09287191852963173 0.004024651678989133
-0.004319702806455515 -0.09052113705509446 0.02554542263916726
-0.004288159949052508 -0.08614445158232492 0.0266107805634494
-0.0042624873659662865 -0.08242229602712109 0.027287202256992216
-0.004241466747021413 -0.07921812295656921 0.02765456452359355
-0.004220815535824277 -0.07606313763963757 0.02800698447694483
-0.004205755506019399 -0.07352394485821823 0.027979879969673993
-0.004188525946784217 -0.07075616049802658 0.028112378728819054
-0.004174253308461394 -0.06831547682933636 0.028045875752698624
-0.004160368105774176 -0.06592271797557148 0.02795933543242557
-0.004147650914090919 -0.06366170014091921 0.027797206537941155
-0.004132377869338711 -0.06113142323893089 0.027823145638154856
-0.004123330206687358 -0.05927547555913304 0.027413030503508073
-0.004115445949839731 -0.057547952050695905 0.026924291032610292
-0.004109240106819108 -0.05600312805075708 0.026319054201525638
-0.0041027960901552476 -0.05443556818414658 0.02573415036191673
-0.004096692330677739 -0.052906976903794034 0.02512793048518125
-0.004090721603898426 -0.05139512894578491 0.024515173079402652
-0.004084500950465627 -0.04985935185144136 0.02392366701042331
-0.0040781596093468 -0.04831347563567456 0.023344158310723895
-0.004071913825143498 -0.04678040332683486 0.022760879989611682
-0.004065296238905647 -0.0452108421030602 0.02220815442903673
-0.004058737831215533 -0.04365033792925582 0.021654438102447326
-0.0040520752796675275 -0.04208171843995029 0.02111178890229104
-0.004046795965475575 -0.04066077461048534 0.020469682423687574
-0.0040408575752323515 -0.039173231247183915 0.01987945042481276
-0.0040337693537333685 -0.03756834181590729 0.019378341804079102
-0.00402633488005305 -0.035930461033121475 0.0189068663071284
-0.004019556312367276 -0.034363875293451696 0.018389743400942793
-0.004013574639532657 -0.03288277301504022 0.017815806453586436
-0.004008566730000403 -0.03150493213082739 0.01717102178939356
-0.0040039381946151646 -0.030168387575964684 0.0164999056799644
-0.0036694274409129627 0.005138319880215014 0.04103563422845713
-0.003645049427344836 0.008429836778240718 0.04196747257118866
-0.003630732381041685 0.010679113211194191 0.04213791961845492
-0.0036250390509159317 0.012039704428191467 0.04165018162633477
-0.00361874401718346 0.013459305172970282 0.04121193867259848
-0.003612819307068383 0.01483846809136341 0.0407481434204402
-0.003607033075969504 0.01620100914057987 0.04027658135936674
-0.0035937612360598687 0.018320731036731486 0.040393288529467775
-0.003600553157954531 0.018402937955437237 0.038942826168402056
-0.0036009686761956207 0.019132418139552687 0.03799073492889704
-0.0036005137316159623 0.01994985382070963 0.037107161500488484
-0.003600583032888432 0.020714341895697985 0.03618229318967081
-0.003599416375919762 0.02160296400891354 0.035355609481361405
-0.0035967299224703765 0.02264336548239876 0.03465068590302489
-0.003593032715630092 0.023783673775399916 0.034027973744129636
-0.0035850725545426175 0.025347706896428623 0.03374918670956961
-0.003581732004095663 0.026448426266952096 0.03310263217320175
-0.0035802352243103964 0.027364553662794222 0.03230890765281008
-0.0035799908276608434 0.02815589605494384 0.03141450357630782
-0.0035947673606416624 0.027461389587090324 0.02929968197527133
-0.0035977669967268747 0.027935563572345667 0.02813726616213652
-0.003598162117148675 0.028667523647592008 0.027186281418208502
-0.003597540015929957 0.02949961416151281 0.026318529638337695
-0.0035946098974837587 0.030557749599505357 0.02564099350747262
-0.0035963753977292135 0.03115520878846012 0.024577410984124137
-0.003601652493669737 0.03141060149108005 0.023222208147499257
-0.0036084743021346866 0.03151778245022796 0.021736031924804222
-0.003618355985211595 0.03133047469092415 0.019991487652947282
-0.003642367079041644 0.029777086072722114 0.017061324501098596
-0.0036605242542945135 0.02880046440670808 0.014609513564339316
-0.0032387536680861372 0.07516633774778525 0.04334191458757386
-0.0032306672415067057 0.07662720666637507 0.04321121565636393
-0.003221053071403431 0.0782291749386867 0.0432165871220101
-0.003211873689321085 0.07978597399532761 0.04318920789003644
-0.003202863868774531 0.08132286705278768 0.04315178612153453
-0.0031939278036041234 0.08284896730077534 0.04311253943212118
-0.0031847319161445353 0.08439560146256381 0.04310056083347957
-0.003175773487478744 0.08591607942260121 0.04307246773058521
-0.0031673015053857584 0.08738731313175063 0.04300619339308198
-0.003158927895626726 0.08884575523749993 0.042935574129878196
-0.0031504772828331645 0.0903077634749434 0.04287603879640145
-0.0031433678074789637 0.09164182973539714 0.042701912306844836
-0.003136643091079788 0.09293726543539743 0.04249720518749689
-0.0031365080473670383 0.09362179457025238 0.04170831860362656
-0.003143586609146074 0.09364221678420853 0.04027440795666348
-0.003166567358529497 0.09220520252029157 0.03741073248465038
-0.0031748970964241762 0.0921204578131643 0.03585300305813938
-0.0031850962999704527 0.09186839051888707 0.0341224063807779
-0.0031956962355571177 0.09158414791624875 0.032350355352800175
-0.0032054181844826573 0.0913843302166859 0.030652527915054073
-0.0032120872309031323 0.09146578904001457 0.029227425604979207
-0.003224715321278004 0.09101048321408356 0.027255364989859365
-0.0032327880070765792 0.09097212848589098 0.025693538407686456
-0.0032408371072342344 0.09093935883007964 0.02412975256334171
-0.003249039135857255 0.09089628827521073 0.022547789623665604
-0.0032570399684183956 0.09087477943954803 0.020980195505875987
-0.003265186039423186 0.09084370268798936 0.01939508210452856
-0.003273193127167406 0.0908285237434523 0.01781869881474335
-0.00328099318019135 0.09083521361463659 0.016257481036299537
-0.0032853929783438355 0.09114732838064477 0.015009379091546982
-0.0032948159354550663 0.09101614194459479 0.013289300319834552
-0.0032997014111052687 0.09129016386471506 0.011989880754662396
-0.003306685562088514 0.09138117975729809 0.010490641332439932
-0.0033128450720944793 0.0915477437873154 0.009065581396694944
-0.003317607851488703 0.09183953804822292 0.007769414718853507
-0.003331563608220832 0.0913284775969595 0.005599417194899037
-0.0033287124255201956 0.09229133636149967 0.005019707047148714
-0.003330192495712423 0.09287560436242831 0.00402868338341239
-0.005733248358679104 -0.08835402048665775 0.026899338563902808
-0.005698607479029728 -0.08459014339415899 0.027587370927533827
-0.005668424568559748 -0.08120249456032946 0.028057974382218187
-0.005644934116818251 -0.07837156392300781 0.028192526251929584
-0.005622541852037981 -0.07563776846677611 0.028278824403977665
-0.005600954723915722 -0.07297672006941464 0.028331571434733027
-0.005579978090239657 -0.07037221506057023 0.028360526486403637
-0.005562927087370387 -0.0680927954494957 0.02819060806689694
-0.005544589959809586 -0.06571476623109407 0.028095254634898648
-0.005529783116585836 -0.06362777938282749 0.027819502065057622
-0.005508119757070035 -0.060992837403944455 0.027914746294610937
-0.005496685971800103 -0.05918783543824335 0.027471282090652582
-0.005485316774012021 -0.05739169403191924 0.027028731267978112
-0.005475864023056088 -0.055752770427214826 0.02648732293564693
-0.0054679146506831835 -0.05423710817837518 0.02586828134878344
-0.005461353306744949 -0.05283477664543734 0.025176999245771325
-0.005453411945472781 -0.051324639282639584 0.024563345436242223
-0.005445680295578121 -0.04983372352939647 0.023941278513083697
-0.005438461282900904 -0.04838595815070029 0.023294073538921767
-0.0054301813453412635 -0.04685652463778467 0.022707989918113902
-0.005422363963232835 -0.04536629627195765 0.02209954624454835
-0.005413981982530505 -0.043834065320383475 0.02152536889340434
-0.005405943575112248 -0.04233156176088926 0.02093530638942176
-0.005398195774787007 -0.040854460924667046 0.020332115322543143
-0.005389788555726373 -0.03932817706191072 0.019768794694559444
-0.005381904645071308 -0.03784551853497503 0.019179308309750287
-0.005373779375153601 -0.0363465581546506 0.018606441225980208
-0.005367029794576411 -0.034957347399054484 0.017958908731621592
-0.005358538562703552 -0.033434946723150116 0.017412763125493447
-0.0053529582602131675 -0.03214104162442771 0.016704179172060907
-0.00490529963994309 0.003366833575136896 0.04124558697197761
-0.004857904090210251 0.007815786647725531 0.04302208988793155
-0.004840533658327067 0.00993528733837773 0.0430904599008643
-0.0048336389759174436 0.011243458526069894 0.042561176435502224
-0.00482484503598059 0.012695190733136075 0.0421444586080707
-0.004819190655456158 0.01390362508451215 0.0415487971323627
-0.004811535155353709 0.015263194323252904 0.04107188825341551
-0.004788477588917257 0.017795059068992647 0.04149819789608383
-0.0047801346839612 0.01919955194682149 0.041070415253444625
-0.0047775735286301624 0.020162232445973705 0.040305657032102093
-0.00477722098963247 0.020956697580798267 0.03941151217837341
-0.004778618729038683 0.02161867613681373 0.038413853781596785
-0.00478902903656755 0.021600933249937837 0.03688022461864976
-0.004791444985331537 0.022188578788422286 0.0358190828536778
-0.004789646040170812 0.023093740494525505 0.03500903641698655
-0.004781259825299327 0.024492283795682523 0.03459481244015805
-0.00477144345998657 0.02599514467346814 0.034269861203708396
-0.004768956673611503 0.026947582922937252 0.03350620212197514
-0.004767811837484475 0.027799239988866353 0.03266222849012629
-0.0047665505456920745 0.02865918689254976 0.03182576811570009
-0.004768007087239482 0.0293171099121467 0.030824160796824984
-0.004786419557498947 0.028720375101056073 0.028785420935004136
-0.004788058794931818 0.029368464828164687 0.02776824681356288
-0.004778305970870081 0.030856692701478727 0.02745124446972652
-0.00477986121555936 0.03151018227642388 0.026440179403389885
-0.004785541694627325 0.03186146181581928 0.025173168676601687
-0.0047942061010059905 0.03199608583434266 0.023718707123383864
-0.004803548791895621 0.03208394000744785 0.022218681651422545
-0.004814810838234435 0.032034879814317185 0.02059516784068216
-0.0048520660829745425 0.030098765560303886 0.017338462176248848
-0.004873702198310604 0.029308207503329742 0.015049259613259536
-0.004895244172810204 0.028531420513960903 0.012757705395198993
-0.004316917352698488 0.0752674767761996 0.04343326226530558
-0.004305272629451848 0.0767894873748654 0.04335855384687842
-0.004292361818912267 0.07839760902000342 0.043370312883429296
-0.004280272376398849 0.07994342100812485 0.04333365797644051
-0.004268292540552631 0.08147760394788855 0.04329449217930137
-0.004256244820345823 0.08301272157222228 0.04326435097497766
-0.004244295843906128 0.0845370227378977 0.043232352852899725
-0.0042326495320769595 0.08603624672647248 0.043185037417283356
-0.00422116891339624 0.08752012818869087 0.04313126010692292
-0.004209709845768732 0.08899881456112868 0.043080455357348724
-0.004198322911024981 0.0904687914910749 0.04302925699502885
-0.004189094960163682 0.0917850090543953 0.042838856781712176
-0.004180457402457135 0.09305730957123798 0.04261261938217792
-0.00418230823900099 0.0936010174892451 0.04168823908404645
-0.004193256299598048 0.09351723724555028 0.04015299617711976
-0.0042213426610200454 0.09225648141872278 0.03746080645604305
-0.004235317016604793 0.09197452629972397 0.03570976099589396
-0.00424683366848108 0.09186556037717591 0.0341196140700033
-0.004264793655913776 0.091319582176832 0.032087963571197475
-0.004273438871552853 0.09141499463840619 0.030683098150249555
-0.004288970969375246 0.09104434750798562 0.02880510255971419
-0.004299808188200573 0.09099755104837776 0.027242338736699956
-0.004310657782193722 0.09095339913879896 0.025674575071038208
-0.00432184012755087 0.09089024195419082 0.024079764518326108
-0.004332403920425902 0.09087239030976302 0.022523342008562874
-0.0043430950312674495 0.09084936870001875 0.020954065883569406
-0.004354077672796288 0.0908102177313338 0.019360471812396585
-0.004364167670541022 0.09083436090062774 0.017824763436647295
-0.004375553044702816 0.0907752269626888 0.016194835969773558
-0.004381246101756224 0.0910990352447758 0.014958685340523359
-0.00439332821832136 0.09099999252081514 0.013272260674984881
-0.004400585174694627 0.09122478589090394 0.011920542578210513
-0.004409044894881927 0.09137235047564252 0.010481229004133674
-0.0044174367107603805 0.09152711483569997 0.009043476639003678
-0.0044236088172916604 0.091830693524029 0.007759888644905177
-0.004443188901670378 0.09125580096707187 0.005520735912673602
-0.0044395432846769944 0.09220861946708059 0.004929694428512543
-0.004440671401208301 0.0928483261670317 0.003998846345148688
-0.007186247275932279 -0.09057264113498564 0.027191421203609845
-0.007147335698712953 -0.08708939150884176 0.02768942129716473
-0.007105120772401075 -0.0833992946579144 0.02833559540294739
-0.007072892211892547 -0.08037433455853754 0.0285812748473383
-0.007047473727050313 -0.0778029651985565 0.02855385294273033
-0.007018199071095686 -0.07498647590186353 0.028695044752751087
-0.006996038114749783 -0.07264084245436125 0.02854743392762321
-0.006971079074990713 -0.07011902222962424 0.02852416755979209
-0.006950894683306322 -0.06791337370712403 0.028307223687897676
-0.006928980257652244 -0.06560090180437606 0.02816967752349847
-0.006910874541075466 -0.06354017440682436 0.02787708317356835
-0.00688751715527644 -0.061145426872004915 0.02781388986676836
-0.0068700592768752055 -0.059136380492580964 0.02750548258134755
-0.006855549835810852 -0.057321206863028606 0.02707584375177735
-0.006842644382042497 -0.055612584979043755 0.026581543500698468
-0.006833611670552093 -0.05415503952880579 0.02592374823396021
-0.006825498338444689 -0.05275851555385064 0.02522882782643182
-0.006816319387748309 -0.051296178858513175 0.024582795226016807
-0.006807483276638601 -0.04985800314862948 0.02392459398352903
-0.006799072078541194 -0.048449064630626704 0.023250467534447428
-0.00679017506912205 -0.04701152136162129 0.02260029610408254
-0.006781280263797576 -0.04557640499891852 0.021952753578550255
-0.006771548035332854 -0.044090755238788804 0.021345043191389357
-0.006761655338769148 -0.0425975069388137 0.020747449958331554
-0.006752751552675789 -0.04116892346833939 0.020108765981466104
-0.006743808729659223 -0.03974018214301678 0.019474557997697317
-0.006734308240326556 -0.03827885218835614 0.01886814247780677
-0.006725165719293425 -0.03684231373423291 0.018248502155530033
-0.006717059857293673 -0.03547271360036541 0.017584775527972718
-0.006709138346468941 -0.03411665969046063 0.01691516631848755
-0.006703168346378511 -0.03288372694860142 0.01615912022696525
-0.00609226095710678 0.005804141054766787 0.0430440792573239
-0.0060564876593641 0.008797760670509414 0.043750632259078104
-0.006040010349432859 0.01059237605693547 0.043580613740175356
-0.006028775725248283 0.01206016055450404 0.04317369978198593
-0.006020966214002029 0.013314741828361565 0.04261163823600833
-0.006017698919498755 0.014288990178956629 0.04184095936372573
-0.006009008841965365 0.0155939830449357 0.04132402984222999
-0.00597775119512771 0.018273769840199516 0.041865062868821856
-0.0059707095960637386 0.01947101770302989 0.04127957819534428
-0.005966029859549506 0.020522946136782072 0.04058508260086291
-0.00596374975683153 0.021428175897649948 0.03977870689683416
-0.005962333739238672 0.02228053896908838 0.038932094176386656
-0.005961992093776083 0.023067672483864265 0.038034852797893925
-0.005972636164852747 0.02319286537158799 0.03661390578299867
-0.005971852530760517 0.02400780699559807 0.03573633289841338
-0.005962692035870749 0.02532507118965177 0.03526098437718894
-0.00595651403787136 0.0264614448338214 0.03464486344140333
-0.005954971588726533 0.02731933739998449 0.033806766972924396
-0.005953884256316839 0.028149706639632288 0.03294709408201085
-0.005952781100024035 0.028980737420017777 0.03208852343545299
-0.005953154270746705 0.029723869329799868 0.03115831472777203
-0.005957147849683458 0.030252703140379034 0.030050929443460772
-0.005964841573009275 0.030563923576850283 0.028760791693524024
-0.005961293259665141 0.03153996475435589 0.02802155224753705
-0.005965330347884581 0.032068825321332095 0.026908936605254175
-0.00597366589602744 0.03234638727036343 0.025582226164479915
-0.0059843517267710025 0.03248842367916538 0.024136216569515534
-0.005995734015926618 0.03259250179340284 0.022652230950266028
-0.006008283159455477 0.03263145753689162 0.021106439194495896
-0.0060593958121893275 0.030429639992948343 0.017623521602399828
-0.006077923371737034 0.030132892805912248 0.015763502852348066
-0.006110223274659928 0.029043041645026968 0.013203146467284932
-0.006153267179020112 0.02734044859355428 0.010089332205730828
-0.0054034057741565444 0.07415872675662472 0.04388709864887297
-0.005394892400905375 0.07533891839596757 0.04349778758938849
-0.005379362805034568 0.07691617315268734 0.04347357464307333
-0.005363764319583292 0.07849334620722714 0.0434576899635446
-0.005348714349237102 0.08003543685737774 0.043418078142606065
-0.005333657442795645 0.08157404989762673 0.04338343946153922
-0.005318723919002643 0.08310183399226073 0.0433469643949686
-0.005303397374309882 0.08464789028273623 0.04333567153829604
-0.005289003905733046 0.08613762967677846 0.04328001041081425
-0.005274344509574304 0.08763856130959008 0.04324278392675335
-0.005259766151788955 0.08913119566633088 0.043205763233731265
-0.005245066663561186 0.09062683432787527 0.043179634796281674
-0.0052337698342073136 0.09192944253881802 0.042977000807634835
-0.005223857816603249 0.09315230293540627 0.04270394899809277
-0.005228045898561909 0.09359201310918552 0.04167953706350991
-0.005270858011950002 0.09189948399870063 0.038581423458506736
-0.0052756059111173205 0.09231546491642673 0.037518403974145575
-0.005294927003487419 0.091931494327476 0.03566752214735036
-0.0053086561787645875 0.09185919247315438 0.034113331172254235
-0.005331874843887603 0.09127116868543206 0.03203994797288162
-0.005341065222008528 0.09145492006132666 0.03072290091310631
-0.005362738377780978 0.09096120341757197 0.02872178463542241
-0.005374903710567053 0.09098964745780574 0.027234377680684096
-0.005388639230111984 0.09093610837118987 0.025657068293678142
-0.005402819244353743 0.09086206448634687 0.024051087317432107
-0.005415180735898467 0.09088977087254929 0.02254112248901402
-0.005429325544586049 0.09082467974581004 0.020928678469047057
-0.005443110418470632 0.09078255043940298 0.01933187471749126
-0.00545569805635153 0.09080809133212775 0.017797470729947862
-0.005469466709363205 0.09077376347266541 0.016193307720034633
-0.005477695405967748 0.09103828030223071 0.014894910289970087
-0.005490940510782963 0.09103816068499154 0.013312533162327611
-0.0055016437780715894 0.09117628439825459 0.011869103184546592
-0.0055114153565279525 0.09136646395877268 0.010474953802007136
-0.00552324580442007 0.09145046770587528 0.008961345852222302
-0.005528795305948109 0.09186827853441326 0.007800370463371453
-0.005554210066130553 0.09124393187447993 0.005507886265793016
-0.005549991032158961 0.09217906624876526 0.004897534650595559
-0.005550526945596414 0.09286454609805644 0.004016587963058094
-0.005566040906893219 0.0927690965648601 0.0022767375773432574
-0.008581661607932075 -0.08827499745385048 0.028618742865976488
-0.008548834724521141 -0.08555631444687561 0.028647218180728407
-0.00851072834797364 -0.08255585009054284 0.028865541714796217
-0.008479208740179853 -0.0799231745419196 0.02886635535758114
-0.008447077875180753 -0.07726394465226577 0.028896383631072386
-0.008414676377272504 -0.07459688127553976 0.028944022309720485
-0.008389416863580393 -0.07232440255674999 0.028750804154093534
-0.00836129390148779 -0.06990222478685232 0.028664285938967804
-0.008337785165067318 -0.06773552829868396 0.028422814767253946
-0.008314988443593149 -0.06561228578004008 0.02816223693420422
-0.00829202751721925 -0.06348508570097167 0.0279132919767085
-0.008269427816803815 -0.06138221794904508 0.027657379006824523
-0.00824243914320577 -0.059048795480322935 0.027563697539539522
-0.008226325201287093 -0.05730324324333541 0.027087850404372893
-0.00821099419734336 -0.05560296780516033 0.02658800741024181
-0.00819948853042987 -0.054109914955380256 0.025954246146719484
-0.00819075247685339 -0.052766685240829836 0.025223275631680087
-0.008180860466955143 -0.0513639483089538 0.02453648201156955
-0.008170533914064582 -0.04994030405561406 0.023868038044708273
-0.008160690651227475 -0.048544430653951476 0.02318457043652178
-0.008151225897880195 -0.047170642805542895 0.022489736376775427
-0.008140392539473233 -0.045726799121570405 0.021847680602405772
-0.008131050444094111 -0.04436366104818479 0.021153325755463026
-0.008120446689686377 -0.042936343985927716 0.02050810467318437
-0.008110297090484823 -0.04153507313428545 0.019848705466917915
-0.00810137439945259 -0.040200071932959214 0.01914612404657512
-0.00809137228854424 -0.03881070820791144 0.01848623023133006
-0.00808264068915003 -0.03748958818932718 0.01778116534872759
-0.008074773482025122 -0.036215217980332615 0.01704574995566388
-0.008065903924371334 -0.03489059917168902 0.016350251404407823
-0.007434194529163645 -0.0013637229078637403 0.03929174767770771
-0.0072915782178417515 0.006791464220151866 0.04377262632161416
-0.007259995654298375 0.009198844433244424 0.04404820282023747
-0.007242825662671559 0.010858882547206683 0.043779413698861847
-0.007224402520560814 0.012579499313333742 0.043563201860797984
