# .PCD v0.7 - Point Cloud Data file format
VERSION 0.7
FIELDS x y z
SIZE 4 4 4
TYPE F F F
COUNT 1 1 1
WIDTH 758
HEIGHT 1
VIEWPOINT 0 0 0 1 0 0 0
POINTS 758
DATA ascii
0.003518925796368234 0.02968461993098298 0.041751676486852074
0.003505627062144779 0.031771060278282526 0.04191332937437353
0.0034936758636198413 0.033717073706819256 0.04197400065101936
0.0034825089472027915 0.035579720455620356 0.04197784975293334
0.0034727376247047246 0.03729864692546586 0.04187507221471254
0.003463121629378185 0.0389979562867695 0.04176474306821609
0.00345358603855875 0.04068517502480168 0.04165281201450499
0.0034443471785369547 0.04233895801322202 0.04152163993084468
0.003435472747862749 0.043952814432684395 0.04136548139651752
0.0034270112612496445 0.04552220073432317 0.04118009041830628
0.0034186091850883548 0.04708212307374399 0.04099414775601368
0.0034106386560675316 0.04859613057609358 0.040776989944003084
0.003403014411843846 0.05007284257696293 0.04053532322356568
0.0033953186307847934 0.05155327121711273 0.04030347243937149
0.0033878151874372924 0.0530116664756049 0.0400595796844877
0.003380379706664347 0.05446024072498268 0.039813857756840376
0.0033731243578332022 0.05588815929027574 0.03955688252562667
0.0033658655122827783 0.05731330720475214 0.03930390558691221
0.0033586722662295003 0.058729010771141676 0.03904912114757536
0.0033522554398640074 0.06006683260705897 0.03873254339410942
0.003345939955748619 0.061392163270417965 0.03841067170827611
0.0033397248077094233 0.06270516440390972 0.03808351381106567
0.0033340245101925233 0.06396623312643573 0.0377157239116786
0.003328115455970232 0.06524479165014563 0.037368660448534596
0.0033217389797538643 0.06656534818182136 0.03706462395338317
0.003315772695087833 0.06784418227674105 0.03672862852225889
0.003308741622282623 0.06922144314311612 0.03648736499286598
0.0033025888761565357 0.07051257969167907 0.03617383841754479
0.003293584637693047 0.0720702903700457 0.03611044172282485
0.0032808637907960265 0.07397423294269578 0.036374513947538434
0.003265871107606975 0.07608623598654196 0.03684302249589011
0.00327085061847584 0.07631906832517871 0.03557395646107908
0.00327661511911908 0.07648059602940815 0.034233552135188805
0.0032823835341887404 0.07664422858318315 0.03288985982037318
0.0032882547872933533 0.07680075625231653 0.03153415649139901
0.0032941388030914183 0.07695861409593802 0.03017432642998691
0.0033001685488544892 0.07710548473374157 0.028798571008918417
0.003306487303861858 0.07722821106689737 0.027394038895821704
0.003313056392756034 0.07733054735643385 0.025963957397315218
0.0033198113891122196 0.07741858519559208 0.02451389613329774
0.0033267290788154776 0.07749457605057047 0.023045794559638677
0.003333777407761037 0.07756156145700527 0.02156241088088162
0.003340855666620099 0.07762883130934434 0.020072728184784894
0.0033479383915329657 0.07769872706246256 0.018579026678946953
0.0033548193529575614 0.07779001482567849 0.017100008491757523
0.003361659681368933 0.0778879394122996 0.015621172089866353
0.003368623191528843 0.07797764065800394 0.01412760652010464
0.0033756416915063036 0.07806535816802607 0.01262545484117611
0.0033827331491502063 0.07814950793159642 0.011113026845982255
0.0033898895330985762 0.07823085895226362 0.009591005364707916
0.0033971026742742045 0.07831018570301718 0.008060094132816331
0.0034044261589915854 0.078382729629556 0.006515293473016881
0.0034120033228942966 0.07843576633937699 0.004943225142079788
0.0034211941519003606 0.07834834674732533 0.003217215165060794
0.002532138364159571 -0.0178892382055717 0.04283486614370824
0.00252085214466741 -0.015292148966048857 0.04311088984139633
0.002505830097418138 -0.01211323253397295 0.04380939156212532
0.0025093993486131924 -0.011869553705776525 0.04245284839564728
0.0025168584539921024 -0.01223444948982072 0.04065969670494113
0.0024916038313662595 -0.00746764875767203 0.0425222497587503
0.002486293744062356 -0.005836382575283017 0.04216425731259987
0.0024793519325317353 -0.003953854189627737 0.041994210000488585
0.0024813372988848467 -0.0034662496639827345 0.04082006589233683
0.002467603135880485 -0.0005340092656874185 0.0414278614241399
0.0024627348055591067 0.0010141949294247832 0.04103690821896605
0.002456213685431024 0.0028151084086531775 0.040838467813215595
0.002453765058466305 0.0039827502780012125 0.04017829819038782
0.0024600098279223903 0.003808738886087848 0.03852037523130425
0.0024662795029995062 0.003634910315326867 0.036854795106258886
0.002496828857433628 -0.0002619731811807635 0.03237396132283216
0.0025045291275125952 -0.0006390842556623921 0.03052333192031531
0.002512269816908084 -0.001017424420983959 0.028662094115113168
0.0025200512345773048 -0.0013970018352285063 0.026790165344662387
0.0025278883186246504 -0.0017800511199038693 0.024905746789281535
0.00253578165824693 -0.0021666081021868844 0.023008705154594744
0.002543731851002184 -0.0025567091191911473 0.021098905256466904
0.0023760526952257013 0.023623407377944605 0.03998356305155493
0.0023558862172454844 0.02743087927001081 0.0414696012513342
0.0023456662781224076 0.02972730195789347 0.04178545641806242
0.0023370900330271873 0.031770120732493246 0.04191258188612146
0.002329221804145516 0.03370124501222632 0.041961338880332044
0.002321930704029294 0.03554094470548552 0.041946666079783756
0.00231535976976946 0.037268416762692935 0.041850631106445324
0.0023089967473893507 0.03896068494105642 0.04173444833960094
0.002302668601747673 0.04064367752829229 0.041618902388866785
0.0022965198934699563 0.04229598053142375 0.04148633390799006
0.0022906260870753786 0.04390659497716737 0.041327310076704815
0.002285007415106846 0.04547277785064685 0.04113905652492811
0.002279434077442625 0.04702866696848462 0.040949529552969655
0.002274183763255501 0.04853346389326357 0.04072440644343028
0.002269022389374883 0.05002183347383493 0.04049229473255339
0.00226394891031805 0.05149401455847413 0.04025322205040621
0.0022589389457989993 0.05295365420423043 0.04001012427448225
0.002254015060696992 0.054397523845101214 0.03976010903824462
0.002249182064493215 0.055825006831396684 0.039502474665242426
0.002244277518250618 0.057259768859116766 0.039257537200853176
0.0022396927887142985 0.05864505971047845 0.03897602956308949
0.002235589947265306 0.059957767199312284 0.03863708583334552
0.0022306874868051785 0.061383131543778446 0.038402725316842745
0.0022273099630101883 0.06258596008022449 0.03797808146393428
0.002223433350023458 0.06385825864087902 0.03761972206890285
0.0022193898073623766 0.06515197346986701 0.03728570092029515
0.002215057689756157 0.06648432680622457 0.036991828219078315
0.002210982984916446 0.06777719390340387 0.03666812549083931
0.0022062991430216216 0.06915409646850201 0.03642621960274184
0.0022014465141612636 0.07055194545933358 0.03620976668095033
0.0021952576228173202 0.07213591028403449 0.03617064490054106
0.0021855827273996576 0.07420844751797562 0.036590518231669644
0.002179825115737061 0.07572253748674879 0.03650584909471377
0.002183474522393474 0.07590982080682462 0.03519257460107639
0.002187355166996859 0.07606700038660746 0.03384610659957077
0.0021912166605711743 0.07622935567506445 0.032499190685775003
0.002195157985783442 0.07638304163870324 0.03113876106986635
0.0021991467226534565 0.0765326534710396 0.02976902510785645
0.0022032221970032955 0.07667276886506169 0.028384698413010945
0.0022074800935718802 0.07679019781264684 0.026972919637244575
0.002211916842984554 0.07688561020368662 0.02553395658786578
0.002216444547771511 0.07697131534943802 0.02407939416040239
0.0022210755076506423 0.07704570655537413 0.02260747326782453
0.0022257825538149513 0.07711261737716757 0.021121740450691207
0.00223054375586234 0.07717512817633498 0.01962507518497325
0.0022352338821247995 0.07725042214587818 0.018134405459076852
0.0022397830106987513 0.07734797320341674 0.016659326050202594
0.0022443737521848943 0.07744278269349908 0.015175084251905668
0.002249041236317606 0.07753011906114404 0.013676825820226113
0.002253745612862691 0.07761545635416917 0.012169930119612593
0.0022584872232442915 0.07769878398673086 0.010654307783018846
0.002263278137833643 0.07777850997596841 0.009128250695958962
0.002268136519642616 0.07785223812417297 0.007589189325453161
0.002273074933461689 0.07791834699423711 0.006035302977471568
0.0022784447562275052 0.077929863738403 0.004417617012729913
0.0022844609752945277 0.07785848619945612 0.002705644868341184
0.001261012448422829 -0.015477236859561538 0.04298157800880181
0.001257256584127989 -0.013482231208164663 0.0428476641091281
0.0012499010330246116 -0.010359154419587069 0.04351975387133039
0.0012558289642615014 -0.011417594087132221 0.04123987457649886
0.0012595688877883558 -0.01178261266733338 0.039440683246196984
0.001242517818573111 -0.005639539145174455 0.042305605670292845
0.0012397535290949115 -0.003978011633115286 0.04197676822778135
0.0012368649349396416 -0.002281315656963767 0.0416802761608015
0.0012338503727199008 -0.0005491738196971574 0.04141679257015907
0.001230708313273267 0.0012186453594794089 0.04118695509416459
0.0012468328583720985 -0.0029821220342848287 0.03656068436525395
0.0012439678881279272 -0.0012956003442721187 0.03626220519660722
0.0012351407186597478 0.002225349247669761 0.03733924959006907
0.001237137701355598 0.002404886731657674 0.035932282398701776
0.001245751811896239 0.0005554764288631109 0.03299036858005627
0.0012495819587826959 0.00018278267860943886 0.031146425313125337
0.0012534357301851678 -0.00019220986314305577 0.02929110852215655
0.0012573133453554239 -0.0005695225307610352 0.02742431265301798
0.0012612113854779375 -0.000948068530552626 0.025546784851942228
0.0012651409976561963 -0.0013311949092605357 0.02365585489227834
0.00126909885994094 -0.0017178337311402059 0.021752234527563696
0.0011852728494607173 0.024456053710842196 0.04063552737062692
0.0011775514023704998 0.027548760231844494 0.041562398107522214
0.0011727625786241455 0.029748164921468645 0.04180196808106379
0.0011686092655939903 0.031750391152998714 0.04189688370900585
0.00116465599717963 0.03368727731365584 0.0419501657767245
0.0011611828762345788 0.03547537560724595 0.04189393499123312
0.0011578592716004429 0.03721435579824378 0.04180692271346437
0.0011546217648540809 0.03892340551858631 0.04170414704607228
0.0011514903164131151 0.040596755211894264 0.041580559867938405
0.00114840901108794 0.042251200793500476 0.041449547327388314
0.0011454762799499917 0.04385769530642952 0.04128692523940808
0.001142695952469096 0.045415393865340214 0.04109141282593021
0.0011399796529930257 0.04695064315541697 0.04088440538505789
0.0011373058409978598 0.048469902859466785 0.04067107249341512
0.0011347123207495035 0.04996215894561501 0.04044195654844146
0.0011321980804660367 0.05142786255549503 0.04019712431331518
0.001129686193621168 0.052889646433732895 0.039955557698113486
0.0011272261423648847 0.05433308698964867 0.03970488628863378
0.0011248491787638583 0.055749191707622936 0.03943715749766763
0.0011224130086093119 0.057179428380320474 0.039187956033042926
0.0011201137100688686 0.05856688797282461 0.03890796972410793
0.0011182615661732161 0.05982215905647137 0.03851839719443523
0.0011158595148049633 0.061233625378865286 0.03827118385127887
0.0011139986763926948 0.06248628290624475 0.03788992025974869
0.0011121836694419586 0.06372339094429941 0.037499809020446584
0.0011099457841784028 0.06507929530323531 0.037220742259729045
0.001107798339770509 0.06640647512938957 0.036921880385421935
0.0011056759771974148 0.0677237422634952 0.03661984867944468
0.0011034697507750816 0.06906214144323436 0.03634273176793262
0.0011007340391809685 0.0705480092230042 0.03620617426192774
0.0010972562642540633 0.07224053241711498 0.03626663072329678
0.0010917040576024816 0.07451478599739247 0.03687303872585168
0.0010912567996022074 0.07534260711899499 0.03615362763728974
0.0010931954177806232 0.07549871021806737 0.03480945652694395
0.0010951436812726013 0.07565459850118988 0.03345977934501593
0.0010970933915736265 0.07581258625444054 0.0321067356814464
0.0010990859995766808 0.07596109612674068 0.030739360813306138
0.001101096959113397 0.07610705252583683 0.029364066021108193
0.0011031682132437634 0.07623882711908098 0.027969653322500287
0.001105322772391059 0.07635015211646023 0.02654984632703844
0.0011075671835782453 0.07643937594283651 0.0251027022136584
0.001109834824316431 0.0765250700808282 0.0236458875177028
0.001112171221039408 0.07659473617249657 0.022167100457950062
0.0011145402210162466 0.07665844412974915 0.02067593722111022
0.0011169079132955647 0.07672555615598531 0.019181498210575187
0.0011192541449623697 0.07680158327184106 0.017689254669421894
0.0011215123625026126 0.076904649382738 0.01621736535270868
0.0011238375254066857 0.07699238933475894 0.014723748819837068
0.0011261752524583662 0.07707970525798219 0.0132231318510308
0.001128543130883927 0.0771618549902992 0.01171065961024964
0.001130920987587879 0.07724435090306253 0.01019181378656614
0.001133341224587482 0.0773184724810716 0.008657630642948555
0.0011357807005335095 0.07739052845916838 0.007114415986444078
0.0011382900119040176 0.07744697365207853 0.005548086816805409
0.0011412097417475677 0.0773967344090728 0.0038637216352687687
0.0011445161490593887 0.07724694472275406 0.002067000934801
1.4099660807479617e-09 -0.016128131869761864 0.04252682939813779
1.1839415563748986e-09 -0.01354271255793471 0.04280517577477372
9.066099471656954e-10 -0.010370408570735457 0.04351180431909052
9.270405982659866e-10 -0.010604108022461478 0.04181765934965348
9.586741723578483e-10 -0.010965953983589682 0.04002390676946216
9.903968499775694e-10 -0.011328819170513316 0.038220277915009926
3.287712656829671e-10 -0.00376070424346886 0.042133665831330436
1.801877311660488e-10 -0.0020611066512181697 0.04184013833240863
2.9081494652056616e-11 -0.0003326527098945764 0.04157483604356832
-5.748012893568537e-11 0.000657496875982877 0.04077512658420329
-5.922671080612063e-11 0.0006774754145213446 0.03926110593700116
-1.1868981226833222e-11 0.0001357660694100704 0.0373241590006414
3.0296895516447436e-12 -3.465490016463235e-05 0.03565340497133246
-1.4548180366402998e-10 0.0016641186359540594 0.03537670935877146
-1.198156930342653e-10 0.0013705325036492133 0.0336049709644482
-8.752202838981174e-11 0.0010011359855049418 0.031766854870815875
-5.5029602090734404e-11 0.0006294658987220925 0.029917425505080142
-2.233657345957576e-11 0.000255501188401952 0.028056578098110185
1.0558920979489958e-11 -0.00012077946113758786 0.02618420658311804
4.3658767854762847e-11 -0.0004993976304116798 0.024300203575505774
7.715942862563312e-11 -0.0008826005767024747 0.02240272717016284
-2.1842091868402732e-09 0.024984442732959633 0.04104925742609694
-2.4155066109782995e-09 0.02763017699616649 0.041626490074564204
-2.6009156766145776e-09 0.029751009591592492 0.04180421952038049
-2.7729963470354863e-09 0.03171938310806999 0.041872211581657104
-2.9412898330847126e-09 0.03364443628252883 0.04191589602008633
-3.096025130471987e-09 0.03541440184718775 0.041844899508815536
-3.247692725648942e-09 0.037149276986899515 0.04175430635358285
-3.3985779723074893e-09 0.03887520310232423 0.04166496734953978
-3.5446619508391882e-09 0.04054620910893336 0.041539256167346605
-3.688156315177502e-09 0.04218759338036515 0.04139729376606438
-3.828796402343421e-09 0.04379632852483423 0.04123624415132765
-3.965475647523176e-09 0.04535975691551841 0.04104521962533875
-4.100645206121018e-09 0.04690591650372106 0.04084707340794547
-4.23150978416602e-09 0.048402832851531796 0.040614794164890944
-4.3614011947273694e-09 0.049888617460345897 0.040379920934688895
-4.49040622132642e-09 0.051364263017994516 0.04014319110257669
-4.617489668149033e-09 0.05281792826390236 0.039894418001987675
-4.743126895260213e-09 0.0542550506837261 0.03963800871526052
-4.869328491718528e-09 0.05569862873691089 0.039393595900385936
-4.992269556029027e-09 0.05710491064755058 0.03912341782704232
-5.111859980162953e-09 0.05847286569986759 0.03882610967727129
-5.229095736697324e-09 0.059813886492868784 0.03851115685917422
-5.340490416287912e-09 0.06108809314974578 0.038143138814717426
-5.4537900827158705e-09 0.06238409031750264 0.03779953425125915
-5.5654740631081395e-09 0.06366160619022787 0.03744487524405499
-5.682349272694098e-09 0.06499850280705816 0.03714853112288796
-5.798207452513032e-09 0.06632376595879069 0.036847568206657855
-5.918434638745044e-09 0.06769900472175455 0.03659750610714124
-6.0312941033813975e-09 0.06898996656819445 0.03627720275207952
-6.167846612250704e-09 0.07055194526686714 0.036209766680941835
-6.3271304919151975e-09 0.07237394055527013 0.03638902631001256
-6.523720629205914e-09 0.07462266971602477 0.036972534482993646
-6.551409480256797e-09 0.07493939324372167 0.03577982076943326
-6.5644046415909175e-09 0.07508804054207296 0.0344267493441634
-6.577784388008864e-09 0.07524108698117099 0.03307241261391103
-6.590738808094269e-09 0.0753892682537145 0.03170811414139607
-6.6036048537427025e-09 0.07553643864035942 0.0303373934873295
-6.61604319362773e-09 0.07567871664292797 0.02895650464216587
-6.6268976796424325e-09 0.07580287746777309 0.02755268776379899
-6.635889126040476e-09 0.07590572760199704 0.02612256308716482
-6.643553501075531e-09 0.07599339780817732 0.024671695367925017
-6.6507030471942e-09 0.07607517905749539 0.023208839192387365
-6.656377523475991e-09 0.07614008747344353 0.021723135769953494
-6.66173349141011e-09 0.07620135257820981 0.0202272694688852
-6.667524368968036e-09 0.0762675924693762 0.018729641471334157
-6.675334687415914e-09 0.07635693207307331 0.01724825714632583
-6.683659509666781e-09 0.07645215691451779 0.015766264197514146
-6.69146627336866e-09 0.07654145585639943 0.014271872138570285
-6.698752240548787e-09 0.07662479757995566 0.012764911279358027
-6.705860959012667e-09 0.07670611181426684 0.011249220520013536
-6.712652666784412e-09 0.07678379986857381 0.009723093315623377
-6.719264674287821e-09 0.07685943239114318 0.008188030939421442
-6.7247902827091856e-09 0.0769226379558085 0.006633286926571891
-6.729432501610601e-09 0.07697573872142555 0.005061013719991292
-6.72177721713823e-09 0.07688817243588741 0.0033353505480441803
-0.0012583296262223508 -0.013821392775617447 0.042609401785668855
-0.0012512450848676789 -0.010782750147255882 0.04322053740636955
-0.001250661353527274 -0.009795094932415038 0.04239226715807204
-0.0012543668628981154 -0.010152666863138593 0.04060472246304081
-0.001258094395352227 -0.010512363963520066 0.038806553791084275
-0.0012599992186146077 -0.010298278046920739 0.03741348979135273
-0.0012569906087555242 -0.008551086949266706 0.03712869697421067
-0.0012539963332265946 -0.006812220232241317 0.036845261034156196
-0.001251019871804745 -0.0050827298150100675 0.03656235673319891
-0.0012480539423433443 -0.003360326817001602 0.03628160674847647
-0.0012451020436314091 -0.0016460718902344684 0.036002184891168465
-0.0012310138718279447 0.0034978200416415084 0.03828844630217726
-0.0012392399420842965 0.0017582239342989192 0.035447288038929436
-0.0012404538206202494 0.0021821221135753244 0.034216959421241366
-0.0012442513432935562 0.001815998149035658 0.032384637639503
-0.0012480721890233046 0.0014476255792185144 0.030541062377944794
-0.0012519165733344173 0.0010769836250949516 0.028686129644819758
-0.001255784714415532 0.0007040512508243446 0.02681973416312572
-0.0012596768331602844 0.0003288071597736253 0.024941769350687315
-0.0012636004619490245 -5.0985986458140786e-05 0.02305040161837868
-0.0011826143471056758 0.025261611350315072 0.041266281253086845
-0.00117715647684134 0.027669435226800154 0.04165739452844547
-0.0011727457452382704 0.029754802447996054 0.041807221383062476
-0.0011688586662917293 0.031677090624200266 0.04183856075113568
-0.0011649941646279035 0.03358760917456349 0.04187043837709031
-0.0011615502559520594 0.03536727108134857 0.04180699666822052
-0.0011582586647090702 0.037097012868542 0.04171205071687051
-0.001155016209195966 0.03880787905996308 0.04161024525631041
-0.0011518647330896572 0.04048752082564511 0.04149129907851795
-0.0011488421653028577 0.042124858594364045 0.041345757070073264
-0.0011459556302507163 0.04371803144305908 0.04117158078471728
-0.0011430686123009431 0.04530763583333236 0.041001945518489125
-0.0011404044242525127 0.04682783566392196 0.04078190164151674
-0.001137788180568211 0.04833050649366738 0.0405541052356605
-0.0011352134082660815 0.04981764076929979 0.04032004884538076
-0.0011326443911612867 0.051299779130386525 0.0400885079506475
-0.001130171746803955 0.05275045058787764 0.03983689332926371
-0.0011277855569062193 0.054172733139884965 0.039567462091206373
-0.0011252384212681685 0.05563877571978931 0.039342030618978396
-0.0011229191705568805 0.05703538585494217 0.039063203904884436
-0.001120971713815329 0.058321317040337495 0.03869416450220298
-0.001118472409656802 0.05976424270569697 0.03846770706298058
-0.0011167058472544172 0.060992644636175486 0.03805915945031313
-0.0011148026195892504 0.06225809944414096 0.03768809941696133
-0.0011126989733839323 0.06357864699005772 0.037371114911941505
-0.0011105552631331121 0.06490796646230473 0.037067611068047235
-0.0011084001146089535 0.06623779901113197 0.03677032899103522
-0.0011061272879275507 0.06759841891617085 0.03650665826629673
-0.0011036072508511714 0.06902645457271311 0.03631033107468923
-0.0011005633798811143 0.07059995809631725 0.03625358690659852
-0.001096126508740587 0.07256410255310053 0.03656349081128202
-0.0010924349672631454 0.07431191414007016 0.03668594050150259
-0.0010941201548556058 0.07453898372986723 0.035408613737454964
-0.001096126693752861 0.07467781972930776 0.034044460461855386
-0.0010981130066953458 0.074824912139833 0.03268255095301076
-0.0011001176112005382 0.0749694360268312 0.031312775015405137
-0.0011021378881832852 0.07511215839426516 0.029935783245392034
-0.001104193503232216 0.07524762786038952 0.02854632388026701
-0.0011063408349856957 0.0753602337782972 0.027129319667881235
-0.0011085527835148475 0.0754576720386424 0.025691788846004926
-0.0011108244263591137 0.07554142985019696 0.024234899773609986
-0.0011131309205300384 0.07561848321057407 0.022765180294477383
-0.0011155039692312939 0.07568016424423307 0.02127402049973265
-0.0011178614169725098 0.07574918453168111 0.019783434487074314
-0.0011202288500629957 0.07581849716578742 0.018286534857345715
-0.001122519808555641 0.07591177670629079 0.016806759598109178
-0.0011248346354854155 0.07600148648250726 0.01531697947685784
-0.0011271677527162124 0.07608919152084559 0.013818661816398403
-0.0011295368486937437 0.07617012167357995 0.012306924167573008
-0.0011319247216709156 0.07624900846382032 0.010786404255795967
-0.0011343286018824677 0.07632663700272396 0.009257821115037534
-0.0011367752469189161 0.07639582052637728 0.0077137542926854485
-0.0011392770270814779 0.07645331267247985 0.006150682490874471
-0.0011419121905663575 0.0764782135788557 0.004546766794049195
-0.0011450064871069586 0.07638354043982726 0.002811062516529683
-0.002520515065507471 -0.014429220507262364 0.04218240023502878
-0.0025090153993790674 -0.011809459680866441 0.042495297507098295
-0.0024941697945902955 -0.008671625007685757 0.04319022033637804
-0.002503566713441502 -0.00934273046981482 0.041183145207252025
-0.002510991081276232 -0.009699282511490659 0.03939040705887581
-0.0025184596144214072 -0.010057955572936483 0.03758700445536883
-0.002513352884615643 -0.008453101307153876 0.037199830338389805
-0.00250736717479413 -0.0067149020458047715 0.0369162957424089
-0.0025014170691256936 -0.004986073300717042 0.03663329332499332
-0.0024656466649103912 0.0013549959337202933 0.03976104932654917
-0.0024630474950026724 0.0025489560377497944 0.03911454354243282
-0.002461590499427984 0.003565175424974698 0.038338689969841855
-0.002462020570468526 0.004290167214376028 0.037346235493566304
-0.002475643019162807 0.0029902673262269253 0.03482635059075195
-0.0024832058481236096 0.002627391461785422 0.03299979052017282
-0.002490815026167966 0.00226229169896891 0.031162036306948082
-0.0024984709806836693 0.001894947531072555 0.029312984729188696
-0.00250617414432934 0.0015253381984891012 0.027452531292005422
-0.0025139249551159285 0.0011534426847987223 0.025580570207823894
-0.0023833409240766913 0.0217556090083581 0.04003371664641636
-0.002364221798232652 0.025413580939962654 0.04138527391669433
-0.002354266134261795 0.027676136899400017 0.04166267021626391
-0.0023456840690342998 0.02972540478319763 0.04178395526108386
-0.0023379147062625467 0.03164700974369078 0.041814626341853456
-0.0023304203593092453 0.03352237497149113 0.041818255644169966
-0.0023235112835153613 0.03530533479746001 0.041757187116833405
-0.002316907177781454 0.03703831153520454 0.04166459056984162
-0.0023105298817400056 0.0387332459810229 0.04154958224859412
-0.002304242281030514 0.040410744283459255 0.0414285611565085
-0.0022981701187509717 0.042052236671551224 0.04128609806730277
-0.0022923583702336796 0.04365127242631539 0.04111644639504164
-0.0022866656956008445 0.04522898210645937 0.04093664234677019
-0.002281334707177728 0.0467497185389113 0.04071669958889568
-0.0022760818735986558 0.04825553294480367 0.040491195049751405
-0.002270906287635132 0.04974663382758604 0.04026015123824922
-0.0022657953110041124 0.05122494641553704 0.04002504884894448
-0.0022608593652710686 0.05267439840319571 0.039772058883101535
-0.0022557352318778767 0.05414811466620434 0.03954636397226191
-0.0022511155012376553 0.0555451588756079 0.03926137667694779
-0.0022464049260668487 0.056952419911558694 0.038991348875778986
-0.0022425942457562427 0.05822631880886847 0.038611454740937634
-0.002237988007944364 0.05961273512199239 0.038335102708593305
-0.002234028737771249 0.0609029043485107 0.037980202413238684
-0.0022302485121096717 0.06216476965255585 0.037605552270797815
-0.0022258628807679884 0.06351110914429403 0.03731106596514916
-0.002221680848825867 0.06482546884932483 0.03699387592131581
-0.0022171431611498252 0.06618796498677376 0.036725554366491275
-0.0022127472348921874 0.06752733150242379 0.03644245302946081
-0.002207286521960379 0.06901535029966527 0.036300249356721825
-0.002200588451228607 0.07067548945038093 0.036322522618129016
-0.002190900047269545 0.07275480980070048 0.03673845555267158
-0.0021873244801271638 0.07396417570176583 0.03636523910639278
-0.0021911254092375917 0.07413133579668202 0.03503069619383531
-0.0021951766700443087 0.07426572885083937 0.03366042884642817
-0.002199198660792978 0.07440683358410383 0.03229090594230083
-0.002203240971832505 0.07454767855061734 0.030915622959369393
-0.0022073260487655744 0.07468514791275371 0.02953158864875466
-0.0022115382373288756 0.07480752774289179 0.028127568835984718
-0.002215907003023775 0.074910843501716 0.026699498774128416
-0.002220360762692832 0.07500517660490769 0.02525674597782407
-0.002224917432867613 0.07508812927386543 0.02379681629635022
-0.0022295781716502434 0.07515964082071885 0.02231943612920001
-0.002234315605757562 0.0752235825806703 0.020828168271062764
-0.002239056003383051 0.07529016223031959 0.019332871567231735
-0.0022437416601383594 0.07536729499313716 0.017841349469242762
-0.002248325482178472 0.07546137041096179 0.01636005426709114
-0.0022529803491963696 0.07554869633621752 0.014865581559400487
-0.0022576661966787473 0.07563479624494585 0.013363316096489053
-0.00226243015094544 0.07571329868183035 0.011846774333958587
-0.0022672260176751025 0.07579053884065862 0.01032220464307898
-0.0022720717978184915 0.07586411393266573 0.008787093627953768
-0.002276991734240825 0.07593080246944456 0.007238039106178928
-0.0022820283725288578 0.07598495153918283 0.0056690694855220936
-0.002287775936350964 0.07594691318763075 0.003997609429186977
-0.002294196831747208 0.07582240690927206 0.0022280721351578547
-0.0037669739395493358 -0.012171436939527436 0.04223960659318998
-0.0037480161773571553 -0.009379491225536551 0.04268745302254734
-0.003734028997420971 -0.007115008521469235 0.042774091041763884
-0.0037257714385225253 -0.005453937387529639 0.042438881901637304
-0.003769888664671712 -0.009246210078936168 0.038173090720319214
-0.0037126014210661566 -0.00248976539706236 0.04152895109361937
-0.0037072042751496777 -0.0011350051075948997 0.04098918208330099
-0.003702565233921254 0.00013904579238055437 0.040394633985254946
-0.003698344712718676 0.001367918703477855 0.03977058513388376
-0.00369515439673169 0.0024888896857572784 0.039069979431420265
-0.003691564057902952 0.0036496031859952205 0.03840166873684997
-0.0036923752612518907 0.004357381787809089 0.037396646236572906
-0.0036964780510353812 0.004728647508452144 0.03613719601705101
-0.00371690789249322 0.003434261614517764 0.03361151419483149
-0.0037282732327146577 0.003072405853597804 0.03177954053037796
-0.003739697621045066 0.002709415463607201 0.029937160638215665
-0.0037512029747922403 0.0023431041707979716 0.028082615528512545
-0.003762779340724784 0.0019745319684278395 0.026216623982189213
-0.0035675472568869695 0.02250979483883403 0.040621088368247626
-0.003545554570651207 0.02549193510625919 0.041446625512927604
-0.0035315978022162197 0.02765603071153272 0.04164684255577189
-0.003519053804378097 0.029672287002677877 0.041741916320460704
-0.003507114639236863 0.03162256521615964 0.041795176616377105
-0.003496365705469884 0.03344872426558354 0.041759340295804415
-0.003486016194408578 0.03523042715122526 0.041696945896704196
-0.0034760964788945357 0.03696490687195403 0.04160524273029026
-0.003466489735569164 0.038664044947323006 0.04149333450359238
-0.0034570727103974777 0.04034026021798914 0.04137096513621408
-0.0034480422837613526 0.04197420088228454 0.041221991560179694
-0.003439022820446233 0.043603189637513085 0.04107673619862584
-0.003430903351768476 0.045139679004870925 0.04086249739661679
-0.003422795318925527 0.04667156510338655 0.04065146722896301
-0.0034149568292542775 0.04817354669069662 0.04042240050623025
-0.0034071364467961837 0.049670397589369863 0.04019584247391156
-0.003399519313929891 0.05114405472954675 0.03995645165526618
-0.0033921995127333435 0.05258548406188346 0.03969625944119026
-0.003384867460327621 0.054024967381908096 0.03944082597629234
-0.0033774887070557127 0.055465837852669064 0.03919303906071969
-0.0033708180736024334 0.05683502226316833 0.038889673248152956
-0.0033640269578709093 0.0582129811909321 0.03859984248028614
-0.00335829535711042 0.059485955782999034 0.03822414133056595
-0.0033522488584138087 0.060786744093513756 0.03787800002383884
-0.0033457543163455563 0.062127913934176715 0.03757295464629812
-0.003339310412606704 0.06346145466069669 0.03726691741612492
-0.003333187923408028 0.06476154420760177 0.03693674104126321
-0.0033261506928591324 0.06614615660145401 0.03668799059194949
-0.003319361656900768 0.06750416120078001 0.03642152597023446
-0.0033109936742439327 0.06900900460680742 0.03629448805487551
-0.0032997909885995763 0.0707784994110911 0.03641653738335565
-0.0032841730695579922 0.07296004451747246 0.0369267485425685
-0.003284971511607165 0.07358851271442857 0.03601878431955524
-0.003291108163798045 0.07371561951271616 0.034645298735125174
-0.003297209726350537 0.07384864636452504 0.03327174550083273
-0.003303275680825493 0.07398761921669922 0.03189819693304402
-0.003309447552345435 0.07411930512979237 0.030512240933156853
-0.0033156676919306734 0.0742491408294002 0.029118878152106675
-0.0033220796441688575 0.07436382030670913 0.027705381429267595
-0.003328693954401534 0.07446248932758276 0.02627066886465035
-0.003335436503889098 0.07455213273587141 0.024821175827430375
-0.0033423001698613666 0.07463349017668691 0.023357439231793897
-0.0033493376306526256 0.07470179019505457 0.021874655417462086
-0.0033564649535651886 0.07476485295296986 0.02038021855414629
-0.0033635708855450207 0.0748329299466639 0.018884065677286732
-0.00337051628234597 0.07491872691889928 0.017398763054676136
-0.0033774556098243075 0.07500805369829766 0.01591046243313815
-0.0033844410477142247 0.0750961588754806 0.014414435550887894
-0.0033915256432132247 0.07517825702322933 0.012905821946167517
-0.0033987016485451512 0.07525511348122016 0.011385252371112764
-0.0034059434858171277 0.07532909773850183 0.009854996413238837
-0.0034132429148017412 0.07540099477590867 0.008315759480724216
-0.003420716527558616 0.07546035853885952 0.006756773230047808
-0.0034283843435483643 0.07550550528343786 0.005176057711688942
-0.0034375644938308266 0.07541860835048747 0.0034515482997342084
-0.0050299902859958405 -0.012750388299197168 0.04183065101528405
-0.005007665021194579 -0.010189045183712053 0.04211246121427803
-0.004987343940050045 -0.007791928649891033 0.042290663101804904
-0.004971228077669626 -0.005730195657205617 0.04224050791609968
-0.004959997564752482 -0.004054896493029481 0.041921257187708005
-0.004951734208004436 -0.0026142877920081187 0.04143855336755903
-0.004944127672560339 -0.0012273823794490824 0.04092175401331788
-0.004936865205860579 0.00013039292672967218 0.04038828369987196
-0.004931891604797633 0.0013086815528283169 0.039726874046606464
-0.004927636497467429 0.0024298774817407276 0.03902619740974006
-0.0049256644357020835 0.003373737516075226 0.038195887479363644
-0.004925858870575076 0.004150326715167019 0.037241355837737855
-0.0049327270936577305 0.004414733639923396 0.035900485776054814
-0.004941513981943018 0.004534389694151875 0.034445569544040155
-0.004951299944234888 0.004580507270337986 0.032929080913718656
-0.00496428140834053 0.004386040709992489 0.03122205961686436
-0.004977557939505187 0.004173288223307758 0.02949276228749731
-0.00500627470796423 0.0027920978368283778 0.02684994835598936
-0.0047509230272757795 0.022949833966102395 0.04096379775723208
-0.004726842763469599 0.025534483426162324 0.041479941038593704
-0.00470899926656477 0.027640710159501813 0.04163478218361938
-0.004692839427325315 0.029614408394175007 0.041696109516272506
-0.004677315820610984 0.03153510143776855 0.04172558428736722
-0.0046623796194006605 0.03340675740961174 0.04172576981843895
-0.004648997348662916 0.03515733797872894 0.04163816710709334
-0.004635876131402969 0.036884125768951836 0.04153993101399356
-0.004623061118251654 0.03858388268880597 0.04142817728075743
-0.0046106329937794215 0.04025075792591354 0.04129782835900092
-0.004598525594982579 0.04188984620382524 0.04115269407033895
-0.004586481617853007 0.04352034851609199 0.04100832003226479
-0.004575554499595276 0.04506448631459137 0.040800067794521055
-0.004564834321712861 0.04658986033584439 0.04058327067354306
-0.004554377885978273 0.048092393100947706 0.04035430465101836
-0.004543910173900037 0.049592392627391346 0.040130041708034636
-0.004533878584286714 0.05105709523279073 0.039882708873491934
-0.004524219103048659 0.05249138795305586 0.039616042539593777
-0.004514134252740253 0.053953584646604325 0.039379650559445034
-0.004504082654951643 0.05541012137359058 0.039145037544602634
-0.004496596438761126 0.05667724098272653 0.03875302217922233
-0.00448666877981351 0.058118753662852296 0.038517803729054445
-0.00447896478248484 0.059396404594896646 0.0381457632595017
-0.0044713443954766344 0.06066555161859233 0.03777137008453996
-0.004462336618838983 0.06203204958531494 0.03748816576491987
-0.004454477446012555 0.06331321365175935 0.037135113931281605
-0.004445243440557627 0.0646903067758296 0.03687307008993318
-0.004435946303096533 0.06606894297695354 0.03661861603367239
-0.004426138632184909 0.067480987495597 0.03640059583698391
-0.004413987227224977 0.06905659023274602 0.03633769214385224
-0.004397814964121775 0.07091364603597139 0.03653988249768719
-0.004380925997421299 0.0728162530532468 0.036794826933573055
-0.004385730383499177 0.07318083653638996 0.035642805394665356
-0.004394055698946705 0.07329878274976148 0.03425886251567489
-0.004402235251978423 0.07342965567952664 0.032881283885608126
-0.004410489836105664 0.07355789284269737 0.03149564055008086
-0.00441879777948898 0.07368504755639826 0.03010331803606975
-0.004427170725385112 0.07381033232546791 0.028703515919132783
-0.004435811883099733 0.07391961805695219 0.02728272320784092
-0.004444724210847762 0.07401282838996198 0.025840589096689015
-0.004453797272416714 0.07409775419383424 0.0243843224818332
-0.004463055613571358 0.07417277434485592 0.02291218942489226
-0.004472432642845083 0.07424257571834725 0.021428549787500473
-0.00448191812091277 0.07430792082285248 0.019934024095199676
-0.004491363120714859 0.07437909617473659 0.01843859566845024
-0.004500662559565313 0.07446328663109858 0.016949396066383737
-0.004509907481682373 0.07455419474078828 0.015460332810107169
-0.004519283952061698 0.07463909757838527 0.013958779615118322
-0.004528781640431765 0.07471876181637399 0.012445365627421157
-0.004538401830617029 0.07479315870080533 0.01091993337574143
-0.004548122158460916 0.07486386258563482 0.009383946713817815
-0.0045579198746849075 0.07493245948151467 0.00783891312139412
-0.004567998677654912 0.07498525046419646 0.00627073591662608
-0.0045785899175286825 0.07500680731338161 0.0046632495091085135
-0.004590869905559809 0.07491843154875516 0.002934560593040758
-0.006265434098148757 -0.010556692926499855 0.04185133667300728
-0.006245426286749452 -0.008496944427003716 0.041787170426000164
-0.006230126520670113 -0.006736879032376519 0.04151763417039611
-0.006215520424909605 -0.005024054838052794 0.04122151785081607
-0.006192949080484192 -0.0028187224375458286 0.04129014284782406
-0.006182275872827428 -0.0013589607598293862 0.04082571221483855
-0.006172999664453181 1.1377729120409796e-05 0.04030093816151881
-0.006165891088574142 0.0012451158069972657 0.03967996888361125
-0.00616368175818324 0.002174304833245988 0.03883658403869267
-0.006181436472757134 0.0018719265774981841 0.03707561527655584
-0.006180229902623778 0.002740843910304047 0.03618424943078696
-0.006177032033590966 0.0037317241015706326 0.03538545474828547
-0.006181419191540133 0.004257008497871473 0.03423527479573912
-0.006191773670917361 0.004418539622046469 0.032805622230783815
-0.006207926208998042 0.0042289470063997525 0.031101669334571314
-0.00622395044639911 0.004051319636194262 0.029398786250578512
-0.006240075447563993 0.0038716898672241373 0.027686250298663617
-0.005934474936533711 0.023203176756279587 0.04116110513853677
-0.005908776634943537 0.02552094628670115 0.041469341504202284
-0.005887009872142722 0.02759474078232882 0.04159859482705419
-0.0058675296643266 0.029525181331527872 0.041625492595186
-0.005847410919234958 0.03148900080755007 0.0416889034245177
-0.005829466766945589 0.03331719454636334 0.0416541258536538
-0.005812575669138918 0.035077737628231076 0.04157415197838987
-0.005796335782567137 0.03679503926460642 0.04146790435233155
-0.005780186390021156 0.03850277152768711 0.041362248773102794
-0.005764643890263912 0.04017025634239346 0.04123204651701601
-0.005749608431268883 0.041803653666576124 0.041081886775098386
-0.005735178134449952 0.04339734848131305 0.04090673770193032
-0.005721044819948457 0.044969784418551595 0.04072144042686332
-0.005707562501109725 0.04650020301015961 0.04050843634474671
-0.005694425589885517 0.048006833843747654 0.040282512002376925
-0.0056814228916226405 0.04950220809691824 0.040053966904052274
-0.005668744204300382 0.05097526004032071 0.039813311573246524
-0.0056562244918743265 0.05243576047267712 0.03956862016549345
-0.005644037001294981 0.05387366724268028 0.039311160872179784
-0.005631800286336402 0.055311304730396804 0.03905990380281227
-0.0056216266165815395 0.05662601312251109 0.03870865485779884
-0.005610769020766474 0.05797772728625167 0.03839501973958476
-0.005600326539773322 0.0593026544384308 0.03806371011272858
-0.005590366304077203 0.060597082896325205 0.037711128628407975
-0.005579215763150812 0.06195744879516357 0.037422183824981414
-0.005569344610455235 0.06324148729183698 0.03707134090631531
-0.005557231369999113 0.06465143650756516 0.03683832846484675
-0.005546099846438488 0.06600215501360118 0.03655860868944022
-0.005532882005094294 0.06746899971391246 0.03638976869956345
-0.005516535088250952 0.06911050318971002 0.03638664095114652
-0.0054946953550647866 0.07105966137628167 0.03667314722328541
-0.0054814597786374515 0.07251580435984356 0.036519179912348765
-0.005489669450018634 0.07275649190199573 0.03525145400012292
-0.005500049253232887 0.07287691676480423 0.03386776386225315
-0.005510384984852979 0.07300248996835063 0.03248320388011994
-0.00552078753939456 0.07312696969759802 0.031091963063379635
-0.005531257454056455 0.07325035163907284 0.02969398236829035
-0.005541921800331549 0.0733655615678993 0.02828251000470744
-0.005552782599555788 0.07347256178802553 0.0268573493882569
-0.005564026143702029 0.07356106677793173 0.02540850013121887
-0.005575457606288664 0.07364203507215339 0.023946180262206462
-0.005587121892565027 0.07371305312752557 0.02246790084421041
-0.005598906833527854 0.07378040615447173 0.02097957342667195
-0.005610770416505264 0.07384645576587773 0.019483403230193708
-0.005622467314026876 0.07392471935423717 0.01799259261912456
-0.00563414042813606 0.07400729485679841 0.016499484945837584
-0.00564571620412634 0.0740981979138835 0.015008082884266305
-0.005657515458588148 0.0741798775823252 0.013500971617728952
-0.005669467129222417 0.0742562902129848 0.011981926686159605
-0.005681558060358553 0.0743282093755569 0.010451598027227893
-0.005693804552273228 0.07439480523268471 0.008909027043627615
-0.005706163570486231 0.07445846490606589 0.00735651064124665
-0.005718815882014709 0.07450947990498863 0.005784020879243679
-0.005732998475561394 0.07448139019243383 0.004122966154953112
-0.005748733740285151 0.0743735838839592 0.0023714006300160073
-0.007531611317483424 -0.011241941623134688 0.04136463362725912
-0.007498027200089986 -0.008680598233362202 0.041656012643895124
-0.00744836755942361 -0.0052883712003016226 0.04255777101931979
-0.007462446382894187 -0.005222890032621497 0.04107795746422738
-0.007444708310114878 -0.003502470989539541 0.040793771426418934
-0.007423205673932257 -0.0015908011887534323 0.04065648700027136
-0.007409902822586756 -0.00010771147899846234 0.04021353830667557
-0.0074010537703490765 0.0011427197476878703 0.039604410784268906
-0.007403959375304945 0.0017859947477936178 0.03854849063229948
-0.007411914290775273 0.0021704387156028515 0.03729828977364791
-0.007423227044337273 0.0023844078280734204 0.03591692387041989
-0.007424320331762347 0.0031237278494218312 0.03492698834224994
-0.007432192654106129 0.0035171271873833954 0.033674338460268405
-0.007436620295913781 0.0040877384616958 0.032553471323427174
-0.007452094943919986 0.004097576899482647 0.031000992593581134
-0.007468974539707663 0.004039442294933415 0.029389634908780438
-0.007169828650529406 0.01998657066402948 0.040169581463018744
-0.007119667518540658 0.023289173425433074 0.04122808076114437
-0.0070911836393863555 0.025488066255524855 0.04144359643547768
-0.007065801360800408 0.027524806273902913 0.04154354193992277
-0.007043021351045373 0.02942545952857173 0.04154656981851862
-0.007019203506207633 0.031373225676728234 0.04159678456756505
-0.006997357472705117 0.03321731519224086 0.04157422941547689
-0.006976965146136582 0.03498420698677074 0.04149893400323773
-0.006957466788408358 0.03670223034878445 0.04139286810829729
-0.0069382607408238805 0.038401556892820266 0.041279979805613654
-0.006919306541643528 0.040084285960167665 0.04116179584244828
-0.00690147294866732 0.041707533570296884 0.04100292396614924
-0.006884128741469226 0.04330280963271693 0.04082866069811425
-0.00686717729390341 0.044875029433313784 0.040642768981272004
-0.006850989424218356 0.04640609935066403 0.040429890788005796
-0.006835091544649705 0.04791948340938523 0.04020921637787056
-0.006819497892300013 0.04941457833343971 0.0399800471660815
-0.0068040988485329945 0.05089683269200568 0.03974680417240206
-0.006788997749955286 0.05236127595425999 0.0395051221558636
-0.006774418670995139 0.05379711419191591 0.03924555445904654
-0.006760965561396621 0.05517522881545961 0.038942669958536236
-0.006746645405113804 0.056592412317443386 0.03867955396990702
-0.006734876442620398 0.05788336319420995 0.03831286208957385
-0.006722958807560346 0.05917895394572725 0.037955443442815595
-0.006710155651451759 0.060514551838454556 0.03763851456254019
-0.006697606501387539 0.061835225412100514 0.037314081216310024
-0.006684524625780013 0.06317870030909822 0.037015516031810525
-0.006669083678395746 0.0646319977649279 0.0368209544705046
-0.006655825588440395 0.06597800779805807 0.03653691306516005
-0.0066391377410633156 0.06748418386433491 0.03640348293473983
-0.006618069411004364 0.06919450711248143 0.0364629099859311
-0.0065909807293602985 0.07118515669019693 0.0367876838214688
-0.006585103272021715 0.07216870913680118 0.03620073696200132
-0.006596636471764544 0.07233098334779059 0.034859029181754264
-0.006609093128798381 0.07245233401475926 0.03347414658124692
-0.0066216303706411244 0.07257257551380525 0.03208256229282086
-0.006634198479152956 0.07269405942383828 0.030686424086565134
-0.0066468818010471335 0.07281285919169306 0.02928201332026864
-0.00665986749296186 0.0729202972690901 0.027861036919934856
-0.006673090870929593 0.07301947578741402 0.026426238280970515
-0.0066866056327739365 0.07310798231097948 0.02497514591655664
-0.006700500634573592 0.07318180164052018 0.023503697847085447
-0.0067145566940196135 0.0732511678469906 0.02202152084680009
-0.006728775476263631 0.07331605605112601 0.02052847877241204
-0.006742863819702098 0.073389980597373 0.019037654995158804
-0.006756941616227562 0.0734674069449992 0.017543708081079856
-0.006770885943961099 0.07355394996642772 0.016052185413853226
-0.0067849055052784085 0.07364005018188013 0.014553699727025471
-0.006799177219097941 0.07371768342979368 0.013040198608390008
-0.006813579936059856 0.07379242906157768 0.011517095290404566
-0.006828186081525589 0.07386104994686854 0.009981036479881689
-0.006842997881649351 0.07392351091070498 0.008431842446412652
-0.006857963784635564 0.0739822011367412 0.00687179871518534
-0.006873355704176595 0.07402494599196408 0.005288340897012411
-0.00689151522336795 0.07394686496747227 0.00357331698925184
-0.008760527778777026 -0.009255066453305705 0.04124575156866067
-0.00873395897042371 -0.007263353991592336 0.04113958599899553
-0.008715540954843027 -0.005640000211192375 0.0407768009425275
-0.00869623599898533 -0.003980557939488871 0.04044670132019157
-0.008672292344040365 -0.0021186533577353672 0.04027119647829647
-0.008657195315505323 -0.000653218480838047 0.039813189129022875
-0.008648040060776081 0.0005466567672584577 0.039164575252995604
-0.008646304274382257 0.0014173909033907695 0.03827501760266505
-0.008652933686304477 0.001919374727112455 0.03711100927167177
-0.00866855648286366 0.002027302947243126 0.035649096713920025
-0.008680341465131485 0.0023064257954220624 0.03431069251661223
-0.008684803052892051 0.0029082424991988542 0.033212716400184916
-0.008693393966932358 0.003330525885998914 0.03197629114385714
-0.008724143752888387 0.0027886096270698935 0.029997852228879796
-0.008723148502181283 0.0036330086577786025 0.029076480126777327
-0.008351779634917128 0.020551653273290005 0.040607320636511735
-0.008305827276602977 0.023308712310281754 0.04124329802896615
-0.00827409914830374 0.025442604527095014 0.041407999865216316
-0.008245368021432333 0.027441423735413806 0.04147790266296597
-0.008217895512823531 0.02938080386234765 0.04151122805178836
-0.008191263572167611 0.031279043317061106 0.04152184645698914
-0.008165980901127865 0.033114575992852 0.04149204530052242
-0.008142175870958937 0.03488228471957855 0.04141696741856582
-0.008119306679459303 0.03660569307054712 0.041314817470538945
-0.0080970371772314 0.03829937012075163 0.04119692066782055
-0.008075038742896988 0.03997744166658601 0.04107448803691405
-0.008054029019791967 0.04160956114148301 0.04092243946159041
-0.00803395131309524 0.043198399032299384 0.04074243088062385
-0.008013973460734035 0.04477933500721709 0.040563317553035716
-0.007995097812619817 0.046310182616447204 0.04034983190956465
-0.007976394083456741 0.047830339029534485 0.040134415454599726
-0.007958212505716258 0.04932516589157787 0.039904623655200366
-0.00794069085844976 0.050789042438316556 0.03965539661843609
-0.0079228151660341 0.052264481600543033 0.03942260499910777
