# .PCD v0.7 - Point Cloud Data file format
VERSION 0.7
FIELDS x y z
SIZE 4 4 4
TYPE F F F
COUNT 1 1 1
WIDTH 770
HEIGHT 1
VIEWPOINT 0 0 0 1 0 0 0
POINTS 770
DATA ascii
0.08961459678399608 -0.08112458161092552 0.034420851347134296
0.0031904369127135346 -0.0685460513217077 0.06325591565967259
0.00045633752172230535 -0.06819729075064199 0.06365278576996769
-0.0015297791449013776 -0.06798041601111318 0.0635588157195438
-0.0036560804848543293 -0.06773763724843648 0.06356927147733177
-0.005337323407259342 -0.06757350645747302 0.06328584413426508
-0.007463826423794118 -0.06732888723860074 0.06331534874781869
-0.00890076685151242 -0.06720714989520095 0.06287875824483297
-0.010156746948737083 -0.06711749200872809 0.062321613814481425
-0.011200224481833887 -0.06706579862671047 0.06161982681368161
-0.012396680374494595 -0.06698624546854118 0.06102771629236703
-0.013402620436937907 -0.06694087120089683 0.060304436184122345
-0.03012215794656664 -0.06404363719871936 0.07074380722068196
-0.03451976878992602 -0.06337526610087742 0.07250791253012112
-0.03686674465756323 -0.06307782291980137 0.07282829809302502
-0.0391943933999917 -0.06278268388604134 0.07314756782946316
-0.041499504635534534 -0.062490450685546386 0.07346324165429491
-0.04378325619061596 -0.062200925383785216 0.07377599037422819
-0.04604594358150277 -0.06191407051633368 0.07408585445878793
-0.048287856898098114 -0.06162984930670154 0.07439287363438213
-0.050508461815088834 -0.06134837677591906 0.07469647918821035
-0.052031955079119396 -0.0611946149391519 0.07449237702046238
-0.052614064163879815 -0.061214620565635425 0.07358897420965685
-0.05319574298841245 -0.06123478984300422 0.0726843689929084
-0.053778615072058555 -0.06125482175021567 0.07177978143600189
-0.05436105997939361 -0.061275017531999466 0.07087398545349455
-0.054944696565288054 -0.0612950757717588 0.06996821081574173
-0.05552790906759947 -0.0613152981102358 0.06906122171742674
-0.056112311663058856 -0.061335382734499226 0.06815425765794214
-0.05669629327650161 -0.061355631682085195 0.06724607308758435
-0.057281463392808596 -0.06137574274294579 0.06633791725932142
-0.05786621563753186 -0.061396018352194486 0.06542853485447936
-0.058452154789948974 -0.06141615590188251 0.06451918490421094
-0.05903767919010905 -0.06143645822548622 0.06360860229621584
-0.05962438889789151 -0.06145662231636962 0.06269805586451338
-0.06021068698166504 -0.061476951407159565 0.06178627067844894
-0.060798168768073924 -0.0614971420917444 0.060874525399662094
-0.061385242067671375 -0.0615174980026912 0.05996153525434389
-0.06197349745998698 -0.061537715333622116 0.059048588756580256
-0.06256134751166592 -0.06155809811783623 0.05813439126453496
-0.06315037804120055 -0.06157834214789696 0.057220241169639086
-0.0637390063852789 -0.061598751858629175 0.05630483393708374
-0.06432881358739084 -0.06161902264074291 0.055389477860616654
-0.06491822176826034 -0.061639459331384816 0.05447285848743777
-0.06550880718236674 -0.06165975691861476 0.053556294038656194
-0.06609899674850622 -0.0616802206426992 0.0526384601183888
-0.06669036191809691 -0.061700545088248925 0.051720684900224356
-0.06728133442208634 -0.06172103589945042 0.05080163402003113
-0.06787348089473694 -0.06174138725666444 0.049882645629069244
-0.06846523789327025 -0.06176190520879979 0.04896237536971898
-0.06905738832897196 -0.06178243680255473 0.04804149325699969
-0.0696507102745556 -0.061802828678192506 0.047120679332025184
-0.0702436475493679 -0.06182338749397532 0.04619857419608392
-0.07083775468669434 -0.061843806415358825 0.04527654105869794
-0.07143148036766273 -0.06186439250734406 0.04435321046421753
-0.07202637425872088 -0.06188483852831487 0.04342995568861885
-0.07262088991705301 -0.06190545195082094 0.042505397193813854
-0.07321657212797916 -0.06192592512536361 0.04158091834775984
-0.07381187933905925 -0.06194656593285321 0.04065512950435546
-0.07440835144015034 -0.06196706631509589 0.03972942414914049
-0.07500445178355236 -0.061987734562176586 0.038802402502350286
-0.07560171534928067 -0.06200826220639124 0.03787546819278487
-0.07619861040878295 -0.062028957947815794 0.03694721128129014
-0.07679666701780918 -0.06204951290841897 0.036019045565678476
-0.07739435838140624 -0.0620702361990863 0.035089550921603985
-0.0779932096165955 -0.06209081853063909 0.03416015134172462
-0.07859169887651718 -0.062111569425593705 0.03322941649062172
-0.07919134632494668 -0.062132179182803525 0.03229878058169949
-0.07979063507766876 -0.062152957737236725 0.03136680304252121
-0.08039108033065107 -0.06217359497495598 0.03043492833321415
-0.08099117017690688 -0.062194401244206866 0.02950170561829024
-0.08159241482999785 -0.06221506601743464 0.028568589630662167
-0.08219330737479663 -0.062235900056989764 0.027634119245681377
-0.08279535302781132 -0.06225659242087199 0.026699759495181052
-0.08339704988045121 -0.06227745428636609 0.02576403893916751
-0.08399989813747755 -0.06229817429619612 0.024828432934606348
-0.0846024009115598 -0.062319064043412684 0.0238914596998972
-0.08520605338097359 -0.06233981175463165 0.022954604943427825
-0.08580936369441716 -0.06236072943950332 0.022016376515651137
-0.08641382198889597 -0.06238150490770073 0.0210782705027443
-0.08701794146395159 -0.062402450586309915 0.020138784360796136
-0.08762246676259416 -0.062423410335393816 0.01919866710923418
-0.08822813746375419 -0.062444227595803425 0.018258678196241107
-0.08883347436740763 -0.062465215423135816 0.017317299432847433
-0.08943995494610801 -0.06248606058025484 0.01637605296939182
-0.09004610508792255 -0.06250707654229486 0.015433410156124483
-0.09065339717201698 -0.06252794965223618 0.014490903614105488
-0.09126036218952582 -0.06254899380559446 0.013546994206111551
-0.09186846741123511 -0.06256989492462162 0.012603225050645372
-0.09247624894636924 -0.06259096732606075 0.011658046496237973
-0.09308516894229585 -0.06261189651058835 0.010713012185634974
-0.09369376864139894 -0.06263299721702342 0.009766561926270512
-0.09421486118840122 -0.06267319085422418 0.008724292014352208
-0.09429528764354511 -0.06280944387317738 0.007200421278999836
-0.09437533498510559 -0.06294644971876355 0.005669112229967854
-0.09445573230364762 -0.06308405457092932 0.004131108107441606
-0.09453721426070671 -0.06322210186814428 0.0025871742448851376
0.10409737722818191 -0.082366978551901 0.05354341493798709
0.10179622924808529 -0.08213178831454457 0.05322346466941491
0.09970787980559181 -0.08193183073022287 0.0527942227567465
0.09771185238382701 -0.0817468184631372 0.05232106971093481
0.09580495977029302 -0.08157629317253356 0.05180492805343884
0.09399335268641795 -0.08142138693363178 0.05124146759441134
0.09224653111069747 -0.08127697266293742 0.05064714860017894
0.09060294424123883 -0.08114969791374675 0.04999932347972902
0.08913055550922394 -0.08105132733849958 0.04925781239735383
0.08803944733767105 -0.08101815841230774 0.0482991191411028
0.08723327172093681 -0.08103396209518474 0.0471755791602273
0.08673629007767025 -0.08110320820085958 0.04587006716629305
0.08656185840117114 -0.08122851440134084 0.04437153828446222
0.0864758161712022 -0.08136962090997547 0.04281560523495387
0.08657073331405735 -0.0815426932959323 0.04114608377631185
0.0867736164466783 -0.08173521705353161 0.039404882742611225
0.08727700017103796 -0.08198086685401425 0.03747460802930841
0.08778341878965173 -0.08222799767412205 0.035532695713472506
0.0899214642373301 -0.08276160954626363 0.03258453595426325
0.0010663779798775197 -0.06950412650213307 0.06324276947432078
-0.0006582551316654528 -0.06933108155460277 0.06296978859290991
-0.002919970709225561 -0.06905975866136302 0.06306899707325347
-0.0048458064382355115 -0.06884848914976441 0.0629499438895651
-0.007184400484968989 -0.06856106921239194 0.06312333115507213
-0.008609768614774027 -0.06843941470557442 0.06267768069089807
-0.009933527058730185 -0.0683358773935198 0.062166517477623806
-0.011054977904876473 -0.06826904943191661 0.061518350076114836
-0.012169246915304577 -0.06820326986082341 0.060867943268307856
-0.013245576913305801 -0.06814421318381128 0.06019350484656294
-0.030719206799595222 -0.06505695758186156 0.07116786580776158
-0.03507494759846619 -0.06438438223817484 0.07290439806476706
-0.037418222553081026 -0.06408219587740913 0.07322430046714304
-0.03973960406831761 -0.06378283287237932 0.07354121399107802
-0.04203854328187995 -0.06348641289087188 0.07385456017128028
-0.044316213473350186 -0.0631927352885935 0.07416500737663231
-0.04657207329835117 -0.06290191832035189 0.07447198273596603
-0.04880809081730164 -0.06261361109663635 0.07477675495560118
-0.04991518512428411 -0.06253604323327347 0.07425631760853585
-0.05049828303862658 -0.06255672979166829 0.0733483378216922
-0.051082586553036824 -0.06257727551038567 0.07244037190030508
-0.051666455476483186 -0.06259798936108553 0.07153119215090417
-0.05225152841749198 -0.06261856219523793 0.07062202997467093
-0.05283616987799983 -0.06263930339228935 0.06971164788508682
-0.053422013768670895 -0.06265990339559077 0.06880128708563843
-0.05400742929823621 -0.06268067199318304 0.0678897002719615
-0.054594045665657565 -0.06270129921948946 0.06697813847467121
-0.0551802368003283 -0.0627220952719552 0.06606534454668722
-0.055767627175625056 -0.06274274977526498 0.06515257937064983
-0.05635459545551452 -0.0627635733370805 0.0642385759318192
-0.056942761373862394 -0.06278425517153495 0.06332460498983022
-0.057530508343162534 -0.0628051062973208 0.062409389637267054
-0.05811945134380131 -0.0628258155172046 0.06149421053580184
-0.05870797855079646 -0.06284669426172604 0.06057778086025295
-0.05929770017704333 -0.06286743092146771 0.05966139119944591
-0.059887009174123707 -0.06288833733963511 0.05874374478526967
-0.060477510973386994 -0.06290910149380752 0.057826142158893146
-0.06106760331706185 -0.06293003564067702 0.05690727658403805
-0.06165888684085424 -0.06295082734399784 0.055988458579481204
-0.06224976409176647 -0.06297178927477162 0.05506837141546517
-0.06284183089571888 -0.06299260858210383 0.054148335613712795
-0.06343349461865794 -0.06301359835213073 0.0532270244256014
-0.06402634626253323 -0.06303444531848304 0.05230576840121276
-0.06461879802644921 -0.06305546298325902 0.05138323074759782
-0.06521243607415572 -0.06307633766378645 0.050460752068685166
-0.06580567745217314 -0.06309738327895509 0.0495369855016633
-0.06640010347177855 -0.06311828572895938 0.048613281729870506
-0.06699413604121035 -0.06313935935031231 0.04768828379502149
-0.06758856540844932 -0.06316044704827654 0.046762667986407436
-0.06818417694731704 -0.06318139130871987 0.04583712072186774
-0.0687793998816254 -0.06320250709694 0.04491026984829699
-0.06937580333265259 -0.06322347926586384 0.04398349136332519
-0.06997182142188252 -0.06324462320050386 0.0430554029539823
-0.07056901836780638 -0.06326562333372833 0.04212739078740063
-0.07116583320404718 -0.06328679547110212 0.04119806236487661
-0.07176382523183172 -0.06330782362459533 0.040268814048945445
-0.0723614384114214 -0.06332902402116768 0.039338243129213635
-0.07296022711226535 -0.06335008025104753 0.038407756189604014
-0.07355864023580916 -0.06337130896343374 0.037475940282001796
-0.07415822720516135 -0.06339239332596812 0.03654421223777499
-0.0747574418775444 -0.06341365041093489 0.03561114884498007
-0.07535782871511854 -0.06343476296254207 0.03467817720856531
-0.0759578465455204 -0.06345604847700788 0.033743863826573905
-0.07655903485530852 -0.06347718927425718 0.03280964610374626
-0.07715985745721765 -0.06349850327529286 0.031874080221850454
-0.07776184884750503 -0.06351967237490504 0.030938613911708435
-0.07836347783873265 -0.06354101491973432 0.030001793012473577
-0.07896627392211242 -0.06356221237858205 0.02906507560741728
-0.0795687109248075 -0.06358358352458203 0.028126997166659673
-0.08017231331819424 -0.06360480939969052 0.027189026152367735
-0.08077555995885799 -0.06362620920439217 0.026249687639132047
-0.08137997028350274 -0.06364746355293964 0.025310460494539333
-0.0819840281930031 -0.06366889207402832 0.024369859371075775
-0.08258924807450813 -0.06369017495334646 0.023429373568350842
-0.0831941188880943 -0.06371163224866248 0.022487507290092246
-0.0838001499564272 -0.063732943716237 0.02154576029461458
-0.08440583531374479 -0.0637544298437761 0.020602626310153693
-0.08501267920325328 -0.06377576995724732 0.019659615580490675
-0.08561918074835856 -0.06379728497516121 0.01871521133155707
-0.08622609164315159 -0.06381881451432939 0.017770169670304203
-0.08683415847916082 -0.06384019775892129 0.01682525724087852
-0.08744188803802161 -0.06386175627609489 0.01587894146144503
-0.08805077180222676 -0.06388316831147248 0.014932758910926602
-0.08865932168031015 -0.0639047558651957 0.013985166437772978
-0.08926902402251202 -0.06392619674954457 0.013037711200696578
-0.08987839587943575 -0.06394781339851945 0.012088839451338595
-0.0904889184538823 -0.06396928319018204 0.011140108955323302
-0.09109911395374232 -0.06399092899326894 0.010189955340309087
-0.09171045841914321 -0.06401242775074517 0.009239947006034699
-0.09232147923052897 -0.06403410276696336 0.008288508928920912
-0.09293364725007125 -0.06405563054891106 0.00733722017010513
-0.0935454950460804 -0.06407733483743919 0.006384495027433379
-0.09415848828744294 -0.06409889170267473 0.005431923250807491
-0.09477116474569713 -0.06412062532285143 0.004477908432080957
-0.09511680848911164 -0.06420201383423213 0.0032276875731467314
0.10385338840959629 -0.08358849122099299 0.055263619944128595
0.10157404358169514 -0.08335307238753328 0.05493090979291487
0.09944907074808462 -0.08314337220940747 0.054521761641872335
0.0974135940998031 -0.08294833486081014 0.05407080404465969
0.09545523110936915 -0.0827659013394143 0.05358412827828474
0.09363373691309346 -0.08260649885559733 0.053027368184638435
0.09189519434878551 -0.08246089636194982 0.05242973573373444
0.09021112718595176 -0.08232421856410196 0.05180665852537569
0.08881846638775148 -0.082237811350362 0.05102185670235848
0.08762521483008834 -0.08218589681542274 0.05012544978328193
0.08682419692181564 -0.0822024079682726 0.04900365204985657
0.08633274063964352 -0.08227324525184494 0.04770070231504886
0.08609668847802154 -0.08238920907181257 0.046245207644166564
0.0858929882589134 -0.08251131022603916 0.044766125623250885
0.08585251429394458 -0.08266265723194575 0.04318544346596476
0.08600777858189695 -0.08284916183353598 0.041482048758773093
0.0862393254423558 -0.08304988613685543 0.03972558407688698
0.08641286975433332 -0.08324110086693084 0.037996282773726964
0.08669059472572355 -0.08345156509609432 0.03619623048869919
0.08754397294474259 -0.08376531748438579 0.034036382287984446
0.002625491731497176 -0.07098947291563472 0.06219486841073496
-0.0007597024085165827 -0.07050773323549801 0.06303835262222057
-0.0030846024024523966 -0.07022001694909509 0.06318088394794019
-0.005152769666781631 -0.06997868469987056 0.0631597210286684
-0.006804732162823179 -0.06981361058490919 0.06286242840006273
-0.008292996343885362 -0.06967830622634572 0.062458793476670826
-0.00959214811398007 -0.0695776880815045 0.06192932255825778
-0.010766151363047483 -0.06950002578245114 0.06131656098200006
-0.011916548639066216 -0.06942646310996221 0.06069042159707738
-0.013044605276610777 -0.06935678798028538 0.060051543866864676
-0.03131514025227122 -0.06606668568826209 0.07159113217307381
-0.035631885267689956 -0.06538962486765441 0.07330213970430707
-0.03796794606860704 -0.06508337369006029 0.07361904306521655
-0.040282227073967225 -0.06477997778406198 0.07393299184097549
-0.042575031459824275 -0.06447939740410834 0.0742440271595875
-0.04484665680124261 -0.0641815935389229 0.07455218938923813
-0.04709656265664153 -0.06388668622877505 0.0748569071487668
-0.04777929559806138 -0.06388921968376449 0.07401760555482692
-0.04836503487218807 -0.06391028679467482 0.07310623604580002
-0.048950332030971766 -0.06393152636018083 0.07219364725957969
-0.04953684570107347 -0.06395262138571323 0.07128107221505064
-0.050122920384150504 -0.06397388910367494 0.07036727175698593
-0.05071020998925402 -0.0639950120993476 0.06945348878067081
-0.05129706374467802 -0.06401630802577482 0.06853847423874243
-0.05188513082789287 -0.06403745904725322 0.06762348092800058
-0.0524727652078284 -0.06405878323830438 0.06670724988378496
-0.0530616113163595 -0.0640799623414019 0.06579104382959738
-0.05365002787709555 -0.0641013148533846 0.06487359385824526
-0.05423965456225788 -0.06412252209406281 0.06395617264519415
-0.05482885486422129 -0.06414390298343439 0.0630375013154092
-0.05541926368145267 -0.06416513841780373 0.062118862521656104
-0.05600924928922241 -0.06418654774117162 0.06119896739567349
-0.056600441798097756 -0.0642078114254918 0.06027910859293828
-0.05719121428041851 -0.06422924923961407 0.059357987226503484
-0.057783192044663256 -0.06425054123029458 0.05843690598004264
-0.0583747529744591 -0.06427200759208053 0.05751455592238924
-0.05896751756196339 -0.06429332794568114 0.05659224979097477
-0.05955986851635192 -0.06431482291219169 0.05566866858480318
-0.06015342149918407 -0.06433617168542298 0.05474513512070056
-0.06074656405949036 -0.06435769531387127 0.053820320302156055
-0.06134090701391104 -0.06437907256359507 0.05289555705110288
-0.06193484276568029 -0.06440062491134714 0.05196950614975271
-0.06252997727215803 -0.06442203069457682 0.05104351065093782
-0.06312470780517382 -0.06444361181915138 0.05011622118975262
-0.06372063544839279 -0.06446504619305346 0.04918899097578949
-0.06431616235668852 -0.06448665615212291 0.048260460471119204
-0.064912884725572 -0.06450811917401587 0.04733199306803143
-0.06550920960744222 -0.06452975802540738 0.04640221902958025
-0.06610593469058573 -0.06455141139890748 0.04547182100787206
-0.06670385275317914 -0.06457291755445847 0.04454149188758272
-0.06730137821719356 -0.06459459990742017 0.043609846580868084
-0.06790009499819899 -0.064616134855039 0.042678274054247956
-0.06849842245210841 -0.06463784624567726 0.04174537895551761
-0.06909793955538535 -0.06465941004322188 0.04081256052532717
-0.06969707061252789 -0.06468115052990772 0.0398784131208505
-0.07029738964623472 -0.06470274323539119 0.03894434628315707
-0.07089732592427711 -0.06472451287665218 0.038008944052459526
-0.07149844850088505 -0.06474613454824316 0.037073626296614315
-0.07209919162183726 -0.06476793340276399 0.036136966712454976
-0.0727011193581451 -0.06478958409878731 0.03520039552107057
-0.07330267094837462 -0.06481141222541023 0.034262476049419344
-0.07390540546552293 -0.0648330920043475 0.033324648898347076
-0.07450776715576984 -0.06485494946207293 0.03238546699836187
-0.07511131007925609 -0.0648766583825629 0.031446381356669384
-0.07571448350464738 -0.0648985452305499 0.03050593448067318
-0.0763188364643399 -0.06492028335138911 0.02956558781062124
-0.07692282326440453 -0.06494219964895594 0.028623873404079292
-0.07752798789455773 -0.06496396702909922 0.027682263161099008
-0.07813278971324122 -0.06498591283572391 0.0267392786625954
-0.07873876765251042 -0.06500770953428484 0.02579640229526553
-0.07934438613818973 -0.0650296849096057 0.024852145136480264
-0.07995117902964549 -0.06505151098585726 0.023908000086503733
-0.08055761583514409 -0.0650735159896734 0.022962467692189348
-0.08116522532628762 -0.06509537150304845 0.02201705139437027
-0.08177248210889054 -0.06511740619532032 0.021070241182328586
-0.08238090985166802 -0.06513929120541218 0.02012355106454866
-0.08298898827313683 -0.06516135564626215 0.019175460445607195
-0.08359823592395532 -0.06518327021282501 0.018227493928803185
-0.08420713765054305 -0.06520536446253794 0.0172781203067916
-0.08481720687028454 -0.06522730864548762 0.01632887480493056
-0.08542693357275122 -0.06524943276451133 0.015378215576657084
-0.0860370740357751 -0.06527157189695809 0.014426911231052886
-0.0866483793804162 -0.0652935606728715 0.013475741051941659
-0.08725934733586593 -0.06531572976572142 0.012523147178626182
-0.087871478423236 -0.06533774830863436 0.011570691515297993
-0.08848327555321 -0.06535994742274583 0.010616805493409653
-0.08909623405998224 -0.06538199579314363 0.009663061735245615
-0.08970886205114237 -0.06540422498953935 0.008707880936820955
-0.09032264965852954 -0.06542630324807236 0.007752846466121788
-0.09093611020211373 -0.06544856258794048 0.006796368256068108
-0.09155072859589242 -0.06547067079542258 0.00584004044803943
-0.09216502338772703 -0.06549296034011799 0.004882262184107644
-0.09278047425824731 -0.0655150985575285 0.003924638406829606
-0.09339560499876715 -0.06553741836857242 0.002965557439594424
0.10376487928320427 -0.0848311206184008 0.05689183428346445
0.10150607446202498 -0.08459541989428894 0.05654668098794041
0.09928617276804258 -0.08436564074511013 0.05618893169069372
0.09722935391899595 -0.08416357888735214 0.0557495660866586
0.09524516919234832 -0.08397350987087213 0.055277354150480185
0.09338564680418165 -0.08380465375441518 0.054742499963027436
0.09162141861225243 -0.08365195480570373 0.05416034200146169
0.09000071649677482 -0.08352402126072646 0.053502651743847274
0.08850947067848242 -0.08341850485010045 0.05277604233450478
0.08742717165383612 -0.08338507172759076 0.05181908995751905
0.08665486880295986 -0.08340656137556035 0.05068473081653413
0.08615989744159525 -0.08347747611577573 0.04938877501626504
0.08572832355782212 -0.083559963013267 0.04805315367561519
0.08560092216774456 -0.08369709142494834 0.046535985545055225
0.08539221034352146 -0.08382019554547596 0.04506155011968843
0.08543489654284597 -0.08398884527311541 0.04343323834023116
0.08561165335954252 -0.08418222765257757 0.041718451786899424
0.08558259069811414 -0.08433931246026352 0.040119780698277985
0.08566823384134792 -0.08451768879185409 0.038445818795237396
0.08592999571513127 -0.08472857614703838 0.03665804672261053
0.0863725367324068 -0.08497300733721279 0.03475173522129299
0.08756570641747191 -0.08535453635977118 0.032374955459168187
0.018675903835199348 -0.07519729786374021 0.05140717322365318
0.00017732913953416585 -0.07187854297966143 0.062405051655257726
-0.0024792162662518047 -0.07152397050487816 0.06276945185105448
-0.004514672418873988 -0.07128493798756605 0.06272364855259449
-0.006288458333971958 -0.0710943193760746 0.06250765225354299
-0.007836632533228638 -0.07094559042650794 0.0621434495770658
-0.009253173202064757 -0.07082119938932996 0.061693797994908706
-0.010511049908668857 -0.07072642688058105 0.061138333970519654
-0.01169953291023712 -0.07064447025852155 0.060537967075271704
-0.012831456287825116 -0.07057296136443753 0.059900981131907116
-0.0338344115781789 -0.06670520464645739 0.07338046420765598
-0.03618616447254985 -0.0663918227254277 0.07369798277954959
-0.03851592356248351 -0.06608137158029548 0.0740125318891604
-0.04082399594404279 -0.06577381028909354 0.07432415299862946
-0.04310983411757696 -0.06546926219260546 0.07463227053384369
-0.04503936296331679 -0.06523222399500182 0.07469284976849089
-0.045625701258308504 -0.06525398253532604 0.07377743727751879
-0.04621243083605675 -0.06527575559583784 0.07286141390178977
-0.04680038957611404 -0.0652973805432312 0.07194540037532038
-0.047387901711030744 -0.0653191825791254 0.0710281558871314
-0.047976641417171506 -0.0653408363143711 0.07011092501155097
-0.048564937673588604 -0.06536266738352613 0.06919245697032989
-0.04915445990516332 -0.06538434996414719 0.06827400631454122
-0.04974354185158303 -0.06540621012459577 0.06735431227320954
-0.05033384817209813 -0.06542792160826859 0.06643463939963612
-0.05092371738120749 -0.06544981091819817 0.06551371690458746
-0.0515148093583388 -0.06547155136275296 0.06459281936915173
-0.05210546740702304 -0.06549346988050635 0.06367066596022969
-0.05269734661262998 -0.06551523934392772 0.06274854131233137
-0.053288795081985696 -0.06553718712800378 0.061825154522807124
-0.053881463092126436 -0.06555898566843096 0.060901800305302456
-0.05447370356747988 -0.06558096277748424 0.05997717766185601
-0.055067161962419564 -0.06560279045321277 0.05905259141103125
-0.05566019603333755 -0.06562479694605472 0.05812673043372685
-0.05625444639757132 -0.06564665381553515 0.05720090967928365
-0.05684827565787276 -0.06566868975113516 0.05627380788154557
-0.05744331958013399 -0.06569057587297483 0.055346750146573864
-0.05803794562790837 -0.06571264131045988 0.05441840503516748
-0.0586337847011843 -0.06573455674342309 0.053490107836124734
-0.059229209138804695 -0.06575665174207862 0.05256051691113339
-0.05982584496035043 -0.06577859654508718 0.05163097775782227
-0.0604220693944878 -0.06580072116435753 0.050700138512624615
-0.06101950356584107 -0.06582269539649127 0.04976935490817075
-0.06161652960747832 -0.06584484969598037 0.048837264829418026
-0.0622147637344736 -0.06586685341647767 0.04790523427024779
-0.06281259299892089 -0.06588903745594936 0.04697189083784192
-0.0634116286917038 -0.06591107072420775 0.046038610813659564
-0.06401026279861216 -0.06593328456358649 0.04510401150072979
-0.06461010167165376 -0.06595534743916312 0.04416947949449501
-0.06520954224503023 -0.06597759113853448 0.04323362176737555
-0.06580938728218744 -0.0659998498465152 0.04229713258393164
-0.06641043458536433 -0.06602195730075777 0.041360716573488054
-0.06701108853505533 -0.06604424595927583 0.04042296515922672
-0.06761294307554339 -0.0660663831705438 0.039485290841145215
-0.068214407572735 -0.06608870184009016 0.038546274645302636
-0.06881707098026574 -0.06611086886850394 0.037607339478748114
-0.06941934766433222 -0.06613321760973259 0.036667055943684856
-0.07002282157302903 -0.0661554145155746 0.03572685738097503
-0.07062591208776658 -0.06617779338930314 0.034785303942152845
-0.071230198136159 -0.06620002023301849 0.03384383942873487
-0.07183410412980157 -0.06622242930022854 0.03290101351469371
-0.07243920396084047 -0.06624468614242544 0.031958280489121416
-0.07304392708607371 -0.06626712546426335 0.031014179521455465
-0.07364984234714617 -0.06628941236571374 0.03007017541536583
-0.0742553842611231 -0.06631188200349106 0.02912479680870067
-0.07486211660406733 -0.06633419902513113 0.028179519046790447
-0.07546847896842335 -0.0663566990403252 0.027232860208759035
-0.07607603004954355 -0.06637904624325601 0.026286306208761268
-0.07668321453041138 -0.06640157669751053 0.025338364539980618
-0.0772915860104933 -0.06642395414299844 0.024390531712641272
-0.07789959427851867 -0.06644651509812395 0.02344130460668853
-0.07850878782284426 -0.06646892284760132 0.02249219035574268
-0.07911762155320068 -0.06649151436557589 0.021541675199131305
-0.07972763883156364 -0.06651395248064158 0.020591276921279267
-0.08033729970396802 -0.06653657462361127 0.019639471093435168
-0.0809481423906892 -0.06655904316603117 0.018687786178318955
-0.08155863208941572 -0.06658169599631102 0.017734687051554843
-0.08217030186335961 -0.06660419502801836 0.016781712881735522
-0.08278162207725953 -0.0666268786080919 0.01582731782123109
-0.08339412062184404 -0.06664940819118906 0.014873051772158974
-0.08400627304435848 -0.0666721225837096 0.013917358135934088
-0.08461960204757912 -0.06669468278046677 0.012961797575933243
-0.08523258837675163 -0.06671742804825859 0.01200480271482035
-0.08584674953119115 -0.06674001892111564 0.011047945005058513
-0.08646057146968777 -0.06676279512717358 0.010089646262682883
-0.08707556647253334 -0.06678541673874032 0.009131488757148587
-0.08769022572765683 -0.06680822394623076 0.00817188346990183
-0.08830605628071575 -0.06683087635928743 0.007212423515380428
-0.08892155456442147 -0.0668537146315488 0.006251509012396461
-0.08953822237413661 -0.0668763979090468 0.005290743948444698
-0.09015456140304817 -0.0668992673095902 0.0043285175515744845
-0.09077206818051431 -0.06692198151465253 0.003366444710496741
-0.09138924967593992 -0.06694488210716229 0.0024029037342838677
0.1036437275716795 -0.08606283305726516 0.05853121846578435
0.10144617936781097 -0.08583416426614791 0.058151729479370806
0.09925098341159083 -0.08560505758376184 0.05777933224025983
0.09716900094253783 -0.0853952256538632 0.057353092054098664
0.095167508206421 -0.08519894665613874 0.05689004639351031
0.09329369122076325 -0.0850247200045594 0.05636319113059762
0.09153177078959268 -0.08486984840295374 0.05578013707543733
0.08986494223983621 -0.08473143044018329 0.055149271903348784
0.08845644991566554 -0.08463886477415072 0.05437722957910457
0.08740023363212934 -0.08460930795083894 0.053407942150067444
0.08667119391453865 -0.08463859598713842 0.052252276815226095
0.08603701750354459 -0.08468512232001783 0.051040843485079535
0.0856718497821563 -0.08478048609266246 0.049671717225236
0.085307350172106 -0.08487633518723664 0.04829863423369396
0.08505096652654648 -0.0849921826453206 0.04685854668649331
0.08507939301255762 -0.08516028890808328 0.045246090810554584
0.08497008411794882 -0.08530393504258536 0.043709036330335405
0.08489341007136747 -0.08545409406108345 0.04214709121371196
0.08494723675568205 -0.08562871106507705 0.04050114376714292
0.08504046367242496 -0.08581122609712948 0.03882480307364683
0.08522927366518063 -0.0860120051128841 0.037083507199971444
0.08557206811872659 -0.08624190279026063 0.035240551910402984
0.08613589945810463 -0.08651345344008908 0.033253093546224965
0.08828253072508901 -0.08707850036471088 0.030277613747068055
0.034647704465412765 -0.0794903153784993 0.04067231385217063
0.0017959154726611692 -0.07338518465090944 0.06131111592597038
-0.0015330806519566198 -0.07289682894666633 0.06212643983533378
-0.00382277182030738 -0.07260549882464898 0.06225080713507808
-0.005746175678892629 -0.07238326573269177 0.062135003205804784
-0.007381191500357487 -0.0722155737580818 0.06182874330984656
-0.008842756550945852 -0.07208061393084042 0.06140863470067015
-0.010235469422006371 -0.07195839549697657 0.06094579925259802
-0.011466233269113169 -0.07186700331747371 0.0603740730321215
-0.012495298076311445 -0.07181433048547557 0.059663527977696584
-0.03439329265205182 -0.06770841585287497 0.07377741383301728
-0.03673867773290829 -0.06739082756103044 0.0740925646909309
-0.03906129766536809 -0.06707637349072257 0.07440415128366398
-0.041363198884334484 -0.06676467310326775 0.07471346153587621
-0.042864322775257035 -0.06660849170756421 0.07445404002100181
-0.04345333786405786 -0.06663063959916384 0.07353517588009575
-0.04404189703386935 -0.06665296891649782 0.07261507830598346
-0.04463169737797634 -0.0666751464010007 0.07169498851893102
-0.045221044972083624 -0.0666975055636192 0.07077365905034522
-0.04581078796806709 -0.06671987972732617 0.06985171144840391
-0.04640176974654753 -0.06674210176815519 0.068929777324504
-0.046992303544620806 -0.0667645058671334 0.0680065941130682
-0.04758407452236152 -0.0667867576496508 0.06708342818568735
-0.04817540071183407 -0.06680919174401782 0.06615900688193582
-0.04876796247309778 -0.06683147332797211 0.06523460667788183
-0.04936008264754044 -0.06685393747800635 0.06430894479233995
-0.04995343678083486 -0.06687624892330617 0.06338330783179347
-0.05054635253809325 -0.06689874318944754 0.06245640286831039
-0.051140500636184916 -0.06692108455616223 0.06152952666480255
-0.05173421357839303 -0.0669436089990129 0.060601376120527684
-0.05232915723832182 -0.06696598034737304 0.059673258180918176
-0.05292366897191686 -0.06698853502769785 0.05874385954627964
-0.05351940979501035 -0.06701093641809575 0.05781449737073402
-0.054114721930746956 -0.0670335213968228 0.056883848129415326
-0.054711261522634835 -0.06705595288981309 0.05595323921138268
-0.055307375675599624 -0.06707856822803428 0.05502133684030075
-0.055904715646228065 -0.06710102988433442 0.05408947866649111
-0.056501633435854515 -0.067123675643306 0.053156320635773135
-0.05709977539950056 -0.06714616752379693 0.0522232106861345
-0.05769749844958327 -0.06716884376494005 0.051288794459095066
-0.05829644402486961 -0.06719136593066657 0.050354430206791145
-0.0588949739635789 -0.0672140727155679 0.0494187532399093
-0.05949472477348877 -0.06723662522773934 0.048483132151296515
-0.0600940632333859 -0.06725936261815148 0.04754619189419301
-0.060694620905277 -0.06728194553814226 0.04660931142879715
-0.06129476952332874 -0.06730471359598443 0.045671105324211037
-0.061896135688948806 -0.06732732698533456 0.0447329629347048
-0.06249709610654203 -0.06735012577269314 0.043793488418470194
-0.063099272402043 -0.06737276969310882 0.04285408155064957
-0.06370104626500017 -0.06739559927223787 0.04191333605167247
-0.06430322809400169 -0.0674184443284295 0.040971952784539856
-0.0649066232895471 -0.0674411342189139 0.04003064308466864
-0.06550962104287461 -0.06746401016069002 0.039087984961722666
-0.06611383047992653 -0.06748673073735262 0.03814540436441144
-0.06671764581456235 -0.06750963762738935 0.03720146879712494
-0.06732267114481189 -0.06753238895252271 0.03625761472390848
-0.06792730572222588 -0.06755532685366594 0.03531239911674339
-0.06853314860183618 -0.06757810898973134 0.03436726898217468
-0.06913860408800199 -0.06760107796499713 0.033420770732559
-0.06974526617762333 -0.06762389097462514 0.03247436194418568
-0.0703515442430327 -0.0676468910872005 0.03152657844248896
-0.0709590272078176 -0.06766973503319151 0.03057888840082945
-0.07156612952749619 -0.06769276634643484 0.029629817030339345
-0.07217443503711457 -0.06771564129175976 0.02868084312885899
-0.07278236329063592 -0.06773870386920179 0.027730481265755447
-0.07339149301929226 -0.0677616098770022 0.026780220890844253
-0.07400024889079732 -0.0677847037823456 0.0258285659041797
-0.07461020451723982 -0.06780764091593562 0.0248770164351223
-0.07521978969544985 -0.06783076621305634 0.023924065686794782
-0.07583057290299494 -0.0678537345359213 0.022971224495754894
-0.07644098908122382 -0.06787689128886962 0.022016975340480638
-0.07705260155776561 -0.06789989086466801 0.021062839792471366
-0.07766385043394047 -0.06792307913766825 0.02010728957776492
-0.078276293871968 -0.06794611003023186 0.019151857030625552
-0.07888837714864255 -0.06796932988768337 0.018195003096773354
-0.07950165324525527 -0.06799239216101799 0.017238270901145047
-0.08011457262962662 -0.06801564366749559 0.016280110581181395
-0.08072868308655012 -0.06803873738578152 0.015322076080482583
-0.0813424402904736 -0.06806202060603628 0.01436260670016426
-0.08195738681407572 -0.06808514583362893 0.013403267230566396
-0.08257198355408168 -0.06810846083258859 0.01244248610834836
-0.08318776785538762 -0.06813161763401919 0.011481838998750493
-0.0838032058526968 -0.06815496447678891 0.010519743445760676
-0.08441982964740585 -0.06817815291676496 0.00955778601776519
-0.08503611062794558 -0.06820153166862783 0.008594373337779515
-0.08565357563644654 -0.06822475181203382 0.007631102905666931
-0.0862707013308669 -0.06824816253845152 0.00666637039508422
-0.08688900927825433 -0.06827141445034941 0.005701784265788268
-0.08750698142194419 -0.06829485721696282 0.004735729213604878
-0.08812613403803454 -0.0683181409625928 0.0037698246866871843
-0.08874495437113789 -0.0683416158352226 0.002802444374471691
0.10388238542488415 -0.0873538145227889 0.05997078234449904
0.1015095556534098 -0.08709010152512753 0.05968394752272482
0.09935665290909063 -0.08686500749779194 0.05928710035232587
0.09726554407421534 -0.08665021985314411 0.05886458965598551
0.09529006176386773 -0.08645552684268432 0.05838625643438461
0.09336287944865623 -0.08626884944763151 0.057888250840553324
0.09158275794891035 -0.0861081511942917 0.057315184770363015
0.08990378935183513 -0.08596523413454005 0.056691338226343924
0.08856207316585524 -0.08588319656030352 0.05588281219215513
0.08747775380575845 -0.08584781344732456 0.05493150300290839
0.08669639185872974 -0.08586767883962806 0.05380890016734491
0.08608869131066715 -0.08591942641284774 0.052586059755464154
0.08562750675104863 -0.08599825688873813 0.05127687433426187
0.08527261608238296 -0.0860969302228457 0.04990317016374485
0.08500477681067847 -0.08621201557214876 0.048475072650333184
0.08486445451784125 -0.08635107529138483 0.0469679401028219
0.0846012470088282 -0.08646794555699948 0.04552816403709625
0.08445537076663517 -0.08660700209534897 0.04401444320022169
0.08433596408231692 -0.08675150715050578 0.04247976864092845
0.08437958926242922 -0.08692688995122408 0.04084186690680219
0.08447299778605755 -0.08711222692491871 0.03916738171167916
0.08458941012967325 -0.08730257616619086 0.037472015946459436
0.08482419879953879 -0.0875158073109149 0.03569724814838737
0.08528005382605924 -0.08777130037014566 0.03377872439535218
0.08616244190297423 -0.08810788664351756 0.03158715329720879
0.09020370478857997 -0.08904014632598856 0.027420601028083857
0.03515554044946323 -0.08056851298236607 0.04344475692544297
0.03379336084026979 -0.08046679768756725 0.042801447226117895
0.03214270357168053 -0.08030887173639342 0.04235595822904731
0.017848457442275534 -0.07769963968440838 0.050461865041390885
-0.00042696552519938535 -0.07430668582145264 0.0613747026567209
-0.0030298135558027295 -0.07395006998567415 0.06170890341278551
-0.005167387854438599 -0.07368274188019383 0.061737268316803595
-0.006895051812118247 -0.07349442625536455 0.06149282450677246
-0.00840506615967318 -0.07334796069049203 0.06110452122600585
-0.009758780351818874 -0.07323156424362084 0.06061275972292596
-0.010923405299949118 -0.07315186686536654 0.059992733951732435
-0.012221532184631012 -0.0730455448552348 0.05947014708659154
-0.03494950472030395 -0.06870859515285277 0.07417246777639758
-0.037288560647598556 -0.06838682725676094 0.07448526811921363
-0.03960494777767737 -0.06806823008511695 0.07479453272399689
-0.04067109841291916 -0.06799663863014425 0.07421375984283887
-0.041261100812500395 -0.06801951784428972 0.07329017089006334
-0.04185235735865345 -0.06804224154780883 0.07236658571856408
-0.04244315331654447 -0.06806515146596054 0.07144175519297286
-0.04303520182411974 -0.06808790567502444 0.07051693226401956
-0.043626792940023085 -0.06811084635903095 0.06959085766322304
-0.04421963500366072 -0.06813363113510902 0.06866479448411261
-0.04481202288157954 -0.06815660264698513 0.06773747329899377
-0.04540481034585392 -0.06817958965395027 0.06680952660327877
-0.04599884634845813 -0.06820242045363935 0.06588159708501512
-0.04659243299066823 -0.0682254383819259 0.06495240002534591
-0.047187266556532936 -0.06824829990314303 0.06402322399252225
-0.04778165399150386 -0.06827134881518408 0.06309277404285468
-0.048377286730337254 -0.06829424111997985 0.06216234897920997
-0.04897247657724563 -0.06831732107837672 0.06123064360669278
-0.049568910103092556 -0.0683402442289689 0.0602989669891873
-0.05016490398548151 -0.06836335529649167 0.059366003654139354
-0.05076213991673745 -0.06838630935526585 0.058433072952931264
-0.05135893946253167 -0.06840945159485384 0.05749884910881853
-0.051956979421957816 -0.06843243662436396 0.0565646617872414
-0.052554586263477865 -0.06845561009912648 0.05562917488065394
-0.053153431878215585 -0.06847862616209538 0.054693728395193264
-0.05375184765219282 -0.0685018309353122 0.05375697586582162
-0.0543515005537788 -0.0685248780946322 0.05282026766609216
-0.054950726901370484 -0.0685481142297541 0.05188224694670451
-0.055551188725751266 -0.06857119254848759 0.050944274475426765
-0.056151227292555395 -0.06859446010913699 0.05000498299184525
-0.05675249968010232 -0.068617569650517 0.04906574368482208
-0.05735335211617276 -0.06864086870048852 0.0481251788558994
-0.057955436711697284 -0.06866400952791926 0.04718467014199307
-0.05855710467155839 -0.06868734013118039 0.04624282937958857
-0.05916000312432662 -0.06871051230823787 0.04530104868069673
-0.059762488266989267 -0.06873387452892935 0.04435792938965322
-0.06036620223073724 -0.068757078119362 0.04341487412068551
-0.0609695062197132 -0.06878047202179864 0.04247047369880519
-0.06157403735266237 -0.0688037070895278 0.04152614126765963
-0.06217816185598024 -0.06882713273819885 0.04058045710568026
-0.06278351182085196 -0.06885039934731944 0.039634844913219225
-0.06338845851107189 -0.0688738568068894 0.038687874394789934
-0.06399462897510366 -0.06889715502167042 0.037740979834816724
-0.06460039952933294 -0.06892064435697955 0.03679272033647407
-0.06520739216429283 -0.06894397424186477 0.03584454079570826
-0.06581398826420043 -0.0689674955179299 0.03489498968685095
-0.06642180474640447 -0.0689908571375381 0.03394552254490624
-0.06702922807824019 -0.06901441041955239 0.032994677187774546
-0.06763787008856192 -0.0690378038386792 0.032043919817128785
-0.06824612234316951 -0.06906138919201336 0.031091777566777612
-0.06885559156706417 -0.06908481447563 0.030139727332756938
-0.06946467443989385 -0.06910843196583354 0.029186285537028567
-0.07007497256740808 -0.06913188917908863 0.0282329397977773
-0.07068488775853676 -0.06915553887188947 0.02727819579728097
-0.07129601648432604 -0.06917902808010938 0.02632355190373875
-0.07190676569847143 -0.06920271004141486 0.02536750303182439
-0.07251872672181553 -0.06922623131010426 0.024411558327701588
-0.07313031166835238 -0.06924994560600163 0.023454201910435346
-0.07374310669317091 -0.06927349900084419 0.02249695373218802
-0.07435552908614662 -0.06929724569760132 0.02153828708832728
-0.07496915982101554 -0.0693208312844602 0.020579732765132863
-0.07558242137916615 -0.06934461044852615 0.019619753206101154
-0.07619688953733317 -0.06936822829344472 0.018659890059833262
-0.0768109919840993 -0.06939203999145042 0.017698594889695107
-0.07742629928350003 -0.06941569016065277 0.01673742023489877
-0.0780412443470434 -0.0694395344594116 0.015774806750334713
-0.07865739251031739 -0.06946321701930327 0.014812317894201177
-0.07927318192353666 -0.06948709398581163 0.013848383384482466
-0.07989017267804338 -0.06951080900298018 0.012884577626823768
-0.0805068081785904 -0.06953471870441823 0.011919319373786652
-0.08112464325642554 -0.06955846624563389 0.010954194007010642
-0.08174212658672175 -0.06958240874936608 0.009987609285031451
-0.08236080772473375 -0.06960618888158228 0.009021161594116478
-0.08297914063198653 -0.06963016425515807 0.00805324767008525
-0.08359866957179213 -0.0696539770455122 0.0070854749325542365
-0.08421785380801111 -0.06967798535666667 0.006116229065849577
-0.08483823229601278 -0.0697018308724806 0.005147128551744928
-0.08545826961802655 -0.06972587218913504 0.004176547994207913
-0.08607949940542786 -0.06974975049791585 0.00320611696606532
0.10514065218294827 -0.08882691076134012 0.06086189304234502
0.10188085563983634 -0.08839786798055468 0.06104541993673879
0.09962112530112016 -0.08814987806282651 0.060703944328257486
0.09754746114988022 -0.08793500870988367 0.060270147787990225
0.09550523210798573 -0.08772509833538406 0.05982679060535656
0.09366066418982327 -0.08755070497801229 0.059282206422514916
0.09192442992731331 -0.08739559141228416 0.058683908508576965
0.09033086245858896 -0.08726619600570928 0.058011761641035664
0.08889588382401331 -0.08716560503853717 0.05725547529551189
0.08775309566272721 -0.08711870514281872 0.056338282049513244
0.08691033331047249 -0.08712725371653751 0.0552528551544853
0.08619217655360378 -0.08715898082223268 0.05409613683993936
0.0857080905548836 -0.08723439082412442 0.052804149835195935
0.0852959554027829 -0.08732350384875193 0.05146797150521942
0.08505689618376927 -0.08744529017240209 0.050028232262604055
0.08480377443534831 -0.08756490951353856 0.0485922823765188
0.08445316196014624 -0.08766670395684248 0.04720917228035909
0.08413003543717668 -0.0877740530748892 0.04580614642607955
0.0839984658583886 -0.0879178756718638 0.044285549239160005
0.08383360488046199 -0.08805597256849466 0.04277957089997109
0.08385371971066641 -0.0882295584748034 0.04115751337200735
0.08392190418387957 -0.08841291675461171 0.039500076416678964
0.08403697622458572 -0.08860587990264479 0.03780743966116268
0.08413898767874789 -0.08879710897036587 0.03611568133325199
0.08433511985118719 -0.08900700625368856 0.03435907022990886
0.08473079381855825 -0.08925579705099208 0.03247145577023247
0.08643848603320137 -0.08975640384690367 0.029759596872027005
0.03581269867680442 -0.08183319975996481 0.04455796966315245
0.033691784692912174 -0.08158144095425451 0.04441766743669129
0.03171132662365883 -0.08135622691589962 0.04419304311617278
0.029375889230869423 -0.08106033536460681 0.044215570901611156
0.022618915985064103 -0.07989241791124319 0.0472377089131486
0.0012141162059858268 -0.0758290482658424 0.06025939185350376
-0.002064700055899482 -0.07533366250449343 0.061049349661417396
-0.004368132741997377 -0.07502954399044645 0.06118803139439538
-0.006254120715504297 -0.07480707670656529 0.061049946025471535
-0.007858545764115044 -0.07463972387446877 0.06072479112504375
-0.009367854302114398 -0.07449065239113804 0.0603396386553946
-0.010683092299251795 -0.07437974143530984 0.05982391299205975
-0.011934343271310377 -0.0742811858161704 0.05926728453263158
-0.03550394482387981 -0.06970558810990894 0.07456626316809795
-0.03783669995166855 -0.0693796687608212 0.07487672633356102
-0.038457729310760747 -0.06939716079787236 0.07397074406406434
-0.03905044631229443 -0.06942043887755234 0.07304363696046229
-0.03964269476954868 -0.0694439077787399 0.07211527878000448
-0.04023620891230406 -0.06946721723518652 0.07118692415016697
-0.04082925772585844 -0.06949071778101444 0.07025731207177865
-0.04142357062143026 -0.06951405867770981 0.06932770739311245
-0.04201742141234388 -0.06953759093222374 0.06839683887757747
-0.04261253467667592 -0.0695609633328213 0.06746598162068179
-0.04320718907038712 -0.06958452736023976 0.06653385412192542
-0.043802246483265694 -0.06960810735786721 0.06560109488605498
-0.04439856395012731 -0.0696315271932801 0.06466835271563415
-0.0449944274140463 -0.06965513906058646 0.06373433066117673
-0.04559154931049064 -0.06967859055990885 0.06280032955575654
-0.04618822046190668 -0.06970223436154796 0.06186504211937888
-0.04678614841922002 -0.06972571758903799 0.060929779525540184
-0.04738362889902081 -0.06974939338983871 0.05999322413696867
-0.04798236455290489 -0.06977290840992845 0.05905669749438053
-0.04858065600642414 -0.06979661627489522 0.05811887157637774
-0.049180200997010814 -0.0698201631521914 0.05718107831777369
-0.049779305074043656 -0.06984390314650485 0.05624197928611496
-0.05037966104591024 -0.06986748194578929 0.055302916837269955
-0.050979579400728 -0.06989125413480682 0.054362542100719446
-0.051580748002912014 -0.06991486492103718 0.05342220788042601
-0.052181482294277604 -0.06993866937029361 0.05248055484071307
-0.0527834651802922 -0.06996231220860388 0.05153894626075761
-0.053385017071475416 -0.06998614898381195 0.05059601231255295
-0.0539878158993245 -0.07000982393951306 0.049653126777692236
-0.05459018705811697 -0.0700336931065642 0.048708909308583515
-0.05519380349031028 -0.07005740024514466 0.04776474421652038
-0.055796995589041276 -0.07008130187010943 0.04681924060698878
-0.05640143129260994 -0.07010504125723592 0.04587379334834846
-0.05700544600815999 -0.07012897540636506 0.04492700097174257
-0.057610702654673274 -0.0701527471078827 0.04398026893004975
-0.058215541668494575 -0.0701767138476067 0.04303218515256574
-0.058821620934069174 -0.07020051792954098 0.04208416570421525
-0.05942728593219787 -0.07022451732647134 0.04113478788486957
-0.06003418949752276 -0.07024835385502677 0.04018547839910974
-0.060640682170591265 -0.07027238597595735 0.039234803889711956
-0.0612484117209372 -0.07029625501751935 0.03828420172861546
-0.06185573376419495 -0.07032031992942593 0.03733222787374785
-0.06246429098943135 -0.07034422155056116 0.03638033039218802
-0.06307244410275886 -0.07036831932060243 0.035427054529179436
-0.06368183069736971 -0.07039225358805937 0.034473859074806046
-0.06429081658529423 -0.07041638428357755 0.033519278533707064
-0.06490103424839383 -0.07044035126428717 0.0325647824469214
-0.06551085462010547 -0.07046451495280862 0.03160889455047977
-0.06612190505545418 -0.07048851471388498 0.03065309516440995
-0.06673256162482177 -0.07051271146312081 0.029695897228045165
-0.06734444654084198 -0.07053674407186167 0.028738791868521407
-0.06795594102642905 -0.07056097394970844 0.02778028120029996
-0.06856866213622109 -0.0705850394735959 0.026821867185829407
-0.06918099626130192 -0.07060930254813623 0.025862041086439302
-0.06979455528266026 -0.07063340105483736 0.024902315728180913
-0.07040773077523604 -0.07065769739434052 0.023941171490906632
-0.0710221294306651 -0.07068182895170803 0.022980132092646155
-0.0716361480234804 -0.07070615862463066 0.022017667003343178
