# .PCD v0.7 - Point Cloud Data file format
VERSION 0.7
FIELDS x y z
SIZE 4 4 4
TYPE F F F
COUNT 1 1 1
WIDTH 777
HEIGHT 1
VIEWPOINT 0 0 0 1 0 0 0
POINTS 777
DATA ascii
0.017909400821282232 0.03850670233028142 0.059535353670703894
0.017927037133726544 0.038098712549595126 0.058296566162323205
0.017948657410030107 0.03778250697888491 0.0569971619804972
0.01797635052001113 0.0376064143354487 0.055605602299852785
0.01800980131614397 0.03756223847795531 0.05412556708743538
0.01805109774418477 0.037697850459388005 0.052525011525582144
0.01810013283582787 0.03800968140320532 0.05080424686704782
0.018169814125158598 0.03879631828649277 0.048768334219936926
0.018258709352116154 0.04002173264168851 0.04643545289723611
0.018526538449119768 0.040272867694984726 0.03530613225847329
0.01848331986956796 0.03843677585306848 0.03496215508791112
0.01844085840095831 0.03662188161354535 0.034611133344454814
0.018405899509246287 0.03498127225513825 0.034147671678658786
0.018405345674969063 0.034123642622332195 0.03314922108872892
0.01841609601531843 0.03352174703044991 0.03197317886443313
0.018400639427943333 0.032327306795207955 0.03120925257368462
0.018405511822270106 0.031592229695299456 0.030125310287012597
0.01843385600380077 0.03138436818818319 0.028668107881174354
0.018490359905820153 0.0318056622087623 0.026759092526746076
0.017884057044859937 0.017382248415326762 0.0354416560597825
0.01775222183719809 0.013615537401167166 0.03657824149052985
0.017676143621764163 0.011104150541222046 0.036831641784186464
0.017631662681287796 0.009302825948239002 0.03658296517926829
0.017624194775902467 0.008327469736230608 0.03573924578687976
0.015964729551846867 -0.04464726501222471 0.04341791607480755
0.015855191270963333 -0.047696911954620225 0.044457626845082865
0.01577606330119189 -0.050094741445692204 0.04497649650680091
0.01570715375710342 -0.0522701311985857 0.045324426223833425
0.015659181965664678 -0.05399925950274659 0.04531074892080833
0.015611462462418388 -0.05571869334001894 0.04529785957451693
0.015564072517297928 -0.05742685099843797 0.04528434598890069
0.015530443390752992 -0.058843416891784295 0.04503114619469056
0.015501279293978456 -0.060163897751202566 0.0447019275497747
0.015472263661274204 -0.06147861519408876 0.04437324232596074
0.015443317459096436 -0.06278922851146812 0.04404648551968726
0.015414518207601605 -0.06409414336600866 0.043720249303885406
0.015398491765579258 -0.06513272926456531 0.04316637944797608
0.015383311023640078 -0.06615242353505957 0.042598936652894936
0.015368198796495435 -0.06716931566525897 0.042031909704934256
0.015353077695671768 -0.06818500205590533 0.041466698353008036
0.015338024782209244 -0.06919790477386806 0.04090189481135936
0.015324383357815457 -0.07018061020199168 0.04031284895319415
0.015322041781110336 -0.07093189957021184 0.039517415049341975
0.015319662551067504 -0.07168373914039128 0.03872293215650585
0.015317322416715216 -0.07243456749445104 0.03792798612100168
0.01531494465199307 -0.07318594226066943 0.03713399463295508
0.015312605958661324 -0.07393631002585549 0.0363395360158123
0.015310229657906639 -0.07468722041791709 0.035546035478078275
0.015320775325474899 -0.0751782684208806 0.034510829944443266
0.015333103386440144 -0.07563455258016083 0.03344099733798167
0.015345451303251333 -0.07609157164075075 0.03236944163559391
0.015355120392016227 -0.07660318191730375 0.031347135677582905
0.015372524585224062 -0.0769616773626311 0.03017723805970779
0.015400236372455101 -0.0771170243254582 0.028809605141381756
0.015435055872612239 -0.07713405704274123 0.027303513510728905
0.015469994055847633 -0.07715194053958918 0.025791343600770733
0.0155051300705728 -0.07716912988736263 0.0242715592217026
0.015548168480726317 -0.07703402638495838 0.022596065062335524
0.015615607372843322 -0.07642379336695015 0.02044560840214943
0.015698446394473847 -0.07551809237728996 0.017990133512762962
0.015045265988881243 -0.09867440290395685 0.018265558887562983
0.014974144133016527 -0.10070608344952614 0.018879156791556162
0.014921906763900452 -0.10237606004717587 0.019117991443995785
0.01487126177431712 -0.10401136402946176 0.019330198437716162
0.014836237451207612 -0.10534966361504317 0.019229807647149266
0.014857030133794743 -0.1056426478600877 0.01799339205698086
0.015163235525632745 -0.10062201253999875 0.010910575863419203
0.015144651692605215 -0.1016634603768744 0.01046242244266632
0.015124729484916468 -0.10272800472325522 0.010043853834936722
0.015124692086635354 -0.10342312374347873 0.009217038904288044
0.015159214551931937 -0.10348094315879702 0.007675014428799032
0.015189706841884611 -0.10361606548830382 0.006212836670099864
0.015178662764322058 -0.10451611905920383 0.005611459352776738
0.015146751821298264 -0.10579707669955901 0.005446554115960789
0.015088241991389577 -0.10756071201012368 0.005841424601262746
0.015076824628018216 -0.10846138360102725 0.005255239341462714
0.023407807563397085 0.16128420876655736 0.037821251700694614
0.023293080037416074 0.1576182597892699 0.03802154251130274
0.023206393234369082 0.15461177687512717 0.037890989761526606
0.023129406536026673 0.1518370349181687 0.03765029364855954
0.023065261243604845 0.14936529375571006 0.03725927122103623
0.023015364448637173 0.14722732042415954 0.03669854963552932
0.02298477208935484 0.1455375499633017 0.0359031467999949
0.022970673758953012 0.1442289927190875 0.034905156295953865
0.0229669707823498 0.14315980528982497 0.03377842478834603
0.022971881509919787 0.14228790935096558 0.032543762199669535
0.022980017005285805 0.14148919681872085 0.03126788489623378
0.022989448498881526 0.14071931223691692 0.029974748297342646
0.023002035872972674 0.14002038080439427 0.02864048260829055
0.023016334403684006 0.13935920718458283 0.02728306550215015
0.023034617144644706 0.1387870634842342 0.025873072863955515
0.019456272404655806 0.05689211787200826 0.07078752134874455
0.019299454669155017 0.052519374105375105 0.07182179386850462
0.01924742201355241 0.05052032379555277 0.07151169825185841
0.019220326943394334 0.049086376152513655 0.07088188834201414
0.01919999940031651 0.04780660725716168 0.07016629440708416
0.019186958396133453 0.04669177096013971 0.06935706194877511
0.019182802491260156 0.045776663620509195 0.06843199454270538
0.019176179230738447 0.044806864657477186 0.06754001440526025
0.019170682032317424 0.04386270803424469 0.06663374647547482
0.019158688894553494 0.04277465197824143 0.06581469658586214
0.019150459308101598 0.041771106470122166 0.06494647326618308
0.019154601209450162 0.04104215909387143 0.06391278985910126
0.01915812883498951 0.04029928358488932 0.06288697202205801
0.01916630896382457 0.039658708936409603 0.06179777855292523
0.019174888789871194 0.03902623073689315 0.060702315503798954
0.01919566917264909 0.03866103447190883 0.0594394808528364
0.019213790411569447 0.03823575609711394 0.058210947597032936
0.019228503869790765 0.03773435585310436 0.05702741590130139
0.019269039826841788 0.03779563391552376 0.055486037639533914
0.019304286744328256 0.03773815679433834 0.0540137765397411
0.019347142003592117 0.037843165861077166 0.05243214510446753
0.01940413873853066 0.03825152068229626 0.0506488211911541
0.01947650979909094 0.038988116236941095 0.04864437334761135
0.019579969353623067 0.040390791883615884 0.04619558208443825
0.019790340868242197 0.03900357585979808 0.03616399400426906
0.019746037397810088 0.03721264441342159 0.03579409819516627
0.019697905104545402 0.03534418911646697 0.035484301777852445
0.01966828817498148 0.03387231585119049 0.03490973077863424
0.019671771369826393 0.03310316202269342 0.03385436517384843
0.019659320201069197 0.03199732607184025 0.03303236781266211
0.01966398016694092 0.03125304990294375 0.03195978354425466
0.01967933237496083 0.030733177364375086 0.030728798230617804
0.019695773968898326 0.030234846580343866 0.029480098921611797
0.01936034454957215 0.022367221085080935 0.033462816818643326
0.01915342562764543 0.01721373922041808 0.03556199826081169
0.01905120061066717 0.014261221614031039 0.036114592062638784
0.0189821150978352 0.012007118452068144 0.036179692409306796
0.018940641016555987 0.0103323637394373 0.035835565908804434
0.018975959332604504 0.010252678592650777 0.034333994751984176
0.01731484748305839 -0.03975537926995898 0.04089302540371215
0.017055477894255835 -0.04562825152574629 0.044223798794217506
0.016947027369677823 -0.0484998584228547 0.0451207586281232
0.016862651923940902 -0.05088797713630999 0.04563509044259295
0.0167898160913268 -0.053042069614892884 0.04596874113975408
0.01673861426276771 -0.05476566090115709 0.04595383591229141
0.016687766264921407 -0.05647794021552027 0.04593831992027575
0.016637184024746732 -0.05818067267465821 0.045923597223000046
0.01659921688207386 -0.05963330036944986 0.045704522243669055
0.016568163465233213 -0.06094827590232832 0.045374145027743173
0.01653718429022427 -0.06225914997213483 0.04504569895143867
0.016506362322386458 -0.06356432644326826 0.04471778199366905
0.01647561361360801 -0.06486544662865501 0.04439178147568462
0.016454393068617436 -0.06598034361226413 0.04390823944518024
0.016438214567583456 -0.06699648826102167 0.04334157875955036
0.01642210900001916 -0.06800984730592158 0.04277533314078996
0.016406034960868832 -0.06902122258941829 0.04221019600988746
0.016389951368189666 -0.07003140268639724 0.041646863731040984
0.016373940188804146 -0.07103882460103933 0.04108393455616921
0.016366171108952113 -0.07188818534265362 0.04038112114317155
0.01636367838872314 -0.0726367985043489 0.039588234935419186
0.016361145582208372 -0.07338595666435921 0.03879629572161175
0.016358654392496702 -0.07413411193146663 0.038003894256296356
0.016353959949829557 -0.0749235616406061 0.03725002790738591
0.016359389419078867 -0.07552231448691771 0.03632022496624465
0.01637398109920668 -0.07594970741695561 0.03522974177056509
0.016392452101337537 -0.07630576556911883 0.034069772125045195
0.016410964823710034 -0.0766626279457795 0.0329071824693129
0.016429519407833385 -0.07702029727476001 0.031741963916654126
0.01644811599585771 -0.07737877629622936 0.030574107540115192
0.016471265775944426 -0.07765443557096041 0.029323614061405268
0.016508441270981798 -0.07767265123002337 0.027821334402631903
0.01654578495511898 -0.07769094930025011 0.026312258141316103
0.016583297972323503 -0.07770933034217598 0.024796339049177663
0.01662093932401472 -0.0777285691874226 0.023274286548975787
0.016689593646024486 -0.0771827163329094 0.021190545169869235
0.01676216085065477 -0.07657121096023006 0.019029208883043547
0.016835318615577372 -0.07595515346004661 0.016849777642736707
0.01606693215716127 -0.10029772981732149 0.018441587316591623
0.016000677458298564 -0.10214926100388755 0.018873712856085745
0.015946598988593418 -0.10378189629674334 0.01908177142658457
0.01589832094946421 -0.10530857421467799 0.019185094066481723
0.015887028783231748 -0.10618662597529949 0.01858840033706194
0.016231958634496887 -0.10087171332292671 0.011185107835211927
0.016234572244967545 -0.10152197450412204 0.010306065530409081
0.016208914921247097 -0.10266145365056101 0.009969929127058297
0.01618825544081432 -0.1037125017927194 0.009540133942610274
0.016201101364268135 -0.10418511785883722 0.008465283336391238
0.016272140164948524 -0.10365977107394658 0.006262138251733329
0.016266445447968472 -0.10445459667881796 0.0055417026162840055
0.016236583288058916 -0.10566177313525132 0.005292351730545819
0.016182779113788244 -0.1072743523270831 0.005513388000354169
0.01613743243246054 -0.10873857045751456 0.005574401514017058
0.01614029393474924 -0.10938158622324284 0.004694121289284814
0.024941246849934443 0.16069384157715094 0.03812882090414815
0.02482318954226889 0.15712295462725834 0.038281152582904154
0.024712008886582384 0.1537109110304823 0.03836603030704727
0.024653095608600125 0.15144092357892347 0.03786043116906723
0.024598183870065682 0.14926225974647056 0.037314260327664384
0.024549463437877065 0.14722173404305916 0.03670154900794603
0.02451829408368156 0.14556350367027826 0.03588912844353409
0.02450703406076227 0.14433619976793977 0.034846903995893797
0.024502309652369273 0.14325017567186027 0.03372902761231633
0.024506518582582664 0.14235604683993874 0.03250629573703895
0.024516058447754153 0.141575651886928 0.031220063533392073
0.024526380174080254 0.14081118937962833 0.02992362624031425
0.024539811418834892 0.140112185584375 0.0285890983644011
0.02455575857662496 0.13946563522897004 0.02722314448947477
0.020946441639123486 0.06182648574582639 0.0694588083677255
0.020665502666165757 0.055029841562180215 0.07184840522327865
0.02057657163181423 0.052318099346251645 0.07193712736211558
0.020516002176720505 0.05021241163965717 0.07168917038176678
0.020483419896794888 0.04870146901174105 0.0711050354905467
0.02046003903516868 0.04738671056152921 0.07041114704490015
0.020430141539118988 0.045937004918330915 0.06979974878418227
0.020406941651655595 0.044630058034232256 0.0691084127023543
0.02038575600517423 0.04336710517635184 0.06839430020020615
0.02037411076280565 0.04230501877869136 0.06756335743150776
0.020378921724285348 0.04158674449890798 0.06652772262754719
0.02038272458493933 0.040847119684415956 0.06550428307998873
0.02038950194716057 0.04016892612625905 0.06444299438890455
0.020402176998273482 0.0396123596581992 0.06330645103027882
0.020416835413935724 0.039095780827477555 0.06214350946692493
0.020427275977015102 0.03849098957151842 0.06103292394879922
0.020447052783031414 0.0380776360832899 0.05980189432592409
0.020470703677505305 0.03774232341488709 0.05851922185791186
0.020494890030948662 0.03741609500050719 0.05722738295240293
0.02053987329215167 0.037513721777171605 0.055664173163608444
0.020582508871818693 0.037559761805774694 0.05412714093457777
0.020642557867693763 0.037957501482959344 0.052359076868845666
0.020706147033331946 0.03842247153101824 0.05053895421128596
0.020768154603991423 0.0388502046700529 0.048733506928524406
0.0208691521403528 0.040063409142513495 0.046408365169869514
0.0209627100279057 0.041117971599881786 0.04417193813471987
0.021119837362296532 0.043448668772479326 0.04108283329927187
0.021059901771745455 0.03800806933206835 0.03683681560774499
0.02101274084850357 0.03622105597824665 0.03646800063501837
0.020961201471976602 0.03435064953644218 0.03616328157979426
0.02093038649187939 0.0328962093268918 0.035580497327020844
0.020935212992368522 0.032151063347442055 0.03451225788591106
0.020912729202155207 0.030865027094630126 0.03381910493798068
0.020928193364243657 0.030330307038220317 0.032604459043043155
0.020948387496456528 0.029887576034335672 0.03132283678846237
0.020962961477723235 0.029332670483845802 0.030117371768209444
0.020584811991193913 0.02106724839186841 0.03438613226958426
0.020447232208415694 0.017545041239610815 0.035325396250952934
0.020361233330669946 0.015042301278813008 0.03555371860081563
0.020297914635907632 0.012988960328445931 0.035470795459762505
0.02027483750310439 0.011724200945218088 0.03482515315747242
0.018318460686475305 -0.04255646535444263 0.043181934613414186
0.01813987304721898 -0.046604439478848125 0.045025739484999217
0.018033647091294534 -0.04929896871863365 0.0457807222200311
0.017944075024949425 -0.05167744187247497 0.04629055349589434
0.017867390899474617 -0.05381125462626002 0.04661075786732838
0.017813074939709274 -0.05552766569643297 0.046593233716504645
0.01775904309895083 -0.05723450043116213 0.04657651394244722
0.017705382896300713 -0.058930191060672044 0.04655919920733392
0.01766283938415098 -0.06041852888581495 0.0463739299358743
0.01762983178960915 -0.06172966231056848 0.0460437985614528
0.0175969916272708 -0.06303509900655074 0.04571420480652999
0.017564229452943603 -0.06433648203053521 0.04538653016319877
0.017531633012882755 -0.06563223223699166 0.04505938036941154
0.01750467847693093 -0.06682344985591032 0.04464615380122222
0.017487556771908642 -0.06783527969752962 0.04407958121397443
0.017470424867245076 -0.06884591726033168 0.04351481035741589
0.017453370072412825 -0.06985379470798109 0.04295044980003787
0.017436305052453794 -0.07086048488968355 0.04238788595080317
0.0174193167763574 -0.07186443306319606 0.04182572448601646
0.017403964614237294 -0.0728378564039685 0.041238852907492185
0.017408255289337485 -0.07346074837151012 0.04033631646811536
0.017414022860889996 -0.07405778157791304 0.03940945387057837
0.017419794255445337 -0.07465521052449098 0.03848197690727845
0.01742556947680584 -0.07525303560484581 0.03755388496716966
0.017431348528778895 -0.07585125721310154 0.036625177438395606
0.017441917153260572 -0.07636573489264176 0.03561744199544886
0.01746156617532047 -0.07672177877899633 0.03445948242827157
0.017481259518138257 -0.07707862576563573 0.033298910942503535
0.017500953517982025 -0.07743704360927234 0.032136442850247804
0.017520735854264377 -0.07779550493603182 0.0309706246861135
0.017540562963385027 -0.07815477755884209 0.029802167956557102
0.017578097576361987 -0.07820858562133826 0.028336598085503373
0.017617790977839602 -0.07822806170575586 0.02683133998627929
0.017657619447925103 -0.0782483957833171 0.025320016263217726
0.01769767321031496 -0.07826805047944269 0.02380109037242678
0.017758321284210298 -0.07793711644010015 0.021931042430625936
0.017835298580744348 -0.07733117794753847 0.019779041799802
0.017912946132228734 -0.0767199634412501 0.017608303318440655
0.01806389021255795 -0.07486459899137388 0.014183585357455508
0.017200936024225146 -0.09926048761357847 0.01733013515672599
0.017085117339004505 -0.10185751571531748 0.01855948257500517
0.017020017593186783 -0.10361260894520308 0.018898497071330733
0.016968252716995095 -0.10514409493467747 0.019006107332942557
0.016925812855303077 -0.10651908656151304 0.018952048792883924
0.016929460979962806 -0.10713961801967586 0.018076316646135238
0.017331517278453546 -0.10128398556827395 0.010043062486806809
0.017319622899756148 -0.10217314094862995 0.009427513018914313
0.017258221835431478 -0.10386213529938026 0.009707202051942476
0.017258860961473443 -0.10454515839994583 0.008869343358846649
0.017330743862804716 -0.10408155454021484 0.006737926224552548
0.017360570302071613 -0.10429894128629585 0.005365213798202928
0.017322412533947486 -0.1056074772369246 0.005230471933933889
0.017272378902525004 -0.10710265960480703 0.005316707041574831
0.017220766696689035 -0.108618975547706 0.005436695954220083
0.01720241750906536 -0.10960245327921803 0.004949743080859992
0.02648948963440761 0.160476660570386 0.03824196775657246
0.026356856431254266 0.15675877488956413 0.03847203435646496
0.02625613817540366 0.15370332163287115 0.03837003231423047
0.026177389223589836 0.15110374871600618 0.038039302821178955
0.02613308754607737 0.1492116940076954 0.037341247191727656
0.02608490416035032 0.1472440802741115 0.036689551138872956
0.026049408367942655 0.14553754996344714 0.03590314679991635
0.026032426576672516 0.14420866526502019 0.0349162014741064
0.026025950117626474 0.14309343049860757 0.033814705781873566
0.026030054541919808 0.14219217842421572 0.03259640134507552
0.02604045821275442 0.1414174791372903 0.03130755448804573
0.02605553089493064 0.14073584774412695 0.02996554765050452
0.026070712544574364 0.14005526282493663 0.02862095872019582
0.02608655322210909 0.1393867275221049 0.027267571028837312
0.0222346744351859 0.06140833697414355 0.06969562210144958
0.02194146454450762 0.054717976693143267 0.07202606543881646
0.021852508763842093 0.052117010529478924 0.0720523543079358
0.021792496201151913 0.050098010401232906 0.07175510812101665
0.021763187254940117 0.0486926140948854 0.07111016906495343
0.021736628434930294 0.04734388427244812 0.07043612016318962
0.021703600201385894 0.04586931879757744 0.06983944817834886
0.021680793236755393 0.044598850170729454 0.06912682318792124
0.021658349925801682 0.04333726502627877 0.06841200594665942
0.021629715395445934 0.04195573277571413 0.06777180728374821
0.02161976782660695 0.04094281847017933 0.06691423086610127
0.021618383447901103 0.04009825735825823 0.06595637044874997
0.021622537116697673 0.03936198361264209 0.06493294906523839
0.021627825913238405 0.03864752692660833 0.0638956386558967
0.021653677453943056 0.038332797060456 0.06261210762529329
0.02166751129745215 0.03778271642368103 0.061470411009193815
0.0216882002424723 0.03736446344336081 0.06024492498625844
0.021713561607040667 0.037035035693653684 0.058961103004713855
0.021737137349072594 0.03666921401988449 0.057696657090268555
0.021767907115640285 0.036440236672289295 0.056342490290576475
0.02180401146895272 0.03631152698579271 0.05492035483660862
0.021842291031623974 0.0362218382961213 0.053468283646299575
0.021901674351313884 0.036533525430819336 0.05175294527780677
0.021960342538553047 0.03682704960080013 0.05004109163758047
0.022046842212558003 0.03764718172449005 0.04797879714615333
0.022167584354524362 0.039112848465595706 0.0454825044469791
0.022275284100728595 0.04032151254225186 0.043138251426877106
0.02233013155638508 0.03714226690960143 0.037421975582040745
0.022280496058005944 0.03536587516750722 0.03704919784792288
0.022226623480984243 0.033513832364710894 0.036735158099811094
0.02219003527420401 0.03198912619662214 0.036203831978766754
0.022195141084641743 0.03124539697667611 0.03513806623999771
0.022176254692209522 0.030054379388306907 0.03438235427314318
0.022188510618222305 0.029443699813137658 0.033223888330346285
0.022212930292702503 0.029057747457851113 0.0319057949193467
0.022213661056183 0.028231382697610052 0.03089529173880262
0.021857460418804535 0.020810392780831632 0.03456856591266727
0.021749995279492843 0.018002505635949406 0.034998694361612626
0.021677502864975554 0.01584624730446793 0.0349764253862318
0.02162090063809363 0.013987251417921398 0.03475002205916444
0.021667258471328395 0.014019226567560383 0.0331590652387006
0.019406662049675557 -0.04354834099700822 0.043992446402296215
0.019218061029588784 -0.04757412694104818 0.045822340007273754
0.01911503853581772 -0.050095127076101365 0.046438247885883854
0.019020369351347325 -0.052463162480471115 0.04694290793956557
0.018940002025526852 -0.054576024499203846 0.047249089405149325
0.01888251072545792 -0.05628697153995349 0.04723036683178583
0.01882541510633233 -0.05798673922927938 0.04721106264627589
0.018768616303032386 -0.059677075695851955 0.047192567734440416
0.018721261994896144 -0.061200764539346586 0.04704078621105806
0.01868640814856373 -0.06250646007259292 0.046709519593751025
0.018651637000216364 -0.06380810454836905 0.04638017474502293
0.018617041677505056 -0.06510411703192365 0.04605136314571012
0.01858252796201137 -0.06639612284738333 0.045724458744489715
0.018549392674563292 -0.0676620838651803 0.04538015391042449
0.018531297186041226 -0.0686704146000438 0.0448143665026709
0.018513236968494353 -0.06967677993849847 0.04424968190423845
0.018495165864027423 -0.0706819633808119 0.043686788412968025
0.018481221793337718 -0.07161624030568287 0.04306336970107694
0.018474786087795462 -0.07242323174516019 0.042327792056896296
0.01847042155402435 -0.07319499417425618 0.04156141555290993
0.018476532479290486 -0.07379110478893142 0.04063625405525528
0.01848264744948487 -0.07438760997966426 0.0397104801770079
0.018488766468624917 -0.07498451013834995 0.03878409330994875
0.018494889540733403 -0.0755818056574023 0.037857092845052454
0.018501016669838322 -0.07617949692975712 0.036929478172488484
0.018507147859973275 -0.07677758434886656 0.03600124868161364
0.018527737786427228 -0.07713742802920653 0.03484885178359309
0.018548605181616707 -0.0774942583665294 0.0336902955036355
0.01856951963480876 -0.07785189339093157 0.03252912656673934
0.01859048130536363 -0.07821033582745701 0.03136533612523562
0.018611490353361907 -0.07856958841346806 0.030198915291460904
0.018644005645613512 -0.07874264201816528 0.028850056207149588
0.01868598505292153 -0.0787640531972848 0.027349338545715807
0.018728201153565906 -0.07878479388991189 0.025841102284765105
0.018770608438637502 -0.07880562851111345 0.024326035660940826
0.01882178953426552 -0.0786878040177108 0.022667895580043895
0.018903126935615935 -0.0780873849795547 0.02052516489983064
0.018985218906459427 -0.07748097307364693 0.018363059872117837
0.019104762611418157 -0.07627945049957424 0.015594086691847864
0.019310143822807036 -0.07371202136133231 0.011436517076207964
0.01817461371253088 -0.10152177508674898 0.018197866205457824
0.018101926734283638 -0.10333205172687543 0.01859475941560529
0.018042520039555664 -0.10493214206943952 0.018775459733967825
0.017989817770994485 -0.10642465785912303 0.01884876180719791
0.017963842602305973 -0.10750326345863037 0.018476124360868817
0.01838342540167097 -0.1017630424131738 0.010572471166324482
0.01839981999161933 -0.1022079277638383 0.00946615409633339
0.01835621127856075 -0.10356754236148047 0.009378284510304646
0.018318996572968198 -0.10482675866123514 0.009185372791392366
0.01836233764329575 -0.10486287248464599 0.007619282917353087
0.01842986135145296 -0.10453685081694364 0.005634965916609558
0.018415193671359256 -0.1054547850237621 0.005056452102125131
0.018372057449360164 -0.1067996325937135 0.004969577342145315
0.01831253788583063 -0.10838692105215758 0.005169500684253814
0.018263276956060916 -0.10981624644679838 0.005197177865926272
0.018263232049172854 -0.1105074698457138 0.004374987799797003
0.028032598557614485 0.1601841285293878 0.038394370953174384
0.027884006980568483 0.15630902080415687 0.03870776921099672
0.02778873069327349 0.15347384375461492 0.03849103956200195
0.0277062990841192 0.15089299525428135 0.03815110777472985
0.027670620061287794 0.14921731194876708 0.037338248904434934
0.02760098993806036 0.14689234577005061 0.036878400189896465
0.02754192976796717 0.14477490892680667 0.03631507153625352
0.027511965006676006 0.14321821830677484 0.035454373301639364
0.027507249815541427 0.14214573219141202 0.034332725281728316
0.027510713880430884 0.14122944898168466 0.033125773167041184
0.027524000881686262 0.14049975614986543 0.03181517960337876
0.027538939999311236 0.13980047953577113 0.03048600296157461
0.027557853989103882 0.13917545637695872 0.029113397012710707
0.02757930838073312 0.13859713008306151 0.027712129400888574
0.023470369082396463 0.06004484862078058 0.07046781800328061
0.02321540531526961 0.05440268174425811 0.07220567966965272
0.023128900093487604 0.05194680669165097 0.07214988369178987
0.023067166000523904 0.04996207862992197 0.0718334554694888
0.023042632054399746 0.04867869995938079 0.07111823568501124
0.02301080910486043 0.04726077521209626 0.07048458320866063
0.022977932561000926 0.045825459571773364 0.06986517257610808
0.022954458917161677 0.0445676468616758 0.06914523098667757
0.02292561861208747 0.043211733486915316 0.06848649047848693
0.02289945084568627 0.04190747241507076 0.06780060850956149
0.02289305151676727 0.04097120393798209 0.06689719285758555
0.022889786571212073 0.04009333129184239 0.06595934430966732
0.02289078594567278 0.039294365109853624 0.06497400527567332
0.022896584037972338 0.03858368867708245 0.0639346223112291
0.02292789108524976 0.038341395998320094 0.06260682645599291
0.022945149828896977 0.037839192438671954 0.06143552683229592
0.022964714351753224 0.0373779666580904 0.06023653664127243
0.022988343379360194 0.03698960468500356 0.05898948622924893
0.02301067445129456 0.03657588697067643 0.05775529557711312
0.02302017156165741 0.03592700621321632 0.05666679195893454
0.023055534594257514 0.03574726318979621 0.05527892670163925
0.023104709869323323 0.035815380119445406 0.05372803805472359
0.023156686095956648 0.03593065998495071 0.052140395859653244
0.023267055279720658 0.0370965932145681 0.04986688299033282
0.023361814155906876 0.03797333555617516 0.04776681279292355
0.023476534626062893 0.03920231863530044 0.04542402594839606
0.023605913072366397 0.04068620797434325 0.04289854431057455
0.023604354346319478 0.036443623250788815 0.03789415987585204
0.023552396752442938 0.03467923457409933 0.03751585191001611
0.023495050695500307 0.03282318484643082 0.03720714303589351
0.023449304604112646 0.031176127597437542 0.036762513076211534
0.0234551093070072 0.030441067610195383 0.035693851519465636
0.0234328851753588 0.029212505676143197 0.034967299872777025
0.02344839569464316 0.02864801700418207 0.033779793156437365
0.02346826794161636 0.02815884119326212 0.032537280422129666
0.023358344769104266 0.025398771170705103 0.032896172074762475
0.023174564297237195 0.021357793405288428 0.034179770473305615
0.023071632339335405 0.018737804644639977 0.03447357464236911
0.023003001668458683 0.016721251165222772 0.03434810734568061
0.022972562932082042 0.015371930511931142 0.03375027371937822
0.023670924784918987 0.026637744537049146 0.023998574768745506
0.020488594715532642 -0.04453357234433569 0.04479752880125465
0.0202921454979329 -0.04850371828857175 0.046586001477392225
0.020191334383334047 -0.050886642975384755 0.04709193947101614
0.020091571302533983 -0.05324516553273073 0.04759217583570374
0.020007590366329674 -0.05533808308114063 0.047885157905919296
0.019946998945502805 -0.05704276458205254 0.047864552357328116
0.019886823697353225 -0.05873633224347691 0.04784337950728945
0.019826960439472685 -0.060420525788026924 0.04782302372145458
0.01977461390807065 -0.0619784086603114 0.04770372820249491
0.019737838265997506 -0.06328031320521155 0.0473727170583671
0.019701248510112405 -0.06457658658887755 0.04704224753695463
0.019664744991110934 -0.0658688558714654 0.046713687821650085
0.019628425482897123 -0.0671555568837458 0.04638565702080316
0.019592191077722514 -0.06843829746105778 0.046059521617720645
0.019572784312791667 -0.0694488564012013 0.04549927091975964
0.01956601562854911 -0.07025600732534792 0.044761990059269785
0.019559202979238 -0.07106337604384533 0.044025908788400736
0.019552395072439444 -0.07187018272604567 0.04329033992825476
0.019545591903202854 -0.07267642795862594 0.04255528294396127
0.019538793466584783 -0.07348211232744278 0.04182073730139013
0.019542532021621768 -0.07412075686153163 0.04093555215281658
0.019548992896529453 -0.07471673492987546 0.04001086446044083
0.01955545804485548 -0.075313107196188 0.03908556515159084
0.0195619274708411 -0.07590987405170052 0.03815965361925344
0.019568401178733173 -0.07650703588816204 0.03723312925561201
0.019574879172784186 -0.07710459309784046 0.036305991452044994
0.019591068535795297 -0.07755118977784176 0.03523645297676575
0.019613103657413554 -0.07790800227791128 0.0340799015615556
0.019635188403003444 -0.07826561833396112 0.032920745546468067
0.019657273806387012 -0.07862480151490003 0.03175970007290441
0.01967945819317895 -0.07898403280748267 0.030595312123794016
0.019706086388962634 -0.07927635249443071 0.02936318175020891
0.019750478408808423 -0.0792974001116103 0.027864781304914155
0.01979502105954316 -0.0793193072060186 0.02636035731928099
0.019839715025501265 -0.0793420794400434 0.02484988033291441
0.019884661548760243 -0.07936418695958763 0.0233318134545355
0.019965735908299233 -0.07883908764836312 0.021266843701805926
0.020052227878989068 -0.07823743349080353 0.019113304590634872
0.020139472480010343 -0.07763054389736262 0.016941025949730237
0.020351536723670603 -0.07514159786570435 0.012869083961617567
0.019334069396185434 -0.10019996144635707 0.01677417955813515
0.019190364733498055 -0.10298739535579776 0.018221626552348436
0.01912256477282506 -0.10465963913431281 0.018478921408666305
0.019058474677415387 -0.10627316944098869 0.018683062378111126
0.019009688862276913 -0.1076604346702072 0.01864892527129164
0.019010010517106376 -0.10833463080533529 0.017834774106083418
0.019441754188674155 -0.10279036766545135 0.010113126381533832
0.019448677637505518 -0.10338509403178003 0.009174578146843193
0.019390558725095163 -0.10491318486009987 0.009282365679322446
0.019382434498648862 -0.10572186139832929 0.008588255450893922
0.019502743840399926 -0.10469707224150271 0.005816631899352054
0.019503566070188126 -0.10538181862589929 0.004973293963142222
0.019458349868008543 -0.10672035368012284 0.004878760139591265
0.01940323655327153 -0.10819584152958855 0.004949485362002848
0.019329222406583642 -0.10993442855871305 0.005333956631081549
0.01931104410232859 -0.11088086138525494 0.004809357367453082
0.029571834863104732 0.15985129663057207 0.03856776954957264
0.029429883735743533 0.15624974749092968 0.038738836823998035
0.029323741791652532 0.15331275759086338 0.038575982796956676
0.02924698044281049 0.15091933034120564 0.03813713698086374
0.029176258784189155 0.14864115495979202 0.03764574308364005
0.029048028893363994 0.14532176844724287 0.0377216556383862
0.02903380553920381 0.1440808246293791 0.03668996677198999
0.029030150356527822 0.1430323487497286 0.03555536786612923
0.029030657966007435 0.14205941320346593 0.03437990793323703
0.029036547531152222 0.14118360543661101 0.033150980956383524
0.029047215755977296 0.14039350813896745 0.03187394914443309
0.029059112444459675 0.13962478372722353 0.030583763197462976
0.02907305514678518 0.13889198403441716 0.029272059905733616
0.02908966134859254 0.13820596550544884 0.02793236249591774
0.024715123465993163 0.05898691110937432 0.07106696871013218
0.024489390454695812 0.054121367732505365 0.07236593596307916
0.024405656510718163 0.05180102362863925 0.07223341960081134
0.02434153557688599 0.04983511670099716 0.07190663284658202
0.024321495567149055 0.048655933308519916 0.07113143448722375
0.02428350321038711 0.04716007998123373 0.07054330120560759
0.024251508366324392 0.04577284034007356 0.06989603490943047
0.02422815086809183 0.04454019171636325 0.06916142762751681
0.024189673961611265 0.04304281765432044 0.06858671721650739
0.024173543040633162 0.041940882266548574 0.06778066989609127
0.024166153958442436 0.040993421303390176 0.06688385717245077
0.024163058924162827 0.04012165774056836 0.06594224366349577
0.024166294661058893 0.03936075399215122 0.06493369565907808
0.02417107951194016 0.03862665460284648 0.06390838461120663
0.024204414871365647 0.03838931079186875 0.06257739885217489
0.02422397957244252 0.03791042293770969 0.06139152908689277
0.024243505125854367 0.03742953236721941 0.06020450345759859
0.02426859489536007 0.0370436318550495 0.05895573251468317
0.024295656379512625 0.03669009548939439 0.05768353701644713
0.024306682923184705 0.03605826375289667 0.05658385253406134
0.024348032486502438 0.035947470484074484 0.05515170127372515
0.024397909752113082 0.03598033169753262 0.05362262278190255
0.02445879673914683 0.03619852339623442 0.0519682449505765
0.024573046276365765 0.037325417621170254 0.04971899156091203
0.024669659229578027 0.038143485951749545 0.047656223193619174
0.024789074493309003 0.0393435318039706 0.0453317277655354
0.024945956161337164 0.04117259727537609 0.04257885021382535
0.024882771890459943 0.0358891413900288 0.03826891118512343
0.024821316923813452 0.0340147944770261 0.03796741809077159
0.024767847728517218 0.03227850903445556 0.03757937166409597
0.0247129161727112 0.03052137041275005 0.03721245291973396
0.02471115061662883 0.02965582475470424 0.03623644816964
0.024690938275732956 0.02848295993564981 0.035474198430681225
0.024699239707387396 0.027785715572159808 0.03438224116990607
0.02472167411824212 0.027322496938747998 0.03312481584475013
0.02465588412689032 0.02539634505214733 0.03289788581943548
0.02450449903580831 0.02205967884139365 0.033681251026450976
0.024409818847632263 0.019668721492737018 0.03380875286492324
0.024338823617044814 0.017674101965297784 0.03366388939591719
0.0243459616721028 0.01696797128301103 0.032597920717140294
0.024903374368466336 0.025283438829435956 0.02498174129891917
0.024983569837775603 0.025753074215640492 0.023019925154880827
0.02156420950272307 -0.0455139782481388 0.04559866808608126
0.021368431001310074 -0.04930108328216298 0.04724103868793539
0.021262524700743638 -0.05167440423019648 0.047742530196773936
0.02115771693428172 -0.054023477350830296 0.04823837903812955
0.02107023615313529 -0.05609661360310847 0.048518281635948124
0.02100662701177988 -0.05779424614983242 0.04849512012714274
0.020943347936948315 -0.05948247580782062 0.04847278659558296
0.020880501474299963 -0.0611597553863546 0.04844990067116389
0.02082283525640026 -0.06275310702627906 0.04836415893636359
0.020784255505715242 -0.0640496399371604 0.0480320353664333
0.020745766603037216 -0.06534217131476855 0.04770182419615088
0.020707419986659866 -0.06662992444475235 0.04737283375501533
0.020673538727313895 -0.06784700706100599 0.046987665415832325
0.020652348537676415 -0.06886874681623373 0.04643626507221066
0.02064336098898709 -0.06970384497944099 0.045723620130302844
0.020636176580278925 -0.07051102854210378 0.04498754819415124
0.02062899717054081 -0.07131765045987887 0.044251988422837785
0.02062182275455707 -0.07212371131875828 0.04351694028199582
0.02061465332711929 -0.07292921170391875 0.04278240323800159
0.020607488883026357 -0.07373415219972251 0.04204837675797246
0.020606261192749588 -0.0744497068394836 0.04123421280377887
0.020613066485619325 -0.07504515867660777 0.04031060877262749
0.02061987627491934 -0.07564100394394646 0.039386394492746724
0.020626690565107457 -0.07623724303155283 0.038461569359126424
0.02063345807468812 -0.07683463738155127 0.037536838312955734
0.020640332666008687 -0.07743090423036153 0.03661008410662708
0.020651475120658156 -0.07796459257599597 0.03562371791450841
0.02067467146804044 -0.07832138599526489 0.034469168439196285
0.020697919983665353 -0.07867898183768052 0.03331202239914777
0.020721220843719423 -0.07903738281324713 0.03215227102504814
0.02074457422518345 -0.07939659164418572 0.030989905508049864
0.020767980305836976 -0.07975661106500337 0.02982491699954931
0.020811194132054872 -0.07982964054455133 0.028379154726684064
0.020858046549847877 -0.07985270740044015 0.026878531007417605
0.020905110402135038 -0.07987587835191007 0.0253711353085454
0.02095238712338785 -0.07989915410519743 0.02385692168575515
0.02102306559412411 -0.07958786179747801 0.02200563303555403
0.021113912786829503 -0.07899093075113017 0.019860610500046505
0.02120554854501278 -0.07838881826548277 0.017696968889233056
0.02138340272907476 -0.07655723124735547 0.01428767855815144
0.020298548466376225 -0.1024060447575863 0.01759224310996943
0.020200991534844587 -0.10443813353872933 0.01823787850639913
0.020132354462268843 -0.10606577715652982 0.018456214784380365
0.02007058560080694 -0.10759452451782348 0.01857646076444114
0.020044706191681298 -0.10862779735153988 0.018158754267847632
0.020080635488758023 -0.10881530319180932 0.016805604515118644
0.02052839822680607 -0.10339546679733286 0.009186159498962287
0.02048609688698492 -0.10466473640580864 0.009003541278851224
0.020440143777154987 -0.10598063918598066 0.008880166748618856
0.02047755650283303 -0.1061663292213233 0.007482539026784918
0.020566236926605537 -0.10566314743923799 0.0052939179934459735
0.020537844843163695 -0.10674086120989457 0.004902252344527125
0.02049990795200011 -0.10794473069093513 0.004660347984306701
0.020422191982989252 -0.10967846212116489 0.005037712362961522
0.020377825314181794 -0.11096169484418955 0.004903391620753816
0.020379576266957102 -0.11162777805398255 0.004054530939438417
0.0312643453614044 0.1632296511947976 0.038528698879792156
0.03111284135851455 0.15958261985832944 0.03870774464017385
0.03096532222261892 0.1560146946242119 0.038862037824591134
0.030857722404356698 0.1531498747138177 0.03866187346672473
0.030786512135594718 0.15092309270863635 0.0381351410406196
0.030599786587357083 0.1467011633453178 0.03868111389502038
0.030574090904897204 0.1452737043640686 0.03774746162668413
0.030560831703473554 0.14406238986103614 0.03669992392971472
0.03055997666624608 0.14306546440201973 0.03553737405942908
0.03056435923928661 0.14215859063931846 0.03432569675091546
0.030570347223961018 0.14127896901766723 0.03309854380174515
0.03058190210819306 0.14049425950541616 0.03181821999226597
0.030595608101938912 0.13974556190778953 0.03051656009501047
0.03061211441635161 0.1390437406140832 0.029187119915647874
0.030628960626535116 0.13834664405114117 0.027853157799748396
0.02597076361984169 0.058219716036963576 0.07150146079021441
0.025761965864168502 0.05384427918891943 0.07252378513194693
0.02568118000232643 0.05164895077867454 0.07232055965327588
0.02562484804537375 0.049871927994477594 0.07188541582564417
0.025602099351278 0.04866478672081859 0.07112630178507312
0.025564199695693703 0.047204128345080865 0.07051761546387247
0.025528201856610207 0.045777851139206516 0.06989309596585308
0.025501679264397913 0.04451274009656808 0.06917762218854417
0.02545673194765618 0.0429410360252136 0.0686471096647408
0.025445167909123146 0.04192974506573888 0.06778731644889718
0.025439315767979833 0.04101440650878391 0.06687126107536734
0.025437168189157557 0.040161074761723925 0.06591844765085603
0.02543924170790654 0.03937796933201393 0.064923242948844
0.025446205279154456 0.03867576924250993 0.06387839211926588
0.025482195007720334 0.03845321413691466 0.06253815163474197
0.025500488533486187 0.037936219236638646 0.06137559519610225
0.025524473445881733 0.03751181814148563 0.06015338663276787
0.02555179064634323 0.03714067007217431 0.05889510745732757
0.02557617164277742 0.03671957874866644 0.057665012336564625
0.02559137719540108 0.0361466328850219 0.05652801357035031
0.025635222244717593 0.036040884121623706 0.05509233985009143
0.025691902024613883 0.036141715973933286 0.053519487257386256
0.025753158534689808 0.03631342688425965 0.051894398583038515
0.025874483265352334 0.03745735357471819 0.04963372007675548
0.025977557893030787 0.03829749045924352 0.04755612764745648
0.026104754008866773 0.039521443463897465 0.04521544312242731
0.026286232375875074 0.041614113632674254 0.04228865021817024
0.02616141652372165 0.03539373969448628 0.03860373265929268
0.0260957887100946 0.03350541043312333 0.03831360521622673
0.026041117041504042 0.03179582391670566 0.03790923617300851
0.02598111085946782 0.030004947742070576 0.037567331248786306
0.02596528447816611 0.028918844384641595 0.036745695821170876
0.025955104033455804 0.027923150057720947 0.03586316214340296
0.0259455478547366 0.02693797401458431 0.0349745169082154
0.025970995192234243 0.026505370542521944 0.033698850639572675
0.02596235292639137 0.02553467982941232 0.03280016986616063
0.025845401853672106 0.02286362255927915 0.033110243912004456
0.02575232367320068 0.020574224339893976 0.03316208070128179
0.02570981718377606 0.019081755162805247 0.032653089400051405
0.02609563284875355 0.024277251773743902 0.027320567237005766
0.026124186961772693 0.02388330806152883 0.025998174812515373
0.026216359055150695 0.02447638630781651 0.023951806907723194
0.02263367004266699 -0.046487849530139236 0.04639446760069926
0.022439597794866768 -0.050094656084917644 0.047892960604820844
0.02232864573006976 -0.052458437493187404 0.04839004207486125
0.02221878546665053 -0.05479895858808009 0.04888223211510784
0.022128029665329094 -0.056850814538512706 0.0491477915839138
0.022061325088491995 -0.05854309011311015 0.0491234746844717
0.021995076826588536 -0.060224381161808005 0.04909861855468234
0.021929170216235746 -0.06189641078643654 0.04907459466506647
0.0218660099385582 -0.06352407560364393 0.04902141002363386
0.021825594777383803 -0.06481606821281766 0.04868886967749436
0.02179418538698668 -0.06597445282308556 0.048246555707665784
0.02177181314953349 -0.06699964223502425 0.047693038775304175
0.021749486796222055 -0.06802272904384926 0.04714065707357107
0.021727260209924593 -0.06904293901552921 0.04658872382285967
0.021712144008478918 -0.06995919707627857 0.04594828917913463
0.021704593792648955 -0.07076563422273802 0.04521273880058252
0.021697048826042134 -0.07157151070066581 0.04447769980713856
0.021689509103185924 -0.072376827094562 0.04374317166568664
0.02168197461861572 -0.07318158398810976 0.0430091538438474
0.02167444536687439 -0.0739857819641831 0.04227564580998239
0.021667673509890514 -0.07477872129935431 0.04153293199924074
0.02167482170565164 -0.07537364657078577 0.04061041163061718
0.02168197461936852 -0.07596896450511698 0.039687282379608946
0.021689132255713606 -0.07656467549122487 0.03876354364320472
0.02169629461936553 -0.07716077991849984 0.03783919481759679
0.021703461715009094 -0.07775727817684691 0.036914235298179776
0.0217106335473353 -0.07835417065668637 0.03598866447954879
0.02173342069710754 -0.07873289426645402 0.03485666928435438
0.021757826725621494 -0.07909046873426945 0.033701522914717064
0.0217822876303451 -0.07944884719737422 0.03254377923372648
0.021806749176396155 -0.0798087890595191 0.031384153209535914
0.021831374810414812 -0.08016802698044356 0.03022046481886642
0.021868253538126627 -0.08035926142699623 0.028890996534790714
0.02191739953001541 -0.08038347815134289 0.027394150312447296
0.021966766917623805 -0.08040780396861003 0.025890561010259272
0.022016301729260616 -0.08043300200540782 0.024380931298159103
0.022075314175181375 -0.08033142928488868 0.022739285137820475
0.022170361188237613 -0.07974071156675666 0.020604230502112908
0.02226640041924117 -0.07914256210268883 0.018448395227620595
0.0224057082361735 -0.07796147048803143 0.015694855179502587
0.022645929427053225 -0.07541860931208777 0.011549936881166345
0.021294204709322404 -0.10404506045458628 0.017810135465617882
0.021206352378692502 -0.10587758024543609 0.018250363267094838
0.021144876476450646 -0.10736058860876363 0.018319261385110974
0.02108940420184756 -0.10876157019969196 0.018306587468958357
0.02108406120605402 -0.10950868264869795 0.01757580808546444
0.02159420848847725 -0.10358480732629854 0.009397561108803298
0.021603017204776014 -0.10416512660747657 0.008442847903290196
0.021516046775087207 -0.1059792748716708 0.008878627749602297
0.021505191605354478 -0.1068102106617898 0.00821259965989879
0.021615896191227228 -0.10608304568284715 0.005772466442094726
0.02162509722740531 -0.10666018069286254 0.00480982954853254
0.021582901162806346 -0.10789309434764455 0.0046008921799578495
0.021518325104594366 -0.10940786654487605 0.004724536974726801
0.02144381511548164 -0.11104448263351274 0.004999699363290533
0.021424624667834097 -0.11197645438946857 0.0044622351882985245
0.03281535203761507 0.1630264664784068 0.03863391381237624
0.03263745611067332 0.15906727384807617 0.03897622934718459
0.03249942278733545 0.1557798465735445 0.038985131472558776
0.032392486889404055 0.1530154761770739 0.038732743901641886
0.03232526830024268 0.15091368688980156 0.03814013083831658
0.032143958824368206 0.14693499685382483 0.03855631727856884
0.03216830153404331 0.14635169768346024 0.037168678444976455
0.0321857924160925 0.14565436172006585 0.03584005335262669
0.03220533697313591 0.14498962534657067 0.034491856979109004
0.03221788962817902 0.14420927311167553 0.03320477725509524
0.03217089575495853 0.14245552247308724 0.03245159750632676
0.03212786330949832 0.14076923320281798 0.03166612229310206
0.03212415124865687 0.13972542833481028 0.03052776276888186
0.032142607533800875 0.13904191169641122 0.029188143582952852
0.027523873918919636 0.06318139944962226 0.0701726197465471
0.02723950917483864 0.057737644404689314 0.07177447649871901
0.027037549385220818 0.05364216192117788 0.07263892537670022
0.026957237183929027 0.051519963972682714 0.07239447105195071
0.02689496984196009 0.049693007706854586 0.07198854057703932
0.026875904825393558 0.04856362650272794 0.07118494869447195
0.02683385273627721 0.047066978843733676 0.07059759089004108
0.02680398549924012 0.04576782965823539 0.06989897378421189
0.02677777915731965 0.04452896108228044 0.0691680529265114
0.026730191521559258 0.04295096379956065 0.06864121898875547
0.026716337155723507 0.041912421691378265 0.06779765483862649
0.02671392578515788 0.0410563831516802 0.06684606514045804
0.026714392468327203 0.040246092707613756 0.0658671224097373
0.026711903681197045 0.039389037077288136 0.0649165228994451
0.02672676551111233 0.03880597839086286 0.06379887821344582
0.026762236056774982 0.038546646203653834 0.06248076890092913
0.026783563612171563 0.03806278973939142 0.0612974149666935
0.02680711804528491 0.037612569945756236 0.06009079850770982
0.02683699226814123 0.037259879599687296 0.0588206307752846
0.026858517811378338 0.03677487102570631 0.05763027154611511
0.026877951840169743 0.0362559184701583 0.05645895785286381
0.02692488227974912 0.0361638602846327 0.05501419237290556
