# .PCD v0.7 - Point Cloud Data file format
VERSION 0.7
FIELDS x y z
SIZE 4 4 4
TYPE F F F
COUNT 1 1 1
WIDTH 778
HEIGHT 1
VIEWPOINT 0 0 0 1 0 0 0
POINTS 778
DATA ascii
0.08194632469849085 -0.02956309395710971 0.023504146497490885
0.08237844786262474 -0.030884695689329333 0.02091546992367238
0.08279464979931513 -0.032117506896720605 0.01837438504153821
0.08298691308870083 -0.03222116193097696 0.016645372966076877
0.08339594882939368 -0.033403251538743184 0.014112889916075733
0.0839969286183717 -0.03553331398564036 0.01086069038139903
0.08127914685127287 -0.07231061364253388 0.06803854800067888
0.08070640246748047 -0.06825160769973654 0.0688103291767711
0.08035260905381457 -0.06542663985123415 0.06890850448082009
0.08006294794319109 -0.06296637541157929 0.06881324286247015
0.07996205926849197 -0.06156177801955909 0.0681273515920906
0.07981407028393295 -0.059897928517461396 0.06759376803494627
0.07955390998247783 -0.057615896672609135 0.06742200243428348
0.07929567612141497 -0.05534999768336418 0.06725059681906326
0.07906373318321638 -0.05323460862352719 0.06700108433826957
0.07892302058354445 -0.051626535800279816 0.06646271227894457
0.07878304084125333 -0.0500254567954177 0.0659254979624343
0.07864332470111264 -0.0484287740264116 0.06539094131630274
0.07850410323661015 -0.04683774443421468 0.06485827730849264
0.07839487906637088 -0.04541358706640508 0.06423070826392863
0.07832760260978722 -0.044220537913312485 0.06346775237243535
0.07826021171827047 -0.043028283622469854 0.0627068644697153
0.07819316610008688 -0.04183932562940601 0.061946523541903276
0.07812623525954503 -0.04065240305315315 0.06118748426693055
0.07805941890215932 -0.03946751067143295 0.06042974330514156
0.07803473490401827 -0.03851162007419001 0.05953229683889666
0.07802239872473817 -0.03762282091827074 0.05859387966367646
0.07801006644517798 -0.03673430272919992 0.05765575914041993
0.0779977380634882 -0.03584606537376611 0.056717935128484775
0.0779856417724032 -0.034959331778488034 0.055779630271352465
0.07797332110881451 -0.034071652900778404 0.05484239624125681
0.0779947705171994 -0.03336452019117225 0.05378960480426759
0.07803176427437133 -0.03273975743520219 0.052682745970198064
0.07806879314132711 -0.03211440173375385 0.051574836646200606
0.078105857168072 -0.03148845224229779 0.050465875336081156
0.07814295640470803 -0.030861908114709347 0.04935586054079688
0.07818009090143081 -0.030234768503246245 0.04824479075846155
0.07824619505498064 -0.029759673463656877 0.04703120909082703
0.0783349685216522 -0.029402536607674612 0.045736194771855476
0.07842394365135566 -0.029044588458561227 0.044438238622101334
0.07851312113203703 -0.02868582624870264 0.04313733060591096
0.07860250165477367 -0.028326247197874854 0.041833460641936604
0.0786920859137949 -0.027965848513186453 0.04052661860286627
0.07883104269655615 -0.027860901192401588 0.0390406865746078
0.07898383107572729 -0.027824972622216004 0.037501549476790796
0.07913697788279676 -0.02778768468118953 0.03595728211166954
0.0792909556334418 -0.02775147394623273 0.03440616074161512
0.07944553374488252 -0.027715122025187167 0.0328489915336827
0.07966686374601473 -0.028019919426661044 0.0310446600312016
0.07991410371613984 -0.028453462023536102 0.029140014279759707
0.08016288304370225 -0.028889703929096677 0.02722350988496086
0.08041345877388197 -0.029329914581821603 0.025294142357330685
0.08078468177743563 -0.03038223991165878 0.02291271719819027
0.08121152955687118 -0.03171080759132128 0.02031574894023902
0.0816429120274961 -0.03305348953934345 0.017691191340845902
0.08260960746178482 -0.037109546807744975 0.013057772372762955
0.08290667491653018 -0.03774672819343733 0.01090783314304744
0.0800800458211957 -0.07221216050140045 0.0665935597335886
0.07971599090313625 -0.06928859606724008 0.06673414948726475
0.07961285866896813 -0.06785051891683963 0.06604716424007728
0.07908184624137239 -0.06399601574998065 0.0667406380605256
0.07866111807079468 -0.060775101523170116 0.06709113458409083
0.07840420977762914 -0.05848570017483229 0.0669206715311062
0.07814897415239687 -0.05621120456634915 0.06675131832177295
0.07789562637514738 -0.05395276804511939 0.06658230699446305
0.07773854869449114 -0.052238779432950855 0.06610361798380554
0.07760024617539148 -0.050633078044686586 0.06556704338436903
0.07746243488235885 -0.04903307982335353 0.06503237460272138
0.07732511220291065 -0.047438754437857666 0.0644996015031718
0.07719714042671307 -0.045899326681940245 0.06393914939782436
0.07713058985233164 -0.04470325026258165 0.06317633948629703
0.0770643804725152 -0.04351048819839143 0.06241408232378032
0.07699828466414467 -0.042319772123703914 0.061653132689427625
0.07693230213525025 -0.04113109677868515 0.06089348722184379
0.07686620720827728 -0.03994321670551282 0.06013590862943913
0.07683173855825612 -0.03893044126212103 0.05927212056472031
0.07681980560166232 -0.03804192678016366 0.05833204145241827
0.076807651307843 -0.03715245715466137 0.05739302781682509
0.07679550085946397 -0.03626326894353099 0.05645431127045425
0.07678335425470123 -0.03537436201324434 0.05551589167233367
0.07677121149173019 -0.03448573623034823 0.0545777688815865
0.0767885271762567 -0.03375726002459506 0.053537198147339704
0.07682498316790133 -0.033132094163826675 0.05242917498613814
0.07686147379161598 -0.03250633441483797 0.05132009923716263
0.07689799909677342 -0.031879979930964586 0.050209969399810594
0.07693455913283906 -0.031253029863925474 0.049098783970630056
0.07697115394937412 -0.030625483363834582 0.04798654144330278
0.0770376558163269 -0.030157554640402817 0.04676675062250191
0.07712514248882162 -0.02980052499681174 0.04547018629140942
0.0772128280931925 -0.02944268352009266 0.044170673762949586
0.07730071330872365 -0.029084027438103288 0.042868202970027636
0.07738879881779677 -0.028724553966073374 0.04156276379965701
0.07747708530590734 -0.02836426030652467 0.04025434609270356
0.07762207304443577 -0.02830253875593991 0.03873719955209365
0.07777268024802385 -0.028267428385904514 0.03719581605950906
0.07792387302283423 -0.028232181504253218 0.035648439561233425
0.07807542225695151 -0.028195572575085925 0.034095890702385445
0.07822779555769009 -0.02816004798665317 0.03253642918318994
0.07846592819610963 -0.028571109387332427 0.03065531435441593
0.0787097687109385 -0.029006948029065782 0.028746896688635004
0.07895536726945761 -0.029446746239054467 0.026825693661714556
0.07920226401613567 -0.02988805012125706 0.024893359444331853
0.07961841703471702 -0.0312046449972756 0.02231893478270436
0.08003994385970908 -0.03254022374142829 0.01971362921769504
0.08062359903156428 -0.03470679391913767 0.01648440913485799
0.08255345103632489 -0.04382138298626642 0.008131935269470758
0.0794737028605931 -0.07555682820332699 0.06320501522630784
0.07856154725885416 -0.06943760677824823 0.06514833528844755
0.07803571485057138 -0.0655590036641745 0.06585024990948701
0.07751687469743468 -0.06173197626527355 0.06654283082244333
0.07724996166409005 -0.0593589443887535 0.06641735749599309
0.07699798778636524 -0.057077116458230936 0.06624931212930896
0.0767476523397437 -0.05481012585073203 0.06608235945808422
0.07655073521933403 -0.05285275030361464 0.06574351062576728
0.07641435414082172 -0.0512436941436234 0.06520682205166678
0.07627845814461649 -0.049640361099029306 0.06467204237948954
0.07614304464729052 -0.048042720689941365 0.06413916144289822
0.0760081110837281 -0.04645074265252169 0.0636081691476193
0.07593109285313296 -0.0451883159482902 0.06288350589349923
0.07586561599515411 -0.04399252879432447 0.062121399742430194
0.07580047485731585 -0.042800054304654334 0.06135984217719648
0.07573544548873032 -0.04160962586409045 0.0605995912931786
0.07567052760198333 -0.04042123821122556 0.05984064373025122
0.0756265711982407 -0.03935133468216917 0.05901065699722402
0.07561459190084219 -0.03846063226841029 0.058070453376544096
0.07560261639788632 -0.03757021198387178 0.05713054756444247
0.07559064468757118 -0.036680073694531856 0.05619093941944303
0.0755786767680948 -0.03579021726644682 0.05525162880016343
0.0755667126376563 -0.03490064256575748 0.05431261556531103
0.07558000620804066 -0.0341507414289311 0.053284314896445195
0.07561592233592208 -0.0335251720542627 0.052175124982103416
0.07565187261526171 -0.03289900784646099 0.051064880375869814
0.07568785709479361 -0.032272247956715405 0.049953579572719176
0.07572387582334288 -0.03164489153459005 0.04884122106476718
0.07575992884982893 -0.031016937728036542 0.04772780334125354
0.07582678450450744 -0.030556203593656184 0.04650178183850712
0.07591297924598076 -0.030199282242333925 0.04520366392079922
0.07599937017119927 -0.02984154851929277 0.043902591418695014
0.07608595795071305 -0.029482999647873154 0.04259855423351805
0.07617274325813143 -0.02912363283874697 0.04129154222051651
0.0762628853484088 -0.02878050090790546 0.039969889466223596
0.07641072817262165 -0.028746347294496932 0.038432220666356265
0.0765589179471046 -0.02871083816899933 0.03688942342239765
0.07670791189467677 -0.028676416148973705 0.0353397791761591
0.07685748689758735 -0.028641859887866383 0.033784091536287975
0.07702283267640468 -0.02868834406028109 0.03216529896509879
0.07726199908755511 -0.029125014875685085 0.0302640505021593
0.07750242239693157 -0.029563165514977785 0.028351839042878135
0.07774434667168832 -0.030004051533470633 0.02642768962619607
0.07803547577511542 -0.030700536622812247 0.0243099335472996
0.07844726409935532 -0.032029065608825125 0.02172369714305661
0.07886342143994583 -0.033371690100899076 0.019110021133264543
0.0796261490629431 -0.03653133966482747 0.01515263418750784
0.07839230420105785 -0.07624710750012526 0.06129185267967796
0.07698224224872798 -0.06713295982220963 0.06495361347318335
0.07646862245203227 -0.06328209264861367 0.06565459054899364
0.07609091012405712 -0.06023431880083657 0.06591281567313417
0.07584245431063716 -0.05794644923893727 0.06574532270114891
0.0755953902430767 -0.055672163276966224 0.0655796831136487
0.07535934189078035 -0.05346715768295596 0.06538314724597294
0.07522489445740668 -0.05185474129816614 0.06484634642606402
0.07509092590039555 -0.050248068035800786 0.06431145758907131
0.07495765538833427 -0.04864838413499545 0.06377770851752762
0.07482463615408567 -0.04705309847056749 0.06324661291177425
0.0747286517953667 -0.04567321886706377 0.06259077056308826
0.07466435890650466 -0.044476919748495214 0.06182729008417481
0.07460017655132394 -0.04328267733219099 0.06106512219660809
0.07453610444502227 -0.04209048631882212 0.06030426351834112
0.07447192344419225 -0.04089909559925742 0.05954548020365019
0.07441877860708512 -0.03977182698557746 0.05874944260794934
0.0744069788899566 -0.038880171305360756 0.05780834453748973
0.0743951829141084 -0.03798879833739499 0.056867544855594476
0.07438339067776209 -0.03709770794724726 0.055927043420371025
0.07437160217913873 -0.03620690000056159 0.05498684009002219
0.0743600356176214 -0.03531760193375294 0.054046150221621514
0.07436920115553618 -0.03454496650651995 0.053030953700449024
0.07440457531239467 -0.03391899320868258 0.05192059459943965
0.07443976446658082 -0.033291201189184605 0.050809973549518384
0.07447520579912137 -0.03266403674088819 0.049697502982360364
0.07451068089556602 -0.032036274811769405 0.048583972597685265
0.07454618980418559 -0.031407914547612326 0.04746938088028996
0.07461357436283132 -0.030955622547890138 0.04623630126030881
0.07469847201384959 -0.030598810574370472 0.044936626169445215
0.07478356308340868 -0.030241185691978645 0.04363399008661589
0.07486884823324796 -0.0298827451195266 0.0423283828814357
0.07495432812812751 -0.02952348606311772 0.041019794377259944
0.07505089333711251 -0.029223222598700305 0.03966733579848647
0.07519654332062038 -0.0291898913785566 0.0381274235101845
0.07534275972424599 -0.029156430536126154 0.03658152263684511
0.07548932097822926 -0.029121611550626814 0.035030451243858896
0.0756366793008559 -0.0290878868888933 0.03347247423752797
0.07581885251776019 -0.029240200746408707 0.031777617314075746
0.07605459695517876 -0.029679174589128443 0.029872607072356505
0.07629158228513112 -0.03011964294264552 0.027956596771719466
0.07653028024252478 -0.030564113907682655 0.02602771659989561
0.07686501927803817 -0.03152125648825105 0.023720595480506756
0.07727167568580079 -0.03285804252990576 0.021125169814870337
0.07768241969421356 -0.03420776937793035 0.018503064273013292
0.07861970368204312 -0.038370586363484616 0.01381012870035142
0.0759211194376335 -0.06871662292779385 0.06405144727499712
0.07541303763535984 -0.06484305216532771 0.06476013699513711
0.07492748790815315 -0.061114500678340955 0.06540550295884695
0.07468212276787006 -0.05881789822257316 0.06524010641965894
0.07443858187479778 -0.05653760188798923 0.06507502345029409
0.07419640315311977 -0.05427082661288951 0.06491177780279445
0.07403230280330267 -0.052468805047670874 0.06448409121760196
0.07390027230136596 -0.050858772013720244 0.06394909449487696
0.07376871189162107 -0.049254471472818695 0.06341600261800667
0.07363761906789756 -0.047655872863716975 0.06288480543181668
0.07352370144068253 -0.04616048830199587 0.06229660656943614
0.07346037339357597 -0.044962410903512384 0.06153251241242286
0.07339693802851087 -0.043765137768998874 0.060770501504325225
0.0733338280689625 -0.04257118384197628 0.06000903581059386
0.07327082654553387 -0.041379281377465216 0.05924887847402194
0.07320857879406996 -0.0401931573619283 0.05848770759865374
0.07319695939713414 -0.03930054638260566 0.05754571337862324
0.0731855587589486 -0.038409457164449545 0.056603239987143616
0.07317394666756913 -0.037517409826907766 0.05566184092270082
0.07316233826049022 -0.03662564551857095 0.05472074054569065
0.07315073353595813 -0.03573416410475744 0.05377993871398595
0.07315610553729646 -0.034939937367648555 0.05277711320310885
0.0731907205042288 -0.03431233321967958 0.05166637518460199
0.07322558355024238 -0.03368536011904094 0.050553789185757314
0.07326047982487642 -0.03305778943873838 0.04944014276054459
0.07329540937565882 -0.032429620324012365 0.04832543439217635
0.07333037225020976 -0.03180085191848181 0.04720966256096509
0.07339801860847969 -0.03135581373617269 0.04597030740366059
0.07348161398690548 -0.030999112231691273 0.044669071540992866
0.07356540000149166 -0.03064159728263227 0.043364868258166656
0.07364937730508962 -0.03028326610326798 0.042057687392961174
0.07373354655353646 -0.029924115895143544 0.04074751873669563
0.0738362925404305 -0.02966689723793664 0.03936413089081203
0.07397973988573774 -0.02963439203603979 0.03782196901042584
0.07412374568801688 -0.029601760287597034 0.03627380331684016
0.07426831321483293 -0.029569001252170712 0.03471959868137903
0.07441344575929411 -0.02953611418354518 0.033159319700770684
0.0746118639344211 -0.029794775625703374 0.031388026120701684
0.07484394358523656 -0.030234826518665714 0.029480109581474068
0.07507769784034293 -0.030678870680885484 0.027559401071644285
0.07531268904668463 -0.031124444793027506 0.025627551814404625
0.07569013982373735 -0.03234650144094725 0.023128008063487138
0.07609114940943432 -0.03368906427031598 0.0205251661124784
0.07666291694479244 -0.035955808436000714 0.01723406454493337
0.0756390474443774 -0.07507505554916438 0.06042923540557227
0.07434981710659458 -0.06641360324761958 0.06386018732832155
0.07385361390479812 -0.06256639784943002 0.06456866917364507
0.07351741691654522 -0.05969412861773771 0.06473211814911833
0.07327698081553843 -0.05740514280019515 0.06456913788078489
0.07303833029385086 -0.055132388223352924 0.06440645302897957
0.07283612158557208 -0.05308330716342191 0.06412157740346691
0.0727060414071491 -0.05146990888466074 0.06358647454241151
0.07257664031192072 -0.04986354722511366 0.06305251326721795
0.07244748449045621 -0.04826161631031306 0.06252121581604853
0.0723187875377761 -0.04666537678487975 0.06199180597463555
0.07225343677816885 -0.04544774069564417 0.061237832716219076
0.07219118595082488 -0.04424995215364258 0.06047444334323754
0.07212904229690324 -0.043054225770292 0.059712368250517234
0.07206679326880877 -0.04185930474658889 0.058952377061612826
0.07200486349775252 -0.04066769131855302 0.05819292193836234
0.0719845262218925 -0.03972176000168265 0.05728255833709811
0.07197330324179196 -0.03882971650321321 0.05633918612207306
0.07196187210721565 -0.03793671299431628 0.055396890364747375
0.07195044460314129 -0.03704399310045353 0.05445489387740288
0.07193902072783864 -0.036151556686527364 0.053513196517494754
0.07194050131959386 -0.03533442603076359 0.05252358260577422
0.071974784974653 -0.03470764491577155 0.05141088145058492
0.07200910132149167 -0.034080266122789304 0.0502971192598658
0.07204345040689195 -0.03345228879651413 0.04918229451524314
0.07207783227772677 -0.03282371208001961 0.04806640569543852
0.07211224698095699 -0.0321945351147333 0.046949451276274534
0.07218011043238227 -0.03175677940022398 0.04570379877856501
0.07226239833325478 -0.031400189461741446 0.04440099853328927
0.07234508798301686 -0.031044009868904876 0.043094401534352456
0.07242753828839175 -0.03068456485804827 0.041786466241363174
0.07251039163338112 -0.0303255245995544 0.040474713759670156
0.07261929006325886 -0.030112754106610073 0.0390594346588401
0.07276052576394315 -0.030081080856293407 0.03751501083626585
0.07290231190776551 -0.030049284164574308 0.035964567873326636
0.07304443364953193 -0.030016130209952918 0.03440892728749473
0.07318732952334106 -0.029984082144185797 0.0328463463482504
0.07340140349287488 -0.030349604416121834 0.03099825655387084
0.07363024740773155 -0.03079322201863438 0.029085674106479942
0.07386029975262379 -0.031238363847972517 0.02716201684891989
0.07411895254731173 -0.03183830755809586 0.02511774098614089
0.07451057329953618 -0.03317503862995158 0.022533056575286203
0.07490612510245205 -0.03452469211604442 0.01992183676862913
0.07564722953165992 -0.03778750133699382 0.015904335790652535
0.07327933690568421 -0.06799658351682614 0.06295311554823019
0.07278856697450706 -0.06412531683163952 0.06367015094169365
0.07234808233939981 -0.06057384129153209 0.06422211105258346
0.07211100187689902 -0.058277439217291116 0.06406047925313646
0.07187547013597348 -0.05599603832604838 0.06389990330878303
0.07164168557752322 -0.0537307942051784 0.06373960475734586
0.0715086543292256 -0.05208406458265724 0.06322206335943348
0.07138099271050052 -0.05047305407475611 0.06268876664267037
0.07125378609766816 -0.048867785459047686 0.06215737067825838
0.07112724259303327 -0.04726950171876532 0.061627096435615536
0.07104396978857612 -0.04593544064515481 0.06094171392158293
0.07098269138058562 -0.04473586925242856 0.060177711795527
0.07092130927728024 -0.043537106503955925 0.05941579969077182
0.07086024219505255 -0.04234166952895668 0.05865442940207172
0.07079928018631422 -0.04114828945130705 0.05789436914510243
0.07076967213499322 -0.04014381467411221 0.057018877843830806
0.07075862754547281 -0.03925081485891907 0.05607460509283024
0.07074737811367468 -0.038356853136657765 0.055131410936533176
0.07073613225823461 -0.03746317561707341 0.05418851663447383
0.07072509813410355 -0.03657101710235622 0.05324513283444299
0.07072280841057597 -0.035730892489265254 0.05226878091555043
0.07075654372127835 -0.03510370622365566 0.05115490323528943
0.07079031123139165 -0.03447592132640581 0.05003996239006153
0.07082390224714878 -0.033846308300378936 0.04892475990690115
0.07085773409506306 -0.03321732483355683 0.047807691837755906
0.07089180741985475 -0.0325889662618396 0.04668874562135261
0.07095984299908689 -0.0321585217904401 0.045436773889258264
0.0710410282149887 -0.03180327087983642 0.04413158596110961
0.07112218891001544 -0.03144597944206273 0.04282423256563528
0.07120353526100014 -0.031087870696268283 0.04151388858524335
0.0712848564398243 -0.03072771444988731 0.04020137790104439
0.07139944297112959 -0.030558346542849557 0.03875491913881152
0.07153845628164714 -0.030527506624158596 0.037208233428162873
0.07167801196052453 -0.0304965463816948 0.03565551323491151
0.07181811318808813 -0.030465465109910272 0.034096723174209975
0.07196393511932887 -0.030463978774462885 0.032511065986923326
0.07218790179579838 -0.030907170065741674 0.030606564331720543
0.07241304867320536 -0.031351879883766975 0.028691053304012837
0.07263960436573456 -0.03179937239149272 0.026763556318706083
0.07293990769373265 -0.03266185651703429 0.024529596869026782
0.07332606785168698 -0.0340056152627331 0.02193664061449374
0.07372131396081241 -0.03539191625498145 0.01929569466988945
0.07462239060559794 -0.03963396768405908 0.014563882162174802
0.0728896564348702 -0.07390596501800495 0.05956694985319544
0.07171604161811718 -0.06569518205491309 0.06276532359600395
0.07123705779433516 -0.06185027950196087 0.06348210514939373
0.0709403951720158 -0.05915319777578054 0.06354980176119451
0.07070822858920349 -0.05686441817324822 0.06339057948963622
0.07047757667102814 -0.054590570665809135 0.06323239599076003
0.07030766792408069 -0.0526986605080601 0.06285739096630455
0.07018218216742506 -0.05108557105314526 0.06232322360802689
0.07005693552279717 -0.04947694519262785 0.06179173048071557
0.06993213510999936 -0.04787405058377103 0.06126213097000194
0.06983174634449117 -0.04642425209482026 0.0606449202528026
0.06977123861795628 -0.04522162639930416 0.05988107792469416
0.06971104163315874 -0.0440223447843236 0.059117783207618346
0.06965094843174933 -0.04282513080603806 0.05835580445835575
0.0695907534792198 -0.04162872656313038 0.05759591637997985
0.069552594918391 -0.04056796165895954 0.056753890169067955
0.06954152441518481 -0.03967275474663601 0.0558094953191679
0.06953066234632851 -0.03877907583426515 0.05486461557676753
0.06951959882333736 -0.037884435808329286 0.053920819094758266
0.06950853882056539 -0.036990080440364614 0.05297732291128776
0.06950280535696536 -0.03612811110363412 0.05201349582860504
0.06953599017951985 -0.035500519277536 0.050898439159359266
0.06956900156808539 -0.03487109562283436 0.049783118087047606
0.0696022496480887 -0.03424230502817466 0.04866593296740285
0.06963552952286721 -0.0336129131280366 0.0475476794959554
0.0696688412380504 -0.03298291905947598 0.046428356139491755
0.0697372094466345 -0.03256104316595115 0.04516923123417127
0.06981707328804607 -0.03220590841438581 0.04386247007316052
0.0698969131847741 -0.03184873022597151 0.0425535385350303
0.06997693589379472 -0.03149073419373899 0.04124160988908665
0.07005714204371569 -0.031131917505500095 0.03992667382965093
0.0701771704119184 -0.031006132726162927 0.03844890442339277
0.07031395220395939 -0.030976132128537004 0.03689994439234756
0.07045105786515125 -0.030944778214307744 0.03534578859989501
0.07058891045323125 -0.03091454024785334 0.03378469954738944
0.07075042188228871 -0.03101947533497551 0.032122967630500765
0.07097090858987004 -0.031464995035322685 0.030214689936382877
0.0711927738434698 -0.03191330025229494 0.02829448114369998
0.0714158144382105 -0.03236315983015786 0.026363122057167676
0.07175639067266491 -0.033489948447067264 0.023938208352415946
0.0721370458379695 -0.03484079120182265 0.021336922008660553
0.07269538509198828 -0.037209713942781386 0.01798323150378789
0.07063595879136693 -0.06727610921706983 0.06185412045152
0.07016275030545562 -0.0634085079212407 0.062578733378158
0.06976492290725524 -0.06003110429984476 0.06303787173500919
0.06953636027481594 -0.05773624014586265 0.06287923678846702
0.06930908292689233 -0.05545505125584399 0.06272241211242108
0.06910349010777253 -0.05331629727291598 0.06249091428153897
0.06897977357542122 -0.051698526435509096 0.06195741893911466
0.06885649923236432 -0.05008653785622086 0.0614258304227136
0.06873386873156224 -0.0484815814013389 0.060895365302856996
0.06861675701195294 -0.04691417884874782 0.06034744940012243
0.06855723427679034 -0.045709757354273295 0.059582994457133165
0.06849781471991762 -0.044507423635759324 0.058819864640352715
0.06843870034423634 -0.043308432291402965 0.05805727821516071
0.0683796879131449 -0.042111508644880224 0.05729600689382314
0.06833287381052194 -0.04099170851251638 0.05648915247827735
0.06832198656709512 -0.04009553869148841 0.055543855214520876
0.06831130431096684 -0.03920089994965348 0.05459807207455358
0.06830042393906917 -0.03830529819198164 0.05365337434941464
0.06828954703257549 -0.03740998168317006 0.05270897751008191
0.06828048557848886 -0.03652608401633439 0.0517577259680157
0.06831291623053763 -0.03589685037091628 0.050642286579340945
0.06834557942483957 -0.035268253293144536 0.049524984686091233
0.06837827386935474 -0.034639054810946035 0.04840661382455802
0.06841099960895264 -0.03400925406082839 0.04728717245991648
0.06844375668858735 -0.03337885017763709 0.046166659054407755
0.06851240559328546 -0.03296557657238708 0.044900351248396475
0.06859074006551918 -0.03260932832340563 0.043592831259795184
0.06866925387217059 -0.03225226450022367 0.04228231791039383
0.06874794762978235 -0.03189438229894004 0.04096880090917088
0.06882682195772549 -0.03153567890277886 0.039652269917881844
0.06895204294311576 -0.031453655420940085 0.03814306977486326
0.06908658239792467 -0.031424495540256114 0.03659183546307748
0.06922164790685223 -0.03139522164331615 0.03503453576912363
0.06935703482438914 -0.031364591897011185 0.03347199742704948
0.0695336436797751 -0.03157646646270801 0.0317338250928485
0.0697506308376995 -0.03202432552023138 0.029821757910173774
0.06996897649794098 -0.03247498851119296 0.027897719753058492
0.0701967788158555 -0.032976397099386545 0.02592756567521487
0.07056814882792542 -0.03432134627663308 0.023344458901046694
0.070943034445893 -0.035678036283837644 0.020735717604032977
0.07166094657445973 -0.03904598767381601 0.016657428499824545
0.07014366495532705 -0.07273700500176705 0.058706609428993806
0.06908068049105383 -0.06497632834402511 0.06166980071161471
0.06861874549831046 -0.061132395757273195 0.06239568015323771
0.06835963194256832 -0.05861019593237621 0.062366642558765395
0.06813596345239051 -0.05632295407571286 0.06221040935469552
0.06791355083636824 -0.054049324308813096 0.06205597041014266
0.06777416678441353 -0.05231451388654951 0.06158980476661019
0.0676528756729711 -0.050699142859389756 0.061058122246964885
0.06753201791948633 -0.04908954335051524 0.060528339362191985
0.06741159120559974 -0.04748568448371293 0.06000044594971188
0.0673404592284241 -0.04619900236455082 0.059284230677319916
0.06728202772143525 -0.04499487328225704 0.05852049001299736
0.06722389643566376 -0.04379409493162867 0.05775729353080755
0.06716566694955844 -0.04259413145705826 0.056996196347840866
0.06711070991529666 -0.041416304021946904 0.05622388458603644
0.0671000066882003 -0.04051916922871329 0.05527768318597004
0.0670895049870006 -0.03962356860323696 0.05433099492298188
0.06707880852205202 -0.03872700305399224 0.05338539423569699
0.06706811546734223 -0.037830723346340855 0.05244009502320657
0.06705762374542185 -0.03693596887224221 0.05149430051891202
0.06708772174461451 -0.03629517100060009 0.050384848142735084
0.06711982963710203 -0.03566616658316352 0.04926636016863417
0.06715196827776 -0.03503655979883469 0.04814680107301522
0.06718393903906776 -0.03440511539511698 0.047026980654694184
0.0672163379804305 -0.033775535665023726 0.04590446335676629
0.06728501567188211 -0.03336966512329226 0.04463176694361942
0.06736202160868383 -0.033013532889491326 0.043322667995366715
0.06743920401007376 -0.03265658455328907 0.04201056915361556
0.06751656348331853 -0.032298817306226635 0.040695460094836766
0.06759410063847546 -0.03194022832695104 0.03937733044807368
0.06772446601223332 -0.03190338346885663 0.03783572799941903
0.06785655120850212 -0.03187383116666148 0.03628305844176832
0.06798935609408628 -0.031845404882920814 0.03472346272737992
0.06812268183503527 -0.03181686711237752 0.03315775034188584
0.06831379272634513 -0.032136206513636745 0.03134276201643921
0.06852726191897635 -0.03258642119841548 0.02942688332383786
0.06874186141196802 -0.03303819951883441 0.02749988273389975
0.0690093356537026 -0.03380404330227649 0.02533972370736859
0.06937515380934141 -0.035156069841995485 0.022748334348691557
0.06976457432843369 -0.03664103049644746 0.02004421593393485
0.07061764757454775 -0.04089969729857368 0.015319036653579254
0.067990776186821 -0.06655382783291597 0.06075525667584425
0.06753494846889165 -0.06268856705739134 0.061488236322569445
0.06717843033244214 -0.05948895854579089 0.061851229019597165
0.06695798951814148 -0.05719297665261114 0.061697156086739036
0.06673919058279952 -0.05491332531341131 0.061543312715263754
0.06656493967047548 -0.05293094715186125 0.06122192453745817
0.06644564425287311 -0.05131218812289384 0.06069014981082704
0.0663269730955568 -0.049700508935267396 0.0601595001299845
0.06620852834474152 -0.04809329536922191 0.0596315203201947
0.06612090397669473 -0.046689365248388515 0.05898478425358966
0.06606346519035836 -0.0454834357325703 0.05822043194022375
0.06600612611062566 -0.04427959956046007 0.05745740644730413
0.0659490816661446 -0.043079112408253684 0.05669492090004141
0.06589213573535492 -0.04188069845367798 0.05593375213744134
0.06587557743618122 -0.040943648903718044 0.05501097763420609
0.06586525703549104 -0.04004708433384213 0.054063382517810954
0.06585474523679019 -0.039149552926591114 0.053116877144453345
0.06584443136188309 -0.03825355281705728 0.0521698782853558
0.06583392620893914 -0.03735659129637037 0.0512239742306862
0.06586019513983232 -0.036694249820992786 0.0501269196802151
0.06589174555579334 -0.036064837651376525 0.04900724313176469
0.06592332621483975 -0.035434822150166745 0.04788649330207362
0.06595474193777241 -0.03480296570854646 0.046765481532692055
0.06598638302623241 -0.034171742214708645 0.045642584220987825
0.06605523887134303 -0.033774539496645106 0.044362660328632564
0.06613091095179766 -0.03341852440412629 0.04305197874828792
0.06620675660921113 -0.033061692682552046 0.04173829072059365
0.06628277644149676 -0.03270404151891604 0.040421585889367895
0.06636450493933495 -0.03238020694045812 0.039078312621903144
0.06649402378965422 -0.032352848991904104 0.03752856563229945
0.06662404917388393 -0.032325384049366634 0.03597275775339909
0.06675458406934377 -0.03229781148395666 0.03441085336033478
0.06688543070556237 -0.032268884075793314 0.03284368269397392
0.06709044153228047 -0.03269620829786424 0.03095151607991714
0.06730037163141069 -0.03314878445102648 0.029031820765518357
0.06751161962235719 -0.03360420177080836 0.027100074055074086
0.06781715814022579 -0.034634989341348565 0.02474953800594626
0.06817716843854711 -0.03599285708318478 0.02215073600576284
0.06872048710074624 -0.03846594745652521 0.018733789369530407
0.06740129964540488 -0.07156958863489987 0.05784740511167796
0.0664435302034886 -0.06425568131863091 0.06057441136756214
0.06599889859638378 -0.060414091257549096 0.06130861839782936
0.06577553895744637 -0.05806777991646239 0.0611810825433593
0.0655599814434015 -0.055779432112270655 0.06102940554088537
0.0653524786959332 -0.05355043465446829 0.06085222157473874
0.06523519007536374 -0.05192826770702391 0.06032035606310293
0.06511832169779386 -0.05031191295414583 0.05979039621573573
0.06500187130867796 -0.048701339214213824 0.059262331809012136
0.06489855898199318 -0.04718084984149962 0.05868465284361457
0.06484211761138815 -0.04597311480170296 0.057919688078988896
0.06478577432786133 -0.044767478633465474 0.057156052714083194
0.06472972067361767 -0.04356519987133273 0.05639295807501121
0.06467357246612775 -0.0423637404121755 0.05563196956241767
0.06464888275817554 -0.041370236199012644 0.05474294783971789
0.06463855308805365 -0.04047144969048172 0.053795233248362884
0.06462841791617821 -0.039574200568084694 0.05284702698715582
0.06461809478425978 -0.03867598540582301 0.05189991518222836
0.06460777494963788 -0.03777805714040944 0.05095310589201124
0.06463032975117583 -0.037094088998942565 0.049868499791326015
0.06466132050648413 -0.03646426866449143 0.04874763216722694
0.06469214942050816 -0.03583260365549862 0.047626499816530776
0.0647231995045702 -0.03520157512810479 0.04650348346528371
0.06475427940902242 -0.034569940563263624 0.045379388573254964
0.06482306822232203 -0.03418020198693733 0.044093029878363166
0.06489740110196753 -0.033824305167718394 0.042780761981006166
0.06497190465303854 -0.03346759119436832 0.04146548106119652
0.06504657946401408 -0.03311005724932331 0.040147176729966594
0.06513365839695437 -0.03282979856065438 0.038772761612199225
0.06526091293972909 -0.032803289331956254 0.03722073708038198
0.0653886657017063 -0.03277667631588166 0.03566263615696735
0.06551691961452 -0.0327499589017165 0.0340984230870916
0.06565889703105526 -0.03280685715737913 0.03246989152947655
0.06586398413475097 -0.03325897795772759 0.0305583363634922
0.06607035644134496 -0.03371393202713324 0.028634802208011123
0.06627782498680256 -0.03417048034552822 0.02670007018951842
0.06662021790498868 -0.03546925499076209 0.024156994526201736
0.06697458437843189 -0.03683428711236564 0.021549821978296024
0.06766727973217425 -0.04030680513435225 0.017411916180182785
0.06534421058332639 -0.06583248435994421 0.05965493663375965
0.06490560106673271 -0.061968202753976465 0.06039709788105685
0.0645881846094093 -0.05894473356759655 0.06066374042001371
0.0643762923898553 -0.05665029360623913 0.06051267715320929
0.06416578591788917 -0.054370858984002235 0.06036260182037245
0.0640211056435013 -0.05254479498588294 0.05995029359259213
0.06390644077003571 -0.05092634251710426 0.05941946578380475
0.06379199581871507 -0.0493123888842284 0.058891318238398715
0.06367796003488065 -0.047704205513152464 0.05836505894386912
0.06361797542568015 -0.04646391432211033 0.057618256075532115
0.06356263264598205 -0.04525647306799069 0.056854010043015824
0.06350738607041535 -0.044051130747539635 0.05609109252363387
0.06345242351258876 -0.04284914411602453 0.05532871147647789
0.06341952916532807 -0.04179642435043446 0.054475168832209375
0.0634093857467116 -0.04089666723241342 0.0535265454974862
0.06339943332253416 -0.039998450610720715 0.052577429491579564
0.06338929633067611 -0.03909926602984731 0.051629410126997566
0.06337916257991004 -0.03820036894370482 0.05068169387089655
0.06339811888820907 -0.03749469070956868 0.049609587070267525
0.06342835986653239 -0.036863217780027546 0.048488334413187006
0.06345881781079786 -0.03623238487276659 0.04736519930147276
0.06348930502064375 -0.03560094582845519 0.04624098502310631
0.06351982153827042 -0.03496889977306278 0.0451156900219597
0.06358849672831274 -0.034586654897595104 0.04382287406180002
0.06366148503901915 -0.03423087748965675 0.04250901614996622
0.063734641097606 -0.03387428240410201 0.04119213861923776
0.06380796548303615 -0.033516866818798396 0.03987223104772891
0.06390033539769083 -0.03328160700091637 0.038465704009233936
0.06402531624683162 -0.03325595259389047 0.036911389395163086
0.06415059472033212 -0.03322895034405998 0.03535183990795043
0.0642765574015541 -0.03320309187286624 0.03378531180428651
0.06443247796009254 -0.03336752892307493 0.032080329001036745
0.06463400652281577 -0.03382201487445147 0.03016496992791179
0.06483679970189907 -0.034279352780626104 0.028237591742418078
0.06507329175547023 -0.03494782015743669 0.026150978345682085
0.06541848635042109 -0.03630686018297763 0.02356207911095437
0.0658003113935922 -0.03789116224654476 0.02079504607412408
0.06466275270316027 -0.07040511092319651 0.05698851940640404
0.06380461322494786 -0.06353324595217397 0.0594791656811654
0.06339629121955301 -0.05982651989895649 0.06014354734880234
0.06318789561063647 -0.0575246186593511 0.059993893651896724
0.062980676443907 -0.05523648524443625 0.0598460060727623
0.06280376255858681 -0.053164378795788336 0.059578396478978946
0.06269093087982876 -0.05154121792036226 0.0590482661987346
0.06257850389473177 -0.04992387883988342 0.058520037337866704
0.06246666549346243 -0.04831361506746534 0.057992915118127486
0.062390843417362805 -0.04695455896022299 0.05731691919557774
0.062336691486875546 -0.045746586693229674 0.05655127606888083
0.06228244850785173 -0.04453943972652208 0.05578774966873473
0.062228299846880844 -0.043334391754753676 0.05502555089308797
0.06218770398075576 -0.042223469344946474 0.05420685146015103
0.062177747583744725 -0.041322739529176644 0.05325731764153241
0.062167978662753726 -0.04042355332937181 0.05230729014734076
0.06215802858034409 -0.0395233972453527 0.051358361486063875
0.062148265854070205 -0.03862477877368964 0.050408933486439156
0.06216337157271058 -0.037894809471033575 0.04935098648410308
0.06219323623934563 -0.037264172839187315 0.0482277328919557
0.06222312961513154 -0.036632929971227635 0.04710339950695752
0.06225305174148628 -0.03600107999256835 0.045977984771336466
0.062282817688868175 -0.03536737947039437 0.04485230841242904
0.06235151736551875 -0.034993900541039236 0.04355219134195337
0.062423155715363096 -0.03463824368835022 0.042236739705584225
0.06249495887142263 -0.03428176863616267 0.04091826183245162
0.06256692740306469 -0.03392447255778441 0.03959674726760509
0.0626641423183298 -0.03373315297535795 0.038158824783241674
0.06278683853124048 -0.03370835481346057 0.036602220105133365
0.06291001616446604 -0.03368345935151895 0.03503950781289339
0.06303367805698189 -0.03365846601574013 0.03347065188940829
0.06320293768310285 -0.033930971239265084 0.03168884145546241
0.06340088888855104 -0.03438783880675078 0.02976965634028561
0.06359989107661786 -0.03484630992541038 0.02783930195545886
0.06387243075322828 -0.0357816274587916 0.025561999387100742
0.0642117380438412 -0.037146538523820105 0.02296569122636044
0.06473800259641145 -0.03972321048223554 0.019486673984479674
0.06269585364355802 -0.06510933660047424 0.05855475390921633
0.062274895592413726 -0.061248761951040176 0.05930452266538927
0.06199457580254721 -0.05840109531546456 0.05947383349032598
0.06179105280254179 -0.05610686592101466 0.0593265729444431
0.061588677007360884 -0.05382634053485519 0.05918106256074862
0.06147215553417703 -0.05215914100472441 0.058675226731885244
0.061361757766287384 -0.05053839657002418 0.05814691805075667
0.06125175581352712 -0.048923463078434426 0.057620503543304724
0.06108231171428679 -0.0468931672099 0.05735462395290458
0.06097421374669129 -0.0452984391140569 0.05682808853925919
0.060891224221525146 -0.04388270156151852 0.05619572273302548
0.06081152161204672 -0.04249223340423364 0.05555169319719866
0.06076383605339288 -0.04132753919055748 0.054769775090409034
0.060745681192337274 -0.04036997563404737 0.053859353214353256
0.0607273575876741 -0.03941173483859639 0.052950269067112365
0.060709224514627305 -0.03845531801678859 0.052040936879083344
0.06069128164179193 -0.037500715055048706 0.05113134880971876
0.06070186654458522 -0.03674387831363596 0.05009484459309338
0.060729332848771224 -0.03610325953364185 0.04898227104119768
0.06075664425798797 -0.03546082258222788 0.04786949948194785
0.060784160167388974 -0.03481904436039063 0.04675491364791379
0.0608115209243562 -0.03417544908074449 0.04564013440620368
0.06086757937338793 -0.033727593461788274 0.04439386411617441
0.060938385680786675 -0.033378978791450076 0.04307841065477619
0.061009356915869534 -0.033029552100057424 0.041759893134489745
0.061080311973046864 -0.03267807405323925 0.04043913653235115
0.061151614372515005 -0.032327014387146746 0.03911446361044518
0.06127441802001937 -0.032323102663742 0.03754889443273379
0.061403407239835 -0.03235767588653066 0.03595056757268433
0.06153349383636266 -0.03239612940179881 0.03434291675940776
0.06166394762361797 -0.03243349862031458 0.03272930651785416
0.06188098802763875 -0.03304948524952611 0.030704698973416433
0.06211947443643646 -0.03380343925124679 0.02857192323597113
0.06242255183242925 -0.034983396118371424 0.026125848608224755
0.06300034045942647 -0.0379908780645849 0.022365992689183267
0.06366660325416165 -0.041572593031374616 0.01816592245439419
0.06192760965825807 -0.06924076818663827 0.05613157845914557
0.061164324366753814 -0.06281174086899377 0.05838247293494475
0.060796682174069465 -0.05928240443719496 0.058950905970083345
0.06038386416748133 -0.055435313464512914 0.059727347810291376
0.06012392097461403 -0.05270767294803119 0.05985252840453542
0.059985923053532696 -0.05086935406964149 0.05945386985790119
0.059850339407898086 -0.049052321100176766 0.0590492249134974
0.0597274348130441 -0.04733043333407172 0.05859330800952728
0.05966395746608049 -0.04603933950956085 0.05787901543479179
0.0596045035778183 -0.04477889737186408 0.0571489998522442
0.05955046106497253 -0.04355888038946715 0.05639688408809457
0.05949774939523465 -0.04234988844505522 0.05564062392402569
0.059465181830305774 -0.04128610597749022 0.05479580814138746
0.05945515463549102 -0.04038375336557354 0.053850647368632765
0.05944724080293379 -0.03949670161568819 0.05289627542270653
0.0594414386462085 -0.03862485017120587 0.05193259436622333
0.05943563762196799 -0.03775316889646063 0.050969101402863315
0.05945075756483825 -0.03702946759284648 0.04991026552867872
0.059480844572194234 -0.036410884918156805 0.048782329340779806
0.05951113826375881 -0.03579291595079159 0.04765244035196231
0.05954128643303594 -0.035173078263421476 0.046522214192191214
0.059571465163804176 -0.03455261224066186 0.045390842311308965
0.059627668494532736 -0.03411336226635614 0.044137456345286374
0.05969567819447189 -0.033754970023768704 0.04282710469515455
0.05976366549625867 -0.03339452103089052 0.041514592785795834
0.059831807835929146 -0.033033250072003084 0.04019908783117876
0.05990367650241042 -0.03269593458428327 0.03886373844717378
0.06001762820803772 -0.032648069272994795 0.03732681398839521
0.06013201426896925 -0.03260002151108787 0.03578403115921397
0.06024665657392084 -0.03255054450459405 0.03423621720244685
0.06036155555834204 -0.032499630509109534 0.03268335723351856
0.060547220354738314 -0.0329316598374243 0.030787017939937822
0.0607393537556757 -0.033402848654505435 0.02885333995924161
0.06093252569013357 -0.03387577347186643 0.026908243522060504
0.06125678831824058 -0.03523838489497211 0.024320972109383276
0.06163872778304959 -0.03698494466264873 0.021442228995909807
0.059424502593605495 -0.05975558022616545 0.06018539706900339
0.0591846204135467 -0.0571227930065113 0.06023231839414639
0.05896293089115978 -0.05463189428733384 0.060206819221104935
0.05880685165829074 -0.052633385758974194 0.05989711839916306
0.05870045280307415 -0.05100667076349569 0.059370971978744524
0.058605965810572744 -0.04947090105988844 0.05879507399978107
0.05851213077847465 -0.04794263262920434 0.0582194605923928
0.05846306576851744 -0.046746154053853906 0.05744491448295619
0.05843022777928655 -0.045670131930306335 0.056598500960168496
0.058424497887418006 -0.04479354797800056 0.05562989503085258
0.05838164662161236 -0.0436458353274341 0.05483097532687092
0.058326743308790265 -0.042411439608046664 0.05408874772443206
0.05831324975101258 -0.04148006233777424 0.05315790821613792
0.05829993530901837 -0.04055037190132432 0.05222670114687461
0.05828645415065564 -0.03961985295398712 0.05129671994053531
0.05827297922553484 -0.03868976424727355 0.05036716872607594
0.05827833380198446 -0.03789605747345892 0.0493501801074831
0.05830460301688681 -0.03725295595911443 0.04823502354791259
0.058330895924452134 -0.03660927442040768 0.04711886120932379
0.058357212556748285 -0.035965012072284586 0.04600169173040758
0.058383552945900766 -0.035320168128271656 0.04488351374739841
0.05844238477021939 -0.03490692207002971 0.043610003299519584
0.05851038837010749 -0.03455745280781708 0.04229073916047943
0.058578375882294045 -0.03420592621062862 0.04096923675497055
0.05864652157771742 -0.03385358173357711 0.039644659674071436
0.05873412015720023 -0.03363728902567403 0.03822397599446109
0.058853498886822335 -0.03364348790914157 0.03664655005091805
0.05897354077780944 -0.033650961858179396 0.035061839867747135
0.05909407336206275 -0.033658466358282235 0.03347065189069981
0.05925882631082697 -0.033973699696887794 0.031659153363665815
0.05945702733090121 -0.034519117740804905 0.029677938374628565
0.059656377619740825 -0.035066927920088364 0.02768431709574659
0.05981664092113548 -0.03533566854488934 0.025877013009741934
0.06006296862190174 -0.036200535908459563 0.023637597072141137
0.06035058089120899 -0.037345931014861444 0.021184427735343403
0.05858702377599917 -0.06429263719482825 0.059033766283296374
0.05818274118885489 -0.06035594111522752 0.05983122560586934
0.05798390920974511 -0.057993679296008405 0.05971557529484711
0.05785077307960064 -0.05613593849174925 0.05930922297373897
0.057753273341352 -0.054552090679195975 0.05874544061383463
0.0575942627558827 -0.05250594640839079 0.058465860870664965
0.05747716777955119 -0.050780801632045625 0.05799973614136472
0.057360719120692884 -0.04906394665549685 0.057534715622938215
0.0572551413831445 -0.04743222352252452 0.05702355443854923
0.05719807297785825 -0.04616757814032579 0.05629123778558304
0.05714094837946202 -0.044904179328738414 0.055561169685754086
0.05708410727490813 -0.04364456848950066 0.05483176686045055
0.057028055828347524 -0.04239250905142172 0.054100642089229156
0.05701486329960647 -0.04146117759464957 0.053169841239676
0.05700184589045157 -0.04053153281962607 0.05223867286311551
0.05698866548396646 -0.03960105960541793 0.05130873024170396
0.05697566003340764 -0.038672266390911425 0.0503784143519701
0.05697869965173627 -0.037862373220002854 0.04937195064228117
0.057004380993289396 -0.0372193080115053 0.04825689317673176
0.057030085495437685 -0.03657566285785141 0.04714083010208919
0.057055813189525344 -0.03593143697414991 0.04602376005738806
0.05708156410695418 -0.03528662957410034 0.04490568167920128
0.057137041410576836 -0.03485847825966104 0.04364220238361749
0.05720351839577069 -0.034508993190308646 0.04232312880647282
0.0572699796364859 -0.03415745113259666 0.04100181756979088
0.057336766500606436 -0.0338063344618017 0.039676592227498364
0.05741965481200383 -0.033570085942463135 0.03826964857605414
0.057536342992222274 -0.0335761472540399 0.03669257038903889
0.05765367931037755 -0.03358348266203126 0.03510821069742864
0.05777149518443971 -0.03359084804991436 0.03351737569561286
0.057928519496261884 -0.03387694573840222 0.03172637945123413
0.05812222597853831 -0.03442191327343913 0.029745850490014936
0.05831723227253609 -0.03497053765652769 0.0277520317578554
0.05860327389583896 -0.0361646361393132 0.025291452690630767
0.05895353993373983 -0.037808833352909466 0.02249529158835578
0.05965697157441303 -0.041958656045851084 0.017890212661321014
0.05764091100621171 -0.06730369638938427 0.05726771389080865
0.05737107196146093 -0.06433793689740974 0.057482122711349726
0.056890882678091705 -0.05974315027170729 0.05867752116010466
0.0566628458989709 -0.057121379940014594 0.05872112289840353
0.05644833028876525 -0.054611254303232826 0.05870992848131745
0.05628800051433924 -0.05252682460172342 0.05845325679574109
0.05617355582363261 -0.05080155484515525 0.057987135393626155
0.05605974284400281 -0.04908457585290593 0.05752211820401082
0.05595372161682528 -0.047430941615705824 0.05702434181120114
0.05589778423612369 -0.046165024302488034 0.05629281531377317
0.05584212456773941 -0.044902907492891164 0.055561959834741104
0.05578640998196244 -0.043642034723703704 0.054833349912934204
0.05573097178186834 -0.04238493736796062 0.05410539953908228
0.05571675760352881 -0.041443553357811025 0.05318097777045977
0.05570387193672469 -0.040512695413676525 0.05225064351446457
0.05569099222867476 -0.03958226792814734 0.0513207394747926
0.05567828348481661 -0.03865352029093394 0.0503904622012627
0.05567943851004972 -0.03782994163068726 0.049392911568013176
0.05570453231489123 -0.037186911380182486 0.048277949509854534
0.05572964874871531 -0.036543301260773986 0.04716198200619692
0.05575478784214437 -0.03589911048773464 0.046045007696401186
0.05577994962585709 -0.03525433827492791 0.0449270252173673
0.05583200063151577 -0.034810045678658974 0.04367439400390699
0.055896951708299905 -0.034460544818898264 0.04235551093575135
0.05596205408032237 -0.03411022984148987 0.04103355569788969
0.0560271411920241 -0.033757854972680135 0.03970935758563637
0.05610561341979965 -0.033502904534201405 0.03831530642691122
0.0562197810163392 -0.033510074812912294 0.03673772403617798
0.05633424527105443 -0.03351602531857423 0.03515456651022375
