# .PCD v0.7 - Point Cloud Data file format
VERSION 0.7
FIELDS x y z
SIZE 4 4 4
TYPE F F F
COUNT 1 1 1
WIDTH 763
HEIGHT 1
VIEWPOINT 0 0 0 1 0 0 0
POINTS 763
DATA ascii
-0.03506543646548488 -0.018018794855224275 0.018446525454949736
-0.03660906020301702 -0.017978755591047016 0.01820153125988888
-0.03810524198710835 -0.01794100554619612 0.017921904525417087
-0.039263656724831564 -0.0179206951839982 0.017350250872375905
-0.040163795236123345 -0.017913788380869086 0.016552581619584672
-0.040656314057440246 -0.017928195829445437 0.015391821954757856
-0.04100261388780618 -0.017950342149685897 0.01409710690896615
-0.0408045100600814 -0.01800122485510956 0.012306716430336984
-0.040867290119721456 -0.01803858353708081 0.01074403154034187
-0.0407386841232481 -0.01808622422129898 0.008999935220524558
-0.04067286525748448 -0.018130755948455157 0.00730483107781793
-0.04008457812409927 -0.018203223018768085 0.0051198126451083015
0.08980364494540055 -0.02247638242006542 0.04567672751064206
0.08707029532725352 -0.02238920656048056 0.04567416570355476
0.08435806667779372 -0.022302704320762645 0.04567162369182792
0.08166671513226614 -0.02221686792323138 0.04566910124689938
0.07899600056576228 -0.022131689709482823 0.0456665981437166
0.07634568652181062 -0.02204716213811202 0.045664114160665514
0.07371410514990562 -0.021963208777588297 0.04566251538327837
0.07110391071690564 -0.02187996084578949 0.04566006571314052
0.068513428593446 -0.021797341606238512 0.045657634542951964
0.06594243631713936 -0.02171534396385721 0.04565522166392899
0.06339071476049729 -0.02163396092992852 0.045652826870422825
0.06085804806868056 -0.02155318562011122 0.045650449959856065
0.058344223598638334 -0.02147301125249903 0.04564809073266046
0.055849031859577236 -0.021393431145721693 0.04564574899223123
0.05337226645477278 -0.021314438717089275 0.04564342454486736
0.05091372402466415 -0.021236027480777395 0.04564111719971348
0.04847320419118012 -0.021158191046051343 0.04563882676871672
0.04652590437969567 -0.021104279908386675 0.045331025397190694
0.04653265371726545 -0.021146350475570827 0.04376826467418754
0.04653812801098739 -0.021188524887016745 0.04220010714173622
0.046544928809530595 -0.02123093234027056 0.040624829308204935
0.04655044962294308 -0.021273445146767447 0.03904409243504331
0.04655730249267337 -0.021316193548848325 0.037456146525538137
0.046564182959134615 -0.02135911410033029 0.03586180589890925
0.0465697759592652 -0.021402142318826627 0.03426191092677222
-0.01953202714035185 -0.018145287832555874 0.07708723118292735
-0.020985532409955876 -0.018109046779685233 0.07670815672239584
-0.02243231092154807 -0.0180729969293131 0.07632995990118904
-0.023873340645969132 -0.018037090323340638 0.07595326584833373
-0.023655893795757055 -0.018084498542929144 0.07444231073075733
-0.026738290247989682 -0.01796570344301391 0.07520435036189094
-0.02816318789144001 -0.017930175495324253 0.07483274366931006
-0.0295815563122524 -0.017894833594370302 0.07446197170519442
-0.030387125938336368 -0.017890437097383728 0.07366608490419507
-0.03240247868247803 -0.017824520673637937 0.07372542700163584
-0.03380419878358548 -0.017789593649148127 0.07335900533553519
-0.035199552899331965 -0.017754848329606103 0.07299338597023736
-0.036590345196418184 -0.017720193551002537 0.07262982260795484
-0.036758045063974565 -0.017748086773046276 0.07138850619228954
-0.03935657318792718 -0.017651243691388936 0.07190756700691228
-0.04073119894080102 -0.017616991783830672 0.0715482280357578
-0.04210135764738626 -0.017582828324428718 0.07119091026129032
-0.04346536011747748 -0.01754884116415894 0.0708343466576068
-0.04315764502636965 -0.017601289369371546 0.06924278923246335
-0.046177606486705824 -0.017481259503525536 0.07012533889487071
-0.047525910956434825 -0.01744766349391064 0.06977287890207351
-0.04886904294269179 -0.017414196368245944 0.06942177104706543
-0.04999837462968154 -0.017391754264813535 0.06891381513130218
-0.04959463000436609 -0.017449449118703133 0.06724080518555581
-0.05286933541831251 -0.017314475150377952 0.06837773630829963
-0.05419206263492554 -0.01728151654070645 0.06803195926010308
-0.055509763719028826 -0.017248683167999133 0.06768749610428343
-0.05647102717674385 -0.01723452241335992 0.0670706323190769
-0.05813100025471829 -0.017183347050992087 0.06700310694022249
-0.059434582831664806 -0.017150843216974358 0.06666316545737017
-0.06073245381389769 -0.01711850403823657 0.06632388299270109
-0.06202465496633225 -0.017086328347990818 0.06598525333752103
-0.0629856482524655 -0.017071682343855307 0.06538682946950053
-0.06459686516908525 -0.017022214120953748 0.0653136693217285
-0.06587535950626316 -0.016990357751988348 0.06497945219542245
-0.06714907748372617 -0.016958620396048105 0.06464648367939368
-0.06841804581775401 -0.01692700138744091 0.06431475678961346
-0.06953681997410877 -0.016903343962563957 0.06386475975265121
-0.06912367979514233 -0.01696236499637146 0.06215343092265718
-0.07219821403734561 -0.016832766798367524 0.06332819962440939
-0.07344843823047603 -0.01680161492036095 0.06300136970295661
-0.07469404346966241 -0.016770578132985214 0.0626757472547832
-0.07593505530480255 -0.016739655799612566 0.06235132560071366
-0.07571493689114561 -0.01678842034108925 0.06079291283811222
-0.07529563486977647 -0.016848304885207867 0.059056686202741904
-0.07487407616755853 -0.016908577278774824 0.05730866769691989
-0.07444874145835911 -0.016969323644428554 0.055547452390210195
-0.07401883399052972 -0.017030591043185987 0.053772232679655196
-0.034903682364700206 -0.019228982637802115 0.018305694842344844
-0.03663566710978228 -0.01917586634591444 0.018224818507191043
-0.038425981107832685 -0.019119276973104664 0.01820410378230347
-0.03949567799912851 -0.01910250617183286 0.01755546634498395
-0.04045407169556536 -0.019091863374490124 0.016810671339924754
-0.04105202759794119 -0.01910130565621276 0.01574550534260205
-0.0413488730395582 -0.019127647255285294 0.014408212754447924
-0.04138537226020911 -0.01916871523219049 0.012831344493096974
-0.04128022446570473 -0.01921793432141574 0.011118943474838328
-0.04125177821501502 -0.01926305321183074 0.009468223756430971
-0.04114009981149458 -0.0193130787160628 0.0077334962001177066
-0.04081551327908356 -0.01937538643458972 0.005793917092562995
0.08979604382465489 -0.023880772409256724 0.045681159922347836
0.08706276745813246 -0.02378815103069594 0.045678580965212934
0.0843506111573677 -0.023696245338860337 0.04567602193563991
0.08165933107189743 -0.023605047070492467 0.04567348260354864
0.07898868709084395 -0.023514548089056793 0.045670962742382026
0.07633699404879879 -0.02342466650583 0.04566933170629234
0.07370693032187431 -0.02333554274457901 0.04566684682041694
0.07109680393133838 -0.023247094590689115 0.04566438077127255
0.0685063890291735 -0.02315931439095222 0.045661933345480465
0.06593546316570631 -0.02307219460731836 0.04565950433287258
0.06338380722593656 -0.02298572781473826 0.04565709352642655
0.06085120536726851 -0.02289990669905297 0.045654700722216446
0.05833744495865473 -0.02281472405493179 0.04565232571935113
0.055842316521095337 -0.022730172783856157 0.04564996831991214
0.05336561366942988 -0.022646245892146883 0.04564762832890912
0.05090713305543787 -0.022562936489036164 0.04564530555422125
0.04846667431219198 -0.02248023778478206 0.045642999806539075
0.04671012740496405 -0.02243291422429205 0.0452126285983363
0.046717247042233456 -0.022477652589920932 0.04364896018671899
0.0467243951338695 -0.022522569757195698 0.042079042407632106
0.04673026609157005 -0.02256759823080999 0.040503691177752044
0.0467374689643692 -0.022612875956713685 0.03892116827452741
0.04674338975238368 -0.022658266609250556 0.03733314908149338
0.04675064805814272 -0.02270390925268249 0.035737868654601934
0.04675793566505215 -0.022749736151677687 0.03413614821300026
-0.019659355502075815 -0.01927261487883716 0.07717281026626016
-0.021111161213413332 -0.01923418551404672 0.0767930640479533
-0.022557188679812823 -0.019195909099670373 0.07641482923476794
-0.02370182369032986 -0.019173560720430995 0.07583605201646162
-0.025432966821562097 -0.019119762266127216 0.07566349043220033
-0.02686185953981368 -0.0190819394584996 0.07528973579659295
-0.028285110134098568 -0.019044265997963526 0.0749174569680095
-0.029702751956299345 -0.019006741001694156 0.07454664522262122
-0.030041140250988085 -0.01902723957304498 0.07342302840870099
-0.03252223478204552 -0.0189320846487883 0.07381001950184637
-0.03392324247451073 -0.0188950000063429 0.07344355704201352
-0.035318772239183616 -0.018858060364525708 0.0730785274471347
-0.03670797858058478 -0.018821312567801497 0.07271429217560951
-0.0364122074880201 -0.01887617630628728 0.07113880888769591
-0.03947368054135808 -0.01874805566523376 0.07199258183132856
-0.040847611618673174 -0.01871168778746741 0.07163320015726696
-0.04221622265432651 -0.01867546073090373 0.07127521005622217
-0.043214566829006595 -0.01865941522227369 0.07064928594668957
-0.0449384545124486 -0.018603379226960228 0.0705640006143376
-0.04629044272545396 -0.0185676163564881 0.07020950883261579
-0.04763891642585716 -0.01853189824605084 0.06985763256887795
-0.04898138018361026 -0.018496363352646965 0.06950648023595979
-0.0496566720148372 -0.018497699210592317 0.06865475537166538
-0.051651743713702125 -0.018425655123335976 0.06880882673980565
-0.05297969244339551 -0.018390480582972636 0.06846230955733029
-0.054301768368314796 -0.01835548544462638 0.06811648693481842
-0.05561882230835041 -0.01832062323741824 0.06777197794028655
-0.05613012402162554 -0.018330796544755418 0.06680513159977253
-0.05823877633698327 -0.01825124975007127 0.06708749590671115
-0.05954093012024991 -0.01821678199243559 0.06674688285308766
-0.06083817490048282 -0.018182444175157558 0.06640755388010205
-0.062130538385204215 -0.01814823556482452 0.06606950174011011
-0.06264530764478748 -0.018157951921554442 0.06511458066448506
-0.06470073125954434 -0.018080203058835283 0.06539719924023912
-0.06597861503136637 -0.018046377723692747 0.06506293465524388
-0.06725249206089307 -0.018012635033306124 0.06473054089571795
-0.06852085296682853 -0.01797906181021422 0.06439876573670611
-0.06919762132468693 -0.0179792358937134 0.06358610719365626
-0.0710449478354735 -0.017912203031607336 0.06374015468110583
-0.0722992206148636 -0.017879002804313832 0.06341206163133867
-0.07354885241281844 -0.017845925422419234 0.06308518257084772
-0.07479312972987989 -0.017813012925416722 0.06275889050307093
-0.07579306678337605 -0.01779410798286993 0.06223155159258237
-0.07537507103148383 -0.017857424176469884 0.060504701800756566
-0.07495483328705965 -0.01792114933049777 0.058766152611448574
-0.07453158552045197 -0.017985330926462293 0.057015150776491164
-0.07410229237806837 -0.018050149344904433 0.05524897492708425
-0.07367291171020551 -0.018115259928775707 0.05347263638573169
-0.034986013890623724 -0.020425962082305685 0.018377376482416163
-0.03682085192194079 -0.020363465474802864 0.018386898397024898
-0.03825625238656116 -0.020324237431710118 0.01805476958538066
-0.03964018058716812 -0.02028787523091077 0.017683274309953978
-0.04065697293760956 -0.02027309007862641 0.01699107427344726
-0.041497161823127404 -0.020268719576466497 0.016143360267176943
-0.04185389992225369 -0.02029308562650844 0.014861967736914228
-0.04190263568484137 -0.020335923155047765 0.013298530872830006
-0.04171278103215875 -0.020393209998306197 0.011511670843452393
-0.04177929783622991 -0.020435403415165483 0.009949678123270356
-0.041580626065753024 -0.020493705258659945 0.008137657748182203
-0.04139594227069343 -0.02055143084795068 0.006329217333641501
-0.04019808080156617 -0.02067050897760705 0.00357224211364221
0.0897884429483104 -0.025285117245393153 0.04568559219153695
0.08705523983011532 -0.02518705069738104 0.045682996085458394
0.08434315587480301 -0.025089741898909574 0.04568042003913009
0.08165047050919205 -0.024993102672738566 0.045678740047744304
0.0789799112265393 -0.024897283869057943 0.045676200078403506
0.07632975057261837 -0.024802196961583756 0.04567367951012408
0.0736997557192699 -0.024707833596516852 0.04567117812146548
0.07108969736821125 -0.024614185546708904 0.045668695694344674
0.06849934968440219 -0.02452124470927175 0.045666232013967634
0.06592849023089103 -0.0244290031032394 0.04566378686877698
0.06337551846660894 -0.024337377551957452 0.04566221333935505
0.0608429944040243 -0.02424651150350147 0.04565980146407256
0.05832931086549775 -0.02415632144624451 0.04565740753168279
0.05583425838616257 -0.02406679986466275 0.045655031342702435
0.053357630594742245 -0.023977939354229417 0.045652672700589036
0.05089922415663256 -0.023889732619372286 0.045650331411697664
0.04845883871826123 -0.0238021724714775 0.04564800728522178
0.04689580753540251 -0.023762760469217423 0.04509329534440265
0.04690330072063348 -0.023810171488703246 0.043528711858416724
0.046909519607115924 -0.023857699697858073 0.041958720341220335
0.04691707025734304 -0.023905490697072457 0.04038159427877125
0.0469233416857705 -0.023953400589938403 0.0387989977649596
0.04693095048418788 -0.024001576155326575 0.037209177721761355
0.046938589950196896 -0.024049945894589274 0.035612949834324004
0.04694494274126976 -0.02409843714032085 0.03401115589702419
-0.019786594690358816 -0.02039915241032385 0.07725832941493871
-0.021237639409821762 -0.020358490958151086 0.07687854544316547
-0.022682910927393107 -0.020317991283745566 0.07650027249957703
-0.023354580464365893 -0.020321036296787498 0.07559874772805963
-0.02555719149352298 -0.020237421344600416 0.07574885588742597
-0.02698534314673562 -0.02019740145831687 0.07537506202368366
-0.028407857553447435 -0.020157539539827334 0.07500274361114492
-0.029823864512283305 -0.02011788611901896 0.07463126069044895
-0.029693568950997895 -0.020166326684095986 0.07317885801322191
-0.03264280188756785 -0.020038841233144537 0.07389518487493485
-0.03404309250782317 -0.01999960212403361 0.07352868145943783
-0.035437027679135924 -0.019960567048551033 0.07316298054695233
-0.03646648046911577 -0.019942345467517754 0.07254087846988527
-0.03821125273870646 -0.01988280144586508 0.07243773295255079
-0.03958984153329276 -0.019844170467881582 0.07207690963862701
-0.040963945139898206 -0.01980563943522257 0.07171811450063403
-0.04233186661881988 -0.0197673074278369 0.0713600815305866
-0.0428710451899329 -0.019777000848169607 0.07039580085891045
-0.045051885904066 -0.019691086825315587 0.07064815719977707
-0.04640404460735886 -0.019653196523720086 0.07029424990014643
-0.047751009559227287 -0.019615451761852507 0.06994170198715732
-0.04909364191774801 -0.019577802965252907 0.0695911324880975
-0.0493134355299546 -0.019605964897900428 0.06839453271778606
-0.05176268243081994 -0.019502985645507138 0.06889338905585662
-0.05308915907497819 -0.019465815105289202 0.06854620044408105
-0.05441058910094293 -0.019428785981452076 0.06820033272122994
-0.05572700125403446 -0.019391897468494214 0.06785577836357393
-0.055787699902863974 -0.019429409980431436 0.0665384463301486
-0.05834648093789363 -0.019318444173918942 0.06717182890310414
-0.059648000382066135 -0.0192819730793799 0.06683116937884032
-0.06094461483560354 -0.019245639432175634 0.06649179368612479
-0.062235568426433574 -0.019209489377538413 0.0661530711345602
-0.062305027291716775 -0.019246487228175922 0.06484238005896281
-0.06480530397274359 -0.019137455448354018 0.06548129743025816
-0.06608257315275906 -0.019101663893170827 0.06514698516666778
-0.06735507366206639 -0.019066005965374052 0.06481392105426959
-0.06862283215657439 -0.019030480918013605 0.06448209811614691
-0.06885768783815738 -0.019057458628108204 0.06330685096409583
-0.07114573250529671 -0.01895973508666636 0.06382339003751575
-0.0724001615667253 -0.018924559053313496 0.06349586915172489
-0.0736484583879134 -0.018889604044518997 0.06316832085108914
-0.07489289106001473 -0.01885473272250223 0.06284260020230376
-0.07545485619580372 -0.018861560973140016 0.06194625502593726
-0.07503519388452212 -0.018928749595452817 0.06021648119161149
-0.07461327600433748 -0.018996372721762328 0.05847497478536401
-0.07418833270512354 -0.01906448074882048 0.05672098067247555
-0.07375732172046179 -0.019133265106129685 0.054951771174518604
-0.07332621405757783 -0.019202360060518012 0.053172368557530825
-0.034961127071574505 -0.02162903576769977 0.01835570886499266
-0.036664169974756466 -0.021571074489347496 0.018249765160002984
-0.03840053245406999 -0.021510775062004623 0.01818171302696192
-0.04004021174640926 -0.021456254523190842 0.018037089207533386
-0.04096040812684432 -0.021446600002021438 0.017260863643489444
-0.041775596874417675 -0.02144350069657998 0.01639222173426308
-0.042267262619292034 -0.021460762943895186 0.015233364567011187
-0.04226555985108282 -0.021509245425828376 0.013626319808350607
-0.042233955891998576 -0.021559838658973828 0.011984856658132426
-0.04213569536768075 -0.021614887561503142 0.010274953508198348
-0.04214025417290729 -0.021663651976350964 0.00865108949019866
-0.041874517829520175 -0.02172985504028026 0.006770583315901801
-0.04165540398194001 -0.021793383512839572 0.004923281021762205
0.08978084231634903 -0.026689416930652052 0.045690024318219835
0.08704620699469517 -0.026585820418523868 0.04568829404312125
0.08433420984964762 -0.026483109515490804 0.04568569757812574
0.0816430869650972 -0.026381189178980448 0.045683121098060775
0.07897259826100173 -0.02628005031649129 0.045680564373076216
0.07632250732488466 -0.026179683974422756 0.04567802717683361
0.07369258134207618 -0.026080081335433422 0.045675509286433824
0.07108259102751618 -0.025981233715857886 0.04567301048236172
0.06849090276036995 -0.025883051860926046 0.04567139023924721
0.06592012299499067 -0.02578568935732985 0.04566892573628589
0.06336861140233546 -0.025689056592456305 0.04566647970487109
0.06083615216674054 -0.025593145392772305 0.045664051938111294
0.058322532683589556 -0.02549794770635608 0.04566164223218877
0.05582754349979918 -0.025403455600642954 0.045659250386311856
0.05335097825564722 -0.02530966126022233 0.04565687620265424
0.050892633627883765 -0.025216556984683336 0.04565451948629584
0.04845230927407079 -0.025124135186506497 0.045652180045178736
0.0470803480508768 -0.025093680564513256 0.04497469450034819
0.04708821280911607 -0.025143768544826986 0.043409201350943116
0.04709610902686284 -0.02519405688024115 0.04183744612954643
0.04710272886967021 -0.02524447000608198 0.04026024612392454
0.047110685924523166 -0.025295162366424567 0.038675860055776334
0.04711736167209141 -0.02534598133492932 0.037085966172033635
0.047125380289671615 -0.02539708260883947 0.03548879641333058
-0.018456710385931552 -0.021568019311630073 0.07772449690193572
-0.019913744798845834 -0.02152490125612156 0.07734378869190309
-0.0213640292356429 -0.021482010847661628 0.0769639671123433
-0.02280854550725342 -0.02143929102571369 0.07658565618371244
-0.023005734288888524 -0.021470787366332535 0.07536034799195648
-0.025680410658747543 -0.021354359086673463 0.0758335303725011
-0.02710874115784756 -0.021312090247258768 0.07546032910472483
-0.028530520055163322 -0.02127004291030173 0.07508797125230782
-0.029745241189419847 -0.02124027357392545 0.07457633038869604
-0.03135821105810033 -0.02118638994820511 0.07434827655161624
-0.03276328607480339 -0.021144836661673678 0.07398029167676709
-0.0341619734109041 -0.021103499703597622 0.07361311754458483
-0.03555608430919227 -0.02106227061319898 0.0732480058233046
-0.03612077252769247 -0.02107125230628232 0.0722926343123809
-0.03832889914626386 -0.020980240813117595 0.07252267453468261
-0.039706789990883506 -0.02093949146352146 0.0721618091116025
-0.04107933873165237 -0.02089890009977767 0.071802342769231
-0.04244743212817559 -0.020858413394551103 0.07144489542647531
-0.04252682829556609 -0.020896848361620434 0.07014180274129878
-0.0451660868551112 -0.020778012781999082 0.07073288473381217
-0.046517569864266584 -0.020738044462113893 0.07037893380943328
-0.04786386346476329 -0.02069822961211757 0.07002634198163077
-0.04920499748867058 -0.02065856734976626 0.06967510143743794
-0.04896949151718849 -0.02071651510013106 0.06813377365594425
-0.05187354689098794 -0.020579595055356534 0.06897789477003019
-0.05319936921683477 -0.020540385718092347 0.06863066112762994
-0.054520149095586834 -0.020501325504135803 0.0682847481050296
-0.055835915239248246 -0.02046241356436971 0.06794014818253563
-0.055445367787986366 -0.020530276681709297 0.0662718327145913
-0.0584541141285399 -0.020384931026935667 0.06725610598506548
-0.05975420746029336 -0.020346509125778945 0.06691477639989601
-0.06105019679994589 -0.020308182107081654 0.06657535446794616
-0.06234131277120647 -0.020269999211239044 0.06623720887987344
-0.06196323676871851 -0.020337387139147407 0.06456897142257723
-0.06490980800153617 -0.02019401342391204 0.06556534038374268
-0.06618646312107596 -0.020156258235998793 0.06523098057608723
-0.06745835342195317 -0.020118643960555106 0.06489786868869951
-0.06872550552985102 -0.020081169810165677 0.06456599774823535
-0.06851701712401476 -0.020138019748110348 0.06302698910016363
-0.07124720347296581 -0.020006542330258902 0.0639071921889145
-0.07250028997262303 -0.019969484245746804 0.06357900204539929
-0.07374874287504185 -0.019932563192668427 0.0632520254660664
-0.07499258783360374 -0.019895778412364784 0.06292625573216032
-0.07511516087320902 -0.01993141460159925 0.0616597060153421
-0.07469382200615127 -0.020002492950593236 0.059926993029172315
-0.07427096050526444 -0.020073982980465206 0.0581831505793019
-0.07384281451047642 -0.02014613253660539 0.05642486912227207
-0.07341157974455959 -0.02021880260087061 0.054653902905459184
-0.03360350362019954 -0.022868952075530895 0.018769332070597944
-0.03505969629010014 -0.022824183336520663 0.018441527792374457
-0.03683034324170459 -0.022758543339038054 0.018395205514891377
-0.038444829539512004 -0.0227028995537621 0.018220687395182844
-0.039908220259563365 -0.022656984510242412 0.017920346915537122
-0.041067648709234905 -0.022630980464255233 0.017356213063044523
-0.04198482240012191 -0.022620928412082946 0.01657922466739714
-0.04253021249664524 -0.02263554692334409 0.015469618954799591
-0.042787596509179904 -0.022669420834750407 0.014097817317685779
-0.04264266803125416 -0.02273031395582192 0.012355935160734577
-0.04269224590292303 -0.022778464427663035 0.010782903686320788
-0.04254823459144236 -0.022839819882195397 0.009025391806896488
-0.04251617121878298 -0.022893927636927873 0.007362347715899387
-0.041887955709102476 -0.02298845577733875 0.005138872481349366
0.08977172188052229 -0.028093581145413635 0.04569534268216546
0.08703867989706376 -0.02798462600620404 0.045692708852283714
0.08432675509034454 -0.027876512721950315 0.04569009537292751
0.08163570365565531 -0.027769231573161718 0.045687502009145176
0.07896528552698018 -0.02766277298939398 0.04568492852958289
0.07631526430558944 -0.027557127546402292 0.04568237470642583
0.07368397238693364 -0.02745219971861748 0.04568070650480138
0.07107406371223102 -0.02734815350791358 0.045678188049746826
0.06848386389847183 -0.02724489300757758 0.04567568861286153
0.06591315053668834 -0.027142409351088307 0.045673207979532504
0.06336170455181006 -0.027040693804833375 0.04567074593835879
0.060829310140413484 -0.026939737765627195 0.045668302281101414
0.05831575470988293 -0.026839532758285743 0.045665876802619854
0.05582082881892608 -0.026740070433255318 0.04566346930080922
0.053344326119381835 -0.02664134256429235 0.04566107957655474
0.05088604329933827 -0.026543341046195903 0.04565870743367101
0.048445780027498386 -0.026446057892589917 0.045656352678844325
0.04726634832062748 -0.02642582365005549 0.044855155498681853
0.04727458791159017 -0.02647859349701388 0.04328874528309001
0.04728155395847844 -0.026531493961652892 0.04171691578049924
0.04728985704939781 -0.026584687104200682 0.04013793744648081
0.047296881691601955 -0.02663801276486252 0.03855347721459401
0.04730524903915623 -0.02669163431672997 0.03696177891733787
0.04731365014108868 -0.02674547218130355 0.03536365960920529
-0.01858453681933192 -0.022695217880303414 0.0778099338932883
-0.020039865054461814 -0.02264992095378937 0.07742855579107233
-0.021489395540743972 -0.022604804481553425 0.07704869702609088
-0.022933162854982814 -0.022559867387396543 0.07667034853726781
-0.022657143721060202 -0.022622712348344988 0.07512212293684564
-0.025804463498560637 -0.022470469287837587 0.07591877774708072
-0.027231140550288968 -0.022426064183859548 0.07554490614790937
-0.028652190056216387 -0.022381834236381393 0.07517250928997199
-0.02939779548497462 -0.022380171842655425 0.07433358692921313
-0.031478435991478426 -0.02229383880331544 0.0744327351059624
-0.03288279587168319 -0.022250128374663888 0.07406471019535807
-0.034281659609738224 -0.022206589012371512 0.07369812559729794
-0.035674178409920765 -0.022163275928071723 0.07333234370138209
-0.035775256471752725 -0.02220235727172659 0.0720445279430049
-0.03844559473582021 -0.022076987339906543 0.07260692961913884
-0.03982365882705574 -0.02203406673741879 0.07224665078290526
-0.0411955147664545 -0.021991368043096135 0.07188714215986522
-0.04256206408988661 -0.021948834515952368 0.07152902418877022
-0.04218105516609799 -0.022019020120873995 0.06988665627567525
-0.04527936557665602 -0.02186425914457201 0.07081692805085377
-0.04663101857367696 -0.02182216091225738 0.07046356061828718
-0.04797664142152247 -0.02178027877117419 0.07011092501481414
-0.04903294679543252 -0.021757068269118846 0.06954536463285066
-0.05065327613620535 -0.02169694106465085 0.06941032472618236
-0.051983516772545646 -0.021655537744463427 0.06906171859747262
-0.053308690198753284 -0.02161429213959446 0.06871444039425223
-0.054629636059387976 -0.02157315009010129 0.06836910721895956
-0.0555121880324303 -0.021560694362199297 0.06768937408976333
-0.05725569753859311 -0.02149138694112206 0.06768174589300524
-0.05856087948755234 -0.02145076367023164 0.06733970355248964
-0.059861136605084075 -0.02141029368276896 0.06699895183725113
-0.061156496712929886 -0.021369976112793433 0.06665948345618589
-0.0620340696551569 -0.02135728401876841 0.06599274433566599
-0.06373263614266189 -0.021289794794030783 0.06598436780574107
-0.06501347007001279 -0.021249929345670233 0.06564870622618668
-0.06628951620247198 -0.021210212915529453 0.06531429935945032
-0.06756156562194171 -0.02117059337827125 0.06498176140923678
-0.06859239753238655 -0.02114702568309299 0.06445722843776175
-0.06817560678137358 -0.021220926869005844 0.06274651962952615
-0.07134860843368257 -0.02105266862481987 0.06399093982694115
-0.07260110034983591 -0.021013685462264856 0.06366270115450795
-0.07384822024033372 -0.020974896750115084 0.0633350563993556
-0.0750914823333444 -0.020936200810759507 0.06300923807429515
-0.07477545527997426 -0.021003583575146253 0.06137314834097812
-0.07435243712018735 -0.0210785683682534 0.05963749383611089
-0.07392788426231062 -0.021153988063278544 0.05789067783854113
-0.07349652232993609 -0.02123020730309321 0.05612809426065335
-0.07306506386058614 -0.021306769960331585 0.05435536788872758
-0.03336172387409375 -0.024089238117865834 0.018559931520245487
-0.03498218538092912 -0.0240308079699163 0.01837404320453917
-0.03681990276140579 -0.023957083887240344 0.01838606766024281
-0.03846367590935068 -0.02389648193453609 0.01823726919397145
-0.04016555638521252 -0.023831570242611334 0.018147952572838355
-0.04129403170844914 -0.02380631384702926 0.01755749402488782
-0.04239786941685597 -0.023782664318841046 0.01694840048087204
-0.042876166708474606 -0.023802682373482875 0.015780450818808356
-0.043105059411965685 -0.023840282806333647 0.014384546162582279
-0.04315264626612547 -0.023890797850078527 0.012818955319862768
-0.043155738209588845 -0.023944676466681167 0.011205921875723446
-0.04304679841975617 -0.024006710539482442 0.009482800024255722
-0.0429738220154498 -0.02406648155882673 0.007784415850549287
-0.04260064794764201 -0.02414781964605514 0.005799587247126314
0.08976412178616977 -0.02949778602240953 0.04569977449535467
0.08703115304049913 -0.02938338679709768 0.04569712352005517
0.08431930056886644 -0.029269871477027254 0.045694493027429006
0.08162832058085778 -0.02915722985738535 0.04569188278100256
0.07895651055169878 -0.02904535994178488 0.045690165335045385
0.07630657298390775 -0.028934436432471844 0.045687591560981455
0.07367679850561304 -0.028824356928194905 0.045685037370411574
0.07106695786083933 -0.02871511183254778 0.04568250254067141
0.06847682525604204 -0.02860669169405793 0.04567998685245467
0.06590617829497136 -0.02849908720345973 0.0456774900897598
0.06335479791502541 -0.028392289191030432 0.04567501203982288
0.06082246832502769 -0.02828628862398578 0.045672552493052465
0.05830897694437093 -0.02818107660393228 0.045670111242980316
0.05581411434353645 -0.028076644364377585 0.045667688086198865
0.05333767418593177 -0.02797298326829606 0.0456652828222997
0.0508794531709893 -0.027870084805746598 0.04566289525382761
0.04843925097854018 -0.027767940591544412 0.04566052518622099
0.04745120714775991 -0.02775903543536879 0.04473635008149485
0.04745981958998219 -0.02781449144108857 0.04316902822150431
0.04746846651231923 -0.027870169466389306 0.04159543154709655
0.04747583782840442 -0.027925985849763187 0.04001637872056707
0.04748455167505622 -0.027982111590864084 0.03843012539978041
0.0474919850017983 -0.028038377706685484 0.03683835270238922
0.04750076657272034 -0.028094956585610828 0.03523928944543514
-0.018712273645401345 -0.02382162627400578 0.07789531099264077
-0.020166837941891003 -0.023774097803246814 0.07751389595540953
-0.02161560955589642 -0.023726758610709116 0.07713399987209063
-0.022705252368198536 -0.023702853469776342 0.07651545617374525
-0.024495912600701775 -0.023632643555528188 0.0763787284164997
-0.02592843023723984 -0.0235858048324261 0.0760039659541667
-0.02735436826896448 -0.023539211796858906 0.07563005555818064
-0.028773776565831688 -0.023492862637745717 0.07525698931660427
-0.029050573164547344 -0.023522254180314377 0.07409099953730747
-0.031599475028327606 -0.02340047101905241 0.07451776557164438
-0.033003115091385815 -0.023354606637173245 0.07414970046854485
-0.034400378058657755 -0.023308980905056464 0.0737824462981145
-0.03579307266304921 -0.023263474110386855 0.07341725301490923
-0.035428167398375676 -0.023335777010541042 0.07179529202946267
-0.038563081314177794 -0.023172932986809336 0.07269175580339848
-0.03994044812309394 -0.023127897050873293 0.0723314347115443
-0.04131161188580784 -0.023083093900558814 0.07197188394841325
-0.04224107131139998 -0.02306800474107411 0.07129344656489811
-0.04403806368442725 -0.022994006343642983 0.07125694540373262
-0.04539341287356319 -0.022949719938843087 0.07090154158639683
-0.046743551299555375 -0.022905603797153243 0.0705475041512918
-0.04808934350614852 -0.022861599974370206 0.07019545114418996
-0.048689146112572745 -0.022868437706379547 0.06928611777269744
-0.05076465021612281 -0.022774154129373274 0.06949476230763413
-0.052094233490982134 -0.02273070974572525 0.06914611169647161
-0.053418753750438475 -0.022687430797059576 0.0687987887369052
-0.05473823985925996 -0.0226443163402146 0.06845278585985481
-0.05517000521339527 -0.022662382047867354 0.06742430342471412
-0.05736382536101159 -0.022558466237623812 0.06776595753551401
-0.05866837059821767 -0.022515840087308506 0.0674238693854382
-0.05996799503417566 -0.022473374724683477 0.06708307160666921
-0.061261939829462875 -0.022431124080607764 0.0667429343496227
-0.0616932201700961 -0.022448960937528555 0.0657215401665373
-0.06383762039022495 -0.0223469343166629 0.06606834789891747
-0.06511783744036714 -0.022305103092378976 0.06573263927789141
-0.06639327056913902 -0.022263428183221096 0.06539818513445284
-0.06766394654140212 -0.022221908714644724 0.065064978450106
-0.06825265191999125 -0.022228369092475327 0.06417960502894626
-0.07019264277900178 -0.022139225790912688 0.06440351986606019
-0.0714499474518292 -0.022098114634570357 0.06407463300476729
-0.07270109927404728 -0.022057261928902366 0.0637457265443509
-0.07394837528335951 -0.022016507162410274 0.06341865297101446
-0.07485594994973227 -0.021999825382389086 0.0628116029288423
-0.07443425672748699 -0.022078174078905388 0.06108533128513843
-0.07401029542542592 -0.022157029314324537 0.05934735285852649
-0.07358329479584924 -0.022236449853437312 0.0575969150736656
-0.07315096096227347 -0.022316604637340545 0.055831945710868525
-0.07271701398923397 -0.022397230025452314 0.05405551129059394
-0.03340702283002034 -0.025290423193179874 0.018599164030222826
-0.03527482333653881 -0.025211132582497492 0.018628827363704525
-0.03679807063117585 -0.025156524396477958 0.018366959455734744
-0.0385738858798238 -0.02508328036435447 0.018334236385559255
-0.04012627911831185 -0.02502601537802699 0.018113213073565282
-0.04147362038085617 -0.02498349304177436 0.017717169357592655
-0.042523904470160745 -0.0249625576732236 0.017061048899684073
-0.04333326672940857 -0.024959230281566814 0.01619114462361576
-0.04359124171804846 -0.024996493341228127 0.014823660433285923
-0.043697226120959665 -0.025045143001174035 0.013313391030647437
-0.04353250064098185 -0.025114038970577374 0.011549783811014902
-0.04352062035288451 -0.02517191514058759 0.009917508748534698
-0.04339848407080482 -0.025238247988806473 0.008176060141055819
-0.0430788146096136 -0.025319595915711132 0.0062428806590404395
0.08975652193616285 -0.030901945755350272 0.045704206166059524
0.08702362642499262 -0.030782102793356973 0.045701538046440726
0.08431184628520738 -0.030663185782849114 0.04569889054163356
0.08161946120076063 -0.030545086967471415 0.045697139523493635
0.0789491983269805 -0.03042799069643305 0.04569452918760558
0.07629933046712833 -0.030311788786811115 0.04569193878894506
0.07366962484966927 -0.030196471031116775 0.04568936809996199
0.07105985223184663 -0.030082027376604842 0.04568681689656101
0.06846978683307298 -0.029968447922353064 0.04568428495803123
0.0658992062698246 -0.029855722916407295 0.045681772066977266
0.06334651023296878 -0.029743750712886798 0.0456801311873411
0.0608142584249568 -0.029632706615621385 0.04567765257445344
0.05830084390051349 -0.029522488569362907 0.04567519239975726
0.05580605724425736 -0.029413087390845253 0.04567275045827551
0.05332969213346006 -0.029304494032421066 0.045670326548058415
0.050871545281173935 -0.029196699579568 0.04566792047012258
0.0484314163805859 -0.02908969524844812 0.04566553202840684
0.047637528385489236 -0.029093481310225683 0.04461660479952695
0.04764651695018529 -0.02915162843117791 0.04304836387530098
0.047654232735115376 -0.029209919680890713 0.041474692374126265
0.04766329086582677 -0.02926853363664702 0.03989385771318432
0.04767107133072196 -0.029327293819507664 0.03830752967295559
0.04768019985811567 -0.0293863802547038 0.03671394898826963
0.047689365242685744 -0.029445705256392986 0.035113934086390075
-0.018838975751522713 -0.024947310071957707 0.07797999650296189
-0.02029278247308458 -0.024897552933928247 0.0775985449478602
-0.021740801534690324 -0.024847993880963343 0.07721861196587884
-0.02235678314438827 -0.02485557584102191 0.07627862976679747
-0.024620537201917536 -0.02474940159175478 0.07646389624728109
-0.026052310964394143 -0.024700366526655984 0.07608909505533701
-0.027477510657707482 -0.024651588602737223 0.07571514600612178
-0.028896186096180887 -0.024603065925044153 0.07534204118968352
-0.028701759038764596 -0.024666644833889504 0.0738473000282166
-0.03172043074464925 -0.024506341454314854 0.07460273750428256
-0.033122461310865325 -0.02445838832719032 0.07423400344044287
-0.034519900758725575 -0.024410560506727547 0.07386733822455838
-0.03548466012004392 -0.02439290539746374 0.07319699764830667
-0.03729844756257383 -0.024315463836973774 0.07313829306596464
-0.03868048780357347 -0.02426813154288554 0.07277652416283134
-0.040056293734774595 -0.02422104419773843 0.07241553356655123
-0.04142763017009493 -0.024174078428029145 0.072056568193548
-0.041895435632400724 -0.02419099189736662 0.0710397834377463
-0.044152712236783465 -0.024080811848590684 0.07134154472747867
-0.04550738317463898 -0.024034447914757024 0.07098609799748629
-0.04685684771164278 -0.023988262171227823 0.07063201735430119
-0.04820113580483154 -0.023942253592716508 0.0702792949376127
-0.04834463689972929 -0.023982097536312516 0.06902633663735885
-0.05087512551362994 -0.023850704687030315 0.06957851848266672
-0.05220487617521269 -0.023805162799533652 0.06923044836337838
-0.053528743844758475 -0.023759853232551455 0.0688830807847457
-0.05484758151989105 -0.023714715817874404 0.06853703301847752
-0.05482629513577525 -0.023766432994125297 0.06715804967440658
-0.05747108127637668 -0.023624895469333426 0.0678494901231464
-0.058774995069316605 -0.02358026888469383 0.06750735663724167
-0.06007399205661862 -0.023535810578238166 0.06716651327021134
-0.061368099996428005 -0.023491519599940953 0.06682695273860745
-0.06135085816031227 -0.023543016435341565 0.06544913252482387
-0.06394253562163354 -0.02340337888071531 0.0661522727839724
-0.06522213632849067 -0.02335958447084767 0.0658165172556529
-0.06649695698296465 -0.023315953658557084 0.06548201596934106
-0.0677670243195343 -0.023272485528854345 0.0651487619101564
-0.06791140707704985 -0.02331210838024246 0.0639007565226472
-0.07029451369837125 -0.023185921833745498 0.06448720708715572
-0.07155047066233194 -0.023142936744030805 0.06415765242893506
-0.07280177932980969 -0.023100110742126315 0.06382931745240322
-0.07404846545815913 -0.02305744294648724 0.06350219539900603
-0.07451567567689221 -0.02307288487535473 0.06252607889866324
-0.07409304619398654 -0.023155090368769796 0.060797504122749535
-0.07366739440244335 -0.023237883730249147 0.05905656795991249
-0.07323718453103378 -0.023321384455632796 0.05730185582711311
-0.0728046271474505 -0.023405430439046467 0.055535135168373495
-0.07236894077300221 -0.02349008438599927 0.053755634580066214
-0.03335979599859734 -0.026498308028962473 0.01855826182625142
-0.03494485299627975 -0.026436724188147052 0.018341539901224668
-0.03693850751477934 -0.026343764125999727 0.0184898744742924
-0.038471213880100885 -0.026285555061476198 0.018243901405655905
-0.04022725962819296 -0.026210009453678615 0.018202527138071856
-0.041846152530508884 -0.026144635705422404 0.018048394006351276
-0.04275256800852817 -0.026133688877655787 0.01726542526452579
-0.043681280528198474 -0.026120976481660865 0.01650382697890962
-0.04402162276287419 -0.02615359902736306 0.01521237564619854
-0.044033121122629026 -0.026211796308160104 0.013618357294869654
-0.04401224210450355 -0.02627276634207527 0.011987632211865829
-0.04393366787868258 -0.026338494553922336 0.01029645989125777
-0.043926425454400286 -0.026398968522849953 0.008662953721492117
-0.043648226558541725 -0.026480860570526666 0.006770764733150247
-0.04317858368231842 -0.02657809909781468 0.004690004569857742
0.08974892233049547 -0.0323060603464133 0.04570863769428368
0.08701459480450574 -0.03218067094174397 0.04570683529151842
0.08430290145866337 -0.03205635338084559 0.04570416737353106
0.08161207864213033 -0.03193299262920817 0.04570151998908151
0.07894188633374316 -0.0318105776830634 0.045698892902020616
0.07629208817875294 -0.03168909770672949 0.04569628587981206
0.073662451419097 -0.0315685420294148 0.0456936986934558
0.07105274682523671 -0.03144890014209277 0.04569113111742551
0.06846134101514129 -0.031330064015034464 0.04568944250785595
0.06589084012546559 -0.031212219545919268 0.0456869102640991
0.06333960406637679 -0.03109525827188473 0.0456843969983759
0.06080741707361442 -0.030979170301230353 0.045681902498135585
0.05829406659298536 -0.03086394588942096 0.04567942655399021
0.05579934322089625 -0.03074957543636066 0.04567696895965023
0.05332304064617732 -0.030636049483725347 0.045674529511877615
0.05086495559321813 -0.030523358712356022 0.045672108010423096
0.04842488776633752 -0.030411493939708333 0.045669704257974286
0.04782270634856811 -0.030428990716585443 0.044497594279452324
0.04783206904774023 -0.0304898332299466 0.042928439723648404
0.04784146926317889 -0.030550919538970274 0.04135299757295119
0.047849594650806904 -0.030612157857743218 0.03977208786763331
0.04785906790919964 -0.030673735799178044 0.038183963193611725
0.047867261444994036 -0.030735467967401276 0.03659030754661036
-0.017507672772365923 -0.026124334044858203 0.07844826995712048
-0.018966534307386984 -0.026072143502024588 0.07806525444957291
-0.020419578509712488 -0.026020161073358698 0.07768376624842457
-0.021866840105754903 -0.025968385516528674 0.07730379623645742
-0.022006704800007548 -0.026010597334422014 0.07604070977046781
-0.02474507519361485 -0.025865383522231514 0.07654900488954966
-0.026175189086605488 -0.02581422148822904 0.0761735351804286
-0.027600567805120158 -0.025763195401843787 0.07580017755295615
-0.028755634622743775 -0.025731595838540833 0.07524438403794237
-0.030432686029490952 -0.025661877079262187 0.07505661475125278
-0.031840408180512814 -0.025611516170679118 0.07468702219051584
-0.03324261590161631 -0.02556135253945187 0.074318877424149
-0.03463845708625063 -0.025511449794846652 0.07395154377739477
-0.035137703271403864 -0.025527132886989035 0.07294921554726821
-0.03741647461539449 -0.02541203378578578 0.07322304531715554
-0.0387978142858727 -0.025362583771796954 0.07286123475654493
-0.0401729247816448 -0.025313389600928132 0.07250020261320517
-0.04154271117758501 -0.02526438589815647 0.07214056830015647
-0.04154995839148379 -0.025316195556414074 0.0707862365888084
-0.04426643487482668 -0.025166945489286992 0.07142546081778545
-0.04562127655782977 -0.025118443814175984 0.07107059734195192
-0.04697006780753288 -0.02507019126920577 0.07071647362941536
-0.04831368693530935 -0.025022123755127784 0.07036370785195872
-0.04800025370810396 -0.025097992162325722 0.06876665052976955
-0.05098635098826232 -0.02492647774835772 0.06966284339992523
-0.05231462614360044 -0.02487895922134358 0.06931410456343634
-0.05363784662697346 -0.024831621523254632 0.06896669283176549
-0.0548953450063846 -0.024789049050843035 0.06857383452670196
-0.054482676820858666 -0.024872739711156062 0.06689186700774058
-0.057579066190209804 -0.02469056180771934 0.06793359046620945
-0.05888234438114209 -0.02464393765846985 0.06759141144131176
-0.06018070978712681 -0.02459748926173615 0.06725052228063272
-0.061423118434846435 -0.024555115112472135 0.06687049600622402
-0.06100776582887324 -0.024639405756411756 0.06517614378709485
-0.0640466055190918 -0.02445918870485956 0.06623552146068601
-0.06532559497552903 -0.02441343347339019 0.06589971950499274
-0.06659980821543976 -0.024367849108767048 0.06556517155713265
-0.06787003473582809 -0.024322375785907527 0.0652324906173008
-0.06756942153720258 -0.02439820000345106 0.06362130275525746
-0.070396318292131 -0.024231936398962973 0.06457083982159306
-0.07165167847543874 -0.02418702666829875 0.06424123724803688
-0.0729016490233324 -0.02414234109581541 0.06391223554680892
-0.07414775013715846 -0.024097762544730072 0.06358506550251597
-0.07417539129794298 -0.024148258682180693 0.06224054638845128
-0.07375033441127604 -0.02423444926579089 0.06050841058591516
-0.073323731520622 -0.024321139592758313 0.058765136994269274
-0.0728910524478743 -0.024408689505732297 0.057006777980406875
-0.07245676121609901 -0.024496752576601635 0.05523701159111677
-0.03155659174702291 -0.02778412021327262 0.018594431694890945
-0.03334822829897205 -0.027703693052246806 0.018548243275455234
-0.03534551811431419 -0.027606579449713915 0.018690377511823064
-0.036891075366624726 -0.02754498258192037 0.018448360284992138
-0.03855410979498586 -0.027473741489691495 0.01831683658589406
-0.040194540977740334 -0.027403988890657417 0.018173588527437612
-0.041666955507374814 -0.027347384453457614 0.01788906689565356
-0.042933799187374944 -0.02730703206502617 0.01742740723066316
-0.043760568427852364 -0.02730191294009179 0.016575065324332394
-0.04433494667307508 -0.027317127560446207 0.01549536620056563
-0.044549082367037474 -0.02736153225755887 0.014086809556465185
-0.04433624980833517 -0.027440731512618218 0.01228334618652338
-0.044472649094920824 -0.027491930861400143 0.010790949108703485
-0.04431526608162428 -0.027567273996338237 0.009021561724370852
-0.044265114455163124 -0.0276342132342994 0.007342662278943757
-0.043625290992238386 -0.027749670960767716 0.005106295751182877
0.08973980312614321 -0.033710021426252235 0.0457139553401244
0.08700706871927777 -0.033579292877964205 0.04571124950688382
0.084295447698155 -0.033449574351824274 0.045708564579112765
0.08160469631810896 -0.03332085418757526 0.045705900315463344
0.07893457457198105 -0.033193120903754605 0.045703256478293874
0.07628484611876524 -0.0330663631942812 0.045700632833592214
0.07365384359982968 -0.03294046644508255 0.04569889522609655
0.07104422063079091 -0.032815627433842635 0.04569630800426561
0.06845430307494793 -0.032691731089162845 0.045693740318619114
0.06588386857674378 -0.03256876677400923 0.04569119194871274
0.06333269811349651 -0.0324467240107858 0.0456886626774049
0.06080057593318228 -0.03232559247835807 0.045686152290797866
0.05828728949362133 -0.03220536200914413 0.04568366057817175
0.05579262940299101 -0.03208602258626849 0.04568118733193455
0.05331638936168004 -0.0319675643407807 0.04567873234756015
0.05085836610542471 -0.031849977548935315 0.04567629542352669
0.04841835934967437 -0.03173325262953007 0.04567387636127135
0.048009349385802425 -0.03176574535000887 0.0443776421827759
0.04801908950221029 -0.03182928826315541 0.0428075665584321
0.04802755761285521 -0.03189298889967755 0.04123204903289296
0.04803737339259706 -0.031957042411355295 0.03964935397691821
0.048045912299297 -0.032021255944132056 0.03806115402518723
0.04805580464753523 -0.032085826233526106 0.0364656868066377
-0.017635908900476227 -0.02725061077005544 0.07853350431155556
-0.01909400353740187 -0.027196189241322024 0.07815045269232124
-0.020546285931431707 -0.027141984647168188 0.07776892798973167
-0.021992790766500292 -0.027087995693060075 0.07738892109207787
-0.021656882453911397 -0.02716779285045454 0.07580296375551096
-0.024869526666048303 -0.026980590155724803 0.07663405440498489
-0.026298898694510964 -0.026927240731109265 0.07625854669084711
-0.027722629208844995 -0.026874101868565634 0.07588452104852486
-0.028406948624981943 -0.026876788275398567 0.07500211207479096
-0.03055419855197261 -0.026768382528289038 0.07514150965627048
-0.03196119812927445 -0.02671586819407188 0.07477187767070034
-0.03336179887930757 -0.026663627302675057 0.07440306508642136
-0.034757816622347615 -0.026611522782757545 0.07403631981536055
-0.034790938464362375 -0.026663559503680438 0.07270157059432455
-0.037534421108919414 -0.026507855271457676 0.07330773972074697
-0.038914192643441925 -0.02645635718669485 0.07294526079714464
-0.04028947653097137 -0.026404992317638872 0.07258481409330542
-0.04161052111803021 -0.02635760240853317 0.07219006423654722
-0.04120378067479458 -0.026443680633184242 0.0705321756584672
-0.04438092902948643 -0.026252284649204007 0.07150994621125986
-0.04573425029776579 -0.02620177385002412 0.07115441438820153
-0.047082373841755065 -0.02615145704854192 0.07080024806229046
-0.04806513982332106 -0.026129430915901673 0.07017729847529453
-0.04976480298612396 -0.02605127154010002 0.07009722921305517
-0.05109750199609642 -0.0260015305666543 0.06974711186063343
-0.052425121529049545 -0.025951979177002055 0.06939832895280434
-0.05374769056978246 -0.025902616289329633 0.06905087287488193
-0.054551786160910776 -0.02589391715614962 0.06830912429289177
-0.05637859584596494 -0.02580438823217474 0.06836053372304107
-0.057686979490869206 -0.025755521420085668 0.06801763503581054
-0.05898962263569901 -0.025706902362562293 0.06767541060734666
-0.06028656729111059 -0.025658529302268175 0.06733385411418097
-0.061081700389534865 -0.025649930574378397 0.06660028736811174
-0.06286821002619958 -0.02556214033453988 0.06665644592883385
-0.06415138343217902 -0.025514247953670435 0.06631933650063859
-0.06542975760727338 -0.025466534696366477 0.06598348790431341
-0.06670335942582395 -0.025418999559586403 0.0656488930795569
-0.06764714229349095 -0.025397820383993425 0.06505131965711441
-0.06923786813506572 -0.025324337350900072 0.06498467527583146
