# .PCD v0.7 - Point Cloud Data file format
VERSION 0.7
FIELDS x y z
SIZE 4 4 4
TYPE F F F
COUNT 1 1 1
WIDTH 758
HEIGHT 1
VIEWPOINT 0 0 0 1 0 0 0
POINTS 758
DATA ascii
-0.05141353489939654 -0.02069852273007827 0.029631079139952443
-0.05127256194680624 -0.020753581614009795 0.02797174740583125
-0.051159814198314 -0.02080711738409543 0.026329328463822743
-0.05107642066871393 -0.02085904884090158 0.024705171716071173
-0.051020858887819376 -0.020909461045157233 0.023098268510624687
-0.05099246048658712 -0.02095838591195621 0.021508356155864217
-0.05099053676855736 -0.021005856930809655 0.019935143932463206
-0.05101526848761301 -0.021051852764560588 0.01837912458038521
-0.05106682514259586 -0.021096352597634465 0.01684078694214819
-0.05114358055155138 -0.021139449803335063 0.015318970080514194
-0.051250139883823376 -0.021180840787389747 0.013818261689849065
-0.0513777013073094 -0.021221077060085844 0.012330847435272407
-0.0515362182514329 -0.021259512334769106 0.010866314742748073
-0.05171146083739758 -0.021297048922326634 0.00941167552997113
-0.051919659356168824 -0.021332634916893405 0.007982498754637635
-0.05214024231437825 -0.021367585282704403 0.006559658517988731
-0.03622605764539727 -0.02003556256858094 0.1047313114630686
-0.03697821136570578 -0.020031259749177216 0.10397021885128985
-0.03773004209164216 -0.020026958777517354 0.1032094530724352
-0.03848155003121395 -0.020022659652411477 0.10244901391602318
-0.039232735392255025 -0.020018362372670444 0.10168890117175589
-0.03998359838241555 -0.020014066937106438 0.10092911462951282
-0.04073413920916824 -0.020009773344532633 0.10016965407935402
-0.041484358079811934 -0.02000548159376296 0.0994105193115225
-0.042234255201463344 -0.020001191683612637 0.09865171011643828
-0.04298383078106133 -0.019996903612897906 0.09789322628470093
-0.04373308502537221 -0.019992617380435732 0.09713506760709284
-0.04448201814098024 -0.019988332985044384 0.09637723387457256
-0.04523063033429264 -0.019984050425543142 0.09561972487827777
-0.045978921811544504 -0.01997976970075201 0.0948625404095283
-0.04672689277878955 -0.0199754908094923 0.09410568025981952
-0.04747454344190649 -0.019971213750586227 0.09334914422082655
-0.0482218740065965 -0.019966938522857094 0.09259293208440184
-0.04896888467838889 -0.019962665125128967 0.091837043642579
-0.04971557566263268 -0.01995839355622717 0.09108147868756675
-0.05046194716450114 -0.019954123814978034 0.09032623701175146
-0.051207999388996506 -0.019949855900208636 0.08957131840770033
-0.051953732540941266 -0.019945589810747302 0.08881672266815493
-0.052699146824982446 -0.019941325545423393 0.08806244958603388
-0.0534442424455967 -0.01993706310306698 0.08730849895443607
-0.05418901960708189 -0.019932802482509393 0.08655487056663436
-0.05493347851356056 -0.019928543682582987 0.0858015642160779
-0.05567761936898591 -0.01992428670212082 0.08504857969639587
-0.05642144237713187 -0.019920031539957243 0.08429591680139023
-0.05716494774159869 -0.019915778194927587 0.08354357532503923
-0.05790813566581732 -0.0199115266658679 0.08279155506150032
-0.05865100635304016 -0.01990727695161551 0.08203985580510326
-0.059393560006346546 -0.01990302905100873 0.08128847735035355
-0.06013579682864684 -0.019898782962886587 0.0805374194919353
-0.06087771702267353 -0.019894538686089386 0.07978668202470429
-0.061619320790986865 -0.019890296219458398 0.07903626474369174
-0.06236060833597795 -0.019886055561835633 0.07828616744410646
-0.06310157985986148 -0.019881816712064352 0.07753638992132886
-0.06384223556467955 -0.019877579668988794 0.07678693197091374
0.00917532648556485 -0.024476465382669597 0.019207728386657463
0.007122149533501099 -0.02439984598134594 0.019169914344997707
0.004654675618021797 -0.024296936368921294 0.019464977116608384
0.002492202773605512 -0.024212745430040927 0.01953497355403855
0.0006156355113153822 -0.02414619086759814 0.01939117612103075
-0.0017880934359296718 -0.024046101877737227 0.019673521183053655
-0.0037649921620684923 -0.023972564439459276 0.01962970891964222
-0.005653785235372966 -0.023904292844985398 0.019525328245166562
-0.008052967614398332 -0.02380332811434596 0.01984062673258269
-0.02674925013420365 -0.022665150097052365 0.03334585340876389
-0.033430083626090124 -0.02228810225226118 0.037239082918508914
-0.03933406117057203 -0.021959059587427016 0.04054875462475643
-0.041664391088787334 -0.021857414881351678 0.040967488057914725
-0.04397502421589189 -0.021756592788673926 0.041383830605065675
-0.04639704643301179 -0.0216481686219394 0.04190644918411324
-0.0488774189373799 -0.02153551098624001 0.04249263731155162
-0.05133467730317104 -0.02142385395470253 0.04307491080418202
-0.05352971716240801 -0.021328681785589693 0.04345136716821729
-0.0535580048631728 -0.021373657713904145 0.04200352230987242
-0.053583862092230594 -0.021418989519256942 0.04054738449082412
-0.05349480224925168 -0.021472009182962166 0.0389864778954806
-0.05321031433092016 -0.02153802534704005 0.03724983750128197
-0.05295413716785835 -0.021602480956992767 0.03552852459938732
-0.052730905961251906 -0.021665061583298954 0.033826901463804404
-0.052534058462375854 -0.021726186116009807 0.03213961793878661
-0.0523716779769261 -0.02178531223985633 0.030474092190119206
-0.052235395530808304 -0.02184297919350331 0.028823343232906196
-0.052126325256759254 -0.021899103441126937 0.02718866982846274
-0.05204820630625845 -0.02195342658022551 0.025573740519933608
-0.051995149298663945 -0.022006327978251 0.02397364592802137
-0.05197086670481876 -0.022057550663469202 0.02239204140642853
-0.051971158226145175 -0.022107363751275463 0.0208254711509403
-0.051999724574920414 -0.02215550997570067 0.019277613779903835
-0.052053202813414634 -0.022202203582114426 0.017745740784423703
-0.05213262551249476 -0.022247365233129972 0.016231116120225375
-0.05224168564444659 -0.022290735587953314 0.014737492866450375
-0.0523716326121339 -0.0223328934024065 0.013257102340560323
-0.05253146841415596 -0.022373220937435132 0.011798639327095906
-0.0527079358929185 -0.022412605118262575 0.010350016392132233
-0.0529171672042853 -0.022449942310134398 0.008926708460205157
-0.053139607454316284 -0.02248655131685049 0.007510554322944896
-0.05339854801412369 -0.022520835755613734 0.006123989866248347
-0.05366543845288674 -0.022554734636521603 0.004740073821382473
-0.05397432075946901 -0.02258590862517631 0.0033917898679672875
-0.05428047542313047 -0.022617415394563772 0.0020362933025993013
-0.03710174909191677 -0.021078009040578074 0.10404783908580831
-0.03785328495616985 -0.02107348493358527 0.10328732818195133
-0.03860449827579576 -0.021068962768252757 0.10252714367459728
-0.0393553892583936 -0.02106444254333089 0.10176728535366578
-0.04010595811138462 -0.021059924257571094 0.10100775300925674
-0.04085620504201648 -0.02105540790972559 0.10024854643165287
-0.04160613025735477 -0.021050893498547947 0.09948966541131399
-0.04235573396428882 -0.02104638102279271 0.09873110973888052
-0.04310501636952924 -0.02104187048121559 0.09797287920517134
-0.043853977679614076 -0.021037361872573063 0.09721497360118769
-0.04460261810089966 -0.021032855195622976 0.0964573927181068
-0.04535093783956551 -0.021028350449124236 0.09570013634728475
-0.04609893710161944 -0.02102384763183651 0.09494320428025962
-0.04684661609288798 -0.02101934674252083 0.09418659630874474
-0.04759397501902135 -0.0210148477799393 0.09343031222463172
-0.048341014085498624 -0.02101035074285477 0.09267435181999362
-0.04908773349761841 -0.02100585563003144 0.09191871488707826
-0.04983413346050347 -0.021001362440234584 0.09116340121831112
-0.05058021417910574 -0.020996871172230227 0.0904084106062985
-0.051325975858197315 -0.020992381824785755 0.08965374284382083
-0.05207141870237525 -0.02098789439666959 0.08889939772383579
-0.052816542916066245 -0.020983408886650925 0.0881453750394813
-0.053561348703517586 -0.0209789252935003 0.08739167458406871
-0.054305836268802254 -0.020974443615989293 0.0866382961510862
-0.055050005815823144 -0.020969963852890263 0.08588523953420144
-0.05579385754830474 -0.020965486002976878 0.08513250452725521
-0.05653739166979738 -0.020961010065023877 0.08438009092426432
-0.0572806083836821 -0.02095653603780674 0.0836279985194247
-0.05802350789316202 -0.020952063920102296 0.08287622710710468
-0.058766090401266624 -0.020947593710688404 0.08212477648184816
-0.0595083561108567 -0.020943125408343685 0.08137364643837744
-0.06025030522461566 -0.02093865901184809 0.08062283677158691
-0.06099193794505536 -0.02093419451998251 0.0798723472765468
-0.061733254474513555 -0.020929731931528976 0.07912217774850105
-0.06247425501515985 -0.020925271245270268 0.07837232798287141
-0.0632149397689874 -0.020920812459990484 0.07762279777525083
0.011281091776144003 -0.025848459970549797 0.019215392085467353
0.00924472257939335 -0.025769259252266096 0.019154259071386237
0.007041894092761791 -0.02567876501200768 0.01923208392765119
0.0047954274744024805 -0.02558500813963743 0.019355357365217374
0.002735235902548039 -0.025503167840615973 0.019344677950942246
0.00035135051587875665 -0.025399533424462727 0.019599223282736
-0.0018399887984958396 -0.025308240642624637 0.019714592753335036
-0.003851494878781392 -0.02522852280811499 0.01969853665282567
-0.00620717061170345 -0.02512551453735988 0.019967998041306667
-0.007824887906615452 -0.025071375562667204 0.01965720325605813
-0.028252565661952334 -0.023757382224673117 0.03456128936745684
-0.03536877859342691 -0.02333105426846382 0.03881488883215056
-0.039741781621965566 -0.023087378264455442 0.040881923729609915
-0.04206837146427084 -0.022980576520666658 0.04129935897073844
-0.044456846202726275 -0.022869130910674818 0.04178175446462318
-0.04695618548299302 -0.02274969549006612 0.042370681554283585
-0.04943041847707119 -0.022631442491344602 0.042954210331246634
-0.05208370498496928 -0.02250049884764564 0.04370341968508484
-0.05447347157968596 -0.022386937633185652 0.044247468487629504
-0.05450197562717979 -0.022434124805463744 0.042804022817333254
-0.05453060009014987 -0.02248151132009358 0.041354479306395686
-0.05442294608343462 -0.02253845402430569 0.03978190376251034
-0.05414210744424819 -0.02260755322253941 0.03805260841466118
-0.05389370713827235 -0.022674723636366082 0.03634226715668676
-0.05367211311104525 -0.02274034129670701 0.034646360005198606
-0.0534836360323368 -0.02280395914720451 0.03297071972372245
-0.05332343738701034 -0.02286589938511981 0.0313114886313573
-0.05319352180097747 -0.022926011428008722 0.029670775589903386
-0.053086355105904925 -0.022984807859894783 0.028042248640056555
-0.053014318663864024 -0.02304141534750028 0.026437238623242154
-0.05296373814062183 -0.02309677602195503 0.02484390061754177
-0.05294352364222754 -0.02315025653654107 0.02327053397263551
-0.05294600441097447 -0.023202383356631953 0.021710554875619403
-0.05297835976854465 -0.0232526414805403 0.020170790390904525
-0.05303373597331795 -0.02330150214925382 0.018645332570393913
-0.053116674517330875 -0.023348634408549805 0.01713865464282882
-0.05322732232774685 -0.02339401601481611 0.015651245921601387
-0.05335962413794809 -0.023438065479331003 0.014177821904101884
-0.053520760208501494 -0.023480261984169873 0.012725382266216168
-0.053699321245408105 -0.023521407661063008 0.01128356448371265
-0.05390957012474329 -0.02356047420785935 0.009866086001042995
-0.05413295399328666 -0.02359877846268558 0.008455723429837358
-0.05439262359525243 -0.023634650165570616 0.0070747772790478725
-0.054660199726911385 -0.023670118136614727 0.005696467921362303
-0.054969518575270604 -0.023702734803081615 0.004353579702303545
-0.05527791057335324 -0.02373557042786511 0.003005255798432971
-0.03872652895970957 -0.02211457271260402 0.10260469035210582
-0.03947795563723311 -0.022109776559592054 0.10184561362522751
-0.04022823058157432 -0.022105035742549965 0.10108633530936495
-0.04097818384433233 -0.02210029695814203 0.10032738253525977
-0.04172781563234412 -0.022095560205061347 0.09956875509359125
-0.04247712615226906 -0.022090825482002165 0.09881045277521783
-0.04322611561059442 -0.022086092787659526 0.09805247537118039
-0.043974784213625606 -0.022081362120729912 0.09729482267269565
-0.044723132167491464 -0.022076633479910904 0.09653749447115931
-0.0454711596781488 -0.022071906863900915 0.0957804905581486
-0.04621886695137367 -0.022067182271399755 0.09502381072541641
-0.0469662541927659 -0.02206245970110835 0.09426745476489373
-0.04771332160775377 -0.022057739151728453 0.09351142246869268
-0.048460069401585426 -0.022053020621963213 0.09275571362910026
-0.04920649777933339 -0.02204830411051689 0.09200032803858119
-0.0499526069458992 -0.022043589616094556 0.09124526548978071
-0.05069839710600482 -0.02203887713740269 0.09049052577551839
-0.05144386846419691 -0.022034166673148878 0.08973610868879073
-0.05218902122485214 -0.022029458222041498 0.08898201402277456
-0.0529338555921679 -0.022024751782790352 0.08822824157082015
-0.05367837177016693 -0.022020047354106332 0.08747479112645434
-0.05442256996270256 -0.022015344934701128 0.08672166248338364
-0.05516645037344914 -0.02201064452328784 0.08596885543548738
-0.05591001320590877 -0.022005946118580557 0.08521636977682209
-0.05665325866340848 -0.022001249719294576 0.08446420530161902
-0.05739618694910592 -0.021996555324145985 0.0837123618042881
-0.058138798265981284 -0.021991862931852263 0.08296083907941179
-0.05888109281684134 -0.021987172541131986 0.08220963692174757
-0.059623070804324385 -0.021982484150704525 0.08145875512623121
-0.06036473243089141 -0.021977797759290655 0.08070819348797012
-0.06110607789883099 -0.021973113365612213 0.07995795180224657
-0.06184710741026356 -0.021968430968391846 0.07920802986452041
-0.0625878211671328 -0.021963750566353586 0.07845842747042259
-0.06321723677422891 -0.021966695306791788 0.07762454865256624
0.011250768088641228 -0.027138795713831567 0.019238630957417457
0.008751387550775924 -0.027023693035383912 0.019534371044902687
0.006693738901872304 -0.026938637462172746 0.019501781068640478
0.0049453724466615445 -0.02687464528517993 0.0192385778711201
0.0024708395118933635 -0.026759972490639303 0.01955170104625048
0.0003012109480153846 -0.026666022119941436 0.019638693532516405
-0.0016234806493181098 -0.026588746275408044 0.01954324161084897
-0.004014538221433772 -0.02647855827527211 0.01982826556900147
-0.005867736453633088 -0.026405554922264735 0.019696474332905944
-0.024710675025678253 -0.025140188029148518 0.03323688470751379
-0.0299009924861372 -0.024829343954714818 0.03589404832617582
-0.03728608972837644 -0.024362502509459504 0.040373313584701975
-0.04014853585448164 -0.024213023043716295 0.04121430328790676
-0.042503597656853076 -0.024098804004110005 0.04165689840231157
-0.04502210110693494 -0.023972497021937277 0.04224858333350551
-0.04751434217400363 -0.02384750714034205 0.04283409830831464
-0.0501270579002272 -0.02371339033626415 0.043535675484661085
-0.052829357331319104 -0.02357229206720091 0.04432909632312543
-0.055410998180779825 -0.023439208419737494 0.0450383163506442
-0.0554413911870566 -0.02348847229186877 0.043600660447513595
-0.05547191222079717 -0.023537943683009686 0.04215694856626462
-0.05534587620007275 -0.02359890826163326 0.04057286143652328
-0.05506865033867936 -0.023671054808100264 0.03885085608896621
-0.05482709393007279 -0.023740940593533884 0.03715065458798639
-0.05460882355836422 -0.02380944834531461 0.03546190350913092
-0.054427772474399894 -0.023875556483971987 0.03379705925304999
-0.05427059114670979 -0.02394022109765703 0.03214483283502251
-0.05414611366315947 -0.024002787762393805 0.030513312938224624
-0.05404169323123109 -0.024064167470163052 0.028891655960476603
-0.05397480727780479 -0.024123070928071463 0.02729571030084582
-0.05392667531623557 -0.024180861357106273 0.02570907741546724
-0.05391048182598335 -0.02423656029459328 0.024143879490044207
-0.053915126192593255 -0.024290972887332018 0.022590441292052343
-0.053951225542993586 -0.02434330498628525 0.02105870139292232
-0.05400847641393841 -0.024394306363862642 0.01953960981637881
-0.054094887852683515 -0.024443372768035064 0.01804081122323692
-0.054207102599157064 -0.024490741019462373 0.016559569679783837
-0.05434172897072048 -0.02453665267307526 0.015093055597262373
-0.054504146982158386 -0.024580695172308365 0.013646593534842655
-0.05468389226570919 -0.024623640417498666 0.012210695790140835
-0.05489514189699318 -0.024664415182983204 0.01079899739081197
-0.055120336137915504 -0.02470432741411516 0.009395217416263923
-0.05538072135897393 -0.02474176671542408 0.008019847185397444
-0.05564897011022368 -0.02477878430579605 0.006647102194657528
-0.05595959913116333 -0.02481275861880337 0.00531042405898513
-0.05626931139740182 -0.024846960798634306 0.003968356223184588
-0.0563016729229916 -0.0249024620879912 0.002350915286133237
-0.04034959060218707 -0.023149457942148653 0.10116433119467036
-0.04109925240699319 -0.023144497015482855 0.10040563034199554
-0.0418485929757072 -0.023139538214615372 0.09964725459867735
-0.042597612514766625 -0.023134581538179887 0.09888920375579452
-0.04334631123042787 -0.023129626984811556 0.09813147760460206
-0.0440946893287702 -0.023124674553146717 0.0973740759365335
-0.04484274701570157 -0.023119724241822546 0.09661699854320421
-0.045591295941510235 -0.023114720463836527 0.09586078757200484
-0.04633871145201235 -0.0231097744128966 0.09510435980629889
-0.04708580716937233 -0.023104830478201242 0.09434825568973523
-0.0478325832987877 -0.02309988865839264 0.09359247501463994
-0.04857904004528063 -0.023094948952114124 0.09283701757351687
-0.04932517761370242 -0.023090011358009862 0.09208188315905039
-0.050070996208724794 -0.0230850758747255 0.09132707156409905
-0.05081649603484578 -0.02308014250090775 0.09057258258169945
-0.05156167729638733 -0.023075211235204573 0.08981841600506399
-0.05230654019750142 -0.02307028207626477 0.08906457162758505
-0.05305108494216065 -0.023065355022738623 0.0883110492428282
-0.05379531173416402 -0.023060430073277547 0.0875578486445355
-0.054539220777140573 -0.023055507226533815 0.08680496962662809
-0.05528281227454129 -0.023050586481161144 0.08605241198320018
-0.056026086429643185 -0.023045667835814417 0.0853001755085214
-0.05676904344555456 -0.02304075128914934 0.08454825999704033
-0.0575116835252058 -0.023035836839823097 0.08379666524337767
-0.05825400687135429 -0.023030924486493992 0.08304539104232933
-0.05899601368658891 -0.023026014227821173 0.08229443718886947
-0.05973770417332136 -0.02302110606246524 0.08154380347814383
-0.06047907853379075 -0.023016199989087948 0.0807934897054727
-0.061220136970068284 -0.02301129600635187 0.0800434956663541
-0.061960879684048675 -0.02300639411292102 0.0792938211564572
-0.06270130687745451 -0.023001494307460565 0.07854446597162501
0.013535934526113957 -0.02853578147939714 0.019119942704060366
0.011084071141855445 -0.028419098762581703 0.019366380888901746
0.008689086949959068 -0.028306033564455817 0.0195823733211532
0.006827659247071738 -0.028231127615150117 0.019398040164682384
0.004483414077273373 -0.028120866477383613 0.01959835828828488
0.0020463146169421575 -0.028003384121237877 0.019884105197345625
0.0003647232827453384 -0.027940461346986165 0.019588696138786166
-0.0019624941193380763 -0.02783011771701148 0.0198115471948499
-0.0036466714024432356 -0.027766366048824334 0.019535564481374612
-0.021848093378178446 -0.026490859005875327 0.03247964794862873
-0.02622795515997589 -0.026225813646701564 0.0344570932030433
-0.03154079877745847 -0.025890901894140887 0.03721983755336994
-0.038217206372854584 -0.025453885620822812 0.0411301418322495
-0.04055522999383121 -0.025335936636903852 0.04154663374102274
-0.04307326005435974 -0.025204130801555435 0.042124877520444914
-0.045584591527230156 -0.025072250402956957 0.042713129089249346
-0.0481558024098403 -0.024935337321360492 0.043366678899247224
-0.050879902125908094 -0.024786417725609643 0.044164053191451724
-0.05357165710628875 -0.02463926633420943 0.044951959819625964
-0.05634318946931466 -0.024485490903091888 0.045824663626122586
-0.056375449480449924 -0.02453680708198417 0.044392755040237486
-0.05640784499532142 -0.02458833880735671 0.04295483192121835
-0.05626363640711213 -0.024653422230632233 0.0413593884612406
-0.05598998726334803 -0.02472858089362678 0.03964461864630531
-0.055756046062714504 -0.024801063218107818 0.03795520125063845
-0.055540220887393466 -0.024872491308452444 0.03627282116617625
-0.05536651442187157 -0.024941031055235367 0.034618677341785975
-0.05521146566635726 -0.025008452967431382 0.03297265230920515
-0.055093218931718646 -0.02507336224433038 0.031350997568161676
-0.054991514915335715 -0.025137294497754273 0.029736158519501732
-0.054929721109331975 -0.025198448459715583 0.02814919931364601
-0.05488314785970699 -0.025258705885946125 0.026568445890816417
-0.05487179119291313 -0.025316518037841403 0.02501212306102285
-0.05487944005286671 -0.025373121836559008 0.023465962493748327
-0.05491924072641213 -0.025427490256222613 0.0219421853781252
-0.054977475316774715 -0.025480673606709373 0.02042861947892982
-0.05506731727567227 -0.025531638234022783 0.018937633594417858
-0.055180205999228515 -0.025581036934879935 0.01746170351860954
-0.05531799956569544 -0.02562871366033008 0.01600285230362891
-0.05548168144785304 -0.025674579488646924 0.014562322512892634
-0.055663469649945174 -0.02571923334850855 0.013133124788423267
-0.05587570524411023 -0.025761695056257583 0.011727167962121254
-0.056101807445824936 -0.02580325813837229 0.010329087242295532
-0.05636289506454867 -0.02584224563987091 0.008959251003548607
-0.056631803560020344 -0.02588079364397704 0.007592028517377503
-0.056942842258478676 -0.02591617224856831 0.006260660514007088
-0.057253852945088335 -0.02595171777675035 0.004924793175587139
-0.057289190709745086 -0.02600944135436935 0.003315227278975763
-0.04197010560873704 -0.024182719403549723 0.09972623200693073
-0.04271883241388513 -0.02417754111382259 0.09896843418256734
-0.04346723863518953 -0.024172365041295562 0.0982109608259649
-0.0442153244785074 -0.02416719118454468 0.09745381172877815
-0.04496309014951483 -0.024162019542147535 0.0966969866828371
-0.04571053585371193 -0.02415685011268294 0.09594048548014991
-0.04645766179642774 -0.024151682894730596 0.0951843079129058
-0.04720446818281099 -0.024146517886871742 0.09442845377346867
-0.04795095521783482 -0.024141355087688828 0.09367292285438003
-0.048697123106301754 -0.024136194495765203 0.09291771494836171
-0.04944297205283488 -0.02413103610968573 0.09216282984830995
-0.05018850226188204 -0.02412587992803651 0.0914082673472977
-0.05093451105514746 -0.024120668052034677 0.09065458108704053
-0.0516794024440293 -0.024115516299737502 0.08990066485500264
-0.05242397570932733 -0.024110366747619797 0.08914707060079324
-0.05316823105479024 -0.024105219394272497 0.08839379811819298
-0.05391216868399756 -0.02410007423828739 0.08764084720116191
-0.05465578880035016 -0.024094931278257813 0.0868882176438325
-0.055399091607075734 -0.024089790512778295 0.0861359092405132
-0.05614207730723281 -0.02408465194044423 0.0853839217856911
-0.0568847461037022 -0.024079515559852563 0.08463225507402516
-0.05762709819919182 -0.0240743813696014 0.08388090890034983
-0.05836913379624109 -0.02406924936828974 0.08312988305967753
-0.05911085309721231 -0.0240641195545181 0.08237917734719216
-0.05985225630429547 -0.024058991926888176 0.08162879155825237
-0.06059334361951241 -0.024053866484002547 0.08087872548839431
-0.061334115244708554 -0.0240487432244653 0.08012897893332507
-0.06207457138155764 -0.024043622146881712 0.07937955168892591
-0.06251032866345063 -0.02406135382405741 0.07839967699996833
0.013357068196866162 -0.029819406435344597 0.019256282400945957
0.011044457642135519 -0.02970788959745223 0.01939673910464984
0.008916464538744062 -0.02960984918178427 0.019407180117766265
0.006580493530221387 -0.02949564851620152 0.01958950618021077
0.00454124045412313 -0.02940347482415372 0.019553322199830248
0.002438236992657661 -0.029306062571677116 0.019577228907770472
8.435142054341593e-06 -0.02918333650901638 0.019869168877306664
-0.0018576520814367337 -0.02910312809113594 0.0197285720133466
-0.004006881606032242 -0.02900091158715974 0.019822173419506373
-0.02328271373426327 -0.02758498164811402 0.033627244411653545
-0.027733404842969767 -0.02730220963178989 0.035667787557538244
-0.033165445767588064 -0.026942646188735816 0.03853337043155619
-0.038626695345275075 -0.026579277452897412 0.0414629817865399
-0.041110387337890075 -0.026444632349597836 0.04200028102494191
-0.04364101962926731 -0.026305765516079382 0.04259129346494095
-0.046169774300382715 -0.026166441595980493 0.043196415850755066
-0.0489159252478667 -0.026009587518611457 0.043997780638124984
-0.05162934891225629 -0.025854602751378505 0.04478959515206271
-0.05458027689574374 -0.025680370554916496 0.04579829235249694
-0.057269263398795955 -0.025525900895489024 0.046605850620997535
-0.057304196203911584 -0.025579180463064264 0.045180345346824746
-0.057337613642526986 -0.025632813681438243 0.04374746035325533
-0.05717543661010471 -0.02570211144251064 0.04214080772010126
-0.056906161971536307 -0.025780181699875213 0.0404339337815936
-0.05667975426381311 -0.02585520145417094 0.038755206250190855
-0.05646635017512802 -0.025929521634387873 0.03707915222245434
-0.056299907976679164 -0.026000435186802937 0.035435614339866084
-0.05614781809099728 -0.02607052017330988 0.033796493061217014
-0.056034034360631924 -0.026137856286443235 0.032183119034033314
-0.05593586780132148 -0.026204242770777143 0.03057579867742205
-0.055878253410512 -0.026267671104750506 0.028996984601297016
-0.05583493409100604 -0.026330234356196306 0.0274236038229837
-0.05582750109809681 -0.026390185212952808 0.025875309262512247
-0.05583725821331864 -0.026449017336369465 0.02433558611048997
-0.05588071459484423 -0.026505385535714614 0.022819699263755655
-0.05594078326214502 -0.026560660584564758 0.021312407963044344
-0.056033147940596995 -0.026613558528927765 0.019828370265481177
-0.05614843410236203 -0.026664827840718164 0.018359317621565785
-0.05628848775673906 -0.02671430642270772 0.016907260327719553
-0.056453415692772735 -0.026761973219982745 0.015472617994294557
-0.05663634867899364 -0.026808379974207194 0.014049246212474942
-0.056850425490919454 -0.026852436324569767 0.012649807637576727
-0.05707742083532441 -0.026895629886859916 0.011257383259696774
-0.05733919782854735 -0.026936146453502174 0.009893039537049508
-0.05760875338748578 -0.02697620592671689 0.00853129814453546
-0.05792019128892367 -0.027012971413768055 0.007205200732197992
-0.05823160498412827 -0.027049910065015993 0.005874634431776049
-0.05827075691040001 -0.027109749062516827 0.0042737275427251475
-0.0583100824421966 -0.02716985339504058 0.00266572199414139
-0.043588079968296445 -0.02521436091542864 0.09829038747411004
-0.04433587378297632 -0.025208965949960575 0.09753349078017662
-0.04508334766417943 -0.02520357329265709 0.09677691791422605
-0.04583050181718418 -0.025198182942036965 0.09602066866848685
-0.046577336447088835 -0.0251927948966206 0.09526474283536204
-0.04732385175881787 -0.02518740915492954 0.0945091402074334
-0.04807004795711878 -0.02518202571548672 0.09375386057745866
-0.04881592524656897 -0.025176644576815968 0.09299890373837622
-0.04956148383156633 -0.025171265737442744 0.09224426948329803
-0.05030672391633395 -0.025165889195893753 0.09148995760551293
-0.051051645704925264 -0.025160514950696617 0.09073596789848945
-0.051796249401214745 -0.025155143000380555 0.08998230015586942
-0.05254053520890273 -0.025149773343476064 0.08922895417147064
-0.053284503331520516 -0.025144405978514514 0.08847592973929047
-0.05402815397242067 -0.02513904090402891 0.08772322665349858
-0.054771487334782654 -0.025133678118553476 0.08697084470844049
-0.05551528845890841 -0.025128257403291627 0.08621934727051364
-0.05625798592627368 -0.025122899217121582 0.08546760867157618
-0.0570003667251926 -0.025117543315555164 0.08471619059597948
-0.05774243105815502 -0.025112189697131276 0.08396509283877432
-0.058484179127474 -0.025106838360390415 0.08321431519518291
-0.05922561113529162 -0.025101489303874198 0.08246385746060311
-0.05996672728357616 -0.025096142526125603 0.08171371943060607
-0.060706756530946704 -0.025090858063618618 0.08096332559382871
-0.061448012808572816 -0.02508545580110837 0.08021440166752489
-0.06218818258836212 -0.025080115850931884 0.07946522152645291
0.015402287381538593 -0.031210833212401857 0.019330700912421783
0.012847244691113813 -0.031075881057060377 0.01964489205448866
0.010876771069228852 -0.03098634578705833 0.019525247446360416
0.008663710904074473 -0.030877308903537935 0.019601925427372546
0.006299380689427869 -0.030755860496636242 0.01980726921072512
0.004450540107330925 -0.030674706380495326 0.019623961051225214
0.002258460122945005 -0.03056597673136171 0.019717994687290297
0.00035135051603912837 -0.030479440109368025 0.019599223282609712
-0.0018576520813977093 -0.030368481486405828 0.019728572013315737
-0.020707628812081602 -0.028928378655991988 0.03311047945592799
-0.024705002554338995 -0.028670525137129286 0.034764976503907585
-0.02922524658377945 -0.028369637094540788 0.036867538298995195
-0.03477514270112958 -0.027984712296737425 0.03983481613574191
-0.03913333086794196 -0.02769409778404555 0.04187478419286483
-0.041683477460706886 -0.027548147056961136 0.04246858209388921
-0.044206885899571724 -0.027403726615633613 0.043056154054857854
-0.046937263830657217 -0.027241902879897556 0.04383026487467229
-0.04967260505227433 -0.027078971818724547 0.04462602375416552
-0.052567985310589704 -0.026902301461946148 0.045573048311926545
-0.05558273971371025 -0.02671511950769169 0.04663945857262142
-0.05819010167770933 -0.026560428827076207 0.047382621097921684
-0.058226852127157114 -0.026615710697784026 0.04596277056901554
-0.05826292983930431 -0.026671291011150275 0.04453629306814022
-0.05808299110692017 -0.026744896116943185 0.042918588378571765
-0.057817217727600234 -0.026825906886403947 0.041218838768520005
-0.05759742787452771 -0.02690347485766634 0.03954998481300526
-0.057387255990078045 -0.026980590191040765 0.03788093548137461
-0.057227998716919526 -0.027053820609934037 0.03624791013875267
-0.05707799338731606 -0.027126607498673933 0.03461489892577885
-0.05697031255968921 -0.027196189282398284 0.03301122746372093
-0.05687479898524189 -0.027265065499265884 0.03141061830813702
-0.056822167229880816 -0.027330657980759177 0.02984064195263425
-0.056780362524402106 -0.02739563631888151 0.02827304942066966
-0.05677766032331405 -0.027457616622536023 0.02673348215365523
-0.05678950108380537 -0.027518650238921007 0.025200147802093786
-0.056836569916555946 -0.027576981938876297 0.0236920852380344
-0.05689930969837004 -0.027634250513098303 0.0221918096436039
-0.05699416746099045 -0.027689051886305563 0.02071466986178655
-0.057110960037241976 -0.02774223599637395 0.0192516454220224
-0.05725324476550997 -0.027793488257004017 0.017806327403529942
-0.057419401187807084 -0.027842933963467632 0.01637752819564514
-0.05760432780514663 -0.027890997915433716 0.01496075359317256
-0.057818488294463566 -0.02793677168868273 0.013566145585625244
-0.05804722859491085 -0.027981501205801 0.012180155220965938
-0.05830968213442428 -0.028023527961532364 0.010821262983902069
-0.058579872267421285 -0.028065080216031577 0.009464961719306109
-0.0588916990627833 -0.02810321541274435 0.008144095780037552
-0.05920350539099167 -0.028141529912539927 0.006818791095721366
-0.05924642516696538 -0.02820344534359556 0.005226468458850664
-0.059287788905788286 -0.028265786207330047 0.003625410543582064
-0.04520351965103775 -0.026244386284442464 0.09685679229808336
-0.04595038247844274 -0.026238775328125234 0.09610079484229009
-0.04669692602086445 -0.0262331667705017 0.09534512057651343
-0.04744315048300024 -0.026227560610034117 0.09458976929355042
-0.048189056069377345 -0.02622195684518569 0.09383474078637832
-0.048934642984343246 -0.026216355474421305 0.09308003484814809
-0.04967991143207123 -0.02621075649620715 0.09232565127218748
-0.05042486161656462 -0.026205159909010355 0.09157158985200395
-0.051169493741647754 -0.026199565711299753 0.0908178503812779
-0.05191380801097145 -0.02619397390154544 0.09006443265386618
-0.052657804628016835 -0.02618838447821849 0.08931133646380462
-0.053401483796086946 -0.026182797439791634 0.08855856160530151
-0.05414484571831146 -0.02617721278473889 0.08780610787274101
-0.05488789059765126 -0.02617163051153524 0.08705397506068563
-0.05563061863688962 -0.02616605061865731 0.08630216296387
-0.05637303003863681 -0.02616047310458304 0.08555067137720368
-0.05711512500533511 -0.02615489796779129 0.08479950009577439
-0.05785690373924973 -0.026149325206762577 0.08404864891484132
-0.05859836644247313 -0.026143754819978746 0.0832981176298378
-0.05933951331693066 -0.026138186805922524 0.0825479060363751
-0.060080344564370836 -0.02613262116307833 0.081798013930235
-0.06082086038637197 -0.026127057889931738 0.08104844110737447
-0.06156106098433939 -0.026121496984969725 0.08029918736392305
-0.061803268199523975 -0.02615646378296082 0.07917497240331559
0.01518183250801286 -0.032493295564402586 0.019497837434254817
0.012877750180046221 -0.03237320390397672 0.019621639443827443
0.010726672987994068 -0.03226514397306225 0.019640276665331635
0.008381336052586896 -0.03214067581694257 0.019819493724460957
0.006377046100565331 -0.032043745786687644 0.019747105984998015
0.004176429819285288 -0.03193021472770178 0.019837442438980613
0.0019162245683446155 -0.031811276781112126 0.019985966060358074
0.00017313606126451164 -0.031734657794965856 0.019739515059028767
-0.01861688078396251 -0.030242943073741077 0.0329923359699012
-0.022072851684870554 -0.03002018209251196 0.034196748178980774
-0.02611608916243613 -0.029747518683190085 0.03589374760603614
-0.03070556156928278 -0.029428058595194536 0.03805801913410284
-0.036370094989372714 -0.029017233194818637 0.041124340741686416
-0.03971181385213457 -0.028799490967388222 0.04234498549982135
-0.04225464964630754 -0.028647968676897406 0.04293531591885036
-0.04494375256312022 -0.028483466765678173 0.043661491905659544
-0.0477012639924464 -0.028312474610846503 0.04446123212271985
-0.05054065879157604 -0.028133809640148572 0.04534673650861332
-0.05358138733198997 -0.027937292015615275 0.04641890621525119
-0.056732423787408004 -0.027730540758501294 0.04760415809990298
-0.05910574858130013 -0.027589124439462848 0.04815501240515063
-0.059145115389734826 -0.02764631522174164 0.046741470753072
-0.05918300302288698 -0.02770388413569934 0.0453206561105533
-0.05898550417002374 -0.027781888158722814 0.04369204849249558
-0.05872319731377945 -0.027865805559390663 0.04199937046541391
-0.058510785229605566 -0.02794579781292873 0.04034102515406879
-0.05830381556451175 -0.028025675365640202 0.03867893470198319
-0.058149995899217766 -0.02810131076654608 0.037054872653616344
-0.05800372819648514 -0.028176628651155274 0.03542939787006538
-0.05790124430268395 -0.028248478849308426 0.033834607122260385
-0.05780835502391818 -0.028319815284027054 0.03224065880610549
-0.0577606497404195 -0.028387528397945404 0.030679444873908168
-0.05772119039013207 -0.028454824800789265 0.029118361514630986
-0.05772231708534503 -0.02851886643446525 0.027586685283293277
-0.05773706838916187 -0.02858200027405144 0.026060464448002252
-0.05778685579755738 -0.028642334517791843 0.024559388118826297
-0.05785138009804869 -0.02870164184228635 0.023065288222646307
-0.0579495546699752 -0.028758242027795335 0.021595775062742184
-0.05806783402848614 -0.028813317621025077 0.020138733481657345
-0.05821232121047748 -0.028866315785278478 0.018700100702937317
-0.05837882931907867 -0.028917595194702213 0.01727629562839994
-0.05856572188052295 -0.028967290116487913 0.015866060093889356
-0.05878168306662457 -0.029014612512189866 0.014477875607543045
-0.05901128239261788 -0.029060929946697706 0.01309745228823056
-0.059274399841920844 -0.02910444827033731 0.011743970945555293
-0.05954521224771914 -0.02914747487100866 0.010393069282134959
-0.05985741779060594 -0.02918696283714229 0.009077396115408365
-0.060169606540061094 -0.029226636145223462 0.007757314046733299
-0.060215382837794484 -0.02929066815436048 0.006172656482064942
-0.06025962530650303 -0.029355139136227712 0.004579337208104051
-0.04681643060844276 -0.027272799305330716 0.09542544119731267
-0.04756236444579198 -0.02726697304063761 0.09467034109294023
-0.04830797964478223 -0.027261149264734247 0.09391556354242134
-0.04905327640953644 -0.027255327976026374 0.09316110833912261
-0.04979825494400797 -0.027249509172920718 0.09240697527659028
-0.050542915451971426 -0.02724369285382575 0.09165316414854369
-0.0512872581370275 -0.027237879017151283 0.09089967474887833
-0.05203128320260758 -0.027232067661308132 0.09014650687166864
-0.05277499085196502 -0.027226258784708825 0.0893936603111618
-0.05351838128817987 -0.02722045238576725 0.08864113486178032
-0.05426145471416327 -0.027214648462898283 0.08788893031812525
-0.055004211332649044 -0.027208847014518506 0.08713704647496975
-0.055746651346199605 -0.027203048039045746 0.08638548312726288
-0.056488774957203114 -0.02719725153489929 0.08563424007012738
-0.05723058236787992 -0.027191457500499408 0.08488331709886388
-0.057972073780273414 -0.027185665934268084 0.08413271400894409
-0.05871324939625516 -0.02717987683462864 0.08338243059601413
-0.05945410941752899 -0.027174090200005375 0.08263246665589716
-0.06019465404562274 -0.027168306028824297 0.08188282198458716
-0.06093488348189263 -0.027162524319512764 0.08113349637825157
-0.061674797927527836 -0.027156745070499096 0.08038448963323466
0.017195955339551205 -0.033892844251387715 0.019604699049909968
0.015068144772880598 -0.03378337943705731 0.01958402909933893
0.012943470280947555 -0.03367372103009973 0.01957154472407857
0.010647597552340682 -0.033549010829138 0.01970087694435052
0.00859567319189286 -0.03344460748185706 0.01965434811692568
0.006370192023814614 -0.033324909033830966 0.01975241547040041
0.00412776484531624 -0.03320324964937464 0.01987534348330866
0.0021315937144814057 -0.033102237861784595 0.019817331431281948
-0.016693140846300303 -0.03155137684526155 0.03301677672632719
-0.019994939503896525 -0.031333717386874 0.034082973606269384
-0.023462282394972167 -0.031100807973018327 0.03530227838457212
-0.027516105385470058 -0.03081606290148244 0.03701366317039895
-0.032172599337536634 -0.03047774172941031 0.0392378223277397
-0.03772587544520478 -0.030059894578379643 0.042220494069244496
-0.04028835387980373 -0.029901171455705797 0.04281360753699526
-0.04293522364343083 -0.029734383683356652 0.04349144752479056
-0.045715161779790014 -0.02955521371601061 0.04429520655229424
-0.04849813437905637 -0.0293749993597123 0.04511934600807882
-0.05156343789699497 -0.02916915505048524 0.04619591198345313
-0.054633809902599195 -0.028961966087698184 0.0472973334634591
-0.05810093964680618 -0.028718803435185968 0.048752479306434504
-0.06001706145123675 -0.02861196484903877 0.0489237477507784
-0.06005820105247345 -0.028671108713030007 0.047515780259517804
-0.060097877629211705 -0.028730642925295258 0.04610058736216205
-0.059883017690547324 -0.02881313570097045 0.04446122396287061
-0.05962414303689495 -0.028899926279319085 0.04277556532101584
-0.059418204343631764 -0.028982360191013475 0.04112692250460326
-0.05921522996952905 -0.029064893883636835 0.03947245429977314
-0.05906762040116742 -0.02914281409806703 0.03785800805360534
-0.0589233857378198 -0.02922077739780621 0.036238549788199015
-0.05882687525426816 -0.02929477660474433 0.03465329839859088
-0.058736581942646804 -0.02936854412533284 0.033065961093198704
-0.058693747685520714 -0.029438334996298336 0.031513435143728286
-0.05865660747396312 -0.029507921798723625 0.029958812146104297
-0.058661519044125865 -0.02957398819104336 0.028434961697333005
-0.05867830081282116 -0.02963926837343681 0.026915029519175016
-0.058731620773278204 -0.029701497684869443 0.025421652203240996
-0.058797907805062444 -0.02976281911199139 0.02393368164904175
-0.05889935893737386 -0.029821184204010427 0.0224717313996331
-0.05901825352085177 -0.02987820686088395 0.02101983777651406
-0.05916576711576488 -0.029932844964758183 0.019588626843941637
-0.05933347435444075 -0.02998586264077041 0.018170582380746203
-0.059522307522040796 -0.03003716216656301 0.016766838684000307
-0.059738332853557174 -0.03008616713331696 0.015383410351311189
-0.05996963328518973 -0.0301339732766057 0.014009323041976385
-0.06023340219630996 -0.030178964797804027 0.012661212435747582
-0.06050482475865976 -0.03022344755823382 0.011315670279676115
-0.06081739906256228 -0.03026427158240625 0.010005151596641115
-0.061129960182551846 -0.0303052868890364 0.008690253558743644
-0.06117941873357857 -0.030371321758381878 0.007114038387591448
-0.0612256443511231 -0.030437971261931703 0.0055275537231690985
-0.0484268187733754 -0.028299603760961987 0.09399632890678206
-0.04917182561193684 -0.02829356286795791 0.09324212427266074
-0.049916514456902594 -0.028287524553408487 0.09248824155802743
-0.050660885511824905 -0.028281488815663183 0.09173468055681738
-0.051404938980080916 -0.028275455653073007 0.09098144106314063
-0.052148675064878636 -0.028269425063989984 0.090228522871286
-0.05289209396924849 -0.02826339704676793 0.08947592577571464
-0.05363519589604765 -0.028257371599762052 0.0887236495710631
-0.05437798104796482 -0.028251348721328597 0.087971694052146
-0.055120449627511225 -0.028245328409825594 0.08722005901394966
-0.055862601837026016 -0.028239310663612453 0.0864687442516354
-0.05660443787867997 -0.028233295481049612 0.08571774956054201
-0.05734595795446734 -0.028227282860499286 0.08496707473617948
-0.058087162266210246 -0.028221272800325096 0.08421671957423196
-0.058828051015563765 -0.02821526529889164 0.08346668387056097
-0.0595686244040064 -0.028209260354565325 0.08271696742119833
-0.06030888263284534 -0.028203257965713942 0.08196757002234956
-0.06104882590322103 -0.028197258130706275 0.08121849147039695
-0.061096055333191956 -0.028252025329460567 0.07995043491662113
0.017119547927286594 -0.03518969568167694 0.0196623149381544
0.014965171320861781 -0.03507366538355516 0.01966209779583139
0.01261743144686811 -0.034940070723358786 0.019820065706189993
0.01025501694250014 -0.03480461443571307 0.02000173516026993
0.008412434950407222 -0.034714687912333154 0.019795532191752008
0.006065429686992196 -0.034579551032404225 0.01998849849622647
0.004253413359669556 -0.034491488203225396 0.019777486451364346
-0.015023872737958577 -0.032844256630960675 0.03325010847353349
-0.018027260209821316 -0.03264556617897448 0.03406700565248294
-0.02136261477913365 -0.0324162728958378 0.035165393468302
-0.02488012801509132 -0.032169636798716636 0.036430417519910885
-0.028906137867117043 -0.03187617070024381 0.03812559243632757
-0.033628403877751234 -0.031518635191190095 0.04040859167194033
-0.03830784617157956 -0.03116343210112318 0.04269101947438142
-0.040911506732007996 -0.030994759720854376 0.04332011731091556
-0.04371413199677754 -0.030807293264592597 0.0441279331314372
-0.04648305869073244 -0.03062208089193566 0.04492603583078092
-0.04952953875069782 -0.030410754632436157 0.04597115522298112
-0.052579943758108594 -0.030198150140733463 0.047039879016720965
-0.05601776948502979 -0.029949136086918574 0.048452485245239874
-0.05959400436821294 -0.02968632967829601 0.05000530942202369
-0.06092326089683142 -0.029629066047394088 0.04968816968203604
-0.060966152782875926 -0.029690140181478777 0.04828573611901066
-0.06100678545431859 -0.029751691723451844 0.04687543192854515
-0.06077557309678633 -0.029838686345005517 0.04522615029404076
-0.060520096734934414 -0.029928317068538088 0.043547459380150644
-0.0603213838665117 -0.03001306537322662 0.0419091480309523
-0.06012071854470302 -0.030098371800221423 0.0402608145956167
-0.059980075713636505 -0.030178450402219975 0.03865661920750868
-0.05983785352154214 -0.030259033865359417 0.03704313554758554
-0.059747250560534426 -0.030335133580117257 0.03546734122300227
-0.059659525242751144 -0.030411303431467942 0.0338865656254147
-0.059621507273727725 -0.030483129813488805 0.03234265406266296
-0.05958582256953959 -0.030555058853219817 0.030793690434464616
-0.0595953133107649 -0.03062303481800659 0.029278353945985935
-0.059614101925457075 -0.030690435586642507 0.02776466338677397
-0.059670912816825905 -0.030754525222105613 0.026278921275170508
-0.059738941080979324 -0.030817836429538944 0.02479703420044649
-0.05984278312630831 -0.030878013845796835 0.023341803713518072
-0.05996397692242861 -0.030936804004253127 0.021896588471937817
-0.06011363191985186 -0.030993131097566587 0.020471951898775653
-0.06028252140058876 -0.03104786582166918 0.019059625081734644
-0.060472418821823304 -0.031100826210769896 0.017661520644424167
-0.06069020537174841 -0.03115133499476542 0.01628442308202438
-0.060922331727093215 -0.031200687688226637 0.014915815489622175
-0.06118673983746015 -0.03124713428349866 0.01357303588917591
-0.06145876062204403 -0.0312930552620323 0.01223281357357281
-0.06177169385763159 -0.03133519885808992 0.010927411491392203
-0.062084617455750946 -0.03137753958039634 0.009617659309281101
-0.062137713747226264 -0.031445540015957105 0.008049814316630266
-0.06218589811731334 -0.03151434095944956 0.00647011120671559
-0.06223171720806897 -0.03158369730810982 0.004880938116425815
-0.050034690060156095 -0.029324803422380183 0.09256945017793405
-0.050778771885267526 -0.029318548578731844 0.09181613913842179
-0.051522536359694004 -0.02931229640277382 0.0910631493858241
-0.05226598368641616 -0.029306046892799927 0.0903104807146407
-0.053009114068241436 -0.029299800047105442 0.08955813291954648
-0.05375192770780912 -0.029293555863986676 0.08880610579539466
-0.054494424807581154 -0.029287314341741803 0.08805439913721008
-0.05523660556984711 -0.02928107547867043 0.08730301274019231
-0.05597847019672836 -0.029274839273073255 0.08655194639971828
-0.05672001889017014 -0.029268605723252766 0.08580119991133645
-0.05746125185194534 -0.029262374827512944 0.08505077307076908
-0.05820216928365962 -0.029256146584158788 0.0843006656739157
-0.0589427713867427 -0.029249920991497144 0.08355087751684631
-0.059683058362452746 -0.029243698047836303 0.08280140839580447
-0.060423030411881185 -0.029237477751485594 0.08205225810721029
-0.061162687735943966 -0.029231260100756187 0.08130342644765384
0.019515927921174625 -0.03663486731396233 0.019491757968399026
0.017076581577395666 -0.036489099203336955 0.019694714208594533
0.014725106976576974 -0.03635075017151842 0.019844101118680235
0.012775692571293462 -0.03624864155790459 0.019699432192751998
0.010472117090498445 -0.03611359895778971 0.019835358213560417
0.008133872913286266 -0.035974797621331954 0.02001016273597578
0.006209190650525276 -0.035873524878356544 0.019877134593388524
-0.013474391597960822 -0.03413160272909345 0.03358417875465236
-0.016367305809664 -0.03393636685558603 0.034302020234337816
-0.019351697481205687 -0.03373181466254242 0.03510961276195157
-0.022720023525516442 -0.033490702142983046 0.036239688086757205
-0.026286835630034255 -0.033230069349940584 0.0375496944636608
-0.030284393165407264 -0.03292810935279448 0.039228100775035135
-0.03507217700025478 -0.03255092624537902 0.041569685256357125
-0.03888876604206948 -0.032263170938529186 0.043160695258792514
-0.041698005714847 -0.03206881895816376 0.043959397738786765
-0.04448948060292435 -0.03187529946167515 0.04476150988770844
-0.04748036847893511 -0.031662124708356734 0.045745328375332794
-0.050557165928644454 -0.03143990025530224 0.04681984495489089
-0.05391611665493723 -0.031189968672075033 0.04814925370781603
-0.05738846641332451 -0.03092817673171801 0.04959656706605453
-0.061509931464929 -0.030603454020313982 0.051612963217351315
-0.06182438983521704 -0.03064047620391143 0.050448314401547456
-0.06186820773179641 -0.030703535146555255 0.04905069142472718
-0.06191139877460761 -0.03076693155631299 0.047646615426521155
-0.061663211360573955 -0.030858587167670277 0.04598686259915841
-0.0614119134640716 -0.03095094711217655 0.044315789302293185
-0.06121871941103163 -0.03103811191539861 0.042686312205783894
-0.06102279560047824 -0.0311259274440398 0.04104620466464981
-0.060887405392790805 -0.03120826911523021 0.0394507442371273
