# .PCD v0.7 - Point Cloud Data file format
VERSION 0.7
FIELDS x y z
SIZE 4 4 4
TYPE F F F
COUNT 1 1 1
WIDTH 767
HEIGHT 1
VIEWPOINT 0 0 0 1 0 0 0
POINTS 767
DATA ascii
-0.008601438182181509 0.0025726999860382674 0.019649906223062896
-0.006113338206413355 0.0025617636167776132 0.019951386337467902
-0.0034951036503673705 0.0025499223503663627 0.020368069936006317
-0.0052509509856423775 0.002566948660697415 0.017374866176560033
0.039771007847959394 0.002401997465011105 0.012990537345711761
0.04172509079764275 0.0023937067687905223 0.013138174371402467
0.04364256871729966 0.0023856359232490485 0.013263766403536548
0.045478276979296295 0.0023781046210169794 0.013325646693265025
0.04730607438723616 0.002370594995772685 0.013390479877635919
0.049121461435545744 0.0023631390401006236 0.01345407210688776
0.05092636013207402 0.0023557234872983927 0.013518095571471267
0.052730618395694706 0.002348278598449643 0.013591644920452728
-0.023108024290345974 0.003935523763484765 0.02170975515917828
-0.0204982981322695 0.003918370322665466 0.022015414669049327
-0.018195445947642275 0.0039041314551953297 0.022106405651673988
-0.01571046533792897 0.00388805714870031 0.022345840248362447
-0.013338365498010318 0.0038730185431205184 0.02251355904942942
-0.010837312493608475 0.0038566541307230545 0.02279160886524534
-0.008267880680535855 0.0038395499374589558 0.023135482506904725
-0.005793710862000256 0.0038233104025222797 0.02342070327638407
-0.0035278878322759777 0.0038090553374790733 0.02355904934967684
-0.0013367645964632024 0.0037954775979323362 0.02365154155571264
0.0010030329319842823 0.0037803710354130417 0.023871289194065837
-0.0030755463862465193 0.003828849963257753 0.019078213913643394
0.04112849735681068 0.003596836516095563 0.012599338032852292
0.04307364395889357 0.003584452685952445 0.012747227433524133
0.044984253386020745 0.0035723777619596922 0.01287476333890486
0.04680349134512546 0.00356121583391497 0.012929384225862872
0.04862317062847166 0.003549998442397586 0.012994523750396891
0.05043232033582046 0.0035388419412654914 0.013060086671395299
0.05222924420959357 0.003527764837783235 0.013124409109479984
0.05401760210866219 0.0035167285572609446 0.013190810894518568
-0.025659817675636354 0.005247648630109983 0.024708506559273202
-0.023044898103729894 0.00522485301005798 0.024996680846054664
-0.020716998979282808 0.005205663661641043 0.02508831798668587
-0.018192998413301353 0.005183860919776212 0.025336559482884102
-0.015375846669831605 0.005158171942017812 0.025815844320944747
-0.013083224688178352 0.005139181238779115 0.025919855567428873
-0.010737049238197849 0.005119414912540746 0.026075883167092417
-0.008302653342402211 0.005098416429350008 0.026310795733537617
-0.005854251217376483 0.005077146970019472 0.02656948647108215
-0.003360240580552565 0.005055191360497664 0.026876299274762816
-0.001370401472944871 0.005039753403883178 0.026810552234515672
0.00013508411355644956 0.005030614001518561 0.02638134943886339
0.0015046697514472518 0.005023225242332695 0.025852648246043886
0.003209255822108459 0.0050113850376621635 0.025589530153350803
0.00431212140362508 0.005007450696889117 0.02486277795092462
-0.0029711584067148578 0.0051146205532392585 0.017536890553627116
0.042490681976619704 0.0047874659959484585 0.012217943767396267
0.044416692779687905 0.004771167639900637 0.012356764535873366
0.046321389485761144 0.00475509631769445 0.012487079069423423
0.04813156574898131 0.004740289795298946 0.01254114148605362
0.0499368084407672 0.00472548575345694 0.012600713034394972
0.05173884736915507 0.00471065961229422 0.012667403200933736
0.053528728573631 0.00469593883175202 0.012732846824359989
0.055300435103982803 0.00468141008777758 0.012791269619078838
-0.028115588929037427 0.006558379216957304 0.027776354136810788
-0.02605539752340874 0.006538925011768111 0.027645494048156416
-0.023650572126795777 0.006513870521971038 0.027773034839492117
-0.020440771739772268 0.0064757923662185825 0.028497305988678334
-0.017805767313004484 0.006446801595683421 0.028820835279136203
-0.015375672524222894 0.006420993225398428 0.02900833450712187
-0.01306003995782512 0.006396926306976477 0.029124176554580383
-0.010466682864055554 0.0063682645197912615 0.02945803240809236
-0.008079200702642175 0.006342822064868649 0.029652595970781348
-0.005751194544679872 0.006318239884871401 0.029815254983252937
-0.0038680769195698628 0.006300800116735172 0.02965473910260158
-0.0022313534226522935 0.0062873083026171615 0.029316164404224854
-0.0006567191491274604 0.006274775178200081 0.028937040913697032
0.0009215079006693605 0.006262130361068056 0.02856698071801761
0.00238667321119862 0.006251288995016137 0.02811618667077742
0.00383377567738441 0.0062406990315677785 0.027656881604397
0.005344917916896397 0.006229007956557051 0.02725281725951001
0.006863255737905305 0.00621714827080425 0.026860323095629468
-0.0032085287906553073 0.00639720729865581 0.01735003077912456
0.04376836522708777 0.005975378735329126 0.011765051699443252
0.045756114588889674 0.005953849347069472 0.011968466670745415
0.04765308915965788 0.0059338281331834 0.012099866778350177
0.049456980151448504 0.005915366352211392 0.012155879179546136
0.05124878555662571 0.005897035012882505 0.012210709508375384
0.05304106397277236 0.005878611280127166 0.012276015252433714
0.05482393911820821 0.005860270867429406 0.01234257233194569
0.05657913742937154 0.005842341391277798 0.012393014850229922
-0.03642403713571157 0.007883593033411209 0.03633005034229064
-0.035290117858101266 0.0078781438473651 0.03552125344338486
-0.03402750814718197 0.007870244080468094 0.03480308457628739
-0.030923347334863904 0.007875351101760082 0.03059520273829114
-0.027857808969350917 0.00783299402915957 0.031159174307315907
-0.025179321084799033 0.007797857396581206 0.03146550203259574
-0.02290822415792354 0.007770374985484967 0.03149523672672894
-0.020903627179178208 0.007747891485990694 0.03134485045719371
-0.018411355911743366 0.007715941820145878 0.03155578795262981
-0.015397658175940854 0.007673817301845691 0.03215838619909933
-0.012642468083048586 0.007636507898066573 0.032589638622338934
-0.01038381436510849 0.0076086471202923885 0.03267187513060593
-0.008108779417758116 0.007580353171580033 0.032777718485738405
-0.005991813075911123 0.007555011324883655 0.03277801073408343
-0.004432056320465783 0.007540407892649789 0.032373175095014084
-0.0029581006360835937 0.007527416737874978 0.03191006465656193
-0.0014539476859163347 0.007513781042793186 0.03147514102450216
2.2849911532618616e-05 0.007500623855676486 0.031025174954795343
0.0015587678954176454 0.007486251101276216 0.030625781513325567
0.003128874658155534 0.007471145412080354 0.030258619092125738
0.0046496104638689695 0.007456948936874375 0.029859767594814124
0.006084313405012254 0.00744439150663979 0.029400252396253324
0.0074417878349127276 0.007433309295559789 0.02888589241050954
0.009135037663303813 0.007415520362230013 0.028639134541945777
0.00853644833711048 0.007443207830614422 0.026595766246199692
0.008136370945454052 0.007467059456868758 0.02469774132537711
0.044982219341526186 0.0071610133538855016 0.011258455182915461
0.047090088853835754 0.007132547443413462 0.011580640130835651
0.04898120238065562 0.007108564418007086 0.01171480043420231
0.05077793022375543 0.007086484954782751 0.011771914533677375
0.05256264067178007 0.0070645612642693 0.011827840690955105
0.05433899144268367 0.007042716045048365 0.011885916425273924
0.05611489689268628 0.007020779867181581 0.011953579289613714
0.05785893828715921 0.00699942841755909 0.01200099701682239
-0.03620442111481653 0.009155837894208636 0.03962602391282699
-0.03559175239684914 0.009160829188944243 0.038469903964718666
-0.033951201819577226 0.009143301416972732 0.038010636927499675
-0.03166976089494794 0.00911162125947429 0.03799538733186414
-0.028371985722893567 0.009057436941715598 0.038689480399817455
-0.030705118347689853 0.009127256793270387 0.035511394763375836
-0.02994093705590334 0.00912889141984728 0.034461175815864
-0.027857835830103705 0.009101317578456468 0.034331854737725265
-0.025629664756883275 0.009070411374895272 0.03431403846679576
-0.022662347096312818 0.00902293937136875 0.034829109376813217
-0.020006260801155418 0.008982209409410222 0.035139708295001126
-0.01768685318231694 0.008948831268972291 0.03522412196334618
-0.01577058636298334 0.008924337587362345 0.0350307576643164
-0.01327547565134285 0.00888676276948191 0.035263931737174514
-0.010573511441779038 0.00884438473686023 0.035660506053641905
-0.008273345162362222 0.008810878818291668 0.03577875556811144
-0.006636937007439614 0.00879221099263587 0.035421720373297605
-0.005235777937891595 0.008778784794469889 0.03489771021108379
-0.0036372033766853273 0.008760829738095919 0.03452493378161181
-0.002131035112521884 0.008744897895154228 0.03408961667416904
-0.0007179546528160996 0.008731017452777313 0.033590165515659576
0.0007636460777207255 0.00871551662268453 0.03314734311420153
0.0022670733947390276 0.00869945205812833 0.03272661934203147
0.0037563540373257154 0.008683643844604669 0.03230087726627012
0.005336569522346235 0.00866568259455721 0.0319505089142047
0.006848569202055121 0.008649213959372421 0.03155405341918727
0.008297715652487658 0.008634123852799885 0.031114856324686524
0.009600796437323922 0.0086223424279509 0.03056736214265554
0.011195536310527887 0.008603762186545785 0.03025251060494899
0.012664898893641197 0.008588010122875429 0.02984571397443697
0.008916400158233584 0.008693443105696584 0.02531508019825529
0.04625351770591052 0.00834202788161858 0.010809112961040646
0.048423198270010515 0.008307178870794353 0.011197492211479143
0.05030483581132922 0.008279338260372502 0.011331032937487495
0.0520944384834664 0.008253665566475589 0.011389241003198214
0.05387209147682831 0.008228173729742296 0.01144625532781196
0.055638797549418084 0.008202838873656531 0.01150291855388419
0.057401622808430086 0.008177484629316662 0.011565861396330368
0.059138044189864014 0.008152677803482979 0.011613553057719772
-0.035123659890481884 0.010415950151562776 0.04191229820250947
-0.03327074242589517 0.01039059069138214 0.04159778833036626
-0.029881537940978364 0.010326706832565959 0.04232920234585741
-0.028162546803175315 0.010304421786909468 0.04194471854769255
-0.02512303161590801 0.010248887291924002 0.04246938946282092
-0.02319538898456941 0.010221104795599813 0.04224676519768539
-0.02508917094121943 0.010289557866436162 0.039391971430015216
-0.024561185778790406 0.010297105802814682 0.0381991030958197
-0.022444958726689945 0.010264477802826253 0.03811356939710364
-0.02040705512045954 0.010233703613243298 0.037982945135425994
-0.017573292985161026 0.010182574116941361 0.03842388085420728
-0.014848438906901407 0.01013400930003392 0.03880309137293647
-0.012523824800633465 0.010095460560300471 0.0389113413543144
-0.010861702701902787 0.010073696817634885 0.038555703269311015
-0.009248472128750407 0.010053096434541097 0.03817145826145457
-0.007617158418322445 0.010031946647021275 0.037806689242301295
-0.005893557406258687 0.010008334481728238 0.03751581392012032
-0.004328538748539945 0.00998871387328068 0.037115861217667856
-0.0029854326303465073 0.009974746186900411 0.03655824309441075
-0.0013963012908068673 0.009954349662876973 0.03618749531032839
0.00010581050490471311 0.009936126119478469 0.03575818661635238
0.0015396494317312381 0.009919601711224172 0.035283359883473864
0.0029331894865011754 0.00990405818612695 0.034783312281027656
0.004510838963416197 0.009883641996588956 0.03442771656415172
0.00592876491052563 0.009867319408214201 0.033956783334274376
0.007487016158140736 0.009847248443349178 0.0335985259635892
0.009004238940263587 0.009828170841308327 0.033214985303015754
0.010483184030367798 0.009810020471628607 0.03280782138354732
0.011791318030025921 0.009796300616316448 0.03227337468546204
0.013246897600153018 0.00977862329302206 0.031858732092020337
0.015062021788413926 0.00975134236790615 0.031732747378252046
0.015409653345794638 0.00976291814008164 0.030454038507057135
0.04975901852517317 0.009477623286759166 0.010822380140016519
0.051624012079341475 0.00944616967479079 0.010948557727656738
0.053406527296963435 0.009416928016720005 0.011007852086802272
0.05517716008093526 0.009387892056083496 0.011065946976148489
0.05693690736414192 0.009359034602800778 0.011123684709539672
0.058685869221827114 0.009330354015774455 0.011181068570469466
0.06038207177231897 0.00930306180644957 0.011197651781211404
-0.03000711496201186 0.011574560021315137 0.04533210890347378
-0.027210960508573523 0.01151925718825537 0.04567064825457828
-0.02516735530236136 0.011484905972511976 0.045515323912080186
-0.02229081344846856 0.011426933554196883 0.04593526180929175
-0.01948040703143661 0.011370595512258688 0.046325530955633076
-0.017914716086396887 0.011349263653421683 0.045875569675366934
-0.019395730242097342 0.011414262715831569 0.043326095368649786
-0.019318628090103707 0.011435241230471663 0.04184170633003459
-0.01726566224493209 0.011400033306416257 0.04173209260687272
-0.015373838242366766 0.011369280468819432 0.041518802542785616
-0.013004575390968498 0.01132474921390003 0.04165110055695759
-0.011151348598144595 0.011294822414112267 0.041428978492029644
-0.009646493437016623 0.01127477573603018 0.04096621132865097
-0.008385593081006448 0.01126166578634958 0.04033373516582206
-0.006995969041482641 0.011244790554860147 0.03979778226030661
-0.00541640317808717 0.011222358083735737 0.03940434143791921
-0.0035777508202624597 0.01119233211591243 0.03920617103769303
-0.0020681163144440906 0.01117172674922167 0.038774792451205575
-0.0006935220212666571 0.011154961558380938 0.03824944707064615
0.0007245997998001075 0.01113685858751676 0.03776102615831883
0.0023415705488422645 0.011112875308105934 0.03742594677744049
0.003709844395698325 0.011096066971098783 0.03691099774752604
0.005108059215105931 0.011078310551979576 0.036423297820593725
0.006651078434732061 0.011056225871428895 0.03605032610507353
0.008073273262317826 0.011037605109280263 0.03559142088669459
0.009599514133961318 0.011015836562177726 0.03521746066440601
0.011127025250245837 0.010993938542681724 0.03485058068310137
0.012601963701771357 0.010973505296857948 0.0344491262806651
0.013956289930160681 0.010956566051823895 0.03395948872732263
0.015315648282681726 0.010939405114363263 0.03347856952118344
0.016994065753085208 0.010912658757262814 0.03325366710536504
0.01778460676495991 0.01091232563426607 0.03233364896639007
0.01655132988892649 0.010972586669560786 0.02980343149044956
0.02581108043962843 0.011123500810843841 0.008750781222246373
0.030973145724455198 0.011111022654660392 0.003427141163512948
0.05109026101677949 0.01064405667074084 0.010448553551634487
0.052938753660224214 0.010609078541207021 0.01056736828827437
0.05471421888072009 0.010576292002036405 0.010627741326763751
0.056472614816777233 0.010543905392332506 0.010681910409118422
0.05818206600308495 0.010512953085839723 0.010699204044269106
0.059880648751580334 0.01048220991512356 0.010715568259113406
0.061565053981226414 0.010451784927830847 0.010727708347615827
-0.025056991493481284 0.012706488718881062 0.04864068636061292
-0.022755661241440128 0.012660170408444964 0.048665114075800264
-0.019165893696089398 0.012573386235662854 0.04957146422704495
-0.017619795112332637 0.012550271320519384 0.04910977598084082
-0.016334716463849208 0.01253525618216814 0.0484752801972545
-0.015155401937583357 0.012523506831246993 0.04777173172358046
-0.015097867050034575 0.012547063633098874 0.046295885933339054
-0.014812331777314003 0.01256351587590539 0.04497274474640167
-0.013544067623196099 0.012548937589727381 0.04433219023857515
-0.012259465187244634 0.01253378181505055 0.043706663567444626
-0.010630562622498674 0.012507624602861199 0.043328039571688015
-0.008810314768396721 0.012475268225814701 0.043091715960015264
-0.007350779355745074 0.012454287150845157 0.042605714513760995
-0.0060810622784161494 0.012439288170872437 0.04198856063837708
-0.0047559559445941035 0.01242245302824011 0.04141508839311708
-0.0031197611338527054 0.012395562143761628 0.041071603265784795
-0.001416628195241909 0.012366406828641404 0.04078362099972399
8.711760124768819e-05 0.012343557755424797 0.04035652549560925
0.0015110829443494844 0.012323190788937805 0.039876228093041866
0.002885399294851876 0.012304346120636163 0.03936415827836187
0.004543930062083923 0.012276204182345422 0.03906879188800483
0.0059232054077279495 0.012257021417642037 0.03857100998136276
0.007306596023576417 0.012237624288156229 0.03808112979400968
0.008745275314961332 0.012216341152664055 0.037638028735536455
0.010245551135321274 0.012192953795186137 0.03724722557616361
0.011693550377353312 0.012171181377897218 0.03682224702538628
0.013230991542050652 0.012146379160993133 0.03647167534088663
0.014739700690054924 0.012122417736209756 0.036105116393735925
0.01615306971924052 0.012101499578192038 0.03567037525153682
0.017463524219224924 0.012083894465330832 0.03516036224013913
0.018786266182591882 0.012065807339805256 0.03466450093628193
0.019739416174460178 0.012059912381418604 0.03388074466201452
0.01929275597144342 0.012100561132729754 0.03198470567604522
0.02405694150859594 0.012310621279487542 0.01375802187309072
0.025354160128768233 0.01229323299423124 0.01325082953241663
0.026339050086857607 0.012286526371126795 0.012477735721472094
0.027143824443206788 0.012286008122886867 0.01154960309870584
0.027916578253156576 0.012286595474965972 0.010593582744057417
0.028674458050202967 0.012287701230921643 0.009624319207978127
0.029411587983331933 0.012289533076857371 0.008636407932411883
0.030160849944532497 0.012290950540033282 0.007658793408695352
0.030892452036505202 0.012292990877867966 0.006665014695052096
0.03155506306754258 0.012297454315664173 0.005608700838545311
0.03221222887996694 0.012302128827401108 0.004546266827623491
0.032529289731743904 0.012318778132618086 0.0031737824542677484
0.052414269064083086 0.011806595319453226 0.010073482038531756
0.05422074309811925 0.011769098998421209 0.010160632597469965
0.05594991061560722 0.011734203222895456 0.010184557427448115
0.05766275568101692 0.011699733075040918 0.01020250768945219
0.05936470282518652 0.011665495998290604 0.010219521968614698
-0.020270475986642666 0.013813194453974881 0.051839911067804834
-0.0183937936648782 0.013776489330031153 0.05159678321665129
-0.016755644253716784 0.013747839523158778 0.05120045239254645
-0.015050431952034926 0.013716763491142927 0.05085596475109694
-0.01392713902150905 0.01370565425938916 0.050120606611157026
-0.012619648841654563 0.013688127387138727 0.04951426574646711
-0.012589349653542137 0.013714806335552384 0.04802925225109911
-0.012230066388160321 0.013730165436939678 0.046766939263026774
-0.011197989024246124 0.013722168145327123 0.04597128154994218
-0.009880095549255397 0.013704169179609165 0.04537818139850597
-0.008377287886099816 0.013679633838389892 0.044919692475395456
-0.006692720759011284 0.013648632476158261 0.044595753559406204
-0.005052058478612009 0.013619044756480313 0.04424736502698645
-0.003766287373368593 0.01360181554820658 0.0436507421426548
-0.002522997320825615 0.013586012350378339 0.04302730114381448
-0.0009724989963001973 0.01355929605726888 0.042630421804942864
0.000653739812008669 0.013529789268800354 0.04229482721107741
0.0022953753635256424 0.013499614276484554 0.0419771729101312
0.0037681416270062273 0.01347531409277257 0.04154171478505486
0.005085411904983295 0.013456449230071615 0.040996383243185275
0.006695722015152672 0.013427050259845323 0.04067391624113437
0.008102519966930288 0.013404804777611301 0.04020548750671543
0.009454733631406143 0.01338442182837978 0.03970095767036658
0.010938380843349638 0.013359234382732465 0.03930071835616267
0.012408228500993823 0.013334437524411531 0.03889571234132039
0.013807189778057338 0.013312091994532923 0.03844205646898319
0.0151953674223681 0.013290041732795493 0.03798521634098179
0.016535447947942095 0.013269639648548003 0.03749618541716282
0.017578249357697917 0.013259937660228927 0.036780327487141884
0.018564262226698047 0.013252259362265987 0.03602224310343771
0.019464973998440938 0.013247656650508095 0.035198784899248714
0.020358065043905915 0.01324331257970424 0.034370362216734174
0.02072262148050319 0.013258291563202976 0.03312240869261607
0.02021525906181687 0.01330531084630229 0.03117349410924236
0.023050426333336482 0.013520045590459872 0.016132665895980836
0.024446717496202475 0.013497225812549408 0.01570794803037051
0.025417208934770508 0.013490368386199767 0.014923780731802228
0.026336679838493915 0.013485409621601926 0.01409730310418672
0.027126700188375263 0.01348533394391525 0.013159903551488827
0.027857914711751863 0.013487491102587332 0.012171323163214676
0.02852767300812925 0.013491996869085143 0.011128433142475747
0.029207814936023035 0.013496126642224191 0.010093588178017476
0.029907219663398488 0.013499538452744363 0.009074778464478739
0.030604997802113343 0.013503027864660235 0.008053692797274914
0.031238875930849563 0.0135089867894095 0.00697464366662276
0.03179331118500062 0.013518030099881234 0.005822761265948273
0.03219444798144411 0.013533027600513614 0.004530207324450253
0.03241362977904905 0.013555127557416289 0.003068772306697387
0.05532151063752727 0.012932422802555174 0.009586634927341908
-0.017879559049207294 0.014979603339230142 0.05343795886022462
-0.016326401934616097 0.014951494912605834 0.0529863046616002
-0.014558386295025705 0.014915213112582856 0.05268548840099313
-0.01332421483577545 0.014898852660490645 0.05202913520438818
-0.011678202868598164 0.014866913672334739 0.05165751835924515
-0.01003478429799931 0.014834943423305103 0.051290548468591934
-0.009851543817711805 0.01485806601946678 0.04992105512519146
-0.00987738606521521 0.014889205825547916 0.048401614828338546
-0.00889952971501412 0.014882359082670714 0.04757710357354317
-0.007625530213359211 0.01486421613054967 0.04696202364818186
-0.006179402401054079 0.014839436181003099 0.04647221989594447
-0.004535493625189679 0.014806998402534197 0.046127940893387065
-0.002821556603945119 0.014771746602259701 0.04584029637577386
-0.001450766956150762 0.014749514063728826 0.04531345898042771
-0.0002865189778890054 0.01473512982575604 0.04464205515795544
0.0012142175250616227 0.014707724265420174 0.044217882503741035
0.002722160278096075 0.014679927205322813 0.0438046118701792
0.004411695655979264 0.014644990792319441 0.04353034712233339
0.005867243560133961 0.014618978939550291 0.04309064497533582
0.0072695204297693605 0.014594927992134512 0.04261680870966772
0.008758723065411478 0.014567393359265289 0.042212807220617654
0.010295034201362963 0.014537906244260055 0.04184986473764979
0.011656601474305472 0.014515125662780208 0.041361301448615384
0.013019022110393186 0.01449221606739047 0.040878143880917095
0.014270292766655812 0.014473572793693152 0.04031505872489921
0.0153531185976305 0.014461476377692456 0.03962679502951483
0.016288593836125353 0.014455136839048137 0.03882754138487371
0.017217200606975958 0.014449041773605271 0.03802430261263984
0.018070628764746133 0.014445896660257878 0.037163800285146875
0.01895678098411041 0.014441440111040638 0.03632958636150874
0.01970732895493371 0.014442355071396584 0.03538956856723635
0.020434998302421736 0.014444185339541676 0.03443124954033805
0.02098329542085925 0.014453184267395676 0.03332981947803987
0.020748824115801645 0.01449353812466594 0.031600309026617146
0.021329918076964882 0.01475486869419742 0.017897927227625066
0.023128036283537767 0.014713667946817645 0.017806116860593024
0.024401281083070825 0.014693792010987614 0.017278209755917873
0.02533071307323781 0.014687946681370842 0.016461554887580665
0.02602647180207973 0.014691692097409524 0.015445923342279233
0.026694620395347868 0.014696592832170001 0.01440568085848759
0.027446967447368964 0.014698034847334621 0.013437280550072539
0.028092985803287174 0.014703888211703308 0.012375986944015482
0.02862616809762414 0.014714452542754454 0.01121463931169897
0.029235632738436657 0.014721889682055806 0.010118063406207967
0.02981197564239929 0.0147307414022493 0.008990538142802817
0.030283895736680444 0.014743997495929827 0.007768195508147446
0.030646572667677563 0.014761889549868012 0.006445251054773726
0.030443597071548367 0.014803611965427883 0.004610074328145586
-0.01562552156910646 0.01613666355575519 0.05494451877567297
-0.013636483118453668 0.016088350571870292 0.05479423483057466
-0.012261011044918224 0.016064779482559764 0.05423818955646237
-0.010870651833524425 0.016040507220531044 0.05369662395329289
-0.009413664604485228 0.016013418245587878 0.05320509251229766
-0.007685570101221839 0.015975134791815247 0.052904895571827426
-0.0064454598793899365 0.015956689193764546 0.052274633052299235
-0.007303515795285487 0.016024306142249107 0.05018997629738409
-0.006558452396581038 0.01602625035294035 0.04921270073281969
-0.0052992680913662715 0.016007009897972446 0.048596233211316286
-0.003916760020149068 0.015982596937306744 0.0480704898527517
-0.0023446524217455855 0.01595023657710591 0.047684002881506815
-0.00058860792870008 0.015910114779224875 0.047434975127416845
0.0007762648880469403 0.015886085122767128 0.046912634404695064
0.002012527505798778 0.01586731253124608 0.04630198383553752
0.0033888771108063764 0.0158426164476203 0.045796590393817505
0.004875738406198371 0.01581319689758611 0.04537655494137505
0.006563179950330789 0.01577525026120215 0.04510932830767678
0.007970277335552833 0.01574891806531259 0.044642476477426474
0.009461615322138739 0.015718931564458655 0.0442431593915274
0.010905142123840361 0.015690836049696913 0.04381392367511139
0.012159432266701409 0.015670619235216624 0.04324815610556604
0.013175084451729158 0.015660422404111047 0.04250633100707529
0.014101994786768102 0.015653948262320302 0.04169919303022712
0.015009889894553152 0.01564825544392691 0.04087881182845454
0.01591611387197306 0.01564260984511561 0.04005825228839105
0.016651223609513988 0.015644247080830974 0.039106945665581094
0.01749422505727194 0.015641274460531283 0.03823889858645857
0.018259575079715762 0.015641619054774424 0.037310954636114835
0.018956780984086874 0.01564489345362837 0.03632958636149031
0.019616233395963856 0.015649807622958416 0.03531785744925814
0.020355066983417158 0.01565131697893556 0.034367989460364734
0.02081654728952831 0.015664827885139166 0.033197142767663446
0.02010775438440504 0.015729117645519645 0.031087497847560153
0.017799683956647716 0.015863146876989916 0.027679011890004324
0.02096139950097453 0.01596583936230702 0.019191928243476375
0.022663506591355465 0.015925505169439285 0.019016940910473512
0.024011631830189784 0.0159006722658408 0.01855147133802726
0.02511546406126508 0.015886573905922595 0.017883846983534568
0.025928945099845002 0.015885329826908573 0.016971548115110036
0.02617846327569001 0.015909223511471407 0.015576181116155441
0.026757535612890626 0.01591849774510641 0.014459884421413549
0.027470889505401053 0.01592179984063666 0.013457998960932749
0.02778414184155864 0.015943073136119854 0.012107093085259701
0.02798646722514786 0.01596943052676834 0.010654751890430247
0.028493987223971784 0.0159821472324495 0.009465533672440407
0.02884971740706105 0.01600177873313544 0.008139451193408642
-0.0138092574231099 0.01729877035708162 0.0561584785178606
-0.011713347817630893 0.01724191411042143 0.05608679961300833
-0.009988928312420764 0.017201088524753678 0.05577379654269837
-0.008370381768942503 0.017164741647739682 0.05539585572280059
-0.007122466587849263 0.017144535143133265 0.05477088580723238
-0.00560657421395383 0.01711244712653477 0.05433355243626048
-0.004542227767201645 0.0171001522511438 0.053589751872188396
-0.004829462296382647 0.017147563086953675 0.05190898366208546
-0.004301669021944954 0.017159059774940567 0.05078940580257274
-0.002950806712139653 0.017134065751063823 0.05024603785211751
-0.0016867312290944625 0.01711283013260695 0.049645722443476925
-0.00018486185956895218 0.017080908272895896 0.04921801091039529
0.0015931494392683043 0.017036521613877326 0.04899309518387446
0.002974474947211647 0.01700970690347025 0.04849111363172198
0.004259967937248865 0.016987079746544554 0.04792465255919781
0.005494928031992807 0.016966630233601225 0.0473254913896215
0.007040452819702281 0.016932110062497566 0.04695662662719957
0.00862417567273932 0.016895723051254065 0.04662189964147645
0.00993579694267599 0.016871489755737167 0.04609283608646464
0.01105720210499378 0.016855775356491187 0.045426951051868225
0.01201513541770688 0.016847418681498815 0.044641920668619384
0.012945630579395795 0.016840275656257384 0.043837801811892896
0.013787950518939607 0.016837123520830537 0.042968469715751245
0.014588382424450652 0.01683587226520647 0.0420679448601356
0.015271288355024337 0.01683999748061715 0.041078061105928265
0.016045480224038677 0.016839951119150355 0.04015739353201553
0.016773285479062316 0.016842037660548405 0.03920099367643315
0.017472078542758118 0.016845469986130537 0.03822174287026203
0.018128941589198644 0.016850853204351673 0.03720921522661741
0.018733018444899163 0.016858702156727762 0.03615437968275331
0.019388795794359093 0.016864186826927672 0.0351388168366773
0.02008603925617669 0.01686776773136177 0.03415507272444429
0.020637646617926386 0.016878146986538733 0.033054796629192085
0.019188860573597866 0.01698193918411279 0.030352446736159833
0.018030064037546645 0.01707261285001499 0.02786428534449653
0.0182227604789168 0.01724881830934109 0.020115726494900787
0.020053611513971226 0.017199589153698118 0.020034474348327946
0.021612597574264536 0.0171630559722431 0.019735464791944102
0.023054106219458192 0.01713195422938042 0.01934469292966523
0.024212528740327366 0.01711421868094237 0.0187209373477204
0.025094440389904105 0.017109623023682952 0.01786601861401843
0.025815055292148725 0.017112734397595763 0.016874456973167806
0.02603647521992164 0.01713982715650176 0.015454496342515944
0.026364701109883093 0.01716190026183323 0.014121444366131441
0.025801614569417874 0.017227054884674044 0.012012273684459285
0.02625696953742246 0.017243275084597866 0.010777466138545855
-0.011581765359003127 0.018430359646093342 0.05764729593344875
-0.009362979322094955 0.018363483022520007 0.057666513500934824
-0.008150781560204212 0.018343540245445007 0.05701612410148754
-0.006132790371262908 0.018285654454447416 0.05691656600285189
-0.004670966540600507 0.01825372105469994 0.056446228710221646
-0.003122979888174171 0.01821759353798148 0.05604024368260757
-0.002032976413157639 0.018202970190532193 0.05532362534899793
-0.0024810780339121763 0.01826114693789414 0.05354067426381487
-0.001934523829062007 0.018272348041560665 0.05244321532120316
-0.0007694986556708305 0.01825417864246437 0.05177841653477849
0.000528380097821135 0.018229603243842374 0.051210417737205416
0.0019497963065084334 0.018199027429480874 0.05073416845966938
0.003628346434330021 0.018156020980265038 0.05044654793870612
0.005194556903931391 0.01811822487956508 0.05008529851699678
0.006416585450389922 0.018096811896086817 0.04948174645966391
0.007529058468086158 0.018080585815731957 0.048802181254074706
0.008739609816017402 0.018059560243992967 0.04819687792450683
0.009806615152757658 0.018045388152465737 0.04748969574701062
0.010678328457597752 0.01804061940237742 0.04664075110790605
0.011699798788187443 0.018028559759743552 0.04590370393218868
0.012497849773617842 0.018027319970878773 0.04500200035344809
0.013222556456161383 0.018029650916524864 0.04404549515283379
0.013958620570716673 0.018031436729542858 0.04309716543176134
0.01459142465219132 0.018038285623104555 0.042070251306598194
0.015251038186511745 0.018043847971508487 0.041062625546600284
0.01591611387190367 0.01804916520590604 0.04005825228833787
0.016623975559568738 0.018052396832138322 0.03908595119034952
0.01723030576356044 0.018060655161384578 0.0380344544740957
0.017850279434239613 0.018068273448243178 0.03699218877358018
0.018466754382783057 0.01807609759015861 0.035945894195594685
0.01913196048580229 0.018081533624433047 0.034936634125234844
0.01983264869668705 0.018085226006994404 0.03395453171927365
0.02046157189058917 0.018092515401987717 0.03291469901360222
0.019156534177591333 0.018196551450185387 0.030326587868646837
0.01819909620688087 0.018283613916169568 0.02800022233093502
0.017449707481422272 0.018360602024378298 0.02582714005088571
0.015877895615212745 0.018519260673139457 0.021381529496203533
0.017414312759204575 0.018481710633450582 0.021045986619497914
0.018785623105608773 0.01845236192920095 0.020580579645927577
0.020218877429772852 0.018419740587649815 0.020171688495334017
0.021598399862540307 0.01838971093960757 0.019723614364949182
0.02284326746127746 0.018366416436020782 0.019167778197172358
0.023703823778484456 0.018362659805189956 0.01829182074291258
0.024329907085263835 0.018370895526310795 0.017217683600190825
0.02478375312712494 0.018388008237451417 0.0159952711450847
-0.0071632470405808 0.019477905451150357 0.05914498278837982
-0.005781657095764503 0.01944793950782876 0.058617317590976936
-0.0040924725363718495 0.01940243604927216 0.05830320536395617
-0.0028128889271799573 0.0193773198556815 0.05771602968221867
-0.0014504015288935301 0.01934793011524303 0.057189616112308994
-6.301663671770541e-06 0.019314305971199038 0.0567240420862809
4.6936477303860524e-05 0.019350822225471527 0.05529717450311017
0.0004070441983208273 0.0193719501083287 0.05407915531501911
0.0014433060866183567 0.019358860401495565 0.053332921780343934
0.00271602513264646 0.01933369641095761 0.0527557115780824
0.004108937631104204 0.01930230662131196 0.05226771536252128
0.005529594264116144 0.019269371869737758 0.05180433979007254
0.006711382330452931 0.01924852002790164 0.05117449261690016
0.00766348060068367 0.01923935527170249 0.05038201404128784
0.008477639422400207 0.019237237495420764 0.04949080960159563
0.009284420444521657 0.01923549068103784 0.04859454693935045
0.010268481642708827 0.019224593488744456 0.04782866103701444
0.011018307964235696 0.019225756678257287 0.04689162245131134
0.011769246124312627 0.019226867126859372 0.04595522803493335
0.012533518687323886 0.019227290188986862 0.04502860749916099
0.01317371730299316 0.019234167550365246 0.04400886597607101
0.01386720981208156 0.019238296329471855 0.04302823609758066
0.014464622581733921 0.019247460077710093 0.041974117087932306
0.015023070024799745 0.019258701552608087 0.04088885829706762
0.01570367451649285 0.019263584015527416 0.03989544718829502
0.016338131562309843 0.019270912353145257 0.038865709935191894
0.016975090448872077 0.019278139940156043 0.03783675286714194
0.01758127414054672 0.019287022411071966 0.03678268323542416
0.0182071494990676 0.019294901145673005 0.03574262286329388
0.018883810410234292 0.01930012168906234 0.03474128849536451
0.019548792259998893 0.019305984848674837 0.03372987909112418
0.020206159866667073 0.019312278381507137 0.032711474984318756
0.020747822646114633 0.019324770920863082 0.031599507920550496
0.018623023337785316 0.019479859438266526 0.028341147829741786
0.018092783276558444 0.019550190965841114 0.02634706912176027
0.016060075103425386 0.01970149050453122 0.023120429591821756
0.01654377987929795 0.01971805073300746 0.021925657374613994
0.017524600236020593 0.019707877900610654 0.02113658806408586
0.018563972357104774 0.01969449689479601 0.02039752423598662
0.019745120893325474 0.019673379720189173 0.019778346052508666
0.021210574228469503 0.019636740276277133 0.01939990731605523
0.022070439764885597 0.019632879822463964 0.01851929873186897
0.0212222267514941 0.019722111682678147 0.016198476721133337
-0.0048870088101942155 0.020574543814520462 0.06067487274035982
-0.003506257194028417 0.020542506943893438 0.06015516651505454
-0.0020404793177536407 0.020505813138353056 0.059697779541075524
-0.000615875392612264 0.020471168332213113 0.059217457771946924
0.0006134759707901449 0.020446823305625125 0.05860788383247589
0.001854579591027139 0.020421749994418287 0.05800989678784935
0.002391276010855148 0.02043439139647756 0.056926054769976864
0.0025211687056251875 0.020468968139270814 0.0555561915543939
0.0034185645662108133 0.020462314018064393 0.054720549712078015
0.004358134393319557 0.020453354710735068 0.053915653564177046
0.005310397443577475 0.020443671711171934 0.05312106152996793
0.006296997586532127 0.020432086689183133 0.052352387215328644
0.007167779139559349 0.020426748504866848 0.05150221965984236
0.008045322630827079 0.020421020084969158 0.05065770682985843
0.00882672181491706 0.020420514790943405 0.04974422817384738
0.00954750261879167 0.020423322300325824 0.04878657628604677
0.010347397617231191 0.020421806150298337 0.04788657772240279
0.01105206718817886 0.02042551269433339 0.04691653342887786
0.011675281759840561 0.020433716800406253 0.045885514352025925
0.012375504196427467 0.020437708850980455 0.044910736946144225
0.01299452998548184 0.020446204174497495 0.04387447617811191
0.013647639131902478 0.02045284782181744 0.04286266630014851
0.014232094625473646 0.020463328782243 0.04179782743183741
0.014785683141444017 0.020475570153910543 0.040707911688181275
0.015410915167219208 0.02048387102072012 0.03967108802916092
0.016053866038743425 0.02049121753330942 0.03864668488548417
0.016691212205135475 0.020498908757866682 0.03761684762738593
0.017316920856237483 0.02050728518283916 0.03657680075507508
0.01795927468645858 0.020514761826100122 0.03554853620867582
0.018626261008546474 0.020520883136009818 0.03453854364436948
0.019253432242715085 0.02052927753297032 0.03349612217897785
0.019942357672087407 0.020534215283285882 0.03250157513664098
0.020590523212228817 0.02054148433874474 0.03147367931844153
0.019396153017570306 0.020653437998366747 0.028962904736785477
0.01868070898699231 0.02073861269543301 0.026822409152719384
0.016006288474654018 0.020935901842816036 0.023076710858797367
-0.0024068361366731406 0.021645525694553715 0.062341829740616805
-0.0012319774764240066 0.02162291049975362 0.06169225835288977
-0.0002722278958279811 0.02161233331125381 0.06089951731939652
0.0008188615404974287 0.021594292807058137 0.06019794983485327
0.001802495967561324 0.021582262784620748 0.05942496172605821
0.0027954638031877366 0.021569654552150756 0.05866004057579027
0.0036572877524228553 0.021564449816791127 0.05780569763482124
0.0035470717975027988 0.0216145904971059 0.0562729402792464
0.004215867567828713 0.021620473267637923 0.05528065864289938
0.005018080400980562 0.021618749701034206 0.05438182174261341
0.005788021100730012 0.021618868559539362 0.0534602974437135
0.006598326590346371 0.021616669900871667 0.05256758381387272
0.007438402602383765 0.02161274907885659 0.051696547546130345
0.008163845056926522 0.021615422213345104 0.05074328090389951
0.00884318160012626 0.021620770465919887 0.04975617725909692
0.009515664723060369 0.021626537657824386 0.048763337120054484
0.010194659839056097 0.021631950914083146 0.04777448297987419
0.010822793231017314 0.02164034384117252 0.0467473518619953
0.01139207989408475 0.0216522002659742 0.04567540230392103
0.012120357897820067 0.021654823541603866 0.04472041114028674
0.012717262358324433 0.021665143948426044 0.04366652652569347
0.01335854655259927 0.021672905643306265 0.0426446727148696
0.013975873003774397 0.021682107465621974 0.04160357456736519
0.014523593639833965 0.021695446040127186 0.040508135669091005
0.015172514015016791 0.02170287010804076 0.03948838683728623
0.01577625713009556 0.021712996579109734 0.038432788721598055
0.016461565357140884 0.02171833325434406 0.037438952539327275
0.01707847348120206 0.021727753787126214 0.03639109420282516
0.017693897483555543 0.02173730265966365 0.03534074513470087
0.018342132214554996 0.021744935778050225 0.03431487529327376
0.018980753141243867 0.021753175942174414 0.03328031563429751
0.019671134757568987 0.021758351791567328 0.032285770834728944
0.020375894945335427 0.0217626869555403 0.03130199163890501
0.02062153919401316 0.02179465181415215 0.029948369839109645
0.018946029316831425 0.021942540474564242 0.027036921584412066
-0.0011928356434951493 0.022776089515902743 0.06315777559875152
-0.00012795245279106915 0.022758605701334724 0.0624384233208381
0.0007069771463536489 0.022754737915041807 0.06156500395626324
0.0016085232411859884 0.022746881623737458 0.060737600701878836
0.0024010164738853534 0.02274551044713455 0.059836256637751106
0.003249601743622099 0.022740774925295495 0.05897384641611114
0.004071886541978764 0.022737598246535175 0.0580937667379991
0.004232096150294129 0.022774214969735317 0.05675153356475593
0.0045831247988217805 0.022799484850348606 0.05553865849310757
0.00522059832209909 0.02280756551482804 0.05452487497620012
0.005915528905503009 0.02281220352090657 0.05355086085282046
0.006634536437869265 0.02281540108290937 0.05259344337575389
0.007310369859894972 0.022821234238996995 0.051604610461430334
0.00801542253264137 0.022825312947420358 0.050636118736362645
0.008655866054215366 0.022833349128734866 0.0496201943529897
0.009206246558989106 0.022846923023303618 0.048537486136165375
0.009876481707749185 0.02285321270097417 0.04754097103454402
0.010589134659565846 0.022856925235680513 0.046574934882225416
0.011136111432455575 0.022870842235572137 0.04548549515913719
0.011813718271932672 0.022876766822412693 0.04449167400310927
0.012413013817126506 0.022887552402251245 0.04343834129166674
0.01308328509550799 0.022893990750071355 0.04243710864641426
0.01375698960299604 0.022900243199706453 0.04143762944803975
0.014305918338717472 0.02291427626668623 0.04034221408564648
0.014899240944063696 0.02292560374779872 0.03927896118934315
0.015522597632496526 0.022935104678742935 0.038237345449500026
0.01620324839753623 0.02294106261047763 0.03723884825452134
0.01684882586997577 0.022949243961420528 0.03621224104452586
0.017404874130436954 0.02296308308087433 0.03511443906058692
0.018069678493298047 0.022970136020198952 0.03410039764837425
0.018728841395933726 0.022977574891099053 0.033080945007702145
0.019386417675870293 0.02298514586620031 0.03205922961063096
0.020071570261324723 0.022991002477662982 0.031058553066811323
0.020549213508305186 0.02301005709237134 0.029890204959631572
0.018889134915240413 0.023165189973256714 0.02699092225807931
-0.0007611153207206511 0.023947891932853398 0.06344794056262093
0.0004646238660925839 0.0239193762775601 0.06283892120858692
0.001144525218105652 0.023924942963368296 0.061862370066724626
0.001949975743931076 0.023922650485822407 0.060970947638920026
0.002743821045277761 0.02392107875533202 0.060071827139394796
0.003467951040286632 0.023923894920854172 0.05912472410859759
0.004182915626507078 0.023927301402132607 0.05817091131635399
0.004609984351607144 0.023948942085795774 0.057015545720068006
0.00463716484540222 0.02399603068161651 0.05557662186794787
0.005154154828743929 0.02401218595004105 0.054477941072658354
0.00572786554808008 0.024024795563063684 0.053417571495020466
0.006393351047313922 0.02403160100986689 0.05242119883570279
0.007020942326616986 0.02404085731564644 0.05139677984619673
0.0076572821597100105 0.024049591223076202 0.050377538720757564
0.008409600719155308 0.024050915096600452 0.04944141647434597
0.00896328749034142 0.024065023390141146 0.048360145077783856
0.009555701997468524 0.024076693442214688 0.047305549782107825
0.010320269748692268 0.024077290511103733 0.04637653909639583
0.010912618965233878 0.024089038873822823 0.04531968248026014
0.01152706348722854 0.024099402872549178 0.044277844513128384
0.01217375659539538 0.024107713796864494 0.04325889929691362
0.012805569853333698 0.024117028839927054 0.04222769427308759
0.013460319598873893 0.0241248856830521 0.041212710888390014
0.014094099490791823 0.02413414734715315 0.040180756545581287
0.014640833191353675 0.024149154330278803 0.03908092773198096
0.015254352532604265 0.024159837322515375 0.03803066404965716
0.015922232408102754 0.024166986849354206 0.037021160249557594
0.01658746648022036 0.024174341242624398 0.03600869025617087
0.017160971202193787 0.024187791292967605 0.03492346240226485
0.017793783283213183 0.024197369349687487 0.03388321083725243
0.01847153199412427 0.02420400475709031 0.032877302511380824
0.0191103297367482 0.024213260186798684 0.03183955434803615
0.01979693899090662 0.02421936727895436 0.03083886715950418
0.020370284374072234 0.0242330691025715 0.029746308756976925
0.019425875467383613 0.024348467315497474 0.027424878906249228
-0.0031891941146937053 0.025304373002356682 0.061815996550818486
0.000567220529301915 0.02510860950277147 0.0629082620607202
0.0013065194684168668 0.025110533588712996 0.06197246448432603
0.002076168698670555 0.025110464867021027 0.06105718727467585
0.0027667221224063065 0.02511562009234025 0.06008756443894547
0.0034534022320301117 0.0251210525525732 0.05911467099346651
0.00410821162824615 0.025128620652864166 0.05811900592172925
0.004654575201276323 0.025143426022519615 0.05704669918367827
0.004626773727277211 0.02519652413750021 0.055569322060909365
0.004950526170203362 0.025226382126567543 0.0543341032439158
0.005463160792104682 0.025243733595826684 0.05322956288526809
0.006098955690208463 0.02525290480429597 0.05221095395826203
0.006721743745614017 0.02526298692151288 0.05118193288791806
0.007358481339061973 0.025272172127573524 0.050161802303683056
0.008083496849963234 0.02527544423077631 0.049204679306536936
0.008709697142142092 0.025285404990190524 0.048175044019423185
0.009290024954701992 0.02529851220565422 0.047110568553098864
0.010020160996392136 0.025301512042870362 0.046155088437202396
0.010721720250825184 0.025306466819423792 0.045178051634156946
0.011246122388254065 0.025323509304388283 0.04406827713412792
0.011939312430599591 0.025329102002748887 0.043083067076323533
0.012533577116787153 0.02534148463027474 0.04202259502096384
0.013189741180334336 0.025349676405835197 0.04100757350569334
0.013828983446038723 0.025359064947936646 0.03997867356365198
0.014397354239793547 0.025373371311932267 0.03889433511598278
0.014985715552068402 0.02538635918448474 0.03782368070789621
0.015617396880463819 0.025396407573681862 0.0367850205267341
0.016299336820523203 0.025403017142999737 0.035784290362083804
0.016903559218222897 0.025415049759425625 0.03472190811644754
0.017508354289772377 0.025427093780202706 0.03365851895924543
0.018198690259327688 0.02543322582257606 0.0326613672537342
0.01884493100484641 0.02544246470900578 0.03162838418135572
0.01951685042037765 0.025449945363787255 0.030614815791830896
0.020137815039324214 0.025461033287526663 0.02955935510827512
0.019861002950172735 0.025535295154510237 0.027776681025920957
0.019275949896012612 0.02563159775229355 0.025734350090440228
-0.0035644891611174012 0.026535103194951795 0.06156375576473255
0.0003609243924676542 0.02631844608472511 0.06276883501238911
0.0012762213189621008 0.02630836130704124 0.06195187327746399
0.001963537673017879 0.02631397901639586 0.06098021579360435
0.0026282326186746197 0.026321184718209635 0.059992396391057634
0.0032964120245986828 0.02632817802053807 0.05900619196192369
0.0038828837649688697 0.026340876391310244 0.05796244493522762
0.00451143241355334 0.026350697161665725 0.05694669226159704
0.004782580596971953 0.026385489742031764 0.05567877708493696
0.004621764353048785 0.026450619240717944 0.05410187470451516
0.005201205058688485 0.02646416462360575 0.05304350679014891
0.005825918261798846 0.02647458798396445 0.052015962022121665
0.006448010929398618 0.026485238490635526 0.050985372253346206
0.007101691424275025 0.02649370664806878 0.04997639807341059
0.007807516871945863 0.026498527155394254 0.04900432989476916
0.008461960343069397 0.02650700381392177 0.04799421559267569
0.009045639472840317 0.026520533849525064 0.046931213268543104
0.009704114068095682 0.026528804938945466 0.04592187697612082
0.010453515749466125 0.026530635523589193 0.044979066373445176
0.010987363229323477 0.026547855369533187 0.04387525632326261
0.011665590304544171 0.026554822930699544 0.042877776536075385
0.012250936289416925 0.026568475276940468 0.04180946645345396
0.012928998936131253 0.026575527143470154 0.04080989335875862
0.013563486096316024 0.02658574429484873 0.03977629993448789
0.014154573983915564 0.02659913403096259 0.038708277952656356
