# .PCD v0.7 - Point Cloud Data file format
VERSION 0.7
FIELDS x y z
SIZE 4 4 4
TYPE F F F
COUNT 1 1 1
WIDTH 780
HEIGHT 1
VIEWPOINT 0 0 0 1 0 0 0
POINTS 780
DATA ascii
0.026027808408178532 0.03778004360134133 0.0028192463735026707
0.023583348378227842 0.03763406735837252 0.003020548996829242
0.021479997676357443 0.037519108633682734 0.002966591282020148
0.019355009484060604 0.03740164805478514 0.0029402256706160257
0.017078664036613123 0.03726958611426092 0.0030450089018063675
0.015137442419621838 0.03716824199480107 0.0028937927886844572
0.013063932931347277 0.03705408697321268 0.0028582509255606348
0.0109043917704722 0.036931374940595035 0.002902749814118588
0.008856974479238888 0.03681866805895317 0.0028674064270673427
-0.0302352586200057 0.03321743729013763 0.03311366057771986
-0.03194632532821379 0.033127935339082606 0.03298407215316179
-0.027779544727233485 0.033593889470509376 0.02800841835405371
-0.027355292129428943 0.033707185092847654 0.026096788362086343
-0.02689173907632636 0.033824707467526104 0.024141814362983904
-0.026205157112082933 0.03396397267134619 0.02198873869501894
-0.025095808615674453 0.034144177402603025 0.019466025541534926
-0.023726618992516546 0.03435001493357896 0.0167060867978287
-0.0221318282853582 0.0345783737305188 0.013734503334159764
-0.018675497604391966 0.034986494214885165 0.009146086173338341
-0.06464881982447424 0.030981673667985692 0.03980262408044055
-0.06704372717498336 0.030817464859248894 0.04045198472721889
-0.0692514132078903 0.030670819801118653 0.04094973319142814
-0.07129117560180781 0.03053996642502073 0.04131067961248652
-0.07317881986722957 0.030423459579873496 0.04154682093977302
-0.07493075509833041 0.030319781655367143 0.041670980763641285
-0.07659510269796438 0.030224273369293942 0.04172521899719056
-0.07816490594578768 0.030137678073271498 0.04170196645443808
-0.07961245021307606 0.03006280264172509 0.04157436568158346
-0.08098988738567736 0.02999454807683479 0.04138905486309835
-0.08224630200348704 0.02993802768555866 0.041097617005184606
-0.08346725920621473 0.02988478577426096 0.04077848718038729
-0.0845353963524681 0.029846580357965127 0.04032066796293471
-0.08545216727779392 0.02982336951632726 0.039723321136541756
-0.08624750740249681 0.029812249849074456 0.0390127169595017
-0.08693622753741126 0.029811813953481505 0.038201232432692855
-0.08761772893200004 0.02981210455056395 0.03738285067944164
-0.08823315220534467 0.02981908056070334 0.03650058019860375
-0.0888043896347494 0.02983056902127319 0.03557469233833277
-0.0893481285773054 0.02984490564650419 0.034620808482849874
-0.08986734702736449 0.029861807068094923 0.033641425440757544
-0.09034926869471138 0.029882595810425232 0.032623552497836994
-0.09079257411856773 0.02990743430913749 0.03156529645785222
-0.09117663501276169 0.029938467291982972 0.030445482015890202
-0.09149007442727186 0.029976908465194158 0.02925177249386879
-0.09178859959682956 0.030017068742789487 0.028039158884827997
-0.0920721989070385 0.030058961556437547 0.026807368457031244
-0.09218913940099194 0.03011831253934661 0.025401713059009012
-0.09196406192248174 0.03021344975394505 0.023640136654499377
-0.09129884228854723 0.03035483981580529 0.021416267150048296
-0.09023979429181633 0.03053798432305028 0.018770886199906023
-0.08882728222514197 0.030758963723751236 0.015739515661946923
-0.08670976378129958 0.031054894340678374 0.011949206845737192
0.06989768619269454 0.030604364752212305 0.18401518160436983
0.06643008231633346 0.030418988390635865 0.18398426171344395
0.0630053765858744 0.030235921724466302 0.18395336186895847
0.05962277295129681 0.030055121903392816 0.1839224814749707
0.0562792697478377 0.029876395798235634 0.18389231643384046
0.05297529649815985 0.02969978275660887 0.18386250803137955
0.04970907321690915 0.029525171627481948 0.18383339427460255
0.04648209976130829 0.029352674683570428 0.18380427849457978
0.04329155902344539 0.02918210942375096 0.18377584138518485
0.040137883847286004 0.029013514984752627 0.1837477328564141
0.03702146610585033 0.02884692794553205 0.1837196105838805
0.03393961735947809 0.028682173234614902 0.1836921442150134
0.030892771691502174 0.028519289777786866 0.18366498980413082
0.027880336131436256 0.02835824587502333 0.18363814206650086
0.024901731027228202 0.028199010538299176 0.1836115958360895
0.021958315022209185 0.02804168678682835 0.1835846908933863
0.01904755974443062 0.02788610873088019 0.18355808449321298
0.01616892457842567 0.02773224747489477 0.18353177169395632
0.013322807416775384 0.02758013923903141 0.18350542528375677
0.01190907045005557 0.02752736546502924 0.18298826379388172
0.010858505950043673 0.027499772053907242 0.1823467774841843
0.010123169592603953 0.027494131848278255 0.18159523213192338
0.00970293958568269 0.02751054614970844 0.18073124120793668
0.009474541992535002 0.027540475671339045 0.179796831528511
0.009493336635743421 0.02758787921120042 0.1787703865930273
0.009980818845173822 0.027668438481087465 0.17756890306669712
0.014171099165807943 0.02801039255425137 0.17499666050006735
0.01477088326619902 0.028099866261137765 0.17373177366839307
0.01537451143110502 0.028189913412204847 0.17245878007531887
0.01598202073470889 0.028280539538050375 0.17117760153496694
0.016593448729481874 0.0283717502406215 0.1698881588527955
0.01720883345392127 0.028463551194369052 0.16859037180928077
0.017829183778784174 0.02855601727278689 0.1672837860901441
0.018452602735892387 0.02864901649913929 0.1659690610740953
0.01908009557444551 0.02874262345135382 0.1646457446705066
0.019711702357984306 0.028836844105954558 0.16331375238958018
0.020347463677108435 0.028931684518089792 0.16197299863001485
0.020987420658162115 0.02902715082282851 0.16062339666067196
0.021632613977334902 0.029123321135662156 0.15926445833956276
0.02228109277340473 0.029220058435580003 0.15789689042703486
0.02293389395807699 0.02931744053098827 0.15652020708928344
0.022119137590043247 0.02930899108800031 0.15573616941946028
0.021480674902388086 0.029313288041776638 0.1548802055246253
0.02185932851209471 0.029391435041582283 0.15360239865378322
0.02308104196984695 0.029531158537882924 0.15196687911398069
0.023061132731390044 0.029580921321024235 0.15084210843348952
0.02304115628180653 0.029630852097202343 0.14971354066550566
0.023021112280174116 0.029680951718541175 0.14858115654976917
0.023843906680017235 0.029792943211115336 0.14708381792177844
0.027121576499453737 0.030085399051470865 0.14451915896272702
0.025204923416247083 0.02999719087007845 0.14418666173779598
0.02386791181056963 0.029951341164965364 0.1436077370704547
0.023180645312297632 0.029953242433589784 0.1427466176285571
0.02294171811225043 0.029988268896219764 0.14168688511135336
0.023580810931641383 0.030088391750593014 0.14023322316491235
0.0318245545206004 0.030752600938451616 0.13536154199018402
0.03389435796398893 0.030960675214408748 0.133224417706029
0.035458258826468525 0.031131851106043777 0.13130079028842712
0.036281788189715836 0.031248458518063474 0.12970219642363487
0.03604516592666368 0.0312863326481858 0.12858220376510293
0.034414650121444734 0.031220092388556043 0.1281046527476986
0.03362949305105023 0.031216952954322474 0.12723840169815542
0.03750229111105946 0.03156341562918549 0.12418804189733262
0.03630432019147456 0.03152983939259829 0.12350325855661393
0.034726324090656235 0.03146751678227645 0.12300161676815752
0.03271736757495852 0.03137244920497443 0.12271088655485818
0.03139187594563447 0.03132870773204632 0.12209904443489919
0.03363589514101145 0.0315551414827274 0.11976332343755014
0.03220491154271249 0.03150356823330866 0.11919904558951316
0.03132876093972953 0.03149398007242083 0.11836703622388697
0.030363776039448676 0.03147759279321065 0.11757959453120104
0.02914147581407217 0.031441516936662264 0.11692112286623146
0.02828332382725751 0.03143313905144928 0.11608378503897493
0.027497805163516964 0.0314302915879653 0.11521064295886765
0.026763739416839905 0.03143138026416382 0.11431172964493788
0.02606450366560764 0.03143514933922097 0.11339501900259971
0.025421704128429257 0.03144327686405464 0.11244913201916884
0.024925404373076943 0.03146273294872172 0.11142718267197974
0.024433927048942594 0.03148263322282473 0.11040115240617798
0.02396465145006027 0.031504325450703544 0.10936193262750243
0.023630574612117816 0.0315365826607372 0.10825007725741584
0.023238191644814166 0.03156442910343594 0.10716632732063683
0.02293970166539333 0.03159968729148037 0.10603048353077887
0.022813589022899428 0.03164851899424811 0.10479974551361876
0.022951072110983906 0.03171812671790726 0.1034234615532543
0.02330486070521265 0.031804925004674876 0.10192460465265324
0.024305902852118866 0.03194280522373858 0.1000668833756535
0.02659899119730247 0.03218271344209127 0.09749150668625611
0.025469517881047232 0.03215411647160129 0.09677818511989802
0.025322871526095136 0.032202919843790895 0.09552360281691738
0.02580506289794987 0.03230159151023871 0.0939150617831746
0.025561891899961997 0.03234321592963066 0.09270428631647579
0.025318093384191387 0.03238494776340975 0.09149038636885443
0.02507478670581048 0.03242687656371283 0.09027271451879837
0.024829726622067838 0.03246882470814918 0.0890525250363961
0.02458403168647999 0.03251088152331035 0.08782917453514033
0.02433769942888131 0.032553047432027186 0.08660265071571133
0.02409072736627421 0.03259532285932698 0.08537294121489875
0.02384311300274028 0.0326377082324473 0.0841400336051896
0.023595980286769513 0.03268029451531267 0.08290325470217405
0.023347074559726733 0.03272290130692442 0.08166390903358595
0.023097518965910002 0.03276561934040534 0.08042132756330131
0.022847310956886635 0.0328084490519858 0.07917549760224926
0.022596447970888278 0.0328513908801806 0.07792640639492185
0.02234605778945159 0.03289453699118878 0.076673358723613
0.02209387788963335 0.032937704618267234 0.07541770208784127
0.021841035246794316 0.032980985692307736 0.0741587455155108
0.02158752724490326 0.03302438066111586 0.07289647598087876
0.021333351254148647 0.03306788997485762 0.07163088038955345
0.02107963889207226 0.03311160702603855 0.07036124096233032
0.02082411975871956 0.03315534663536735 0.0690889491909466
0.02056792466359547 0.03319920195541896 0.0678132916418851
0.02032582733262772 0.03324439133413788 0.0665249179734419
0.020105822381186245 0.03329158286052084 0.06521857376095147
0.019885191933035395 0.03333890855726533 0.06390851547753756
0.019663933316852567 0.03338636899737628 0.06259472726142229
0.01944204384607512 0.03343396475712552 0.061277193160381827
0.019219520818807734 0.0334816964160765 0.0599558971310904
0.018996361517694516 0.03352956455710626 0.05863082303848083
0.018772563209824455 0.0335775697664305 0.057301954655077314
0.01854812314661286 0.03362571263362693 0.05596927566033755
0.018321892906391357 0.033673897627796094 0.05463353112086827
0.018096160021419005 0.033722317316405806 0.05329318649274534
0.017869777039147938 0.03377087645083891 0.0519489817517928
0.01764274114716108 0.0338195756343572 0.0506009001986244
0.01741504951680206 0.03386841547370775 0.04924892503738498
0.017186699303051278 0.03391739657914763 0.04789303937505762
0.01695768764440031 0.03396651956446868 0.046533226220764334
0.015884872173836495 0.03394404011875758 0.045752071417477946
0.016494207396650973 0.03406489853878012 0.04380415377719504
0.015881354489186428 0.03408182638215084 0.04269924128454966
0.014973382109117972 0.03407355719596785 0.04180012477057071
0.013727867604374888 0.034036297253310165 0.041140186315964
0.01280336111599134 0.03402647971768908 0.0402556237646865
0.013650058406280752 0.03416919270730125 0.038107032316573086
0.04998530559509973 0.03737574372192642 0.0104620303303255
0.049147535252553054 0.03738024420236655 0.009364037638266542
0.04820706707756717 0.03737586214386554 0.008340188150412875
0.04721502589529175 0.0373669827430235 0.007354383863151792
0.04620578502787526 0.03735656962362741 0.006382016614357278
0.04527303773397723 0.03735278447422845 0.005354161393577195
0.044121395214576475 0.03732985341181794 0.004489056580635864
0.04327315514960345 0.03733339761317892 0.0033997450456789147
0.04221748398609804 0.03731875260940234 0.002465678359114487
0.04036868514552383 0.037234296199066215 0.0021310355498679323
0.03785358885602513 0.037090766219980906 0.0023093832202399356
0.03536698149898876 0.03694914864808936 0.0024793690449800843
0.03302521393935598 0.03681975249809574 0.0025515588833788794
0.03061102006799954 0.03668338676612226 0.0026916423220856855
0.028324243349295064 0.03655776798600647 0.0027457901764089687
0.02607076327073593 0.036434581969826664 0.0027857924534219203
0.023743519577025196 0.03630428897957956 0.0028951345111316584
0.02149860712852375 0.03618080491886034 0.0029519417795098035
0.019442372113673778 0.036073705397009014 0.002871084225124665
0.017281106115463685 0.035956713557700484 0.0028839315401036347
0.015079385215394647 0.03583557869397065 0.0029402345124071583
0.012955988847466293 0.03572098914424037 0.002945060398126975
0.010995982479041988 0.035620677397069936 0.0028286984000122084
0.008881743906000716 0.035505959704253735 0.002847273394369354
-0.030241963906953606 0.03203049144117867 0.033119139808508
-0.03179414710646483 0.031958641660706937 0.03285905735435313
-0.02764096743255967 0.032406744383177796 0.02789397108213504
-0.02720627355200106 0.0325169754244463 0.025973063776223326
-0.026723280307920372 0.03263211072049688 0.024001206610451853
-0.02598014148850547 0.03277162703406642 0.021799928159444648
-0.024896899956584506 0.032943039598323794 0.01929823671528419
-0.023558061552364062 0.033138767887204 0.016563147713777426
-0.021822482965754675 0.03337201288448872 0.013470786229509868
-0.018278065749077754 0.03377377708540508 0.008805484246723339
-0.06494928168981717 0.029846990900885134 0.040068373089378995
-0.06729346804575803 0.029693353725197325 0.040674033568587675
-0.06945581146833957 0.02955616719227914 0.04113242158044217
-0.07144674019390562 0.02943455714058129 0.04145045080324561
-0.07330821789318837 0.029324655656683754 0.04166369174952589
-0.07504219748454355 0.029226356770848436 0.04177216169229614
-0.07668894975369311 0.029135909072146537 0.041810870929324506
-0.07823398473980653 0.029054747308428205 0.04176534290943751
-0.07968997316794074 0.02898172422774709 0.04164586117375918
-0.08104023526717369 0.028918492787436734 0.04143573081511709
-0.08229855342052905 0.02886379726101803 0.041146310643375206
-0.0835140852723209 0.028812967284518844 0.04082235262673867
-0.08455869789905335 0.028778384282842986 0.04034261010106588
-0.08545361812847696 0.028758108960985712 0.03972469446638455
-0.08621857577233122 0.02875032914583925 0.03898518851703803
-0.08690592011940629 0.028750048871517615 0.038172244786179255
-0.0875802905525101 0.028751029859295348 0.037346856269333484
-0.08819434561541417 0.028757898643657343 0.03646307631434298
-0.0887685137668906 0.028768699080614097 0.03553984057834325
-0.08933308239489729 0.02878049063148075 0.03460611587241058
-0.08984730923596101 0.028797282182656137 0.033621756920928614
-0.09033067991967159 0.028817190419170115 0.032605211597207806
-0.09076685280840008 0.02884185001811031 0.031539786488479216
-0.09114734908021427 0.02887213326878762 0.030416286119835156
-0.09145649524616445 0.02890963407003944 0.029218123063339818
-0.09177359237174859 0.028946522106523733 0.028024042362900625
-0.09205718537052032 0.028986922914534804 0.026792167274325096
-0.09215118554434426 0.029046448600978315 0.025363085947111397
-0.09189575660140975 0.029141235216793585 0.02357026003262458
-0.09118950008877708 0.02928170949582534 0.02130383116486617
-0.09016084010604308 0.02945528304519405 0.01868927833980827
-0.0886837103251889 0.029674904075537346 0.015590351405903646
-0.08653213998110276 0.029963741904917067 0.011763711005901789
0.0699129620630099 0.02947186374107445 0.18401054816211054
0.06644514940945662 0.029293341165493644 0.183979655301218
0.06302023888338731 0.029117042962208337 0.18394878215020383
0.059636306502093506 0.02894285412010187 0.1839182783881958
0.05629262120014561 0.028770737007381822 0.18388813742515694
0.05298846919929118 0.028600654882118003 0.18385835282687993
0.049723153500472406 0.028432571866093836 0.1838289183104107
0.046494924620760214 0.028266382583980305 0.1838001701156298
0.04330526931072565 0.028102194296093848 0.18377141557938823
0.04015141408679701 0.02793983368318292 0.18374333172199026
0.0370337923624392 0.02777933837250901 0.18371557050980597
0.033952797153598724 0.027620743561851353 0.18368779158715132
0.030905780875265743 0.02746388293782154 0.18366066104177212
0.02789317770711297 0.027308793903258487 0.18363383690969123
0.02491440792849481 0.02715544661410028 0.1836073140290945
0.021968904767301067 0.02700381189287665 0.1835810873534592
0.019058965553485574 0.02685405165601531 0.1835541744056192
0.016180186244509343 0.02670588058205873 0.18352788243851437
0.013333000765999803 0.02655933564588271 0.18350187901864928
0.012294663763134817 0.026533714478139195 0.18285313077834603
0.011345753655546631 0.02651402045856967 0.18217477020633982
0.010651666319724862 0.026511421547466826 0.18140730395811297
0.01027159767510255 0.02652999638786771 0.18052756464114972
0.010128972843845396 0.026564677032657795 0.1795607392969259
0.010265931229030023 0.02661839639467351 0.17848965863166424
0.011000171044989904 0.02671278858787863 0.17719585698566032
0.014982890119862646 0.027028098457499795 0.17469745131787284
0.015586502417533399 0.027114611438315932 0.17342901328783694
0.01619399127243676 0.027201680028292385 0.17215242901451386
0.016805394149284614 0.02728930959707443 0.17086761976911363
0.017420748997115543 0.027377505583723687 0.16957450580507594
0.01804009425714731 0.027466273497843526 0.16827300634156994
0.018663468870781075 0.02755561892072635 0.16696303954667266
0.019290912287764195 0.02764554750652345 0.16564452252021725
0.019923448315595282 0.027736132704594886 0.16431698775403106
0.020559154552818315 0.02782724532175257 0.16298111267092177
0.021199051118616752 0.027918958517890873 0.16163643201816166
0.021843179581522654 0.02801127825082082 0.1602828584435114
0.022491582061706483 0.028104210557417377 0.15892030343550861
0.023145309455854746 0.02819783154944353 0.15754827059600374
0.023802393587554427 0.028292007905183388 0.15616747765587036
0.022594803734400426 0.028256609359998693 0.15554167499534682
0.02215222066147865 0.028274473492176207 0.15460376371972356
0.023800383526148272 0.02843855099660342 0.1527979846783111
0.023781685695750066 0.02848647455589691 0.15167456941613006
0.02376292474125341 0.02853455990573586 0.15054736148975856
0.02374410034245189 0.028582807866815725 0.14941634166059967
0.023725212176977484 0.02863121926539262 0.1482814905597138
0.02482966629529948 0.02875901010054075 0.14666149778386575
0.02765154059576591 0.029008559825042125 0.14429061175635596
0.025524898863571732 0.028908825287929957 0.14404776372464892
0.024368540819395768 0.02887751885921512 0.14338899283808548
0.0237797435963632 0.028886404165022445 0.14248313541212768
0.023649875093684714 0.028927965879286092 0.14137340722013486
0.03143409477635639 0.02953362173693634 0.13673421930723773
0.03549919470831148 0.029875927948912043 0.13371370061807328
0.038307597979022945 0.030129577287935624 0.1312325642478206
0.040234538435599154 0.030320979450758696 0.12913118501716536
0.03874304599786749 0.03026773893770199 0.1285769925345526
0.036766611785269965 0.030179445750693965 0.1282502687461528
0.035801296598778454 0.03016365891441642 0.12746258263003565
0.04107122979921152 0.030597679181475677 0.12377062885035434
0.039159421387742144 0.030514173232490057 0.1234109274748782
0.037202859152846435 0.03042712783991814 0.12307921580985126
0.035208277567612134 0.03033701245766878 0.12277273311885015
0.03320995950053085 0.030246301769647186 0.12247547570925457
0.032507554242330206 0.030249604016575428 0.12156250657125425
0.03419167324953326 0.03042696484449976 0.11949436956166679
0.032934733128947735 0.030390090658746306 0.11884365910715397
0.03187040667009916 0.03036718097020585 0.1181016366118274
0.031011183514386753 0.030359227533172037 0.11726039926780063
0.030251788535329893 0.03035857845761638 0.11637030134296042
0.029264352279341543 0.030341144922722243 0.11559408829881859
0.028281343271877257 0.030323974240800074 0.11481711191239727
0.027454953761518908 0.03031830894366535 0.11396242995117259
0.02666385610339128 0.03031523438339025 0.11309028022682507
0.02602245352075022 0.03032324572902125 0.11214181102394988
0.025488696723751147 0.030339281129095005 0.11113726163156268
0.02495655551052489 0.0303554957294643 0.11013052015990257
0.024456528753686924 0.030374163959071422 0.10910567455265693
0.02412146222431044 0.03040522024221306 0.10799278252480876
0.02378679978648207 0.030436421646984773 0.10687703763769413
0.023587770288703902 0.030477905209317334 0.1056866822716516
0.02357280947094781 0.03053336549246014 0.10439455049318333
0.02370126699402797 0.030599822160330387 0.10302067582963051
0.02418095655744812 0.030693000676114524 0.10145139950132895
0.027614984436756196 0.03100962654543927 0.09826885165810822
0.0272795612575914 0.03104225106317412 0.09711950151291965
0.02600131558472274 0.031003532948554798 0.09648576775418835
0.026740123631382784 0.031117846944563977 0.09473967019476881
0.02649918260274986 0.031158047709000287 0.0935288412595128
0.026256494184414114 0.031198266794333476 0.09231550891009027
0.026013178427564343 0.03123858984417179 0.09109904015176842
0.025769232896592276 0.03127901726215234 0.08987942280759634
0.02552465514326452 0.03131954945400438 0.0886566446375065
0.025280569890088367 0.03136027340248238 0.08743004744447444
0.0250347210812758 0.031401016592802734 0.08620090641104924
0.024788232629100126 0.031441865787749934 0.0849685674288228
0.02454110203400095 0.031482821401563485 0.0837330180010196
0.02429332678336893 0.03152388385064338 0.08249424556567192
0.024044904351475327 0.03156505355356533 0.08125223749518529
0.023796964102151485 0.03160641887039193 0.08000630947765897
0.023547240464006636 0.03164780457594426 0.07875778763171351
0.023296861988029438 0.03168929880516681 0.07750599184924287
0.02304582609511102 0.03173090198548394 0.07625090923572295
0.022794130192586637 0.031772614546568 0.07499252682882293
0.02254290751754967 0.03181452602150492 0.07373013798024292
0.022289884550643457 0.03185645887723603 0.07246511236437633
0.022036193714071173 0.03189850241731567 0.07119674763568673
0.021781832360008913 0.0319406570805598 0.06992503055601551
0.02152679782662631 0.03198292330810775 0.06864994781712797
0.021272227227392748 0.032025391829620053 0.06737076989690383
0.021015839081818644 0.0320678827583 0.06608891106349579
0.020758769686566203 0.0321104865897476 0.06480364619932183
0.020501016322792998 0.03215320377455252 0.06351496171106447
0.020242576257178013 0.03219603476570599 0.06222284393297067
0.019983446741808075 0.03223898001861549 0.060927279126379685
0.01972476954333069 0.03228213173071191 0.05962750958988422
0.019464253615314564 0.032325307128661815 0.058325004514891476
0.019203039905466124 0.03236859817024217 0.0570190107305083
0.0189411256065547 0.032412005320696644 0.05570951420137782
0.018695723997148417 0.03245692002773073 0.05438505783835429
0.01847031858418874 0.03250363335761061 0.053043105339407315
0.0182442634106339 0.03255048134477261 0.051697284486874884
0.018017555662894258 0.032597464572307625 0.05034757853006444
0.017789040690989688 0.032644489815490355 0.04899475342060755
0.017561018277816087 0.03269174501476191 0.047637231654992396
0.017246968790992412 0.032732156390858816 0.04633443626722911
0.016227219792085912 0.03271490576031136 0.04551551183400898
0.01681403226964695 0.0328294956031879 0.04358193493175028
0.016143139490953584 0.0328410747098269 0.042516344802720485
0.01517811249024531 0.032828451988616926 0.04165630076056798
0.013862991585105233 0.03278685630094194 0.04104473835623862
0.013266303280746516 0.0328045618445388 0.03992681549499494
0.014863628264817574 0.03300433175846179 0.03724035137200071
0.05007175375077155 0.03599864246245115 0.010399954089079178
0.049146165827189225 0.03599567665277305 0.009365026373574559
0.0482289288144932 0.03599339559347095 0.0083243174841246
0.04727363523765954 0.035987922229054545 0.007311603641510345
0.046234331103585824 0.03597538537720058 0.006361066558351447
0.045194395165399304 0.035962743405062524 0.005412191852598391
0.0441957504726449 0.03595352378843465 0.004433891211161944
0.04325696629614595 0.03594931393184721 0.0034118210843948615
0.042173095255056914 0.035932825340131105 0.002498969736423551
0.0404381879778824 0.03586113410298761 0.002078626139535078
0.037852265545913755 0.03571692183690592 0.0023103864797541784
0.03532374035692698 0.03557698434716776 0.0025123293244607714
0.03298496202062867 0.03545262764465413 0.0025824063581447176
0.030476007071849498 0.03531321255043175 0.0027956691059951577
0.028279631360876634 0.03519995860420568 0.0027803486895236484
0.026117518520033856 0.03508916289117862 0.0027493787325939545
0.02376229790015172 0.03496129959645159 0.0028804310328854887
0.02149364444045876 0.03484034767813318 0.0029558484453598433
0.019314417227598413 0.03472659815437099 0.002972351618518221
0.017227426817957525 0.034620340334882295 0.002926642619091979
0.015056408915788022 0.03450634340173844 0.0029586139533861466
0.012995561512727849 0.03440142716004086 0.0029132357526634456
0.010951966044101202 0.03429756118281176 0.0028642858444394848
0.008938371498275643 0.03419586452743661 0.0028012454754415828
-0.03025824711410252 0.03084275327489695 0.03313244564472839
-0.03176655067977785 0.030777406294991667 0.032836386819171004
-0.027411394100120112 0.03122665372714076 0.02770437262255454
-0.027051240240917318 0.03132628629860807 0.02584434538057173
-0.026536903523318722 0.03143995138597564 0.023845643198378064
-0.025701204516644705 0.03158251746023142 0.021565872238299366
-0.024607638625992356 0.03174854993971987 0.019054231153324996
-0.02314559060586907 0.03194802319381353 0.016213366539855778
-0.02151260686657991 0.03216358214551038 0.013206616634898527
-0.01749632710732779 0.03259260121600887 0.008135528670870196
-0.06520338508362478 0.028718585630365265 0.04029311949769676
-0.06751107247016391 0.028573892796897024 0.040867509350770104
-0.06964268117641392 0.02844453272322692 0.04129944318741963
-0.07158506215384919 0.028331805045948625 0.04157472988750721
-0.07342596852441241 0.028227821239517285 0.041770042766228754
-0.0751314458800093 0.0281357433958595 0.041853192221532165
-0.07677593396742333 0.028048834519219912 0.041890259311978484
-0.07831128582024627 0.027971549548977705 0.04183626291485282
-0.07976447712093004 0.02790147223805973 0.041714572393517224
-0.08108834622990446 0.02784300091968032 0.04148033298945408
-0.08234490215496199 0.0277904838920309 0.04118950351034095
-0.08353456707305879 0.027743922955965315 0.04084153944737412
-0.08457544363860559 0.027710963346261535 0.040358378896884595
-0.08544854008885794 0.027693466398148486 0.03971988775303131
-0.08620844836901748 0.027686446812959755 0.038975552294058746
-0.0869051984385183 0.02768529971980856 0.03817155453171839
-0.08756228795350013 0.02768786394421765 0.03732954801666316
-0.08819650180503091 0.02769258875845262 0.03646516012242751
-0.08876133754332788 0.027703867329326986 0.03553286920632731
-0.08932305075003405 0.027715493189695458 0.034596319962322375
-0.08984874059751963 0.0277305807868117 0.03362316190427389
-0.09030779818555551 0.027752056472064444 0.03258263498251712
-0.09075113200082091 0.027775127331709688 0.03152419485192376
-0.09111734276169597 0.027805653277584146 0.030386372052559396
-0.09143791620551822 0.02784068082254356 0.02919950515435865
-0.09175286556574197 0.027876412388220174 0.02800316460463459
-0.09201428101306541 0.02791744914790509 0.026748726678182233
-0.09208742942072029 0.027976785105835966 0.02529819886740714
-0.09181014995426712 0.028070181907143665 0.02348268408365789
-0.09107862601441735 0.028207914513048077 0.021189819961433265
-0.09004745178717133 0.02837532857437225 0.018572079004870068
-0.08854073936983159 0.028589713879437744 0.015441811502213354
-0.08632187763953242 0.028874436104696415 0.011544130129959973
0.06992706378097385 0.028339212807975966 0.1840062708610734
0.06645905839204785 0.028167545828788776 0.1839754029542699
0.06303510217142327 0.02799808963208498 0.1839442021262261
0.059650968782758884 0.027830589231682176 0.1839137247541289
0.05630708618940661 0.027665081076727018 0.18388360987906419
0.053002740523839964 0.027501529833772784 0.18385385107197108
0.04973615149858385 0.027339832567923123 0.1838247863926229
0.04650881908287646 0.027180093244214235 0.1837957190948686
0.043317925743229346 0.027022142854926587 0.18376732996752657
0.04016494519159197 0.02686608371904623 0.18373893030610566
0.037047146623539196 0.026711751464114475 0.18371119349528697
0.03396496385693559 0.02655918220535924 0.1836837735325862
0.030917790078400342 0.02640834590527962 0.183656665019621
0.027906020085483985 0.026259276334248165 0.18362953148377717
0.02492708561771273 0.026111817826988806 0.1836030319559576
0.02198142063472902 0.02596600617320097 0.18357682838144362
0.01907037200969236 0.025821936025246756 0.18355026409617173
0.016191448546037157 0.02567945577748139 0.1835239929636196
0.013936267353963638 0.025576692201037636 0.18329200263706671
0.012681010764359402 0.025538121281869417 0.18271773362920532
0.011834208347663466 0.025525827006767157 0.18200233684032807
0.011222124475001871 0.025528690634976377 0.1812044547182691
0.01084098378121251 0.025546543126652645 0.18032362732024218
0.010784667218001587 0.025585559024911397 0.17932419123730686
0.011041573241000191 0.025645089554454065 0.17820782336817684
0.012024824888465457 0.02575216836627863 0.17682087069456603
0.015797055322316844 0.02604171878832176 0.17439736703733144
0.016405473066784415 0.026125308059913522 0.1731250088207694
0.017016849311153492 0.026209372782833164 0.1718448150619325
0.017632172769087184 0.026293980250777737 0.17055635601927757
0.018251481790833135 0.02637913573693704 0.16925955138914733
0.018874815225056463 0.026464844583033664 0.16795431982422132
0.01950221242696354 0.026551112200440007 0.16664057891650544
0.020133713266583808 0.026637944071317102 0.1653182451799885
0.020770346118251015 0.026725411140280014 0.1639868488968413
0.02141018076808382 0.02681338868479303 0.16264707008711296
0.022054241882227876 0.026901947370000356 0.16129844129193988
0.022769755449927154 0.026995562428551414 0.1599141395371968
0.02359918107046549 0.027097089342194947 0.15847653184780316
0.024434868973434942 0.02719938279860358 0.15702807001407457
0.02428525969717571 0.02723614240868096 0.15597136808543383
0.023150486708628237 0.027207038514135213 0.15531446260837284
0.022865465634174187 0.027234852108440368 0.15431015643396528
0.024873614175438208 0.027416898244885458 0.15235321535083543
0.02483719608346363 0.027461910338054875 0.1512342087719053
0.024801685246987226 0.02750713974463865 0.15011109051483953
0.0247650286093693 0.027552448880898552 0.14898470153161172
0.025549973145000793 0.027653524413842334 0.14750486950838326
0.02952861838520726 0.027971489460370095 0.1446483679458306
0.027761685015985416 0.02790032696359082 0.14424311193568187
0.0260985755680887 0.027835979514804904 0.1437987366348756
0.025093734885064 0.027816272666118993 0.14307212742194575
0.0246006825403694 0.027831440213625398 0.14212208812110202
0.02483286521628164 0.02789626536593156 0.1408497362563707
0.042505014866094704 0.02931118297658418 0.1280998304828827
0.04008121469235526 0.029195934457477313 0.12796522703225582
0.039121795598035636 0.02918150437804489 0.12716665592310378
0.04566352656407574 0.029686477370337406 0.12289599463681214
0.042753645284795694 0.029537560411544105 0.12298664052382957
0.0401882432856252 0.029412051692620633 0.12292845947207134
0.03782397065895571 0.029300096633709666 0.12278609793692744
0.03561523209846612 0.029198588028915135 0.12257946708265025
0.034532980554979276 0.02917542462240163 0.12184320082001995
0.03652841972865367 0.029367609327855027 0.11962884291173431
0.035422317400072956 0.02934299462675074 0.11889883240565835
0.03433599175988422 0.02931968033002442 0.11816131648381117
0.032784101144572864 0.02926351623923547 0.11765393778310992
0.03168948387410664 0.02923938873179164 0.11692597269664295
0.03076379075390634 0.029227105272900584 0.11611629917172078
0.03004547644063449 0.02922945163382039 0.11520417712485628
0.029332564554377938 0.029232189530969226 0.11428913732257143
0.028451018283902563 0.02922296095921155 0.11345907663491483
0.027500856144864083 0.029208816586600204 0.11266471030855635
0.02684411226947009 0.029215535410625652 0.11172148103674606
0.026251668305903697 0.029226870661968038 0.11074456765188848
0.025666422320187898 0.029238762579204016 0.1097629304410537
0.02517252244382373 0.029257245534036344 0.10873265639694377
0.024813542278428413 0.029285484924925644 0.10763003441700542
0.024486677772169396 0.02931613918013626 0.1065079809919752
0.024277314318716325 0.02935537572220374 0.1053208782545848
0.024361204983872287 0.02941593295226054 0.10397378477646455
0.02456863628586231 0.029485652545994254 0.10255497821457488
0.02520896114050869 0.02958700641959149 0.1008961439741535
0.028718721670044967 0.029897092524252 0.09766912194382665
0.02757016250535438 0.029869458766036795 0.09696065648894084
0.02684252321639935 0.02987239957650287 0.09602321645325262
0.02772351785871907 0.029992814508946107 0.09419571981899214
0.027420075802017496 0.03002703172623248 0.09301643993853284
0.02711481182608627 0.030061244372295126 0.09183509801301493
0.026809980635244313 0.030095617993199604 0.09065042521937375
0.026504451526075667 0.03013007031333526 0.08946304008891282
0.02622308609552859 0.030166434386977838 0.08825876900635088
0.02597836168248574 0.0302056425850006 0.08703020202817519
0.025734132128865606 0.030245036583661344 0.08579778492404572
0.025488132060772717 0.03028444950450694 0.08456280564014296
0.025241490020756208 0.030323965278937055 0.08332460350334803
0.024994203492553158 0.030363584310093783 0.08208316588144626
0.024746269946742394 0.030403307003229508 0.08083848007611408
0.024497686840639743 0.030443133765719377 0.07959053332249669
0.02424958822420853 0.030483150078839515 0.07833863447523787
0.02399969911054317 0.0305231864343397 0.0770841228655895
0.023749152728405776 0.030563328095083896 0.07582631158868489
0.02349794648122211 0.030603575477086524 0.07456518760900199
0.02324607775871601 0.030643928998555708 0.07330073782226881
0.02299354393683417 0.03068438907990891 0.07203294905500032
0.022741483760698622 0.03072504257104155 0.07076110305290084
0.022487612608213192 0.030765717271302586 0.06948659200183355
0.022233068400762834 0.030806499807009037 0.06820870200842172
0.021977848458217486 0.030847390607564487 0.06692741961761922
0.021721950086207475 0.030888390104656088 0.06564273130284165
0.021466515947236586 0.030929586314085003 0.06435389561796129
0.0212092533726308 0.03097080474210436 0.06306234995492871
0.020951304199166798 0.031012133176505627 0.061767357332053685
0.020692665674515054 0.03105357205826551 0.06046890393169546
0.020433335031615263 0.031095121830720815 0.05916697586226116
0.020174458852703914 0.031136871699252448 0.05786080792288095
0.019913736410459515 0.031178644830946674 0.056551883798118596
0.019652313459543047 0.031220530198626466 0.05523944285802285
0.019390187172969975 0.03126252825523365 0.05392347091006533
0.019127354708523836 0.03130463945615053 0.052603953685247395
0.018863813208646718 0.03134686425921583 0.05128087683758853
0.018600713959636528 0.03138929332936327 0.04995344589494927
0.018335746552889 0.03143174696431982 0.04862320157015948
0.018070061445101204 0.03147431559084333 0.04728935409383006
0.017346181310251174 0.03148102839442846 0.046266258813129846
0.016627752807972518 0.03148819792662614 0.04523874658619387
0.017137841778858798 0.03159238725419769 0.04335694750470298
0.01640526831712985 0.031598693453309644 0.04233320810745517
0.015381901664056341 0.03158197383274538 0.04151313795292194
0.01396955247706494 0.0315342878284788 0.04096946659715417
0.013740653630411048 0.03158060415833033 0.03958990447332711
0.05078439424037984 0.034599934883222216 0.011587239467096166
0.04994003699923244 0.034603552120344654 0.010494536567805024
0.049012004240762186 0.03460048290268474 0.009461892037805453
0.0481032540882424 0.034598948498517954 0.00841555184706394
0.047055634756338394 0.03458624009011084 0.007470726889308277
0.046185397297895725 0.03458777336926637 0.006396979234411793
0.04511442631646362 0.03457310328215004 0.005471200975711299
0.04415654174684841 0.03456752316033148 0.004462980799462113
0.0430614481312116 0.03455079359526909 0.003557667418455035
0.04220806742005628 0.034553635386897444 0.0024727407473760787
0.04043284079594328 0.034481424299967506 0.0020826582435927166
0.03790123355952235 0.034347189844793596 0.002273261677998961
0.03545217959438379 0.034219141422147645 0.0024144273505301572
0.03301742263737756 0.034091724977972214 0.0025575298283368464
0.0304965747883974 0.0339567010158722 0.0027798217915450674
0.028252868812294274 0.033843911746866094 0.0028010801995718704
0.026044231260875794 0.0337335360922917 0.002806455998468904
0.023683440591619698 0.03361011746679411 0.002942176520634221
0.021476275991222926 0.033498895922613854 0.0029695210209094713
0.01935131894033809 0.033394022332559295 0.0029431464793044926
0.017182298550522612 0.03328503546263528 0.00296254988845962
0.015044317191737544 0.03317816852319847 0.002968286491276284
0.012972776284924936 0.03307639215766981 0.0029315598102380713
0.010922230776515218 0.03297593516215201 0.0028883269141938284
0.009009179005561474 0.03288657884157453 0.00274369186820006
-0.030331981644672712 0.029650294749654808 0.033192697877509225
-0.031784631587123524 0.029592136563548633 0.03285124033085035
-0.02724807013196029 0.03003941867245978 0.027569487736550435
-0.02682138557841751 0.03014087889559383 0.025653505597926285
-0.0262703124832927 0.03025332998084882 0.02362312722406612
-0.025423821332932806 0.03039137934232058 0.021333120100277547
-0.02424364763738479 0.03055845427962149 0.01874718760366889
-0.022827504579421565 0.030746405056892447 0.015943625107921355
-0.020892283945246337 0.030979588845478613 0.012677790903926678
-0.016665934687692174 0.031410234863535114 0.0074238764613341335
-0.06545307175246468 0.02759233035496721 0.04051395945258951
-0.0677030139399144 0.02745818254358062 0.04103816776497565
-0.06978229535689379 0.027338327266792008 0.04142422844566651
-0.07172481345719156 0.027229895870430385 0.041700293203779215
-0.07353594211587944 0.027132494481951208 0.04186936965001181
-0.0752297880203941 0.027044958338866075 0.041942479156496126
-0.07685909004750724 0.02696270992806031 0.04196615384987912
-0.0783795483325403 0.02688969543762684 0.041898890470819905
-0.07981437429743549 0.026823924430997445 0.04176059003046956
-0.08113348257630126 0.02676811408293864 0.041522177489681455
-0.08238608903770811 0.0267179587903317 0.0412278859941122
-0.08355358337989016 0.02667515511945267 0.040859353431261236
-0.08454559122660149 0.026647822269948766 0.040330268069762254
-0.08541008645046538 0.026631774092826233 0.03968348874258426
-0.08619904373279152 0.026622426987115238 0.03896660378387262
-0.0869044767541155 0.026620545378172253 0.03817086427389571
-0.08754644385142496 0.026624373761395485 0.03731431500936805
-0.08816631227891308 0.02663021578905618 0.03643598403415388
-0.08874913715999128 0.026639438425452758 0.035521017093550544
-0.08932018443985418 0.026649772764067263 0.0345935210078947
-0.08980507777844049 0.026667991104649198 0.033580303736647
-0.09027919098637727 0.02668727759739549 0.0325544092497142
-0.09071325220033238 0.026710314545848973 0.031486626293245334
-0.09110805384120979 0.02673705586711272 0.03037711168987367
-0.09144506227044708 0.026769229337575376 0.02920666616923301
-0.09171569287013814 0.026807663521321738 0.027965721182205472
-0.09196063276977784 0.026848649825833747 0.02669440791410621
-0.09208098061605408 0.026901351186424297 0.02529163566879039
-0.09171153203667015 0.026999699781805726 0.023381797551981442
-0.09097056960641897 0.027133033695499156 0.02107870614888807
-0.08991566479371821 0.027296242759259372 0.018435862610272302
-0.08835533722200056 0.027507416955781253 0.015249187642954909
-0.08609696672801914 0.027784927019447004 0.011309251479840743
0.06647412742805076 0.0270417505505312 0.18397079594805377
0.06304882300881626 0.02687899282607028 0.18393997414086358
0.05966450405781171 0.026718182578602617 0.18390952113185538
0.05632043933265379 0.02655928506221018 0.18387943034111615
0.05301591488340929 0.026402266352647915 0.18384969534433285
0.049750233544425426 0.026247093323197322 0.18382030986822256
0.0465227144439877 0.026093733621367264 0.18379126778611893
0.04333163772653964 0.025942091465363026 0.18376290361423597
0.040177436210215633 0.025792201644229573 0.18373486721084348
0.03706050173379011 0.025644096672928187 0.18370681620244886
0.03397814525352805 0.02549762089786354 0.1836794203755077
0.0309308008349089 0.02535280892090407 0.18365233573393666
0.027917875301080863 0.025209632553863354 0.18362555700561023
0.024938788799466316 0.025068064241733884 0.18359907903682995
0.021992974429739298 0.024928077045008455 0.1835728967890146
0.019080828496394697 0.024789703227951498 0.18354667945094993
0.01620271148306457 0.024652973056261178 0.1835201032692528
0.014256278301471359 0.02457341859453463 0.18318067086257472
0.013068113665647918 0.02454058017622904 0.18258207157128217
0.012323874516786015 0.024535182613973257 0.18182947580095926
0.011794238288752923 0.024543107511975328 0.1810010167427576
0.011456370854007858 0.024562999710569418 0.1801032138089178
0.011441626832034812 0.02460311190429196 0.17908718673021826
0.01182028073761865 0.024667936020639318 0.17792487423816306
0.013460632939957029 0.024811934636252163 0.17629541681628272
0.016615513045596775 0.025051355190163705 0.17409570062331167
0.017226856619743214 0.025131870885745946 0.17282010867629696
0.01784214261264716 0.025212905809144287 0.17153629072047097
0.018462377762124227 0.025294526015749746 0.170243802316175
0.01908566851772675 0.025376614973342513 0.16894328748897264
0.019713018007370797 0.025459238476400692 0.16763430399162907
0.02034446600494738 0.025542401763245643 0.16631676883472854
0.020998812941933676 0.025627300107731447 0.16498333524490363
0.02181338000443306 0.025722667556973163 0.16358025200390508
0.02263303342358247 0.025818683871626325 0.16216707916164794
0.023459833498823968 0.0259154837311157 0.1607429197036822
0.024290835712674097 0.026012883105724614 0.1593088452811932
0.025129124224183785 0.026111082383143046 0.15786354348553897
0.025972743532016007 0.026209960366099707 0.15640770063259066
0.02486091794949935 0.026183650518789035 0.15573757223533788
0.02410576539049286 0.026180185748537952 0.15492386012530518
0.02453814906448959 0.026253204763106476 0.15362159631688277
0.026043118094212725 0.026395686687709908 0.15186854835797828
0.026009552314041173 0.026439213310473463 0.15074509985268722
0.025974842696262046 0.026482816837141772 0.14961837391529276
0.025940018403234788 0.02652656442318707 0.14848792544790615
0.02708976158159737 0.02664743271824867 0.14684953320110153
0.030325682510943697 0.02690451019832846 0.14430688892164695
0.02805989568091627 0.026803758093976515 0.14411450847960952
0.02679832409367089 0.02676824580420975 0.14349498307903683
0.026038580913364973 0.02676544441238464 0.14265928754346482
0.025783992321873006 0.026795744210931196 0.1416016708669624
0.04652861079115733 0.02855652905458731 0.12249542770028576
0.043244703308610966 0.028388761750678074 0.12275781253121049
0.04059204309753922 0.028262510163303715 0.12273909677558445
0.038470699636553585 0.028171318186880765 0.12248089054597253
0.0370570988617861 0.028127187362607428 0.12189471276012076
0.039854194355752603 0.02836533942865005 0.11930018016652008
0.03832172083966445 0.0283134109511995 0.11876643127405753
0.036391291699709116 0.028234505238998217 0.11842992334011126
0.03520941080732326 0.028205797031839477 0.11773600524507943
0.034295702220384194 0.028195103359429565 0.11691327222144215
0.03281935574000261 0.02814628870028442 0.11636890506643391
0.03171484750724762 0.028122510362712638 0.11564448387179407
0.03081403263355742 0.028112482679146508 0.11482053946225657
0.029960345825513324 0.028105625752055104 0.1139738349550817
0.029178872240231413 0.028103667244865106 0.11309126140363568
0.028575100979344015 0.02811383939300334 0.11211851405556
0.028049172108645493 0.028129375536155698 0.11110501734355277
0.02725176416455405 0.02812635746693513 0.11022982813605864
0.026591851647759734 0.028132771640541322 0.1092837161691565
0.02611938682715681 0.02815210730652016 0.10823935930390105
0.02570007797669216 0.028175178664842388 0.1071653639715392
0.025408587120046677 0.028207162774642004 0.10602184372441939
0.02528577272723609 0.02825093619302083 0.10478588973923983
0.025414961715984175 0.028312340697216106 0.10341139610305672
0.025903227117439975 0.028398910639112075 0.10183842556140635
0.027581326274609075 0.028568588359037982 0.09961475975185188
0.029780824720702426 0.028775244796977913 0.09709201469411433
0.028312555168721665 0.02872652714545329 0.09655485857402457
0.029159049026702244 0.02883958676483076 0.09474943815303541
0.028856756888807955 0.028872541503924824 0.09356888494532059
0.028553773107516056 0.028905571643352782 0.09238563063579189
0.028248960288572156 0.02893859757803273 0.09120030122703957
0.02794458561981239 0.02897177911327375 0.09001162084164901
0.027639512146462653 0.029005036828998458 0.0888202114009082
0.027332601068926654 0.029038290572497374 0.08762671086390128
0.02702612228956841 0.029071701253200386 0.08642981910495168
0.02671893744526027 0.029105188905336945 0.08523016995010146
0.026411044093240188 0.029138753795203476 0.08402775385964181
0.026101301569788404 0.02917231503094627 0.08282322496954844
0.025791983374762573 0.029206035012357405 0.08161525034400191
0.02548194927674341 0.029239833037143663 0.08040447991571367
0.025201967388296775 0.029275916099137395 0.07917264612949343
0.024953226248614013 0.029314382791012696 0.07791871130375791
0.024704971934438935 0.029353032869030838 0.07666079188336827
0.024454919970530564 0.029391702614715628 0.07540024054832212
0.024204208299578478 0.029430474382008073 0.07413636352618502
0.02395283430739792 0.02946934857518388 0.07286914763843241
0.023700795365974248 0.029508325600657626 0.07159857963681812
0.023449234201590008 0.02954748912685372 0.07032393873020404
0.023195858225842414 0.029586673265767218 0.06904662193269501
0.022941809333128504 0.02962596147007758 0.06776591283198286
0.022687084839184413 0.029665354154902297 0.06648179789615694
0.022431682045441603 0.029704851737569024 0.06519426352124441
0.022176747635956062 0.029744539011697005 0.06390256562492153
0.021919980894383462 0.029784247876377446 0.06260814661746111
0.021662527670788523 0.02982406290520129 0.061310266899479104
0.021404385208460663 0.029863984524493487 0.060008912573755124
0.021145550735900687 0.02990401316286405 0.058704069668565007
0.020886021466736848 0.029944149251224555 0.05739572413717092
0.020626948836770187 0.02998447896359577 0.056083103199784545
0.020366022361479053 0.030024831484883552 0.05476770518577806
0.02010439264034164 0.030065292763791517 0.053448761927171795
0.019842056826446963 0.0301058632405959 0.05212625907197904
0.01957901205750595 0.030146543357953304 0.050800182190635146
0.019316413732141213 0.030187420466258896 0.049469733944241534
0.019051943211089273 0.030228321437945373 0.04813646050483672
0.01878675505485844 0.030269333393553095 0.04679956925614587
0.017718088664074816 0.030249860665343974 0.0460106892868854
0.01829138582716544 0.030354503656774695 0.04408918890538427
0.017694165704584264 0.030370856333961777 0.04297040577231692
0.016803160018817487 0.03036496382479129 0.0420552204767794
0.015615882920803348 0.030336500936059718 0.04134876507174262
0.014056676993498385 0.030279560063106947 0.040907924172999044
