# .PCD v0.7 - Point Cloud Data file format
VERSION 0.7
FIELDS x y z
SIZE 4 4 4
TYPE F F F
COUNT 1 1 1
WIDTH 768
HEIGHT 1
VIEWPOINT 0 0 0 1 0 0 0
POINTS 768
DATA ascii
0.09144778621232252 -0.02136475122986487 0.030715799589857484
0.09165714083229942 -0.021399806996993332 0.029419188410645225
0.09178502658754262 -0.021441026434421213 0.028035559853498704
0.08447771618800637 -0.022031122463893618 0.01911796634774987
0.08475036676898107 -0.02206333042507192 0.017830985649008313
0.08506902031783448 -0.02209228091791951 0.016586480988186603
0.08544501124194553 -0.022117108181122298 0.01539680474488242
0.08590391160165672 -0.02213587742914564 0.014289273166808558
0.08647787292415121 -0.022146143941736866 0.013298593095359301
0.08714014396349912 -0.0221498489558327 0.012398660878682799
0.08780862415042456 -0.02215310590093155 0.011504712662390726
0.08849298373878905 -0.022155184107962984 0.010627048895769708
0.08918790268453003 -0.02215647616316055 0.009760283250507651
0.08990965984190047 -0.0221557458535529 0.00892194089631676
0.09059503963423071 -0.02215776836968958 0.00804472477920648
0.0909969082106099 -0.022181335391791727 0.006861852022086279
0.0903457688483914 -0.022285196704624324 0.004535523154551024
0.09025262830914677 -0.02234697579149621 0.0028011888936320117
-0.10083606779944032 -0.027004053789527582 0.048972317693412315
-0.09996963062312347 -0.027006689362530648 0.047856870475806834
-0.10027923955286483 -0.02707521866124139 0.04607115016976021
-0.0999760623098242 -0.027109613896124637 0.04462838283957138
-0.0991943496986481 -0.02711722978345 0.04345731540417841
-0.09824079030404614 -0.027115192558157187 0.04238496207559278
-0.09712741461264762 -0.027104126028569007 0.041406046450608025
-0.09607436538262826 -0.027096429054134667 0.040393079563002476
-0.09503127393928779 -0.027089266834246915 0.03937516615309439
-0.061062378597826816 -0.02521272759174461 0.057894752497265334
-0.058203294639409875 -0.025098612075435598 0.05807544859437508
-0.055935443387454875 -0.025017752944137203 0.057915101269049585
-0.0539105432404951 -0.02495045478873896 0.05761790764578695
-0.05169843775641608 -0.024872185307950562 0.05744257175782125
-0.049822080303506266 -0.024812859043470657 0.05707175226092709
-0.048083204742774444 -0.024761198704123365 0.05662374531551062
-0.04648451606062537 -0.02471740473211137 0.056095472295974336
-0.04500724453022209 -0.024680440888545783 0.055497145731954856
-0.04380934735443215 -0.024659472933036688 0.054728821910878855
-0.04278030478234285 -0.02464819724610901 0.0538569869007251
-0.04197545713904505 -0.024649880622987456 0.052844878170580645
-0.04137214454215671 -0.024663282640350375 0.051704492109375166
-0.040919401994130744 -0.024685504934957612 0.05046622132353684
-0.04052004943248444 -0.024710929912526946 0.04919087950119183
-0.04017914338837564 -0.024739872174149087 0.047874601095322544
-0.039847531686066195 -0.02476947355525946 0.046548675222573554
-0.039583299519765525 -0.024803147061081932 0.045175013425444444
-0.03929307721161385 -0.024835426132640535 0.04381422158003645
-0.0391247650209498 -0.02487501745560453 0.0423688047763629
-0.03886474822252284 -0.024909352454387766 0.040979368000642724
-0.0386990517571798 -0.02494940496863827 0.03952256772289642
-0.038319734839220077 -0.02497695481109682 0.03820429345902432
-0.03799537818559262 -0.025007879942916537 0.03684539245345242
-0.03787588227918587 -0.025051122569015014 0.035343348374713535
-0.03814811196148066 -0.02511790155538937 0.033568114530230286
-0.038597038396960326 -0.02519550976227665 0.03166296736943758
-0.03919528938514921 -0.025282373956334193 0.02964475157049573
-0.04005498207583669 -0.02538527770403384 0.02743379428030035
-0.07196661300126134 -0.02735555349525222 0.0035151917970094315
0.05389931210145099 -0.020283123856583297 0.07588532777866988
0.05599820949904061 -0.020195880321968358 0.07612707017634102
0.05767244875375355 -0.02013455180773198 0.07606008047736657
0.05930758758557658 -0.020075390793324852 0.07597153832683859
0.06072176113982908 -0.020029713139551108 0.0757223885701723
0.06200895800277029 -0.019991750740766402 0.0753819807259068
0.06316980937330124 -0.01996151307331557 0.07494926460535425
0.06424219640807949 -0.019936680060650268 0.07445204304124553
0.06524484182993084 -0.01991611266887628 0.07390381666040693
0.06609122544317664 -0.019905272104556133 0.0732359849828634
0.06691093064355147 -0.01989606451515657 0.07254860340898062
0.06769664010491078 -0.019888961890047394 0.07183555210069228
0.06838533260757579 -0.019887961257128915 0.07104626228838118
0.06900098444105335 -0.019891583075262436 0.07019867986925915
0.06956577619353504 -0.019898449085845583 0.06930970624893096
0.07004690548201015 -0.019910667037081206 0.06835216197502336
0.07048212057833592 -0.019925864933911776 0.06735564066767613
0.07085876109335587 -0.019944871002729667 0.06630918930040675
0.07120237534712992 -0.019966074112187194 0.06523301775612855
0.0715384713011753 -0.019987851730161467 0.06414774247830152
0.07147729489760624 -0.02003527246270715 0.0627296472590298
0.07151756442513163 -0.020076361833316275 0.061389724142672186
0.07183627581860103 -0.020099646086473542 0.060277795360753395
0.07165228671596907 -0.0201555730894685 0.058738608497739264
0.0691771379582708 -0.02036038224938886 0.055248767232131735
0.06697381636757016 -0.020548419094401846 0.05196233001970124
0.052614537302906994 -0.021529367254108454 0.03823208457585203
0.05471375411041185 -0.02143984476706201 0.03854510112550269
0.05681068781921278 -0.021350075266755784 0.03886860515560747
0.05886937960075883 -0.021262415784876552 0.039171340948907396
0.060926024485305263 -0.021174500949955932 0.03948454494781878
0.0629397132128332 -0.02108902441070709 0.039772277218458996
0.06494203861643172 -0.021003916326138152 0.040061966820245154
0.0669290641416857 -0.020919439697216217 0.040350035880750146
0.06889228585694723 -0.02083616283863448 0.040628750042890294
0.07082432892219015 -0.020754584116933657 0.04089122866010603
0.07272739245036758 -0.02067456849126185 0.04113909688554307
0.07456609623250338 -0.02059848922188119 0.04133989917125658
0.07638752692991752 -0.0205232215132697 0.041535769627049524
0.07818518231581906 -0.020449207075971726 0.04172056904400406
0.08000487506241455 -0.020373374246656382 0.04193627923085924
0.08195172965646008 -0.020288626428823238 0.04228074885987437
0.08395524454173553 -0.02019966434536888 0.04269019830454046
0.08595494032849976 -0.02011055331227472 0.0431088824470191
0.08796269017351477 -0.02002048668203547 0.04354801401751235
0.08765911660618425 -0.02008719519158246 0.04181235029004343
0.08823240017242878 -0.02009444013297453 0.04090134218044267
0.08870560812412798 -0.020108556020025748 0.03989356329992122
0.08914742501277995 -0.020124887010354666 0.03885354756383197
0.08948170428763708 -0.02014867524877632 0.037707219402711045
0.08983458620020485 -0.0201712943640543 0.03657548104629044
0.09019752162133432 -0.020193325725384514 0.035450241542164085
0.09048074963717462 -0.020220969638251422 0.03424352380335738
0.09076617992462344 -0.02024859056047374 0.033034904371353646
0.09102956852316363 -0.020277871988574704 0.03180034358272321
0.0912623161737991 -0.020309424248825182 0.030530899759288854
0.09140003621164317 -0.020347755961734746 0.029161545913534426
0.08438404654079279 -0.02088659574062473 0.02058067885069187
0.08458832228735425 -0.020921812261583 0.01922995485376011
0.08486028078985636 -0.020952440024155913 0.01794284941091484
0.08517519718309552 -0.020980187829382275 0.016695100354134296
0.08557299859762868 -0.021002215874708807 0.015528413441774747
0.08610173133988241 -0.021015082509278592 0.01449374168692058
0.08667465146881365 -0.021024875960262836 0.01350303648037704
0.087327527431946 -0.02102903028763028 0.012594348921683207
0.08797916633866892 -0.021033292841939707 0.011683732758389798
0.08862584696290171 -0.02103793033157636 0.010767236931150725
0.08932194888505762 -0.021039050032474832 0.009902449392900303
0.09000104327302355 -0.021041396458325538 0.00901935996398151
0.0906536076918974 -0.021045664027822826 0.008107483130824933
0.0908107270771858 -0.021085703275678117 0.006661321740261128
0.08952690455509998 -0.021230169938033547 0.0036490017302178712
0.0904965089729503 -0.021211942461958327 0.0030665804652740825
-0.09948136641994587 -0.025607861716420714 0.0465256750949703
-0.09974588202724127 -0.025670552581305347 0.04476027967744767
-0.09950644482891019 -0.025706633979212645 0.04327743226760039
-0.09907065518165203 -0.025732372343240793 0.04190385373079064
-0.09841796291437338 -0.02574660942757175 0.04065349408486568
-0.09746236117600604 -0.02574467091094559 0.03957898934574827
-0.09651161233540345 -0.025742985481671428 0.03850186840615316
-0.09564402534734207 -0.025745766560170958 0.037375617988068155
-0.05855843067365085 -0.02379677076500467 0.05786350744760249
-0.05642413388448825 -0.023727415402985497 0.05762177105540467
-0.05453786146216272 -0.023671209740068682 0.057239196207523324
-0.05257548333188622 -0.023610661342271078 0.0569100521528893
-0.05070104733533376 -0.023554654057493588 0.05653499948012858
-0.04892970249454953 -0.023504038669778883 0.056103855611819076
-0.047323812411955324 -0.023462246703686605 0.0555770545038089
-0.04583473582129005 -0.02342667272490005 0.05498309892180814
-0.04458545838860328 -0.023404084519625154 0.054243942951653745
-0.043527545006796065 -0.02339190220860954 0.053387486908758
-0.042682080560978886 -0.023391345606708795 0.05239837462183067
-0.0420477894211122 -0.0234024130538328 0.05127514095064817
-0.041543089195755445 -0.023420672843668607 0.05006764268426428
-0.04113746944638341 -0.023444481168786366 0.048794074850482316
-0.04077781704192207 -0.023470929433577974 0.04748767240540552
-0.0403895205050257 -0.02349589300470097 0.046196408374621745
-0.0400079883214034 -0.023521331821403643 0.044897432968406426
-0.03960791350070353 -0.02354583880107444 0.0436072858361653
-0.03919941148620992 -0.023569973052353227 0.042319465963763514
-0.03881031997701451 -0.023595289449098278 0.041015544672827864
-0.038271080297249516 -0.023612291807611287 0.039808616491907145
-0.03799164784371284 -0.0236439530211653 0.03842480508698187
-0.038093061854944876 -0.023697172631093805 0.03677937209118609
-0.03835527699620006 -0.023759673450029533 0.035017542476853125
-0.038649534415244324 -0.023824236847022277 0.033225444926672565
-0.039008212082796034 -0.023892708368850987 0.031380414569626425
-0.03951057032416028 -0.023969608077945417 0.029426894855179464
-0.040258200516019915 -0.024060762114223457 0.02729259523368588
0.05409300232465725 -0.019204282565408005 0.07602981056372166
0.05615407314211113 -0.01912382025950857 0.07624396730830513
0.057251300648335335 -0.019099529926424882 0.07574250890339251
0.05941480279663314 -0.01901249219986125 0.07605282288715245
0.06075364199127781 -0.018973640718283624 0.07574668954197203
0.06207697505534948 -0.018935540375789692 0.07543410629853603
0.06314134924768372 -0.018912589794396455 0.07492733623236741
0.0641962542771245 -0.018890103133036643 0.07441645413809614
0.06517773676725375 -0.01887188054709126 0.07385155418602898
0.0660486624127326 -0.018860158735797005 0.07320265801388928
0.06687077083917237 -0.018851297850747302 0.07251698930503991
0.0676361898805698 -0.01884578660507262 0.0717877099522849
0.06828202878345013 -0.018847412539824283 0.07096406639542041
0.0689407763337217 -0.018848270785431137 0.07015051757271418
0.06949964230131 -0.01885513956130905 0.06925652085797296
0.07005140943924631 -0.01886246574362232 0.06835580344049103
0.07049637370305367 -0.018876274324891612 0.06736722586214794
0.07091200267255082 -0.018891918256464867 0.06635269570098279
0.07126461127872535 -0.018911452827490335 0.06528414473328503
0.0716291935347299 -0.018930344307170638 0.06422266753840705
0.07137048622781084 -0.01898729172568597 0.06264096799054458
0.07130044533819307 -0.019032967970150735 0.06120850100341313
0.0716010177413201 -0.0190561656468098 0.060080390385652604
0.07157137306331424 -0.019099715480944225 0.05867035401918247
0.0687053374334271 -0.019317779840202016 0.05484867373987723
0.06739960728128735 -0.01944069686635042 0.052325317076029276
0.05164855553476261 -0.02045587323227538 0.037404231330306736
0.053788612842474326 -0.020368667520763172 0.03774806099927297
0.05591387542831361 -0.02028199296046093 0.03809189407355085
0.0580336461736527 -0.02019527499246597 0.038443712716035305
0.06008664835495403 -0.020112329622958613 0.03874989511800431
0.06213674910065897 -0.020029195587682375 0.0390657969012147
0.06417967578263523 -0.019946138909113332 0.03938768102593415
0.06617691912351242 -0.019865574562489566 0.03968129099606782
0.06814541832758597 -0.019786454888265272 0.03996120998924213
0.07011476652496262 -0.01970692585713044 0.040253703244836514
0.07203885314395275 -0.019629895292866083 0.04051721609801878
0.07390568550744786 -0.019556138841241976 0.0407402981332195
0.07574940698852356 -0.019483513784711585 0.040953373029850304
0.0775644061672699 -0.01941238444190801 0.041151036929234885
0.07938711071200188 -0.019340440710763553 0.04136654648062499
0.0813175877752938 -0.019261288580106305 0.04169285568266967
0.08334928160104643 -0.01917529812189111 0.04212549514697661
0.0853643604618351 -0.019089979367811927 0.042555642518672
0.0873594434020693 -0.019005554275416035 0.04297996056501713
0.08741090436820981 -0.019045966479375183 0.04157740035498414
0.08800959541115533 -0.019051226231839885 0.04068934347811415
0.08850870683691214 -0.019062955782375452 0.039705236306478486
0.08889857241285509 -0.01908182721340326 0.03861429301648728
0.08933985380895926 -0.019097442844942487 0.03757013072926163
0.08967848434594006 -0.019119821839355806 0.036423835255304515
0.08997867908424789 -0.019144816301684735 0.03523654161099593
0.09027894613469933 -0.01916992292543944 0.03404543928844983
0.09056858082597086 -0.01919584512423225 0.03283994018328634
0.09081186212933584 -0.0192249387842473 0.03158442598744282
0.0909443289520519 -0.019261477286823574 0.030213890155516065
0.08440847787947536 -0.019738977711953758 0.022155360871828178
0.0845432566392108 -0.019776752214247146 0.02074104846804714
0.08474092937813327 -0.019810528757369963 0.019384469299199125
0.08502199307790964 -0.019838914271918775 0.01810743027825179
0.08536777890484554 -0.019863116028015586 0.016892112240463553
0.08580535273548434 -0.019881293565979737 0.015767341929182832
0.08636758268634653 -0.019891199748519096 0.014768528378424961
0.08694760540383212 -0.019899957585649507 0.013786622409548532
0.0875243988361788 -0.01990897513591396 0.012799945392579892
0.08816220490153798 -0.01991391558183569 0.011875870442523362
0.08881448574341738 -0.01991789997163923 0.010966275455270458
0.08948636066259097 -0.019920573937223872 0.010076820528253982
0.09017028633077606 -0.019922441093683248 0.009199781082912528
0.09068399452607823 -0.01993592527819458 0.008140044012986125
0.09051650789132909 -0.019996042596861135 0.006344426815554582
0.08942178305122045 -0.020119996391465986 0.0035351947586465537
0.09074595340790198 -0.020078388450729515 0.003338026547127171
-0.09910380015247289 -0.024212165689817187 0.04512820245514748
-0.0987505468963038 -0.024240454551806703 0.04371311125732358
-0.09911640445563036 -0.024305102369760228 0.041877330909939225
-0.09881705877646485 -0.024336399490376266 0.04042077088126811
-0.09840164247630828 -0.024361942747627294 0.039028080098419016
-0.09791429304700983 -0.024383936862748107 0.03767438334710321
-0.09723038326297134 -0.02439603052980109 0.036434347270502265
-0.05957357777224637 -0.02252639496157766 0.057257679203000345
-0.05734885957215541 -0.022456381327033526 0.05706671630158189
-0.05508510863556093 -0.022384102888719882 0.0569088235880697
-0.05299698966639799 -0.022320535532167275 0.05665412430488642
-0.05130724799076547 -0.022277154750277396 0.0561648150753184
-0.04979638029131517 -0.022242797816260162 0.055571572020974624
-0.048144485045400975 -0.0222010455049376 0.055070140236819276
-0.04666799772078828 -0.02216817978320382 0.054465467345406804
-0.04536822855810413 -0.022144320487075556 0.053754903666823284
-0.04423794706691009 -0.022129146040005425 0.052941132777111766
-0.04343298520579081 -0.02213079442963357 0.05192389050727386
-0.04275350741969508 -0.022138974070897058 0.05082667926631712
-0.04217875931837489 -0.022152642274350178 0.049661406141587316
-0.04162357786218962 -0.022167385853992524 0.04848166178352831
-0.04111325732911614 -0.022184534215046386 0.04727087403771302
-0.04055403394048673 -0.022199187592326995 0.04608948249842593
-0.040007988321271726 -0.02221459116465208 0.04489743296849247
-0.03939797050908295 -0.02222668997225767 0.04374527726424099
-0.03889719305001116 -0.022244596429147483 0.04251922222463561
-0.038568726940794995 -0.022271677232412745 0.04117612365147949
-0.03830397033736327 -0.022302238800814875 0.03978663335431942
-0.038436398504442526 -0.022353989465281176 0.03812588225987901
-0.038629225094894026 -0.022409158061568298 0.03641700147622007
-0.03885873348244512 -0.022466502250522002 0.03467538373643908
-0.03903566341140746 -0.02252127221770837 0.032961566296898004
-0.0393777987171689 -0.02258509692603658 0.031126439809294748
-0.03987920872797218 -0.022657713658123694 0.029172168540148147
-0.04046031802784733 -0.022734903902910164 0.027152161127664942
-0.04234140108085188 -0.022882339957911533 0.024212890279013743
0.05354912720225585 -0.018167367618064548 0.07562410814310297
0.0557394342861699 -0.01808429703394184 0.07593298976341045
0.05699238265260098 -0.018052781624628693 0.0755472688099961
0.059479723457456224 -0.017952640332762053 0.07610204209138935
0.06076996876547208 -0.017918641726850364 0.07575913451948191
0.06194245893267791 -0.017891061357095263 0.07533101847487658
0.0630105213877758 -0.01786919568379686 0.07482653407331555
0.06411888844218849 -0.017844982145321896 0.07435652297797418
0.06510526198216904 -0.017827506833954714 0.07379510968769412
0.06598935913691961 -0.017815704695017465 0.0731562233871142
0.06682756871629841 -0.017806436444335702 0.07248298026480396
0.06758403294275794 -0.01780174193513243 0.07174643136338846
0.06821035490728805 -0.01780438762759531 0.0709070375457822
0.06880748381163371 -0.01780869923004037 0.07004389282962653
0.06942746440281139 -0.017811731408814993 0.06919847483011915
0.06992600086912587 -0.017821689337077957 0.0682544101648685
0.07026967003855766 -0.017840524406113056 0.06718295707248484
0.07082575719445866 -0.017847297627102937 0.06628222013706292
0.07137028044922655 -0.017854762696860038 0.0653709522274104
0.0716291935347364 -0.01787865851232745 0.06422266753841238
0.07192779209913464 -0.01790037480287866 0.06310367834061431
0.07117214265114347 -0.017982979494739544 0.06110141039221745
0.07128527415686653 -0.018015737064212882 0.05981545004801292
0.07107362479327889 -0.018067448776868368 0.0582504799001789
0.06835519793765382 -0.01826489374786897 0.054551750514354014
0.06764829981426734 -0.018346191004985777 0.05253732763700886
0.05048779774972023 -0.01938710923974554 0.03640945365299597
0.052688363460861976 -0.01930136230262844 0.03680015937992398
0.05486020997771557 -0.019216917420416764 0.037179335727385354
0.05702573180278525 -0.019132468946121077 0.03756617577809068
0.05911997075391362 -0.01905183767748613 0.03790382681869181
0.061199920092749716 -0.01897168934039791 0.03824153683195797
0.06324780210921088 -0.018893077523285905 0.03856346825974599
0.06528361211600203 -0.018814828528357835 0.03888703659393894
0.06732413134730941 -0.018735948870824238 0.03922715484114481
0.06931924398096162 -0.018659415242501986 0.039538944624309014
0.07127784391633057 -0.018584713296164856 0.039829881310624926
0.07317449238585316 -0.018513375410461424 0.04007643224176699
0.07502222124494412 -0.018444644021962768 0.040289688234688814
0.0768570388527533 -0.018376375614815785 0.04050206160455977
0.07868657627039438 -0.01830811428171062 0.04072047907031828
0.08055679570831337 -0.01823708878926167 0.04098754906480889
0.08261828941558419 -0.018154179513370672 0.041444275937736474
0.08465604232572066 -0.018072328474448576 0.04189210842787411
0.08668985844207372 -0.017990340658823472 0.042349439083148255
0.08829810995216042 -0.017933871044636347 0.042417201389915005
0.0877664115449176 -0.018007656562527858 0.04045795405997532
0.08827937042775408 -0.01801792224518288 0.03948588661590813
0.08868932464236984 -0.018034546860158325 0.038413115770899176
0.08905502662375725 -0.018053966431787798 0.03729486496106932
0.08947151814899235 -0.01807034990898493 0.036222777088562697
0.08981165421736031 -0.01809152107483044 0.03507344168064214
0.09006400130354525 -0.018118220631609037 0.03383445562320714
0.09033353988411225 -0.018143979639356322 0.03260803342508495
0.0904621398112761 -0.018178617099869482 0.031237577185238785
0.08455235963702534 -0.018589504226657984 0.02384157227195194
0.08463091216588525 -0.01862848133212871 0.022378260502521063
0.08475402367958501 -0.01866485450002927 0.020953350513908453
0.08497592436107082 -0.01869520356919115 0.0196224013591329
0.08527361408807843 -0.018720931706900566 0.018363514739069886
0.08564342883861964 -0.0187422368018934 0.01717410324628632
0.0861243413040953 -0.018756625044750303 0.016095356127260207
0.08665467717075898 -0.01876795237475578 0.015065272196239321
0.08723127363105998 -0.01877639752219594 0.014081339969818807
0.08779494937498522 -0.01878570546956365 0.013082486354760559
0.08842851203604718 -0.01879060059116409 0.012155416103780847
0.08904157499637655 -0.018796830112142116 0.01120588424424207
0.08969662842563253 -0.018800398491686854 0.010299825407344143
0.09031858427159856 -0.018806110717558343 0.009357873714738452
0.09058465803672977 -0.018834771752761076 0.00803360042282042
0.09003900139376214 -0.018915980765085674 0.005830118460194378
0.08979012853164203 -0.018978378994589408 0.003933974095620074
0.09083472456806535 -0.018957162941179575 0.003434627554131209
-0.09828795449047772 -0.022836084101232793 0.04235761896916623
-0.09832341264034428 -0.022881380478477507 0.04070862881504744
-0.09855959990084157 -0.02293641036723305 0.038935434576963746
-0.09841531999032949 -0.02297349590919125 0.03737881194133136
-0.09817711962091424 -0.023006233559005898 0.0358725981203219
-0.060635210993561506 -0.02125216747318352 0.056624108568980314
-0.05836976071643635 -0.0211844154244228 0.05645393346135852
-0.0560643270837175 -0.02111447890852003 0.05631767030403173
-0.054006938580781316 -0.021056222557044913 0.05604090919733562
-0.051968711554894464 -0.020998665242510133 0.05576088364832854
-0.05014013134099371 -0.020951024358831245 0.05536045199025241
-0.04900063871835386 -0.02093659237411187 0.054541309989692366
-0.047499354184217746 -0.020904536805707565 0.05394901944712227
-0.04620515166367123 -0.020882430720926187 0.05323203208465044
-0.04508359063150891 -0.02086865371898206 0.05240980478673668
-0.04409347777749101 -0.020861242860476564 0.051506536272991565
-0.04325284932958595 -0.020861118353778137 0.050509363122451634
-0.04251636065239561 -0.02086609980506047 0.04944565587449823
-0.041641321617223725 -0.020864293754896877 0.04847025819381612
-0.04092585165454132 -0.02087033591023405 0.04739199617448436
-0.04031363432026608 -0.020881495058937282 0.04624573077053329
-0.03982713850115027 -0.020898912184028 0.04501563805308845
-0.039367634562152864 -0.02091773531377148 0.043765216489678294
-0.03910832104270068 -0.02094656715278813 0.04237967369505036
-0.038952115927540776 -0.020980640741892025 0.040921297548536795
-0.038957775082603285 -0.021022914754005383 0.03934964149841447
-0.03900669622239877 -0.021067517946938785 0.037742577587858706
-0.03911574583425842 -0.021115308022618944 0.036088182179444095
-0.039158829410789076 -0.021159984294567103 0.034471432754277
-0.03910862140814614 -0.021200155578337463 0.032911707165877546
-0.0393713767609874 -0.021256238638727946 0.031130852887664928
-0.04025624501608499 -0.02134391911854732 0.02891163935135249
-0.040774241549137114 -0.021413418416899303 0.026934042624855936
-0.04196432746395812 -0.021517228581435836 0.02447633332370669
0.05267890276484943 -0.017143861061796266 0.07497496618717298
0.05518627593161202 -0.017049282149180833 0.07551812312808781
0.056592509370884336 -0.017011692454818768 0.07524573976158971
0.05949849084207348 -0.016895622562911067 0.07611627046991717
0.06079251254369844 -0.01686342418228593 0.07577631836790641
0.061677736282545415 -0.01685252904755953 0.07512814553047756
0.06252629862956444 -0.01684351462867767 0.07445344305490331
0.06415872504589626 -0.01679317928935257 0.07438738225684707
0.0650976311347472 -0.016779232697645235 0.07378916666414334
0.0658486151615974 -0.016775165949987333 0.07304602047040629
0.06654912468393376 -0.016773757141204087 0.07226378700136679
0.06727072868707856 -0.01677122188121574 0.07149847283452795
0.06798606903182303 -0.0167690091855662 0.07072857970098911
0.0688451485307024 -0.016759119541335365 0.07007402198414514
0.06941693568257129 -0.01676454534117121 0.06919000755133942
0.06997482453243137 -0.016770739063314766 0.06829388427055105
0.0700117894888449 -0.016804926903863895 0.06697334715339132
0.07064110673909446 -0.01680739154588627 0.06613133286438821
0.07131333291809333 -0.016807553187475472 0.06532416968477428
0.07154597101027405 -0.016831469873921527 0.06415393628695215
0.07170946377993204 -0.01685923521449964 0.0629224084523779
0.07088042754771878 -0.016940989535691106 0.060857924075296554
0.07069816722206795 -0.016987921730329904 0.05932280881254526
0.07079184883952461 -0.017020017586524085 0.05801278860628334
0.06986762854841261 -0.01710786304894317 0.05583431298087843
0.06759531985832734 -0.01726990399864136 0.05249216218694519
0.04903893632851214 -0.018326192373068338 0.03516776911044345
0.05131002489991815 -0.01824178676471368 0.035612674637133135
0.05353718153514675 -0.018159428667118 0.036033487539238684
0.05574262549693165 -0.018077904388367653 0.036449043994636554
0.05789738585273435 -0.017998823314821236 0.03683377996233289
0.06006732034425705 -0.017918547790656467 0.03724502974341665
0.06216885837593489 -0.017841716927154843 0.03760917668104202
0.06426622269900018 -0.017764774626561633 0.03798245841830683
0.06630871097476826 -0.017690552200930826 0.038319585903797526
0.06835878543003399 -0.017615571224784146 0.03867599481338074
0.07034918752600905 -0.017543600341161262 0.038991129532807534
0.07228766583752255 -0.01747422420855468 0.039271263429747516
0.0741954945590404 -0.017406261385190122 0.039535154835164676
0.07602686343558945 -0.01734230933586495 0.03974041578090537
0.07787650237241045 -0.017277031921229317 0.03997338897118402
0.07974064542823223 -0.017210633786318666 0.040230921572628475
0.08173608214014982 -0.017136464527496814 0.0406221378157301
0.08383196869401782 -0.01705622909454915 0.04112013758584254
0.08588955882703853 -0.016977813512185407 0.04159582881804552
0.08794044351364827 -0.0168994211171772 0.04207864553470381
0.08745828072314532 -0.01696607008605122 0.04016476762181409
0.08802317794534653 -0.016972784513286925 0.039240850330789445
0.08845472792189868 -0.01698721996732847 0.03818756726474809
0.08885195568219328 -0.017003706365975407 0.03709861094589345
0.0891819899413393 -0.01702416248740318 0.03594151371556137
0.08951568179654268 -0.017044501653147533 0.03478442434974083
0.08983013180510002 -0.01706605596809134 0.03360489604875483
0.08998707784379345 -0.017096900769837536 0.032266191327385674
0.08506871935735227 -0.017424700791420823 0.02588847211637957
0.08494179000534813 -0.017473175960189668 0.024229805377926406
0.08496132944896562 -0.017513273862151065 0.022709369036020333
0.08509467079076632 -0.017546858995064248 0.02129647854043537
0.08531761936441562 -0.01757531337768497 0.01996836702613819
0.08563190864615072 -0.017598497836037015 0.018728165006773878
0.08602713492211217 -0.017616991816717782 0.017566636133716895
0.0864920155130044 -0.017631432565413236 0.01647343350261632
0.08699800961894205 -0.01764349204138124 0.015420144152981763
0.08754126378836585 -0.017653383320902605 0.014403404741618608
0.08810822760651393 -0.01766190226567111 0.013409648641543925
0.08869731429708877 -0.017669134204970995 0.012437580928049863
0.08929950962923205 -0.017675612261782457 0.011478038933233292
0.08992216375409717 -0.017680887566587627 0.010539022695255973
0.09040675029896483 -0.017694537486834527 0.009451862877545902
0.09027361014153679 -0.017745698959186113 0.007700298381496162
0.08889742888067748 -0.017872644255528616 0.004600563920684475
0.09018819017546137 -0.01783775614548479 0.004364924838425932
-0.0977960476656935 -0.02146879170528605 0.03938327484273568
-0.09761922329610234 -0.021502038129518605 0.03784845418748278
-0.09803146848275074 -0.021561815578017708 0.035959020705025324
-0.06160845587759173 -0.01996761379259654 0.056043287089535765
-0.059396750150989386 -0.01990659875073665 0.05583749620285383
-0.0570745777600592 -0.01984036792357794 0.055707782892141955
-0.054848399456196406 -0.0197782166678919 0.05552999571065448
-0.05290760089035873 -0.01972873968623061 0.05518753852453623
-0.051072948122311446 -0.019683883565697502 0.054787548117772145
-0.04961352021987353 -0.0196559003404612 0.05416274445158009
-0.04845286955030975 -0.0196414087393385 0.053356685077375676
-0.04710199657364228 -0.019618184353603303 0.052671724077951954
-0.04583509643496997 -0.019598706549257123 0.0519376246803373
-0.04454771667336033 -0.01957821455466858 0.05121951029466937
-0.04328465370786544 -0.019558757626495445 0.050489152436198836
-0.042310690029326026 -0.019552513908003843 0.049577093423429586
-0.041552617666573255 -0.019556189634283582 0.04852726661492668
-0.04103852845385392 -0.019571140145868245 0.04731917204720931
-0.04064013805684302 -0.01959150019309917 0.04603351893496577
-0.04031566159516897 -0.01961536589608988 0.04469633492291791
-0.040047444981358926 -0.01964193854878262 0.0433183903782523
-0.03976708096797843 -0.01966805205202102 0.041944255455379165
-0.03951136536066813 -0.019695418805163286 0.04054958276656978
-0.0395397923107812 -0.019736166257824234 0.03896063118522575
-0.03940261872818046 -0.01976932710296897 0.037476472812325023
-0.03927774365298847 -0.0198031979445537 0.03597869453683372
-0.039218899835695986 -0.019840307871283255 0.03443060773466988
-0.03919056922475567 -0.019879004195878274 0.032855704436803024
-0.039445883458906206 -0.019931238807622167 0.031079652928069135
-0.04069999310876404 -0.020030901772176105 0.02860501281629413
-0.04111723480809598 -0.020091327228185647 0.02669572605714443
-0.041917240262691835 -0.020170166755066287 0.024509230867082565
0.05160930388782137 -0.016124409510699426 0.07417710131777924
0.05454698491473964 -0.016014870766582704 0.07503865732778581
0.0559972352049769 -0.015977545141970455 0.07479686642847666
0.05918149931062805 -0.015855165984059536 0.07587594526789737
0.060586391699628706 -0.015819573016512194 0.07561920409424489
0.06139783284102862 -0.015813007734855146 0.0749136386293888
0.06229291774541146 -0.01580229361212681 0.07427362434487775
0.0641939568230569 -0.015741866045645144 0.07441467442373367
0.06508923677946815 -0.015730945996762353 0.07378262900870891
0.06591101439392971 -0.0157236240780971 0.07309487923958355
0.06644125721931893 -0.01573075720281905 0.07217887291149816
0.06698412424245825 -0.01573729214085652 0.0712716453492171
0.06797019833673629 -0.015721738091507047 0.0707159518436411
0.06889786397005437 -0.015709038324693402 0.07011619066765123
0.06942220013108713 -0.015716497422250543 0.06919424126181789
0.06995304354870852 -0.01572366180523961 0.06827627426763166
0.06973162447167747 -0.015768720397371445 0.06674562402093048
0.07028996953368888 -0.015774641414070256 0.06584440080590082
0.07098698235050094 -0.01577357834062477 0.06505607185789886
0.07118106692867165 -0.015797989183808703 0.06385257179033899
0.07131404363726002 -0.015825608728499394 0.06259410580556424
0.07026118548039423 -0.01591368552626841 0.060341060297983584
0.070320495997999 -0.015945435012905407 0.059005905012916804
0.0704219588394372 -0.015975169400015275 0.05770076896249049
0.06949395840320582 -0.016057759613220035 0.05551743543311277
0.06717708918681048 -0.016212002344549958 0.05213562024246199
0.047238773390256394 -0.017273409532805067 0.0336250166692581
0.049606481750317455 -0.017189502557935544 0.03414501527088021
0.0519245074273999 -0.01710779111193453 0.0346367830958747
0.05418898936840749 -0.01702848975409174 0.035096376416604236
0.05643764256636907 -0.016949657166135265 0.03555616422116059
0.058637178692654335 -0.016873027989510535 0.03598673324870444
0.060815264543499725 -0.01679717467602403 0.03641196578353173
0.0629795709406118 -0.016721701649275653 0.03683847453089173
0.06507848149042023 -0.016649314392741674 0.03722002349989495
0.06717607589127916 -0.01657667060787818 0.0376133576263144
0.06922067346366184 -0.01650648705028448 0.03797186860276863
0.07124021124986973 -0.01643730753922751 0.038320256981448864
0.07318020791207419 -0.016372017683041425 0.03860852733143355
0.07506577390005004 -0.016309314119389115 0.038858662580597
0.07692632812423184 -0.016247652933042315 0.03909709141977147
0.07880742935325846 -0.01618461746826616 0.03936576602995118
0.08072604646904402 -0.01611929347516267 0.03968087508425516
0.08286747144351447 -0.01604176230542505 0.04021662153343636
0.08496951746271769 -0.0159659846271205 0.04072946251791831
0.0870819359208897 -0.015889301346159762 0.041266009119946045
0.08713512878222102 -0.015923081037031588 0.03985728859066895
0.0877364020412092 -0.01592745391801078 0.03896656241433305
0.08819752992047308 -0.015939423891227985 0.037940289191593035
0.08858697018646511 -0.01595533418136396 0.03684252079779299
0.08893347035547106 -0.0159736508595635 0.0357000883375479
0.08926499706345487 -0.015992868195422155 0.034539630485992956
0.08954641331739382 -0.016014909925326136 0.03332640613991661
0.08623587288183443 -0.016233526707166705 0.02856500729026551
0.08579624876309927 -0.016295769322101198 0.026610023730104404
0.08555891100798757 -0.01634718838649325 0.024845029107520622
0.085496513617273 -0.016389213607634123 0.023245672837892584
0.08560232185267141 -0.01642215016580086 0.02180782679884785
0.08581899830700107 -0.016449106808379504 0.020476012436799862
0.08610282275065978 -0.016472466392795204 0.019207432554678328
0.08648597873672492 -0.01649041347234088 0.018036035226350944
0.08690651977233699 -0.016506362340254026 0.016899665962345822
0.08737557745733959 -0.016519676648736246 0.015810402161871406
0.08788336452176759 -0.016530885617685443 0.014758830848025206
0.08842902028247235 -0.016540022374281232 0.013744658402476795
0.08899829589358765 -0.016547873860528497 0.01275352477076619
0.0895851615413325 -0.01655477093723462 0.011779438967950584
0.09012218412616424 -0.01656452024284542 0.010751159440533342
0.09027336932058316 -0.01659619037916355 0.009309672434503147
0.0897673961242706 -0.01666536037964545 0.007157866917052003
0.08931418750669123 -0.01673186222166681 0.00504944251106898
0.09054045396018734 -0.016702779630161674 0.004746293759668119
-0.09762348197466947 -0.02010729353143811 0.036201100849383216
-0.06281332585819976 -0.018686940973460034 0.055324234386399884
-0.06052981126681456 -0.01862707534438148 0.05515739077580878
-0.05811224339298299 -0.018561337934314096 0.05508134509596785
-0.055783330646658746 -0.018499083546978386 0.05496232944323537
-0.05385186999429975 -0.01845337589956883 0.05461090817435277
-0.052008481792225225 -0.018411217991872092 0.054212975626085014
-0.05025677271313733 -0.018372783494528224 0.05376541931507223
-0.04925480819891509 -0.018366053270447377 0.05285851185344126
-0.047697674385161315 -0.018335663286937164 0.05229957160934112
-0.04582483671419857 -0.01829168850297471 0.051944070985905644
-0.044353653835322915 -0.01826470661297141 0.051342135363658836
-0.04327193138689622 -0.018254295670266558 0.05049723707269943
-0.04264087526882343 -0.018263179659643986 0.04936608254630409
-0.04209809946486398 -0.018275893884470904 0.048176695351335286
-0.04166122815677492 -0.018293220230950504 0.04691671508449574
-0.04128576609964468 -0.018313265689009386 0.04561389154113199
-0.04092599903248745 -0.01833406949616385 0.044297412831860006
-0.04063024892229977 -0.018357730068577018 0.04293532473039341
-0.04028793928316565 -0.018379463433365568 0.04159998555975469
-0.039948635489937545 -0.018401414391439823 0.04025894363287752
-0.03973840071624368 -0.018429079624611523 0.03882788474015442
-0.03942683099939337 -0.01845242954646966 0.03746019942320933
-0.03939517408353521 -0.018488124376592578 0.03589932815331037
-0.039497748034372615 -0.01852984972374645 0.03424109711948742
-0.03991925273011776 -0.01858575854935086 0.03235772576427404
-0.040813495550700074 -0.018662709460340734 0.03013984904736472
-0.041156353134664536 -0.018715643877481827 0.028289671531926686
-0.04152851805021279 -0.01877008892404708 0.026409960643223263
-0.04218289631374278 -0.0188372579538959 0.024323629870899144
0.05078124320620292 -0.015087051083231627 0.0735594113203614
0.05392775711863135 -0.014975390576785846 0.07457423886577952
0.055237267237420506 -0.014947030089301446 0.07422380383951624
0.05850867737143339 -0.014828900043096015 0.07536584940595742
0.06013199631455818 -0.014785742423233243 0.0752728441654239
0.06091986442010039 -0.014780740393690433 0.07454734258016546
0.061853829627545265 -0.014768998934874506 0.07393530932293924
0.0639448697128166 -0.01470388686987035 0.07422172000786678
0.06483719983052838 -0.014693855386347975 0.0735863386833478
0.06567955735066572 -0.014686093922335554 0.07291364774315973
0.0661065525906247 -0.014697562615308052 0.07191539087804258
0.0666460520241664 -0.014703851525437763 0.07100408470049724
0.06749560700977564 -0.014695726421806813 0.07033833312292903
0.06856772467378891 -0.014677178370291382 0.0698521022019517
0.06916403412884631 -0.014680806716318781 0.06898662215307827
0.06968917798860957 -0.014687786635944769 0.0680629380224555
0.06942452474648247 -0.01473189901438744 0.06649600787646565
0.06974478615156354 -0.014748665127299556 0.06539890375324403
0.07048901589924578 -0.014745500802041546 0.06464699114318373
0.07072109399592008 -0.014766538812020986 0.06347269247869725
0.07084213747107793 -0.014792929838523509 0.0622022996563924
0.06998297957662203 -0.014865984935334947 0.06010884972657371
0.06980304385152097 -0.014907033100323206 0.05857171108736936
0.07002216428194175 -0.01492922718890267 0.05736352341546147
0.0691717495547064 -0.015002644496457593 0.055244197789991956
0.06672797627378041 -0.015152717854160691 0.051752751165157096
0.0608358792658667 -0.015469015979907413 0.04527783310985156
0.047409318934023614 -0.01614926036476634 0.03225208606197111
0.04985810790570533 -0.016066924349191186 0.03284711624387299
0.052269087768476497 -0.015986050310214932 0.033424821153721695
0.05460980137460686 -0.015908220218893716 0.03395637698406817
0.056919393228505255 -0.01583155405294442 0.03447535608841812
0.05917930345929712 -0.015756962665511718 0.03496500999001534
0.06140647362233692 -0.01568363383555479 0.03543980704086597
0.06359996695260989 -0.015611621846577564 0.035898547287461946
0.06574519667049916 -0.015541650109301988 0.036327745715378
0.06788403647967428 -0.015471676635433796 0.03676463344205666
0.06997769043285618 -0.015403610399313736 0.03717398729850102
0.07200543607667809 -0.015338486330748321 0.037536341563463915
0.07395050738834624 -0.015277153191457976 0.0378354594558854
0.07586327511211022 -0.015217141403658074 0.038116691505408806
0.07774443131660863 -0.015158425640289162 0.03838029367480705
0.07960438502554096 -0.015100496749445521 0.03863558713621085
0.08167028916720898 -0.015032029300938658 0.03909513217332289
0.08383245915630416 -0.014958434563799706 0.03965874000895414
0.08597645244959945 -0.014885412036289892 0.04021959306927764
0.08758519381533875 -0.014838936852224063 0.04028552541307362
0.08735628352510483 -0.014884760027343154 0.03860299659766375
0.08788025074828387 -0.014892805476234377 0.03763524723202766
0.08831504368856313 -0.01490539845656839 0.03657972265131787
0.08866873286825694 -0.014922161589679656 0.035442908012296215
0.08899736697677424 -0.014940276062032277 0.034278289469462986
0.08920680687607868 -0.014964546028933455 0.032993058222946514
0.08707596333962847 -0.015108403988653504 0.02939389545384391
0.08657097197902802 -0.015169741248810804 0.027378381383042882
0.08630052138614186 -0.015219337427513198 0.025584359483253105
0.08618686848148954 -0.015261106360672115 0.02393747196097068
0.08623297379151595 -0.015294839918951218 0.022443071743244114
0.08638855884413232 -0.015323078142691576 0.021052691607404195
0.08663770020731787 -0.015346606344028254 0.01975179808679417
0.08697167047429677 -0.015365843827143904 0.018532899853606566
0.08736225334508241 -0.015382227846454022 0.017368294299254405
0.08779008845983566 -0.015396747573043315 0.01623884500590056
0.08827591374083454 -0.01540830547691886 0.015166670489637601
0.08878694654825015 -0.015418598064892701 0.01411844746225377
0.08933125801318748 -0.01542719221632422 0.01310303893631326
0.08986877879637273 -0.015436185489972156 0.012078692174018635
0.09011552117878452 -0.01546057058541089 0.01074409288048006
0.08987175243172074 -0.015511027835023287 0.008881529800870758
0.08865881036388873 -0.015613136123181454 0.005969966588425579
0.08988745337148096 -0.015585924294302844 0.00566689049472241
-0.06512024912902714 -0.017441946171278987 0.05394748881176259
-0.061550604676363974 -0.017336376396661534 0.05454467260197854
-0.05918709524451682 -0.01727752352962944 0.0544324580135353
-0.056807577209931126 -0.01721781614889374 0.054340433169561886
-0.054813476299442 -0.017172994188382508 0.05402369063418483
-0.05294016617986702 -0.0171327449562668 0.05364076723071781
-0.051093906427258695 -0.0170934041138449 0.05324833734380624
-0.050033679226466565 -0.017084920340621524 0.05237466849273131
-0.047746742972328726 -0.017027912689622796 0.05226891578249565
-0.04551087031483242 -0.01697270420783404 0.052141339838888245
-0.04456176753312052 -0.016968343545004823 0.0512106317908565
-0.043851566774691375 -0.016973465019149855 0.05012889693849498
-0.043265817620509794 -0.016983564895901034 0.04896670178057716
-0.04275835303127812 -0.016996829702233117 0.047752362352885436
-0.042312511391940144 -0.017012611782009607 0.0464957843028343
-0.0418900452378545 -0.017029393239954175 0.04522113896053653
-0.041724242020252156 -0.017056548155740366 0.043775673966797934
-0.04098274039410904 -0.01706064680058285 0.04270363897034973
-0.04053993554386953 -0.017076804379089722 0.0414334244742528
-0.040139589093081185 -0.017094741725619093 0.04013202302687635
-0.0399167980513338 -0.017119938051254252 0.03870864702718724
-0.039713766458834066 -0.01714603687539027 0.03726734628929518
-0.0399500212571699 -0.01719009371145879 0.03552432983835452
-0.04065029186262192 -0.017253224094462484 0.033457806099667586
-0.04113588402155871 -0.017307849230370397 0.03152628600886476
-0.041349539550973424 -0.01735157637979433 0.029771487115857975
-0.04164621658174267 -0.01739888212690761 0.027951179640001045
-0.04194843177397817 -0.017446607288464373 0.026118198648580837
-0.04250920422016358 -0.017505162915826402 0.0240956543655243
0.04676789548772431 -0.014178632986795213 0.07056566364353795
0.05330780772896676 -0.013931915468800897 0.07410927921138533
0.054485829214411474 -0.013911203193037456 0.07365717335337416
0.057869389804976745 -0.013796819017754692 0.07488117742479469
0.05953928578435852 -0.013754820614040082 0.07482105441623987
0.060384256091132904 -0.01374779581270521 0.07413687359049692
0.06126261364604557 -0.013739315693682723 0.07347978060418575
0.06335701787829673 -0.013678763949598721 0.07376634274150948
0.06427594022346833 -0.013668362017701136 0.07314922090619139
0.06518276600322337 -0.013658435704525199 0.07252465876257955
0.06566579542725254 -0.013666717592597343 0.07156842348139064
0.06614635929336937 -0.013675141229501446 0.07060861265642288
0.06692375012315793 -0.01367076359189496 0.06988332298328337
0.06807726777431888 -0.013650065435719377 0.06945977080869448
0.06866531812206039 -0.013653838993542581 0.06858555085808077
0.06915935531288103 -0.013661720968743745 0.06763457450200694
0.06896766836983675 -0.013699549301030357 0.06612466684957258
0.06924014157364672 -0.013717250013105762 0.06498653301805263
0.06995090565419665 -0.013715825649216725 0.06420493219908147
0.07028471338485148 -0.013730945617118843 0.06311229743293906
0.07043542637053579 -0.013754187761304108 0.06186462254694064
0.0695723696470193 -0.01382223558381893 0.05976612527289821
0.06928004691505574 -0.01386535807583229 0.058132864530371364
0.06961751624624024 -0.013880775784998878 0.05702218373087625
0.06888589915223636 -0.013943715207439606 0.05500179262135746
0.06641503479810607 -0.014084302097268924 0.05148596833490293
0.06306350267813254 -0.01426477176819761 0.04718692221744353
0.04429538108971254 -0.015134877681878269 0.029569324522174645
0.04699569563780437 -0.015047467418200218 0.030368038844346468
0.04963162787721265 -0.014962558686347974 0.031128526405052148
0.0521738456192411 -0.014881487532237243 0.03182434771089104
0.05466213677736853 -0.014802485976882641 0.03248933052448261
0.05709626569695675 -0.014725578537609174 0.0331226290266558
0.059426777845579815 -0.014653018675963986 0.03367962596946977
0.0617451576271445 -0.014580683775575608 0.034240743904729254
0.06402038828541684 -0.014509986169714563 0.0347780452432892
0.06623419808735165 -0.014441769904260238 0.035274518369254604
0.06841693919931557 -0.014374664972568337 0.03575694783465827
0.07054564146554387 -0.014309730832321042 0.03620402241939019
0.07257811581388529 -0.014248918678224698 0.03657635651270541
0.07455717183050992 -0.014190287272980582 0.036912138646022996
0.076505517402573 -0.014132804521401227 0.0372317351915446
0.07843738691843471 -0.014075820481833728 0.03754804948051771
0.08045008063485698 -0.01401483173250897 0.03795207241271942
0.082646136156734 -0.013945050355619208 0.03854162690105373
0.08487505964138897 -0.01387341845827316 0.039177049112236795
0.08714375533745211 -0.013799601227857047 0.03986549675688633
0.08696797151145003 -0.013839715392754283 0.03823159407875004
0.08753852116248745 -0.013845045577723206 0.03730669789242386
0.08800519699689985 -0.0138552788827332 0.03628027726115246
0.08838553256746268 -0.01386962417646982 0.03516779191054553
0.08871701727678133 -0.01388634135850339 0.03400452773927509
0.08890891580601229 -0.013909738287283313 0.0327006569148145
0.08790840376363218 -0.013989770718079652 0.03021523559399103
0.0873804256603381 -0.014047726271715593 0.028181184136266524
0.08705827645925551 -0.014096151587167417 0.026339784918793296
0.0869027739026349 -0.014136849750344845 0.02465487509409303
0.0868956848580556 -0.014170638427164768 0.023110609300309393
0.08699664906974308 -0.014199404408353667 0.02166838202852095
0.08720695569220677 -0.014223049887885846 0.020331151471544184
0.08749209184406898 -0.014243201621958516 0.019065293036164
0.08782992788660676 -0.014260903668926572 0.01784920146896052
0.08824715493949337 -0.01427484588149244 0.016711273629690326
0.08868593157461935 -0.014287808952187656 0.015592659176566936
0.08917433624870424 -0.014298419536832379 0.014523005735129713
0.08964794601801013 -0.014309802947366414 0.013435469976448955
0.08993312720690955 -0.0143304545265777 0.012146588142322112
0.08979311691748426 -0.01437204612404053 0.010402158756725621
0.0891092981324702 -0.014440558254277557 0.008068717389943303
0.08921901436238366 -0.014470321088801443 0.006570250786267662
0.09029321982375654 -0.014452610494117453 0.006103929734593505
-0.06261019056577372 -0.016040949753274383 0.05390866973881153
-0.060200972599094404 -0.015985049213418253 0.05382038117930227
-0.05780848791668475 -0.015929536932175824 0.05373270583013956
-0.05574342773787866 -0.015885663852840796 0.05345580355479046
-0.05387849122152655 -0.015848879897536836 0.053064480374844014
-0.05205759991923814 -0.015813553593606547 0.052653081744702845
-0.05081666937842294 -0.01579921003049697 0.05188826628604459
-0.04759957073892629 -0.015712703171592082 0.05236086231619652
-0.04609431716866402 -0.015688442314244315 0.05177475318546282
