# .PCD v0.7 - Point Cloud Data file format
VERSION 0.7
FIELDS x y z
SIZE 4 4 4
TYPE F F F
COUNT 1 1 1
WIDTH 770
HEIGHT 1
VIEWPOINT 0 0 0 1 0 0 0
POINTS 770
DATA ascii
0.09316750802137225 -0.020967476200245992 0.07035651215368549
0.09302730106448298 -0.02102416988669009 0.06891080957264772
0.09262344424681146 -0.021100272456359537 0.06722717806701789
0.0926074380866233 -0.021148470382742635 0.0658751420451299
0.09258666177543523 -0.021197231800750015 0.06451276092883168
0.09255637287302243 -0.02124690739388493 0.0631357104623349
0.09253403285741241 -0.021296223183297724 0.06175942240526239
0.09250888539990071 -0.021345967081105522 0.060374301505290884
0.09249107273130391 -0.02139539508465611 0.05898942575272592
0.09249083292587529 -0.021443749393794335 0.05761415142084564
0.09248991147560787 -0.021492373107616387 0.056232025546771924
0.09244668892625657 -0.02154435388194483 0.05480481211394256
0.09235125863091187 -0.021600450811426194 0.05332272304431124
0.09244531696538338 -0.02164269006759655 0.0520090266578524
0.0924367256253632 -0.02169278536115546 0.05059417860950122
0.0923847032256519 -0.021746359756840573 0.049132117855633206
0.09237800107372857 -0.02179678133424579 0.04770573639486808
0.09234911933787726 -0.021849102109239106 0.046251760071896075
0.09216874397223773 -0.02191307781993146 0.04464677281086826
0.0922874595057625 -0.02195476350554557 0.04331943882973727
0.09230835592160719 -0.022004046244445696 0.04189256380882034
0.09227273936026209 -0.022057845251709497 0.040404561697382935
0.09227338458919943 -0.022109137279607484 0.038944661812887194
0.09225858265470954 -0.022161846010110463 0.03746286946555377
0.09206266104693411 -0.02222863837909586 0.03579628255325734
0.09219841541332252 -0.02227034518962678 0.034448041531793316
0.09217837173391846 -0.02232420651534581 0.032939707578218846
0.09213552755867532 -0.02238007573663786 0.031401426548411215
0.09211594333929046 -0.022434414934437322 0.02987895075672886
0.09200424686652903 -0.022496131695281592 0.028256376702473107
0.09187332268974019 -0.02255963106290798 0.026606006591930464
0.09195337882565774 -0.0226070457088075 0.025161770377846893
0.09190726289982387 -0.02266450935545944 0.023582031022802874
0.09196110514798839 -0.02271444678306321 0.022097268421353844
0.0920289029825958 -0.022763531651955108 0.02062012738081309
0.0918928667788334 -0.022828835742484194 0.01892450965755782
0.09190931988087164 -0.02288246789183051 0.017379200035795683
0.09193676547328294 -0.02293549260676616 0.015838070076902078
0.09189139423945214 -0.022994525032989953 0.014212815346103191
0.09185822591211873 -0.023052877420752932 0.012592363165594034
0.09183295715925527 -0.02311088635746923 0.01097226696961201
0.09181564986938584 -0.023168544410075643 0.009352664454497006
0.09180710240271023 -0.023225785335820783 0.007734488613597934
0.09175342509383916 -0.023286914546375014 0.006059484365107559
0.09171799685668003 -0.02334688108854226 0.004395806752217235
0.09195342036197729 -0.02338538149259338 0.0030199989934497906
-0.08069468552952369 -0.028366816249806116 0.026716248931811848
-0.05625419727242115 -0.02719249683593695 0.03266600862523705
-0.053439342241515086 -0.027072109617063408 0.032907348825792326
-0.05063993800274974 -0.02695220172876257 0.0331527850083273
-0.047869192222440904 -0.0268335985515189 0.03339340342728969
-0.045483002971142494 -0.026738515800200816 0.03338976579137071
-0.04371350815595637 -0.02668160966849217 0.03298074430261505
-0.04194893945088218 -0.026624782993938837 0.03257522014600367
-0.04019187115242728 -0.026568197864624596 0.032171419694423886
-0.038406454210665075 -0.026509600692533077 0.03179393415377346
-0.03656157960390782 -0.02644701839975861 0.03146462486774382
-0.034726656400448586 -0.02638481056015165 0.031135990324800356
-0.032900345037131296 -0.026322894680433424 0.030808898161408416
-0.031015391689502403 -0.02625700751256127 0.03053054116676801
-0.02909167636849125 -0.026188388029065816 0.030287603434529076
-0.027180441969504143 -0.02612028242451054 0.030044190375033752
-0.025270601390625813 -0.026051986424389727 0.02980812550105688
-0.023237835575841748 -0.025975550114154464 0.02966871425250117
-0.021216963101966413 -0.025899561018789253 0.029530118673594008
-0.019207879894820257 -0.025824015224884096 0.029392331626711787
-0.017080794937406607 -0.025740565397292612 0.0293500082344883
-0.014947547772392267 -0.025656372493157734 0.029322536627906626
-0.012815467301025285 -0.025571905345663334 0.029304647052871113
0.04529626633398909 -0.02186316505025029 0.07082946699627451
0.04711253282148109 -0.02179092441919335 0.07082274508518094
0.04819196163688244 -0.021766281468627153 0.07027241434698694
0.04971677492582727 -0.021712521642750605 0.0700610131016513
0.05158240104195738 -0.02163628808019453 0.07011473512370414
0.05337071551989758 -0.02156479145215554 0.07011910182621905
0.05520691926242011 -0.02148985418375361 0.07016916789526934
0.056990454080497965 -0.021418060468229635 0.07018810474612125
0.058773201229847916 -0.02134601480363672 0.07021550599612703
0.06056362183777203 -0.021273157391998383 0.07025800917379427
0.06230529001388935 -0.021203213483144096 0.07027158721151955
0.06406099974209456 -0.02113204141755064 0.07030511609285628
0.06576672890659657 -0.021063884022058853 0.07030816160761466
0.06736592475540931 -0.021002523433445303 0.07023514866882935
0.06887527380510744 -0.020946890714375582 0.07009812010753247
0.0705253257858966 -0.02088161701168167 0.0700813835008865
0.072051781597322 -0.020824339038777236 0.06997311145521934
0.0736514994876793 -0.020761897357975415 0.0699317684815195
0.07535534957880402 -0.02069218230984782 0.06998358030892993
0.07696183841647808 -0.020628727455765234 0.06996443141430875
0.0786129535757199 -0.020561982708864737 0.06999036769670125
0.08026123019707038 -0.02049513968825442 0.07002262224196126
0.08187629591131584 -0.02043025826496519 0.07003586329670652
0.08349582822559687 -0.020364789605691883 0.07006132194224823
0.08502955713563548 -0.020304880747728616 0.07002296641571076
0.08649245682394924 -0.020249545735047027 0.06993240158536657
0.08790307239035744 -0.02019754554824986 0.06980453564246697
0.09017538373939199 -0.02008621283291721 0.07042199711178221
0.09244735964240525 -0.019974411243150185 0.07105386358009796
0.09333764249600057 -0.019957303840481656 0.07050386218277149
0.0933127560701939 -0.02000330938400779 0.0691593399229164
0.09295897815276194 -0.020072278743999302 0.0675208484705358
0.09280410824689878 -0.020127760520063334 0.0660481804102539
0.09279787019047009 -0.02017315895748411 0.06469956808624222
0.09278757460778381 -0.02021904335208202 0.0633412758436318
0.09277386645391428 -0.020265371944038022 0.061973782416350875
0.09276481824017646 -0.020311582833591794 0.06060425124743535
0.09275031854374616 -0.02035838439517517 0.05922357359076791
0.09274117476312821 -0.02040502093667316 0.05784144213522391
0.0927360654950386 -0.020451584434181713 0.05645668435149476
0.09267916965372597 -0.02050201608901455 0.055018101945821796
0.0925933022295975 -0.020554727595792945 0.053545947587883
0.09272675382933576 -0.020592122041898378 0.05226993800442231
0.09271265020656416 -0.020640178135295242 0.050851315592295054
0.09267029588541909 -0.02069046749347439 0.04939965366500371
0.09264978992363582 -0.02073942724373913 0.047961669127288
0.09264991094695452 -0.02078713564422846 0.046536479993829816
0.09248515923918388 -0.020846894191568544 0.044947841897570506
0.09257588286546847 -0.020888555511256623 0.04359530246140847
0.09260158010828451 -0.02093509732623498 0.04217447856508644
0.09257508641630402 -0.020985626238948105 0.04069675920859672
0.09257223832717798 -0.02103467793223287 0.03923498451083529
0.09255956512001778 -0.021084671705254784 0.037756779109334726
0.0924414085131271 -0.021142574235457828 0.03616805017469643
0.09249177453502239 -0.021188457807600945 0.034737488818569084
0.09250494275163856 -0.021237276200030592 0.033263595304227345
0.09246296317012209 -0.021290365410248997 0.03172785549381196
0.09243922718560871 -0.021342365325793936 0.03020291092993932
0.09236057756634675 -0.021398654086126324 0.028615302540403786
0.09223653152196726 -0.021458559883708667 0.026973754977694497
0.0923430016257929 -0.02150169911315978 0.0255583046125204
0.09229076457790769 -0.021556811576938166 0.023974354802667075
0.09232022415401958 -0.021606115323438344 0.022466548528445485
0.09237502934311853 -0.021653766883900184 0.020977887154143227
0.09234561405314096 -0.02170793683578397 0.0193948921653449
0.09229577785373644 -0.02176389616721454 0.017782785288212144
0.09231754977470047 -0.02181475187992411 0.01623778373659207
0.09228122146800172 -0.021870223926413097 0.014624133930861205
0.09227316033260602 -0.02192383336497643 0.013032432527309956
0.09226140308344843 -0.021977982656600843 0.011429010626166636
0.09225032075974549 -0.022032344543311273 0.009818434187390479
0.09221272137606046 -0.022088986000812525 0.008171369008209528
0.09218745859908267 -0.02214496533872581 0.006529379077124142
0.09210367556840598 -0.02220568615754866 0.0048155033278190484
0.09215729170238762 -0.022256192217873977 0.0032429954035090858
0.09257002197195169 -0.022279401123563167 0.002057875084995886
-0.052780096076368244 -0.02583415829138299 0.028485292581441446
-0.04996170181260512 -0.02571866349843445 0.028757847973501838
-0.04719228017487764 -0.02560561836006085 0.029011744638786252
-0.044435283103365975 -0.025492858037876525 0.029271493135400006
-0.0424882594615586 -0.025428044914819013 0.028988974737220286
-0.040723305876895544 -0.025373871546068873 0.02858890387197932
-0.03896328241542396 -0.025319774058405426 0.028192322645642365
-0.03721074778235517 -0.025265906753358592 0.027797428856266126
-0.035383055092196636 -0.02520729188469609 0.027462238057778587
-0.03354489302548619 -0.025147805565075395 0.027141970499296175
-0.03171413280177415 -0.02508852352256109 0.026824101233524023
-0.02988824880902552 -0.025029293919485662 0.026510394432565976
-0.02796217647006416 -0.024963735317861252 0.026276284156099283
-0.026044940663261906 -0.024898444571945115 0.026044282930133167
-0.024140143528269598 -0.024833643041498422 0.02581172362484052
-0.02217027762494367 -0.02476459665345395 0.025635085175859773
-0.02014536815446266 -0.024691893013020577 0.02550783967212089
-0.018132313296945035 -0.024619615008169903 0.02538133911332585
0.04526837917733939 -0.020771721846370283 0.07080877706337507
0.04709158966034305 -0.020702668879381915 0.07080712258137606
0.04803174969311741 -0.02068786153491946 0.07015225600625025
0.04943992992575813 -0.020644028352787377 0.06985225494439568
0.05147978651288565 -0.02056083738845679 0.07003693854246146
0.05330399198610175 -0.020490698486259704 0.0700682422462684
0.055165798201923355 -0.020417922371861075 0.07013765434470759
0.056965679191484764 -0.02034870360878669 0.07016901582802265
0.05878983418671796 -0.02027767382907337 0.07022839065512804
0.060584031167513985 -0.020208220405192795 0.07027390427962027
0.06236909108767613 -0.020139045697784966 0.07032154362638071
0.06406639916065521 -0.02007509950692678 0.07030936655627945
0.06564967761675261 -0.020018072757194284 0.07021552365232103
0.0671768984523573 -0.01996434547240869 0.07008474585553615
0.06908298084555298 -0.01988638903704854 0.07026427128749424
0.0706872908630995 -0.019827254497035617 0.07021163707681799
0.07217327185223604 -0.019775393196060708 0.0700713367590412
0.07377714382230333 -0.019715792087397013 0.07003389444194746
0.0754536734461499 -0.019651291046969527 0.0700639257386414
0.07707017971038277 -0.01959035390323059 0.07005343406465192
0.07871749863257727 -0.019527174937380588 0.07007670865593318
0.08034003227923536 -0.019465314987872188 0.0700880486817333
0.08194668839448416 -0.01940420858174596 0.07009461790441918
0.08351258069913176 -0.019345468075280786 0.0700753789372694
0.08502263256143733 -0.019290084951315123 0.07001712521109799
0.08648077457185754 -0.01923782632258531 0.06992249487100183
0.08791262202888617 -0.01918704738500757 0.06981267671609459
0.09022989920529428 -0.019078349963064626 0.07046871725378484
0.09239886382006185 -0.018978857650517586 0.07101208280812099
0.09340511133259988 -0.018955022910195365 0.07056229557821958
0.09357050955200258 -0.01898623688505149 0.06938375204333919
0.09332963005044309 -0.019044298269427558 0.06784525530521418
0.09300051221565642 -0.01910843218018064 0.06622098456930936
0.09299672838790585 -0.019151369726373633 0.06487545186712579
0.09298890378249991 -0.01919476696829103 0.06352028102544593
0.09298037146068278 -0.019238405919450717 0.062158353786610776
0.09297382142348243 -0.01928210938228588 0.060792035777380016
0.09296454046377123 -0.019326191828329207 0.0594170563666806
0.09295454012001875 -0.019370521497019094 0.058035161111338385
0.09295806180078187 -0.019414146882751383 0.05665929499671807
0.09291195880281267 -0.019461299224365267 0.055231674739629255
0.09282812256795758 -0.01951120306812742 0.053762510484552994
0.09293047197258608 -0.019548787721820424 0.05245879874686282
0.09294081809693089 -0.019592758249738752 0.05106394761893068
0.09290248467259177 -0.019640225642485364 0.04961716210921102
0.09288804858969696 -0.019686289467707972 0.04818602782135717
0.09287699306959452 -0.019732335352364325 0.04675142882311717
0.09278221152527344 -0.01978430082006518 0.0452304871104231
0.09281522124823777 -0.01982777545009131 0.04382421857810698
0.09284907097217998 -0.01987139399828286 0.042412423897508655
0.09280857278906929 -0.019920318379164907 0.040922407633679714
0.09280348009413975 -0.019967034613702504 0.0394596252803191
0.09278646785420486 -0.020014790803145707 0.037978349830105895
0.0926823633278937 -0.02006879031235659 0.03640456449190227
0.09273320997991236 -0.02011230736734104 0.0349757048114791
0.09277370654464295 -0.0201567476812363 0.033530150782289436
0.0927296106056677 -0.020207285795830258 0.03199368315010864
0.09269875430183194 -0.020257138716795502 0.030462980990605848
0.09268337080463246 -0.020306145393554152 0.02894044666519946
0.09248695987790945 -0.02036807552241239 0.02722731330413325
0.09259526916293698 -0.02040888680948816 0.025815047068915853
0.09257307558767125 -0.02045908515878975 0.02426316011637819
0.09251488564631444 -0.020512064950106497 0.022666717874857134
0.09258590621939844 -0.020556153348822926 0.02119585166671173
0.09258227451397 -0.020605749720074035 0.019640770931217244
0.09252802805426896 -0.020659184334228326 0.018025328494426507
0.09257423382035457 -0.020705715564258483 0.01650722793082615
0.09257199970401264 -0.0207559333562503 0.014930942906107636
0.09255373806650236 -0.02080754267203047 0.013330006452660526
0.09255144298287177 -0.02085825620813891 0.011738206902123294
0.09254694174995742 -0.020909375551751798 0.010136277140405603
0.09254535220736637 -0.02096053437641264 0.008529635998633045
0.09252610785615623 -0.02101322066273419 0.006896008595824288
0.0924625254466942 -0.021069380536975265 0.005206004697206779
0.09247993575616992 -0.02111992915475518 0.0035959065364599696
0.09286446260102937 -0.021143974996805485 0.002381596085561488
-0.05211761456313857 -0.024585176437504592 0.02402142613907854
-0.049302957915291545 -0.024475532122364706 0.024306009376591053
-0.04650397942731971 -0.024366332970284173 0.024594502700880372
-0.04374171300554902 -0.024258777334109312 0.02487220148424385
-0.04125650579023177 -0.0241665652170572 0.024970853991480246
-0.03948727159892168 -0.02411484156066494 0.02457900757353798
-0.03772688201068847 -0.024063412468280972 0.02418792552464394
-0.03597142650801238 -0.02401205564103166 0.023800325298451774
-0.034196753668109425 -0.023959384594181503 0.023433440077859358
-0.03235534982899174 -0.023902657080180845 0.023121657118121697
-0.03052139107046259 -0.023846125248330262 0.022812252409042055
-0.02869733223704163 -0.023789932155496643 0.02250340363845421
-0.026823716774085404 -0.023730637287487238 0.022238439689786393
-0.02490416466827311 -0.023668431400424052 0.02201534373342784
0.04400407884341473 -0.019711124234313777 0.07123186794302172
0.04526077278988827 -0.019678916497321362 0.07080313376140823
0.04704131541696838 -0.01961598995136309 0.07076962062294517
0.047906477392907654 -0.019606355926282 0.07005830226360332
0.049715946734521566 -0.01954131803426656 0.07006038859446934
0.05152330283118156 -0.019476131393688183 0.07006993017456575
0.053273062164428064 -0.019414061671954537 0.07004466619073324
0.055168217373453066 -0.0193431521492112 0.07013950830186233
0.05705277424700583 -0.019272569812989148 0.07023612209763097
0.058837347519120564 -0.019207612723089077 0.07026519668371295
0.06057775164896567 -0.019145002701286235 0.07026901369217209
0.062353532190923044 -0.01908002168996805 0.07030936096776935
0.06400622387907395 -0.019022103419648554 0.0702619961162092
0.06576825841718043 -0.018957404224459965 0.07030937210886828
0.06749788118587186 -0.018894369216237914 0.07034014261968835
0.06918372510389037 -0.018833691241446977 0.07034485968431131
0.07070817735426865 -0.01878245868029442 0.0702284341556107
0.07224434406165386 -0.018730299570493266 0.07012879889350049
0.07378375385507013 -0.01867771957972455 0.0700392671947006
0.0754849782235823 -0.01861511770398267 0.07008950646347173
0.07714308631432604 -0.018554860075299388 0.07011332702646367
0.07876759751107942 -0.018496383254578162 0.07011808397635821
0.08039538217919778 -0.018437452548697525 0.0701340036463331
0.08196357769396456 -0.01838190322660669 0.07010871492331733
0.0834902436512926 -0.018328652370646195 0.07005663592779027
0.08498038568887706 -0.01827740811072161 0.06998148798347764
0.08644297274318052 -0.018227632431783027 0.0698904383876946
0.08787032607988832 -0.01817980799433609 0.06977661938953661
0.09028439437811187 -0.0180708622646736 0.07051542000446953
0.09194834251855816 -0.018007842768815244 0.07062394364768743
0.09347915856994904 -0.017952798907961937 0.07062642639357003
0.09373261259711885 -0.01797688793434261 0.06952488646304233
0.09362772522265383 -0.018023401504434745 0.0681061580871905
0.09316131186891236 -0.018092688347221546 0.06636246261088385
0.09316524297535378 -0.018132860969929207 0.06502449768548563
0.09316115377601214 -0.018173716340805498 0.06367343141435322
0.0931463039897854 -0.018215431251860432 0.06230666202739599
0.0931401344374837 -0.01825678711872958 0.060941464176813454
0.09312651720858367 -0.018298799539571666 0.05956335190084422
0.09310742815112494 -0.018341347962991295 0.058173971428428506
0.09309028338010289 -0.01838396578999748 0.05677997042601851
0.09308528687741435 -0.018426005012013105 0.05539069487129422
0.09308231009844153 -0.018468106831789566 0.053996934760931425
0.09307522500319515 -0.0185106629009758 0.05259299477081614
0.09309615050187564 -0.018551621127277 0.05120870350027967
0.09305889943734458 -0.018596498056628025 0.049763687411085944
0.0930702656946149 -0.018638455837542728 0.048357614409884286
0.09305619897053552 -0.01868224531424698 0.04692105951954023
0.09305104200211273 -0.01872566138518912 0.04548627927532356
0.09304309273691447 -0.01876945889901025 0.04404216713984882
0.09305244806873308 -0.01881233668291849 0.042607956896524024
0.0929999603299938 -0.018859435108046056 0.04110737045047569
0.09299113665672404 -0.0189039068068258 0.039641925023014835
0.09296969185539489 -0.01894941056065638 0.03815726822944432
0.09286825029734691 -0.01900036561758957 0.036587025795696004
0.09287520879792455 -0.019044444466015165 0.035115810127996416
0.09296246051567092 -0.01908344782965664 0.033717353844208764
0.09293297993343225 -0.019130332968742836 0.03219642724045274
0.09291608783861327 -0.019176607330846963 0.030680769200632285
0.09290053212547222 -0.019223012127500355 0.02915918956074126
0.09275901612654064 -0.019278002770438896 0.027502769838760044
0.09281074283100343 -0.019320390038627767 0.02603434297775231
0.09283054581707956 -0.019365109665171083 0.024526553210532764
0.09276662462222579 -0.019415643376812997 0.022925579685071695
0.09277493116863855 -0.019461576095479233 0.0213912298022913
0.09282358819759784 -0.019505017246211672 0.019891484170389773
0.09275124575057497 -0.019556819694562647 0.01825843888839679
0.09278417418343271 -0.019601762350748012 0.01672760474397267
0.0928121792704425 -0.019647255624793875 0.015184363683612812
0.09279671005316464 -0.019695919749557124 0.013587696636472524
0.0927709619067979 -0.01974551958421947 0.01197222447665336
0.09276627112854247 -0.019793924994659616 0.010371298597661949
0.0927637543379507 -0.019842418123989194 0.008764870579021644
0.09276416174357183 -0.019890948205536545 0.00715373124055152
0.09271820008628984 -0.019942901791021168 0.0054842305039315975
0.09274801358002721 -0.019989892609479944 0.003889132608434376
0.09308822224882657 -0.02001568688811147 0.002627607301126489
-0.048619320105089014 -0.023220059195238174 0.019826812791798154
-0.04581350463634326 -0.023116140049946464 0.02013480052110378
-0.04304457262148481 -0.02301378866891405 0.020431651349565372
-0.040292217479312054 -0.022911915582794713 0.020731449937480384
-0.0382446474653233 -0.02284784942920435 0.020542603266925474
-0.036480019832624555 -0.022798897182591402 0.020159835570662643
-0.03472421711958812 -0.022750223934216003 0.01977778071160957
-0.03297335240324378 -0.022701619294836273 0.019399199735112005
-0.031157949732693202 -0.022649284424182296 0.01907478967898507
-0.029320790006702402 -0.022595540439909165 0.018773968311631972
0.04397093706176852 -0.018617881648361846 0.07120741257697144
0.045333442047085615 -0.018581644663902584 0.0708570482595463
0.04697174456934666 -0.018530048915118363 0.07071772440610774
0.04780535611034953 -0.018522701475448457 0.06998246169117278
0.04958586961626016 -0.018462891827935597 0.06996230244697671
0.051487998013496294 -0.018396083078415736 0.07004316404171734
0.05336746134003456 -0.018330253681037925 0.07011662134876978
0.05524722401527743 -0.018264130212957315 0.07020005586001787
0.05713263705281896 -0.01819741201523287 0.07029765595792314
0.058842889834200884 -0.018140212994151642 0.07026949001775118
0.060565976892389795 -0.018082051721188805 0.07025984332723528
0.06228505510350374 -0.01802386856421494 0.0702557432214751
0.06407025577631398 -0.017961713953262026 0.07031240251350535
0.06583019120251288 -0.017900719926512706 0.07035838760119206
0.06755396715595069 -0.017841510059415425 0.07038476861908594
0.06917019605263086 -0.01778814184528157 0.07033403738466415
0.07072085707538034 -0.017738268563673554 0.07023863128603614
0.072276167951079 -0.01768791593067111 0.070154528621451
0.07376612647309294 -0.017641074020900153 0.07002493934363085
0.07548061049767696 -0.01758119418746803 0.07008593737262736
0.07715246780876117 -0.017523497043027258 0.07012103394816283
0.07880265691207422 -0.017466793468445662 0.07014703859557203
0.08040247685625906 -0.01741274140157353 0.0701398940929901
0.08193965062708075 -0.017362066146109387 0.07008874367972429
0.08344206805272464 -0.017313178044388932 0.07001621179891154
0.08492634764345691 -0.017265126326279256 0.06993590434596575
0.08638109441240771 -0.017218577922429333 0.06983796469139686
0.08782324052506069 -0.01717255776093869 0.0697364789206073
0.09031802324907806 -0.017064964873368033 0.07054424018606242
0.09200431765225542 -0.017004136439978456 0.07067216809640026
0.09353929407594824 -0.016951899701401846 0.07067850853963387
0.09384498560088417 -0.01697157685770645 0.06962272360524618
0.0937689234146179 -0.01701379618355367 0.06822973942807647
0.09324730980924811 -0.017082469345248798 0.06643812707863478
0.09325209855923422 -0.01712034815839358 0.06510131870006147
0.0932361559274687 -0.01715962419547329 0.06374011709851624
0.09323154764001279 -0.01719840383615984 0.06238285164417395
0.09322019288962491 -0.017237759198497144 0.061013394845837954
0.09320743776047624 -0.017277375467662285 0.059636438413217585
0.09319597532666235 -0.017317093501033203 0.05825436530507705
0.0931946193656617 -0.017356386174990305 0.056875195350069796
0.09319054198792803 -0.017396020537763526 0.05548726134831056
0.09316058912332115 -0.01743739181522741 0.05406912753816201
0.0931414081834464 -0.017478302238940358 0.05265435113485861
0.09321236983716458 -0.0175139520767481 0.05131700950581358
0.09318021044906127 -0.01755601135015796 0.0498773284259903
0.09318223275916665 -0.017596188547147926 0.04846304933402318
0.09316912272812189 -0.017637471421001586 0.04702794961379214
0.09313732142418707 -0.017680084680414498 0.04556837413457554
0.0931150506408675 -0.01772231232446229 0.0441109915538358
0.09317309004672797 -0.017759814817424564 0.042723945806604324
0.09313065460562203 -0.017803662136969677 0.04123367742554063
0.09310681855327779 -0.01784656863320494 0.03975430467915836
0.0931087036667374 -0.017888088297249423 0.03829301338626323
0.09300278203456286 -0.017936469533784936 0.03671907828031207
0.09299811531422503 -0.017978800710991186 0.03523707773155382
0.09310527127952178 -0.01801438254316402 0.03385899119425939
0.09308602493675333 -0.01805800463897016 0.03234900172314942
0.09308152431309552 -0.018100912106571 0.03084655177696255
0.09307133586580357 -0.018144378551696344 0.029331237255906084
0.092951710646416 -0.018194915691302164 0.027697872744697705
0.09298602496530334 -0.018236014179247972 0.026212734403901983
0.09301407187706306 -0.018277703547317944 0.0247143011179633
0.09298287163007524 -0.01832333504380571 0.02314794529890929
0.0929249695479083 -0.018370876001254956 0.021546311017363373
0.09300556844482105 -0.01840985332416674 0.020080552840515964
0.09293231263524754 -0.018458808183825864 0.01844753040542041
0.09296852631232427 -0.018501016689866583 0.016921121293464292
0.09298752761391216 -0.018544529824658096 0.015369379062717958
0.09298992411030049 -0.018589318131757872 0.01379261476955601
0.09298068956080385 -0.018635071342297915 0.012195804093501628
0.09297505696420022 -0.018680815407148426 0.010595022166603463
0.09296647139837394 -0.018726973467122054 0.008983211226700705
0.09297030636039233 -0.018772553567980677 0.00737690817086778
0.09296387151078839 -0.018819023608401795 0.005751570786012072
0.09297655924293641 -0.018864478482030704 0.004139118026987021
0.09322098544266261 -0.018895048119452945 0.002773573005932617
-0.05535519737247119 -0.021709476887115733 0.03325690370144985
-0.05523977290614929 -0.02174702698149758 0.03171732447767395
-0.05512804467475596 -0.02178491086371395 0.03016968749546972
-0.055025498866379585 -0.02182340385818084 0.02861025104956949
-0.0548691817531996 -0.021859367004182922 0.027081190346823047
-0.054742513660996917 -0.021896957728619493 0.02552669447311834
-0.05458657392510191 -0.02193323272174464 0.023986439960127837
-0.05443286628828964 -0.02196976619316393 0.022439194659736428
-0.05428965905062827 -0.022006975798699025 0.02087921817825117
-0.05420801081605181 -0.022047440289953864 0.01927107598721023
-0.05417855568699864 -0.022090706251942833 0.017620535567723583
-0.054309611802636215 -0.022142274967643115 0.015851282012578793
-0.04793354647269915 -0.021953414500215908 0.015304136644926303
-0.04513285389992555 -0.021855471543434948 0.015623333710949094
-0.042331885708038475 -0.021757111955711336 0.015957758209958317
-0.039578275412939845 -0.02166077466270962 0.016273114485433504
-0.036992766326178705 -0.021572673761829968 0.016481280758175842
-0.03522648245282767 -0.021526372313367167 0.016105079996344085
-0.033466484530352114 -0.021480203189699794 0.01573142987888121
0.043915686357176686 -0.017525567584352964 0.07116664300641085
0.045128028447817325 -0.01749924493334846 0.07070464858542813
0.04691304796045742 -0.01744309222170805 0.07067393980312142
0.047692462793756885 -0.017439001877246865 0.06989779213855862
0.04950959889249268 -0.017380814171409718 0.06990478963026603
0.051500314501676914 -0.017313317331181476 0.07005250171233801
0.05344635709737705 -0.017247874569510484 0.07017675912700266
0.055358413724605315 -0.017183938400186352 0.07028526724524292
0.0571310401802424 -0.01712705993723536 0.07029642557623256
0.05883180501462837 -0.0170737254316905 0.07026090320294753
0.06054635038693279 -0.017019437455844166 0.07024455789722966
0.06220564732987022 -0.016967840842220406 0.07019356671805
0.06409185110032345 -0.01690399794545799 0.0703294025170767
0.06586458785827948 -0.01684590941417699 0.07038561016203188
0.06749105855903403 -0.01679535801939844 0.07033471405099767
0.06910554114917 -0.016745229441033464 0.07028231796062684
0.0707670920407199 -0.016692369396784836 0.07027581380508624
0.07232426145987336 -0.016644873797034308 0.07019341239461069
0.07381019116059495 -0.01660099803620073 0.07006075590906186
0.07546168225167849 -0.016548024711749012 0.07007047014071832
0.07716401347348018 -0.01649208054929778 0.07013051874129139
0.07881911057937885 -0.0164384459102683 0.07016062723821725
0.08038970619804181 -0.016389154094407717 0.07012929109015381
0.08189600912432637 -0.01634313670930441 0.07005231735607564
0.08339597254241349 -0.016297263032286423 0.06997753307140342
0.08488892520858732 -0.01625157059771649 0.06990433675885849
0.08635358464319726 -0.016207223276281987 0.06981463601952181
0.08778979383369251 -0.016164238540590514 0.069707965592463
0.0903267654899807 -0.0160606637096063 0.0705517323486925
0.09190234683347215 -0.016009500782181697 0.07058431682752764
0.09356241646597124 -0.015953454749971584 0.07069853437419721
0.09386612840374686 -0.01597208094473952 0.06964113150875462
0.09376759825078335 -0.016013058004058098 0.06822857960073525
0.0932706337837193 -0.016076324120245403 0.06645864845516203
0.09329083272195038 -0.01611111496146236 0.06513557784087498
0.09327364244984898 -0.016148145353874876 0.06377344700096943
0.09326911946599398 -0.016184634386333455 0.06241643283192838
0.0932672654435085 -0.01622113813517988 0.06105568844761233
0.09325192481077577 -0.016258563164075236 0.0596766186057166
0.09323989087381407 -0.016295971341940284 0.05829423717065885
0.0932406659049137 -0.016332826982019003 0.056917220909895705
0.09323873010309419 -0.01637000304314427 0.05553147161508942
0.09317623985637136 -0.016410776756752895 0.0540835614160281
0.093198697046458 -0.01644691578263437 0.052707461854548665
0.09326907837421217 -0.016480494150106623 0.051369856780426104
0.09323637663217688 -0.01652010288001327 0.04992994345213042
0.09322136648187118 -0.016558882577354706 0.04849990000168286
0.09323518363786665 -0.0165961897741534 0.047090480803153145
0.09317595795394656 -0.016637861870896258 0.04560513678778222
0.09313995082617776 -0.016678390730798066 0.04413480743184234
0.09322298150636676 -0.01671224267021167 0.04277191299117805
0.09320081939233005 -0.016752332210296924 0.04130148683741097
0.093193867525594 -0.016791727139438557 0.03983886876280468
0.09319735011528701 -0.016830699935627552 0.038379576721735253
0.09309450034380329 -0.016876044372874405 0.03680910633518325
0.09307461590365607 -0.016916760832918633 0.03531255821403978
0.0931847060163351 -0.016950067537047992 0.033937773250463155
0.09316706628691379 -0.016991018509258177 0.032429793920277394
0.09314722232185524 -0.017032292328704398 0.03091238722942874
0.09316763429934932 -0.017071390535580964 0.029428237025977855
0.09303269390570945 -0.017119845598592733 0.0277798681705701
0.09309351201171118 -0.017156946762798393 0.026322128139766143
0.09314746445678423 -0.01719463200709891 0.024850762270737237
0.09313305223370227 -0.01723656219554482 0.023302375191115166
0.09311713642451114 -0.017278782799049628 0.021744936681445004
0.09310904424994071 -0.01732073865795472 0.020188059194434782
0.09302240115204757 -0.017367600688168675 0.01854161151991529
0.0930783032785682 -0.01740613137699937 0.017036355437213546
0.09310406765087048 -0.017446661995815176 0.01549234400605376
0.09310601923108863 -0.017488825539575252 0.013915742433063816
0.09310870732144211 -0.017531149406075683 0.012332277092300614
0.09310412017505637 -0.017574120418944718 0.010733319298019572
0.09311631443271018 -0.017616281503479107 0.009144602799264268
0.09313735455320793 -0.017658110100847613 0.007557758408251902
0.09310343926103726 -0.017703499703028834 0.005903448774251974
0.09313927057065852 -0.017744843095013122 0.004317093223917545
0.09328879524362216 -0.0177794135704751 0.0028481260887851523
-0.05377994239549272 -0.020079754362888703 0.042247459290049916
-0.05379476336526995 -0.020120070727016822 0.040659461492720705
-0.05384055339620786 -0.0201619758358866 0.03904509699832959
-0.0538515171916219 -0.02020243654983204 0.03744675344810666
-0.05382609280423606 -0.020241371892158858 0.03586579440635618
-0.05380868092355845 -0.020280834158136776 0.03427339875889707
-0.05374921884053424 -0.020318497594361138 0.03270253077587326
-0.053686822574562865 -0.020356174723637013 0.031127620623346897
-0.053616041969215045 -0.020393611073370798 0.029552307817731716
-0.053479681977018634 -0.020428128487731123 0.02801509160438026
-0.05336329775645321 -0.020463721365761595 0.02645884960473055
-0.053247871889055776 -0.02049950261162877 0.024896247689211892
-0.05309651150624772 -0.0205337363421055 0.023352452851382155
-0.052999381307058446 -0.02057066696978281 0.021765878977661635
-0.0528950474754562 -0.020607406683124514 0.02017832360455757
-0.0528823389753465 -0.020648635810557796 0.018521165273009677
-0.05299621911669872 -0.020696041314654297 0.016768885770993613
-0.05314513728329623 -0.02074530656467369 0.014984295738446396
-0.0444177818915642 -0.020581907820616863 0.01109104371424774
-0.04162738550410672 -0.02048982487321319 0.01143292296170656
-0.03885921998806391 -0.020398435227567246 0.011773684127440509
0.043874023920801974 -0.016432238217798944 0.07113590023757094
0.04511449450327221 -0.01640619922923082 0.0706946075329099
0.04696839102977968 -0.016350206321949695 0.07071522284083309
0.04776689729685707 -0.016345435191958146 0.06995361772918496
0.04974575903257489 -0.016282975147980733 0.07008286890079096
0.05162999261243856 -0.01622488598797252 0.07015081638347209
0.053562598488414936 -0.016164179292147734 0.07026536337178318
0.055336665152530995 -0.016111011542035942 0.07026860000180535
0.05707434106190806 -0.016059412249813762 0.07025273921196384
0.0587858741138122 -0.01600888539018734 0.07022532299918399
0.060408112144221926 -0.015962562478764774 0.07013689578755405
0.062210319463814445 -0.015907119126755697 0.07019722501167652
0.06409802065580561 -0.015847191511593473 0.07033425923815134
0.06587681598263934 -0.015792431169559012 0.07039528787202792
0.06742054080042148 -0.015749167123097912 0.07027860509096823
0.06909050130710515 -0.015699404728117417 0.07027028713345723
0.07079840472392157 -0.015647527031184435 0.07030099570867598
0.07237603782371954 -0.015601968756128766 0.07023527376919736
0.07386452031748225 -0.015560701132911867 0.07010491561863386
0.07545003294217167 -0.015514360774332847 0.07006095089779768
0.07715246780877671 -0.015461909155611502 0.07012103394817559
0.07881982591585013 -0.015411006801663834 0.07016121801542818
0.08039183471593359 -0.015364723897392853 0.070131058319443
0.08188685688212316 -0.015322156342882535 0.07004467823928162
0.08339038424389889 -0.01527896905394481 0.06997284393196185
0.08488199409692987 -0.015236201643902807 0.06989849003959075
0.08636665241974084 -0.015193602538260423 0.06982571767814238
0.08784166709640134 -0.01515131103112553 0.06975218758576118
0.09026757704471211 -0.015059917006372232 0.07050100743013787
0.09191568041211606 -0.0150082195604816 0.07059580415121941
0.09360600863855173 -0.014954111424180468 0.07073628867362236
0.09388066228739939 -0.014973073254673668 0.06965378538107303
0.09380999747140212 -0.015010041369945252 0.0682656888049234
0.09328862399873233 -0.015070618093925132 0.06647447697429132
0.09329884539379207 -0.015103752562703677 0.0651426647954822
0.09329238207434298 -0.015137907154718543 0.06379010871874785
0.09329796264906554 -0.015171584346616963 0.06244221247720416
0.09329751829673322 -0.015205729229982496 0.061082869937063466
0.09329033445554036 -0.015240382554652564 0.05971130975538985
0.09328514374171687 -0.015275087378636762 0.05833532321838519
0.0932812830553571 -0.015309879089894014 0.056954291198209384
0.09327604791197641 -0.015344901508964356 0.055565708901204436
0.09318440478530521 -0.015384669812812763 0.054091091516160705
0.09323142337409845 -0.01541724246356323 0.052737801413102026
0.09331005867910847 -0.015448278079072016 0.05140804675215371
0.09327677542195772 -0.015485437337792856 0.04996778799242929
0.0932495087662043 -0.015522444900059636 0.04852640046970563
0.09325444573139785 -0.01555789371405284 0.04710871369795799
0.0931835460620759 -0.015597587152047638 0.04561235687171289
0.09316138922516332 -0.0156348349419796 0.04415531227100444
0.09326939285594166 -0.015665218316671902 0.0428165342908452
0.093227903636865 -0.015703843762239857 0.041327661885879496
0.09322101610689537 -0.015740769597676812 0.03986524236422656
0.09323572348961606 -0.015776692048441187 0.03841704835573284
0.09316097734085221 -0.01581766396451624 0.03687435824385393
0.09311530619080477 -0.015857237616264723 0.03535270591132317
0.09322405577462567 -0.015888530918418627 0.03397679968894102
0.09322341616330249 -0.015925983127487976 0.03248597055494995
0.09320088891427852 -0.015964817832089563 0.0309661660951997
0.09322708079517872 -0.016001146266744266 0.0294881164675711
0.09309517638038811 -0.01604639707316885 0.02784313158038515
0.0931383340504412 -0.01608215095726587 0.026367745266941855
0.09321803439106946 -0.016116043104719497 0.02492295560115987
0.09321665684070035 -0.01615461669097263 0.023388345350608575
0.09321026002969685 -0.01619365546020145 0.02184119019947406
0.09317726912242258 -0.016234371180113047 0.02025894153527391
0.09304977697149025 -0.016280588621668944 0.01857020059757869
0.09312666542796721 -0.01631552631004308 0.017087121741535427
0.0931800215792129 -0.016351960545781103 0.015572485309750861
0.0931923047262635 -0.016390894197153123 0.014007254732145535
0.09320319335452515 -0.016430096071679424 0.01243300368066752
0.09320685107722121 -0.016469899804608362 0.01084340015671631
0.09320468573358898 -0.016510229602402577 0.009239784956256047
0.0932171473486314 -0.016549921485971477 0.007644143934192993
0.09321939861931355 -0.016590392625971246 0.006029636049042886
0.09321357109154227 -0.016631526446419482 0.004398363839930863
0.09332637178963599 -0.016666038464851676 0.002889439399083038
-0.05191313722515856 -0.018551373849976592 0.04811871877995261
-0.05201267370492657 -0.018592029140450415 0.04650252851569203
-0.05212855409007272 -0.018633544152420963 0.04486913074279558
-0.05219711702580526 -0.018673192560579314 0.04325899260420596
-0.05229926687466069 -0.018714441385040984 0.041620589977763134
-0.05233779145554862 -0.01875311271102739 0.04001634686962757
-0.05235373696482931 -0.01879096278224731 0.03842023906434078
-0.052363045824258325 -0.018828676152874712 0.036822055197326065
-0.052376420960025705 -0.01886671578673972 0.03521479526000387
-0.052313157845638336 -0.018901579571030513 0.03365171898005015
-0.05228604704915879 -0.01893815544638444 0.032058670237646025
-0.05223317709802067 -0.01897375483352119 0.030476590932726755
-0.052190928356768196 -0.019009960939293375 0.028881280032233947
-0.052134968175341634 -0.019045712443727162 0.027289026895009894
-0.05208286912428295 -0.019081777255644312 0.02568800604264293
-0.0520128962037284 -0.019117202147665973 0.024092990143512183
-0.051918149089011933 -0.01915167939740939 0.022508886618907264
-0.05182442358343209 -0.019186341410365765 0.02091811651810027
-0.05177544599310685 -0.019223122523867826 0.01929025017325542
-0.05171259160669894 -0.019259438501623323 0.017665694044857072
-0.0518731221181139 -0.01930581899065413 0.015877892091041512
-0.05214457146405799 -0.019357322880731706 0.014003655975745877
0.043858716781213336 -0.015337447880204566 0.07112460507831186
0.045153401672176185 -0.01531068951669737 0.07072347339127055
0.046863559177546144 -0.015264952977894956 0.07063702375715131
0.04768242415230256 -0.015259583449356474 0.06989026319613362
0.04982688771984256 -0.015193743994326908 0.07014404492076726
0.05169151317645304 -0.015140415691827593 0.07019745782498865
0.053526027872361936 -0.015088241975704441 0.07023748765739607
0.055285101447232754 -0.015039310278425961 0.07022908362225588
0.056755340656187814 -0.015003454070225861 0.07000695112326744
0.058394935347793886 -0.014959641805892841 0.06992248371872495
0.06020603986891232 -0.014907723389740848 0.06997951873298397
0.062248470131126665 -0.01484487896847178 0.07022709708827901
0.06408953745553281 -0.014791105501922903 0.07032758119827243
0.0658844580815574 -0.014739247251872749 0.07040133606183319
0.06745694099839272 -0.01469752730041298 0.07030756768554319
0.06914313445053472 -0.014650321091787717 0.07031238998595157
0.07081107711990708 -0.014603765807477815 0.07031118694817795
0.07238269353284077 -0.014561525512975385 0.07024065493372816
0.07390635543716367 -0.014521355766281167 0.07013891995149824
0.07543983907242857 -0.01448054996923101 0.07005262096868642
0.07713947789403242 -0.014431728083741093 0.07011036269995335
0.07883270139698029 -0.01438299755665066 0.0701718515300559
0.08044291016438981 -0.014337988715507908 0.07017346436583721
0.0819509108970149 -0.014297637379046463 0.07009814230743194
0.08345743007121642 -0.014257180206475373 0.07002910206356433
0.08496514617263073 -0.014216488746196689 0.06996863273345838
0.08643059914231532 -0.014177638928405753 0.0698799453998295
0.08789625084153552 -0.014138608683920723 0.06979872026725187
0.09031667824256345 -0.014053565061260556 0.07054308750591348
0.0918923458478681 -0.01400879441895158 0.07057570064413538
0.09357628812703656 -0.013958603941827259 0.07071054833942036
0.09385952160994326 -0.013975890148002434 0.06963537932804198
0.09380536066204986 -0.014009596551236037 0.06826163051558404
0.09328129492152953 -0.014066266031105583 0.06646802855560258
0.09329350366177941 -0.014097095633521788 0.0651379402026066
0.09328301256507615 -0.01412917024974738 0.0637817781292434
0.09327784010369333 -0.014161128870716041 0.06242422721945867
0.09328138422784349 -0.014192804266966511 0.06106837384903924
0.09328359665786445 -0.014224687842492534 0.05970522425397279
0.0932804164913082 -0.01425698082825861 0.05833103124651895
0.09327925246823104 -0.014289320626834169 0.05695243793057769
0.09327333421357253 -0.014322042210849399 0.055563219214069315
0.09320617568041578 -0.014357946593940622 0.05411116970930685
0.09324914704916759 -0.014388546238536797 0.052754232479961916
0.09332030194414825 -0.014417883087053869 0.05141759255722417
0.09328978280405309 -0.014452426014703623 0.04997997297120116
0.09326186218894089 -0.014486997612414341 0.04853803319576039
0.09325100625960231 -0.014520873156909529 0.04710545800161686
0.09318975421866504 -0.014557436191047289 0.04561826393192664
0.09316553822641921 -0.014592303738644667 0.04415928059921276
0.09327147062831986 -0.014620765584909566 0.04281853192514756
0.0932445683483148 -0.014656077994005062 0.04134376717651628
0.09322380028915728 -0.014691243814547944 0.0398679470695828
0.09324060664465772 -0.014724664450933142 0.03842181676095324
0.09312879228626708 -0.014764792276117135 0.03684276631979627
0.09312372344501785 -0.014799658731131976 0.035361010924577774
0.09324653655396187 -0.01482814515728246 0.03399909575351201
0.09323327513911883 -0.014863745236118686 0.0324957992203912
0.09321571433729542 -0.014899734428280726 0.030981022533785096
0.09323061850812103 -0.014934220868568611 0.029491679945494342
0.09313137549203443 -0.014974767346258923 0.027879783125427104
0.09314189076146007 -0.015009823395826748 0.02637136506968779
0.09324582523494118 -0.015040197809265637 0.024951385747718435
0.09324594277241194 -0.015076118592987674 0.02341845991379543
0.09325107228492097 -0.015111950016226554 0.021883374167074865
0.0932289550075805 -0.015149377810885682 0.020312640668670057
0.09306274266098513 -0.01519453661524664 0.018583740908388602
0.09317501144661383 -0.015225285004532747 0.017137871113221015
0.09322702073708228 -0.015259355071433892 0.015622075553027581
0.09322854381409712 -0.015296255100122688 0.014045689027939512
0.09323733853297744 -0.015332949661315808 0.012469404058823519
0.09325709711972002 -0.015369241416978496 0.01089724108858603
0.09325578503147819 -0.015406830688163944 0.009294822523265855
0.09329543334218998 -0.015442420748023138 0.007728898161582676
0.09325680873796133 -0.015482367602222184 0.006070345837299207
0.09326357375401234 -0.01552007976935443 0.004453057227445711
0.09335215397604274 -0.015553584881547644 0.002917785470773371
-0.050583188602243645 -0.017140034854414666 0.05049683325257687
-0.05055868908239941 -0.017172630740893875 0.04896973478703465
-0.05059977246700731 -0.01720795715375823 0.047395317230560396
-0.050658141152469915 -0.017244109776375516 0.0458035321098908
-0.05074050992555579 -0.017281361012496565 0.044189863839754484
-0.0508073615308719 -0.01731813986935789 0.042579410497842196
-0.05088775665383849 -0.017355605918560446 0.0409535186707185
-0.050979132630817936 -0.017393660540418195 0.039313666232917266
-0.05100830274587059 -0.017429368281159048 0.03770752757478846
-0.05109632811704096 -0.017467586257841918 0.036056175284692515
-0.05115396213643392 -0.01750473131702735 0.034417908506414296
-0.051156862861218844 -0.017539813672118695 0.0328092019849443
-0.05114365405782556 -0.017574384370034602 0.031204809409041467
-0.051160006961171234 -0.01761029274315433 0.029574175996878727
-0.05111842824652296 -0.017643991023168885 0.027976064296489522
-0.05105777580833798 -0.017677048270436677 0.026384679235606556
-0.0510117825693846 -0.01771083708297929 0.02477714620717042
-0.050953410872179916 -0.01774425639074312 0.023171841213622313
-0.05088938593053716 -0.017777579483540997 0.021564220378345267
-0.05078294953761636 -0.017809296715946592 0.01997985074866121
-0.05075652344530318 -0.01784443437451645 0.0183336524913984
-0.05072453126414961 -0.01787948582707566 0.016684782312023583
-0.05092509284216934 -0.017924286136474666 0.014865063001788525
-0.05128329935388887 -0.017975794699337588 0.012924948632659639
0.043853614094319926 -0.014242130157210315 0.07112083979866729
0.04510434333340552 -0.014219133146344726 0.07068707621567916
0.04688704719653414 -0.014173608788647794 0.07065454459192838
0.04767656800054043 -0.01416986065170085 0.06988587110486816
0.04974161875463434 -0.014112087106539661 0.07007974687657825
0.05148142884577034 -0.014067871683912917 0.07003818366715137
0.05307024675921124 -0.014029890678687316 0.06989007146635284
0.054943081591763754 -0.013979647499771106 0.0699669731640567
0.05675454037203054 -0.013931812952078017 0.07000633450864907
0.058804089648919755 -0.013873587878890217 0.07023943359660911
0.0605769666920829 -0.013826980055609006 0.07026840235545118
0.06235119822630342 -0.013780115961857626 0.07030753346710383
0.06406639916080115 -0.013735594399469933 0.07030936655639436
0.0658363067088924 -0.01368852190446352 0.07036322759917363
0.06744177526972012 -0.013648359815819248 0.07029550074977198
0.06912584265029831 -0.013604619031138913 0.07029855774893745
0.07080287745175623 -0.013560995824359318 0.07030459271121936
0.07239156736802987 -0.013521030290341785 0.07024782946108532
0.07392616812125674 -0.013483251808509301 0.07015502405517882
0.07541872104971331 -0.013447148163727721 0.07003536435891794
0.07709833588408893 -0.013402692817455732 0.07007656443344351
0.07879120983286997 -0.01335746230269632 0.07013758475979426
0.08045071183978653 -0.013313503381475876 0.07017994180693321
0.08201353077894807 -0.013273616209816338 0.07015040934550759
0.08350001651966898 -0.013236928148413804 0.07006483633842359
0.08499839401721537 -0.013199552708642565 0.0699966788569592
0.08647527672292948 -0.013162967308930096 0.06991783261765172
0.08791466829956068 -0.013127888761187409 0.06981442116329784
0.09030120977941519 -0.013050428618478237 0.07052983092298076
0.09207159258835307 -0.013000157204106666 0.07073012770258985
0.0935333477213719 -0.012963483700010976 0.07067335852214512
0.09380665638890573 -0.012979984869657436 0.06958935241788583
0.09373115148698474 -0.013012248995768203 0.06819668018418801
0.09322798138553495 -0.013063936119559602 0.06642112114934146
0.09321736257265484 -0.013093600342528992 0.06507059581948083
0.09321807860243153 -0.013122884136995788 0.06372404424241107
