# .PCD v0.7 - Point Cloud Data file format
VERSION 0.7
FIELDS x y z
SIZE 4 4 4
TYPE F F F
COUNT 1 1 1
WIDTH 758
HEIGHT 1
VIEWPOINT 0 0 0 1 0 0 0
POINTS 758
DATA ascii
-0.06332534111518634 -0.006195917101795596 0.08548905382560151
-0.06478940849874215 -0.006180374713934616 0.08529174468397432
-0.06478452284086927 -0.006193355419281339 0.08400512617361677
-0.06477886316749171 -0.0062064054602420345 0.08271252660730347
-0.06477393464672082 -0.006219495856954716 0.08141503761375118
-0.06476898529181085 -0.00623264159026255 0.08011206378843846
-0.0647640149703766 -0.006245843011792516 0.07880357027893337
-0.0647582636512693 -0.0062591154206298825 0.07748893958146633
-0.06475324936672233 -0.006272429349103905 0.0761692965632125
-0.06474821370470418 -0.006285800039128724 0.0748440274831324
-0.064743156528216 -0.006299227854468797 0.07351309628580815
-0.06473731124204463 -0.006312728363588625 0.0721758664691195
-0.06473220896425197 -0.0063262715986424235 0.07083349710574538
-0.0647270847467229 -0.006339873069550432 0.06948535555966712
-0.06472116699532093 -0.006353548551560257 0.0681307906976168
-0.06471599679330109 -0.00636726769329137 0.06677098790336128
-0.06471080421509035 -0.006381046210389013 0.06540529998950384
-0.06470558911511182 -0.006394884489146955 0.06403368866768927
-0.06469957313292818 -0.006408798587012909 0.06265548277078714
-0.06469431083967858 -0.006422757629768896 0.06127190366532986
-0.06468902557276518 -0.006436777613810648 0.05988228423950198
-0.0646829338176162 -0.00645087481329116 0.058485937892084616
-0.06463677017243441 -0.0064658471432757405 0.057050213839951014
-0.06437138869265491 -0.006485346399003663 0.0554250140925483
-0.03615871893672867 -0.0070749714400164376 0.030340769141191493
-0.03861580436957068 -0.007040238307466842 0.030870779003955018
-0.0409547228008304 -0.007007773544994848 0.03131576155364746
-0.04303061363353389 -0.006980566338521224 0.03155073268517977
-0.0448742818351906 -0.006958017588653244 0.031598630589854404
-0.04656008830764041 -0.0069386246778899135 0.031520445490840154
-0.04814724988764002 -0.006921184677466162 0.03136537670063988
-0.04965182662002959 -0.006905377923433503 0.03114611236615583
-0.05110244030362732 -0.006890621127323442 0.030886618242162156
-0.05251392505748742 -0.006876612668934321 0.030599246927520807
-0.05390589708349225 -0.0068629485137064435 0.030300848977434514
-0.055210123881130724 -0.006851056988639598 0.02993052745646041
-0.056448494357925316 -0.0068404915367602055 0.0295066582149755
-0.05772966455616657 -0.006828980051066207 0.02912597535696726
-0.05892814454453915 -0.006819156526409859 0.028675774784728714
-0.06004180288402261 -0.0068110773513711705 0.0281529822450175
-0.06112191679858919 -0.006803670582113381 0.02760321742497507
-0.06213812293266163 -0.006797584011621098 0.026998167599173284
-0.06323701712004531 -0.0067897141101038805 0.026472133695976174
-0.06420057578922955 -0.006784688334195456 0.025824207262491072
-0.0651207788523121 -0.0067805643281049766 0.02513816412609604
-0.06606444383380794 -0.006775919863359235 0.02447598031701881
-0.06697089689468994 -0.006772051417945088 0.023780878558949448
-0.06785190402831776 -0.006768711657506499 0.023063462858655293
-0.06861195284520877 -0.006767960228653149 0.02223248901634911
-0.06949242822704205 -0.006764607045401308 0.02151704349318806
-0.07024457097640324 -0.006764013598956475 0.020679762008200653
-0.07098048032716442 -0.006763769269034327 0.019827066486953093
-0.07166572756972261 -0.00676462450187959 0.018925268297011133
-0.07234232829519105 -0.0067656720203274545 0.018014629455088138
-0.07304314281669522 -0.006766195901316597 0.017127270389437232
-0.07371292782270611 -0.006767401135282023 0.016209051052040402
-0.07436462159540491 -0.006769008781899178 0.015272325260196451
-0.07495297156829506 -0.006772016431713916 0.014271696503330766
-0.07556568271671266 -0.0067745015063616415 0.013294066114238612
-0.07603599252762333 -0.006780143438076634 0.012171826390602769
-0.07649835838389568 -0.006785987999543227 0.011038878804910779
-0.07698134475559171 -0.0067914027571419145 0.009924150635317763
-0.0773596988598999 -0.006799170766665081 0.008699813712889026
-0.07769848615581976 -0.006807858115701803 0.007431095424713652
-0.07799055008848138 -0.006817631361248703 0.0061099411536186254
-0.07830646852918155 -0.006826917080607643 0.004808899375332076
-0.07884931596085704 -0.006831151084071535 0.0037403949167100214
-0.07971866915700115 -0.006828055120488881 0.0030125938825179555
-0.08089400396770191 -0.006818039189570187 0.0026091338397132846
-0.0831949575382741 -0.006782511642924743 0.003404311282180661
0.05406659707503014 -0.009004211346038451 0.07385353206476375
0.0506073071446238 -0.008949878755015555 0.07436779337204333
0.047184508896551736 -0.008896094423375469 0.0748787539124274
0.04380383766107693 -0.00884297823297353 0.07538289858651487
0.04046207978388261 -0.008790467297059443 0.07588176442653927
0.0371597753490176 -0.00873857631545104 0.07637474055952617
0.033897414020815086 -0.008687319049880595 0.07686123608324832
0.03067193288574105 -0.008636635200934956 0.07734274686582979
0.02748386986581486 -0.008586539324455814 0.07781867174498208
0.024333714672288786 -0.00853704507796856 0.07828842876767528
0.021218545471752503 -0.008488094590009562 0.07875347472734698
0.018138896683946415 -0.008439702255212162 0.0792132180457879
0.015095256617333686 -0.008391881607683853 0.07966708563098893
0.012084835655049808 -0.00834457705743572 0.08011649713903432
0.009108163589313378 -0.008297802823842612 0.08056087043385754
0.006165726096081625 -0.008251572301660938 0.08099964117872888
0.0032548576286630104 -0.008205832047533354 0.08143419369177082
0.0003760824114673045 -0.008160596094249207 0.08186395512514469
-0.002470117551882922 -0.008115877684097118 0.08228836977759363
-0.0052862912375863935 -0.00807162539600801 0.08270878830328349
-0.008071920770140961 -0.008027853067189021 0.08312464697952832
-0.010826528694007242 -0.007984573776766158 0.0835353986095918
-0.013552554330323874 -0.007941738011111915 0.08394236174350228
-0.01624853947157162 -0.007899379807837998 0.08434436934838616
-0.018916853918944154 -0.007857450865328627 0.08474271938873021
-0.021556991750325327 -0.007815964680124406 0.08513686296971248
-0.024168484659754963 -0.007774934041179999 0.08552626675451777
-0.026753603168072848 -0.007734312381645621 0.08591219897597818
-0.029311849165108927 -0.007694112987474507 0.08629411940142157
-0.03184276058555585 -0.007654348465347485 0.08667150281242808
-0.03434851428179575 -0.007614973889565658 0.08704558901153081
-0.03682862031987938 -0.007576002332509505 0.08741584624886259
-0.03928262331739252 -0.007537446214209029 0.08778175727090076
-0.04171261166101403 -0.007499262163179665 0.08814453466886621
-0.04411810387795273 -0.00746146303636422 0.08850365499527876
-0.04649865162742495 -0.007424061063960969 0.08885860880545288
-0.048856259660402024 -0.0073870143478548525 0.08921058262263684
-0.05119045518186888 -0.007350335528641161 0.08955906112123069
-0.05350079717914602 -0.007314036644531803 0.0899035425078622
-0.05578921125730146 -0.007278077195502566 0.09024518831154063
-0.05805523345694841 -0.007242469605703328 0.09058349114877995
-0.06029843031744486 -0.007207225720084923 0.09091795671943487
-0.06252065247682997 -0.007172306366528651 0.09124972256788297
-0.0638596300183834 -0.007157049489196326 0.09095605230018203
-0.06385583608813589 -0.007171902709107774 0.08969296196948609
-0.06385127636468496 -0.007186834596007995 0.08842407063358923
-0.06384744920373153 -0.007201811830208794 0.08715043620920057
-0.06384360605802608 -0.007216851619346372 0.08587148223646607
-0.06530625151648678 -0.007198726670098382 0.08567519888445138
-0.06530245757411135 -0.0072138216234377845 0.0843914784194614
-0.0652978966934551 -0.007228997101705401 0.08310179975261861
-0.0652940691711491 -0.0072442194038295285 0.08180725103576553
-0.06529022549541624 -0.007259505949289748 0.08050723887927172
-0.06528560977463654 -0.007274874450133081 0.07920115252825313
-0.06528173187291164 -0.007290290781798316 0.0778901048741632
-0.06527783750083765 -0.00730577259032849 0.0765734888856201
-0.06527392655326292 -0.00732132029375527 0.07525126901204776
-0.06526923664647993 -0.007336951914752858 0.07392281572581255
-0.06526529059019376 -0.007352632751686253 0.07258927573935195
-0.06526132763046516 -0.007368380759645407 0.07125002335056319
-0.06525658043990012 -0.007384214199728631 0.06990441457574559
-0.0652525816858312 -0.007400097927835754 0.06855362214058325
-0.06524856569176646 -0.007416050136263227 0.06719700596563372
-0.06524453234597527 -0.007432071268831744 0.06583452830725967
-0.06523970763010695 -0.007448179911990146 0.06446552538948574
-0.06523563755270584 -0.007464340318515786 0.06309120551057373
-0.0652315497751445 -0.007480571004387612 0.06171090890681297
-0.06522744418170973 -0.007496872429057189 0.06032459650533384
-0.06522253994533544 -0.0075132635131591715 0.05893158412419963
-0.06517848764693879 -0.0075306534525011615 0.057499981723557636
-0.06492068929067307 -0.00755319454086702 0.055883499710617845
-0.03793386300957413 -0.008211891150875113 0.03183029194759407
-0.04040546742353707 -0.008170930397595809 0.03238044411649077
-0.04273312735669932 -0.008133230256183012 0.03282387367292622
-0.04452148950672968 -0.008108282343823586 0.03282170542585522
-0.04628111337911328 -0.008083914340191697 0.03280429522864886
-0.04785265581760567 -0.008063963782548589 0.032634035606217804
-0.049347127766904364 -0.008045783248447909 0.03240456667548486
-0.050746787758338185 -0.008029813264207025 0.03209943625184741
-0.0520671899234747 -0.008015691859606032 0.03173099910838706
-0.05352433455179423 -0.007998188233482703 0.03148824608609041
-0.05475412445263683 -0.007986137509658913 0.031051079235265622
-0.05591539621042363 -0.007975703471443113 0.030557597038956774
-0.057202620242792324 -0.007962144674354809 0.03018068568819038
-0.0584660743377689 -0.007949107067618612 0.02978762252662981
-0.059563405719379736 -0.00794008857314453 0.02924953537619074
-0.06075519284300618 -0.007928705443623629 0.02880068426393284
-0.06186125876643006 -0.007919384530055728 0.02827799691125238
-0.0629067716658907 -0.007911517851966041 0.027703365663844015
-0.06387103138665207 -0.007905628092119636 0.027056852920321728
-0.06485604559159075 -0.007899196200126642 0.02643187289082516
-0.06579115617833103 -0.007893976715627781 0.025762895718314582
-0.06675521558234221 -0.007888011311185007 0.02512307740622638
-0.06766173944705178 -0.007883456806663566 0.0244314174686886
-0.06853886135222903 -0.007879618032527718 0.023713715158697413
-0.06937797612469326 -0.007876716046734001 0.022961360070432257
-0.07013994885673047 -0.007875742432861483 0.022136367089827247
-0.07089289279975314 -0.007874992103144449 0.02130307855954905
-0.07165290828332216 -0.00787405946007749 0.020476921583384433
-0.07238955373980871 -0.007873714843686555 0.019628432219156555
-0.07302558123386949 -0.007875924968084862 0.018681826554472647
-0.07375597002301831 -0.007875742434002797 0.01782696107689058
-0.07429473060424924 -0.007880450466782752 0.016783095709593576
-0.07497947455641973 -0.00788144555601432 0.015882126242423744
-0.07562160876562907 -0.007883538093496794 0.01493827804654485
-0.07623718984927186 -0.007886323093900739 0.013966978075208636
-0.0767663071514747 -0.007891349200833021 0.012907459858201797
-0.07724715178314978 -0.007897645949242029 0.011797030973617562
-0.07770272554290286 -0.007904626892048058 0.010658327840310344
-0.0781141462489719 -0.007912786939402226 0.00947161646709943
-0.07846015869497913 -0.007922687460655102 0.008214319125230019
-0.07878967793892783 -0.00793306546560408 0.0069359279354566095
-0.0790987484665302 -0.007944027782629766 0.00563203988869998
-0.07947736417100776 -0.007953220686805838 0.004396277349525246
-0.08010133850882489 -0.007956013753370477 0.003414286301294811
-0.08107933664774453 -0.007949499647957964 0.002804683996504964
-0.08291698438191186 -0.007920266414867172 0.0031094997084605835
-0.08448234719420505 -0.007898094646869294 0.0031361684475725293
0.05655773203690362 -0.010329636604074108 0.07390187036432813
0.05307028602033259 -0.010267070770351976 0.07441778151244294
0.049619779287466304 -0.010205139102234827 0.07493035903179335
0.046211896056920665 -0.010143979545964908 0.07543607601050506
0.04284338790329073 -0.010083519593039991 0.07593647567953507
0.03951479567944011 -0.010023776074550898 0.07643094574490097
0.03622660931314414 -0.009964764739765418 0.07691889400731883
0.03297573332344378 -0.009906416076937286 0.07740182218786185
0.029762706704534236 -0.009848746757210713 0.07787912772144454
0.026588019759185177 -0.009791772415840234 0.07835022736959302
0.02344872010822735 -0.00973542635241499 0.07881658345970921
0.020345343497466528 -0.009679725057609924 0.07927760303192294
0.017278379104414543 -0.009624684029859944 0.07973271172370042
0.014245008624434397 -0.009570239209753684 0.08018333443029471
0.011246836839313712 -0.009516432800537126 0.08062823213973963
0.008281130171654216 -0.009463202415465775 0.0810688058153139
0.005348416453811622 -0.009410564208793338 0.08150447818843315
0.0024491802561179554 -0.009358533410500696 0.08193468945267449
-0.00041919137570278764 -0.009307050020478942 0.08236080610296118
-0.003256176560670454 -0.00925612997471473 0.0827822600771709
-0.0060612948272495415 -0.009205788323009903 0.08319850013894775
-0.008837045734903515 -0.009155967314901214 0.0836108599301831
-0.011582914069914962 -0.009106682658917006 0.08401878042840999
-0.014298424267949195 -0.009057949213594605 0.08442171883172683
-0.016985969163632708 -0.009009711351498027 0.08482097743522085
-0.019645040798322855 -0.00896198454662759 0.08521600608348354
-0.022275169190498434 -0.008914783457391665 0.08560627026585216
-0.024878646614100552 -0.008868054462169934 0.08599304233720675
-0.027454972843017234 -0.00882181279517983 0.08637578083259206
-0.030003684039269563 -0.008776072907746036 0.08675395938367722
-0.0325269776211472 -0.008730783075400381 0.0871288217205603
-0.0350243614774709 -0.008685958288873008 0.08749983488963542
-0.037495378375087096 -0.008641612787092188 0.08786648051189433
-0.03994213616423159 -0.008597696641859397 0.0882299749245144
-0.042364151149167306 -0.008554224598037013 0.08858979350486737
-0.0447609730767789 -0.008511210678254649 0.08894542570750583
-0.04713462513663702 -0.008468606656796385 0.0892980616318105
-0.0494846322784534 -0.008426427031404655 0.08964718480552661
-0.05181134605627702 -0.008384665492133478 0.0899928474564391
-0.05411432598028665 -0.008343335769200077 0.09033454923947826
-0.057008027610291334 -0.008286821912809264 0.09110612752857672
-0.05865360631633304 -0.00826186719764886 0.09100849012166179
-0.060890543979483736 -0.008221716968871548 0.09134081958497173
-0.06299197524836353 -0.00818486734363157 0.09158816756816343
-0.06362942288454271 -0.00818538486905568 0.09078984103566107
-0.06426695113685571 -0.00818590245992996 0.08999141354112408
-0.06436570615514464 -0.008200286948239661 0.08879956402023612
-0.06436295550643956 -0.00821734859770757 0.0875287679288598
-0.064359442656439 -0.008234500792186702 0.08625211876865349
-0.06582141844327688 -0.008213776171859944 0.08605740956592015
-0.0658179621829939 -0.008230990971784848 0.08477601791952219
-0.06581523995852012 -0.008248258617889883 0.08348980520877028
-0.06581250628825497 -0.00826559886726797 0.08219818450826064
-0.06580976109986109 -0.008283012178783598 0.08090112163861662
-0.06580625100607074 -0.008300518726982202 0.07959800792288443
-0.0658034809616182 -0.008318079638401739 0.07828995269153136
-0.06580069917151532 -0.008335715012498262 0.07697635097727895
-0.06579714742147907 -0.00835344528787237 0.07565658013753565
-0.06579434029392006 -0.008371231100319275 0.07433177467503765
-0.06579152118724857 -0.008389092812008834 0.07300131573270593
-0.06578869002462301 -0.008407030909818921 0.07166516704463985
-0.0657850820599089 -0.008425066192586532 0.07032268685204651
-0.06578222490321206 -0.008443158627322778 0.06897504407313737
-0.06577935544892421 -0.008461328934596724 0.06762160083865393
-0.06577570397672033 -0.008479598189779466 0.06626170066770148
-0.06577280801733276 -0.008497925847047305 0.06489653895135444
-0.0657698995123136 -0.008516332902087701 0.06352546317852459
-0.06576697837996381 -0.008534819871962664 0.06214843483510751
-0.06576326816741873 -0.008553408209442701 0.060764777281534454
-0.06576031983255182 -0.008572056669589306 0.05937572211325143
-0.06571914480971536 -0.008591821363526974 0.05794886926974807
-0.06546731643601184 -0.008617388681488371 0.05633975387361789
-0.03971018971013218 -0.009336709500202768 0.033320807096520466
-0.04170489962740326 -0.009302789436229508 0.03347657640794893
-0.043568143269705595 -0.009272311529438786 0.03353197893167603
-0.045317422993151835 -0.009244819358873889 0.033500239288278555
-0.04705990413061589 -0.009217392504133162 0.033471724441594075
-0.04884303885429114 -0.009188726633898471 0.03348728369700438
-0.050448643544865 -0.009164826066949858 0.03335856722285063
-0.05189956868807338 -0.009145091432530703 0.03310310072617184
-0.053161685474262865 -0.009130495207033648 0.032688937916800276
-0.05438549556165112 -0.00911689659953107 0.032245930388810684
-0.0556363615586421 -0.009102484984234428 0.03183139002879021
-0.05680269967016616 -0.009090364270718264 0.03134651358500379
-0.05795073827543967 -0.009078700233967204 0.03084934342469109
-0.059085750696868 -0.009067348348977792 0.030344387413989926
-0.06025305160287697 -0.009055039458636555 0.029872415611416958
-0.061416355556270286 -0.009042787336395963 0.02940096804816611
-0.06254008322943572 -0.0090315950386777 0.02889754353831192
-0.06357859256438075 -0.009022758951633403 0.028319728869739436
-0.06463477784359029 -0.009013382270304272 0.027761217568593288
-0.06558000997538133 -0.009007111021527304 0.0271030377112072
-0.06647012679031711 -0.009002378529333558 0.026395635482970192
-0.067362559043945 -0.00899755836071801 0.025692021036284096
-0.06828885546437935 -0.00899174858313767 0.02502194763912685
-0.0691502093200832 -0.008987771711409354 0.024292398008979643
-0.06997459397983724 -0.00898483755729114 0.023529041884562285
-0.07072059543091125 -0.008984144729919414 0.02269172873887748
-0.07152572594196799 -0.008981743754746549 0.021911503816231304
-0.07224659654757937 -0.008981766835198968 0.02105068021534784
-0.07301128553056224 -0.008980520674817768 0.02023241613487592
-0.07366609027876891 -0.008982459296635773 0.01930728420374822
-0.07433546003872837 -0.008983983086814272 0.018395771812322548
-0.07497496428576494 -0.008986385260041078 0.017454258727628902
-0.0756290399547424 -0.008988372643118737 0.016526354444991453
-0.07622895610411923 -0.008991956775038605 0.015543758160083243
-0.07686008073324824 -0.00899464096378303 0.014591172079834402
-0.07742314356780944 -0.008999342151956078 0.013569079980287613
-0.07791291338999606 -0.009006229106189102 0.012471113579814397
-0.07837200994761068 -0.009014056373259277 0.011339484536242006
-0.07879421266685122 -0.009023015169851248 0.010167327184596842
-0.07917956854395736 -0.00903311220752597 0.008954084332895962
-0.07953437971895772 -0.009044167854095793 0.007705659370010276
-0.07987435315139507 -0.00905571980930591 0.00643785562171828
-0.08008081149485557 -0.009071325348666484 0.005026468618991975
-0.08063545624396934 -0.009076554867764038 0.0039749558294900345
-0.0813130338504966 -0.009078110752779379 0.003051265034611339
-0.08246865926199604 -0.00906525536652112 0.002634016982465348
-0.08476425324285353 -0.009017870414172225 0.003436693653190992
-0.08529525443629632 -0.009023737304506627 0.0023657626246618157
0.05906787445206724 -0.011665174906523159 0.07395057748685374
0.05555194326023 -0.011594251905873583 0.07446814874521332
0.052073406089688246 -0.011524051006709751 0.07498235313655205
0.04863799655889062 -0.011454728464594643 0.07548965186027332
0.04524243096975089 -0.011386201980002234 0.07599159439806766
0.041888473943058724 -0.011318523101290546 0.07648686208955205
0.03857294639130132 -0.011251611831215511 0.07697697626661287
0.03529638901022786 -0.011185487025308947 0.07746132972141428
0.032059292577852117 -0.011120166346102326 0.0779393349449169
0.028858626413712563 -0.011055573069712454 0.07841247285597608
0.0256949286819797 -0.010991725860563913 0.07888014591496709
0.02256868981275917 -0.010928642240561271 0.07934177553269828
0.01947701806977503 -0.01086624855859849 0.07979880425184491
0.016420447801420046 -0.010804563266927336 0.08025064406882618
0.01339946769735123 -0.010743603723246849 0.08069672521982438
0.010411316279514138 -0.010683299164812627 0.08113845376085585
0.007456523003540383 -0.010623667814572036 0.08157525107803748
0.004534532381041678 -0.010564698462088476 0.0820071992873816
0.0016458289773856882 -0.010506408216358658 0.08243374021818367
-0.0012121873149984475 -0.010448729904037644 0.08285623398477979
-0.0040389949351306575 -0.010391681421418058 0.08327411424734718
-0.006835102291053163 -0.010335252508195242 0.08368745616264137
-0.00960100680741982 -0.010279433125722926 0.08409633326376964
-0.012337195220500252 -0.010224213451059701 0.08450081750379981
-0.015043192184258425 -0.010169610172186832 0.08490036767082831
-0.01772137921224559 -0.010115560999682405 0.08529628020656543
-0.020371248826976884 -0.010062083308086715 0.08568800661977202
-0.022992331347990558 -0.010009193559138306 0.08607501396401251
-0.025586908411023845 -0.009956831704040488 0.0864585689835333
-0.02815358643514171 -0.009905039797264334 0.08683754101080113
-0.03069458364232064 -0.009853759215823309 0.0872131777218578
-0.033209405754711485 -0.009803006881355018 0.08758494495732039
-0.035697593702376795 -0.009752798862610802 0.08795232321114901
-0.03816127502006089 -0.00970307858026105 0.08831653258328559
-0.04059912312070041 -0.009653886380845465 0.08867647593430458
-0.043013207877455994 -0.009605166987393264 0.08903335563516235
-0.04540222853440867 -0.009556960087828319 0.08938608747937773
-0.04776819941191818 -0.009509211662190258 0.08973585660588848
-0.0501106461221153 -0.009461937985403254 0.0900821480786074
-0.05561659119922141 -0.009324376870740453 0.09265138764951414
-0.056873418086455296 -0.00930751478240948 0.09227282380571963
-0.05760826183727058 -0.009305510403967106 0.09153011690494678
-0.0592505435143974 -0.009277495696875264 0.09143246940493546
-0.06102082036619272 -0.009245690937879787 0.09143385754326824
-0.061661509616088406 -0.009246256191435499 0.09063279373841326
-0.06230152301490355 -0.009246843258661578 0.08983108744359111
-0.06294161769087375 -0.00924743040044134 0.08902927933774371
-0.06358179365948546 -0.009248017616788905 0.08822736940147802
-0.06422205093622513 -0.009248604907718503 0.08742535761539316
-0.06504488591550017 -0.009243886939441157 0.08675790828793734
-0.06568495007114267 -0.009244473705838524 0.08595616147175902
-0.06632509548955734 -0.00924506054673223 0.08515431286550298
-0.06633090120590263 -0.009264206249452293 0.08387654915813875
-0.06632925429348563 -0.00928365059022902 0.08258784428651392
-0.06632685118482279 -0.009303198735270994 0.081293150342236
-0.06632518878979449 -0.009322807273844774 0.07999356487557044
-0.06632351937226882 -0.009342498645626963 0.07868848951305563
-0.06632184288765547 -0.0093622733766024 0.07737788939425067
-0.06631940364580324 -0.009382154382809867 0.07606114400517258
-0.06631771128144404 -0.009402097523293549 0.07473938420156853
-0.06631601170705748 -0.009422125628501326 0.07341199324082845
-0.06631354437612752 -0.00944226191590112 0.07207833638843378
-0.06631182861171275 -0.00946246168471089 0.07073957011392373
-0.06631010549054689 -0.009482748065272687 0.06939506353146735
-0.06630837496521413 -0.009503121615838835 0.06804477964215438
-0.06630586991735005 -0.009523605965148361 0.06668806424432355
-0.06630412278040099 -0.009544155649411664 0.06532610882973161
-0.06630236808737028 -0.009564794208139235 0.06395826315146474
-0.06629983371501863 -0.009585545585817822 0.06258385801388072
-0.06629806208089128 -0.009606363733511076 0.061204111850755305
-0.06629628273468618 -0.009627272504856853 0.05981835950304376
-0.06625796576331638 -0.009649385278547952 0.05839623227971141
-0.066012848374492 -0.009677907844701053 0.056795093898538984
-0.04008943497760925 -0.010492194994673285 0.033639031675453845
-0.0418973768648821 -0.010459736284825574 0.03363894002703077
-0.04368156895824399 -0.010427864923694003 0.03362816551360859
-0.045469200119025166 -0.010395747441429124 0.03362962939587322
-0.04722815281501691 -0.010364373526574088 0.03361591476074233
-0.049020405724483906 -0.010331830892595565 0.03364009118436534
-0.050822321940820814 -0.010298844566405339 0.03368220252741311
-0.05247987147505789 -0.010270197420923088 0.0336083392121882
-0.05406396560974519 -0.010243710240999054 0.03347864341831325
-0.05538536344173195 -0.010225303538662094 0.033125654608625654
-0.05650030039253123 -0.010213272481963475 0.03259551657984994
-0.05762190277890211 -0.010200978596019199 0.03207488095465488
-0.058680299306531125 -0.01019061542279023 0.031501415165245794
-0.05979094152029285 -0.01017856041722689 0.030977985071228842
-0.06093643242364449 -0.01016535120528139 0.0304896373139959
-0.06202591405049629 -0.010153854011358633 0.029954399256981734
-0.06315088627173387 -0.010141179559287351 0.029455008664094284
-0.06420900013766978 -0.010130572062262942 0.028898097351229834
-0.06516755636793076 -0.010123087036918634 0.02825257219877786
-0.06618664188176998 -0.010113635741356864 0.027665427248048158
-0.06712590027675386 -0.010106695218730272 0.0270067576054161
-0.06796514595910308 -0.010102930011046202 0.02625650885678449
-0.068815064365979 -0.010098804489527855 0.02551745759862678
-0.06970450615102264 -0.01009338675654977 0.0248170780388427
-0.07057375620686063 -0.010088596003307382 0.02409914466821561
-0.071374249812092 -0.010086008300138704 0.023316918985721913
-0.07211613267268463 -0.010085309848077708 0.022479139015339156
-0.07285234450746025 -0.010084792538619991 0.021636093708758797
-0.07356229130249553 -0.01008512878421311 0.020767692967532114
-0.07426040656841437 -0.010085853081313906 0.01988763458663184
-0.07492068682907788 -0.010087819554613143 0.018970213600772168
-0.07560331152866595 -0.01008906193299803 0.018074227193435988
-0.07620422343300187 -0.010092998150210834 0.01709681189131268
-0.07683390823963016 -0.010096004172529024 0.016146850434439808
-0.07745141154874824 -0.01009942699739308 0.01518373999065259
-0.07799723429431293 -0.010105240741242012 0.014147351779949913
-0.07854368580851845 -0.01011106118231877 0.013109769686478145
-0.07900003221298069 -0.010119908603741838 0.01197864715267516
-0.07942276872041337 -0.010129919622633748 0.01081034258943725
-0.07984399701767286 -0.01014002891192066 0.00963731249349925
-0.08020587925706829 -0.010152176240719938 0.008399728212911628
-0.08047400059752552 -0.01016753284031973 0.007060860298953142
-0.08076954686221799 -0.010182039466559671 0.005745727779372656
-0.08109334029368143 -0.010195662203786555 0.004455601981505075
-0.08174809377404513 -0.010198147791526243 0.003510310013856932
-0.08267041552605109 -0.010191566274384119 0.0028479947725956745
-0.08429411358563837 -0.010161095794935801 0.0029355025016304936
-0.08596247048218286 -0.010128954159665894 0.003080715124052058
0.06159724269500039 -0.013010942441006907 0.0739996576697044
0.058052492148256585 -0.012931536225042521 0.07451889939912129
0.05454559763691791 -0.012852942123591433 0.07503474064144108
0.051081073373566155 -0.012775297594921143 0.07554434949737313
0.04765815609399826 -0.012698585533280616 0.07604783823809214
0.04427610075733823 -0.012622789241327516 0.07654531645423743
0.04093418000539073 -0.012547892418011531 0.07703689113544265
0.03763288461805486 -0.012473914760109053 0.07752197048909776
0.03436910279662492 -0.012400769081619157 0.07800205449152481
0.031143374754873554 -0.012328476238793474 0.07847654099629914
0.02795503882304945 -0.012257021402735463 0.07894552733133164
0.024803448582938536 -0.01218639008635576 0.07940910858111758
0.021687972430946112 -0.012116568134580263 0.07986737765100471
0.018609100628677433 -0.01204757493530692 0.08031976058303777
0.015564000382549736 -0.011979330153319121 0.08076768059445957
0.01255428290275562 -0.011911886652476321 0.08120989977483115
0.009577200663606122 -0.011845166198761217 0.08164781743450267
0.006633282927949569 -0.01177918900658405 0.08208085671971632
0.003723015485394554 -0.01171397413103411 0.08250845822491859
0.000843772193232728 -0.011649446335925474 0.08293198682923655
-0.0020029132321097154 -0.011585656285729646 0.08335024365973659
-0.004819590099598203 -0.011522530646081912 0.08376457154803013
-0.007604754680007708 -0.011460119231433313 0.08417378666387446
-0.010360882514857339 -0.011398350536613526 0.08457921047580616
-0.013087459216947595 -0.011337244124174441 0.08498028734384172
-0.015784009670207766 -0.01127681850521703 0.08537647763994857
-0.018452904162717165 -0.011217004790384932 0.08576907200064368
-0.021092711412148968 -0.011157850742103358 0.08615692284443077
-0.02370573493260769 -0.011099289134247995 0.08654130102481289
-0.026290571416761388 -0.011041366937255407 0.08692107293423068
-0.02884946015792872 -0.010984018527523832 0.08729749022717406
-0.03138190472135699 -0.01092726277018791 0.08767001753232773
-0.03388744421393064 -0.010871117574743159 0.088038134211186
-0.036368226103880186 -0.010815519614119038 0.08840306415681798
-0.038822914558159394 -0.010760513948755166 0.08876370745176287
-0.04125359867005102 -0.010706038714831386 0.08912127014336876
-0.04365896862536972 -0.010652138236212827 0.08947466530891107
-0.04604105728487956 -0.010598752061186274 0.0898250816520679
-0.04839938800450572 -0.010545898337180896 0.09017200309148807
-0.05073351636920587 -0.010493594341191443 0.09051492713632658
-0.05366172685142451 -0.01042227844319894 0.09128561875805025
-0.0559459391456999 -0.010371092040040573 0.09162126569442225
-0.0576005607665771 -0.010339700692381116 0.09152467707493717
-0.05903421658766422 -0.01031521602620402 0.09127882152430991
-0.05967665408706413 -0.010315873616303425 0.09047391008555691
-0.06031917350184418 -0.010316531290250607 0.0896688960148137
-0.060961774847671235 -0.010317189048061642 0.08886377929244854
-0.06160445814022092 -0.01031784688975247 0.08805855989882805
-0.06224722339516847 -0.010318504815339167 0.08725323781431066
-0.06307369816559028 -0.010313243761515052 0.08658257785458812
-0.06371627028912169 -0.010313901100170561 0.08577752099825942
-0.06435892432953216 -0.01031455852262574 0.08497236151102794
-0.06500166030249066 -0.010315216028896504 0.08416709937326936
-0.06564447822366548 -0.010315873618998923 0.08336173456535098
-0.06628663021907055 -0.010316555652842802 0.08255570311283406
-0.06684300502120383 -0.010320040302797245 0.08168446923468706
-0.06684243147223173 -0.010341756532871654 0.08038782974831848
-0.06684185550438776 -0.010363564349623685 0.07908572177579831
-0.066840525532049 -0.010385489020186003 0.07777753156874151
-0.066839943087385 -0.010407481861721546 0.0764643779733582
-0.06683935817069198 -0.010429568047253066 0.07514565097334469
-0.06683801439310172 -0.01045177317495349 0.07382072276832499
-0.06683742287150574 -0.010474047946835142 0.07249073753085114
-0.06683682882326508 -0.01049641786527838 0.07115507126894538
-0.06683623223215385 -0.010518883541215078 0.0698136875050035
-0.06683487020989959 -0.010541471024448898 0.06846593920401178
-0.06683426684255545 -0.010564130178648207 0.06711300516497021
-0.06683366087575587 -0.010586886955519846 0.06575424226593446
-0.06683305229266318 -0.010609741987309034 0.06438961275677457
-0.0668316715929253 -0.010632721787593145 0.06301844977670196
-0.06683105605629241 -0.010655775360225665 0.06164196776624187
-0.0668304378447182 -0.010678929118310481 0.06025950388581219
-0.06679418515684393 -0.010703389747528639 0.058841435311044965
-0.06655573162395606 -0.010734815871066141 0.05724822313791739
-0.039992413355684986 -0.011661292686992326 0.033557620864477444
-0.041805704886194395 -0.01162505241749703 0.033561610393547436
-0.043604159638868545 -0.011589159661520864 0.03356252132016008
-0.04538172172898797 -0.011553823940390008 0.03355505400624198
-0.047158217254420765 -0.011518369007031713 0.03355597948791644
-0.048948428018410706 -0.011482286013230003 0.0335780799846464
-0.050725716473128624 -0.011446488360306227 0.03359853448479322
-0.052522168600846186 -0.011409870241842587 0.03364516504910542
-0.05429090437646866 -0.011374048224596265 0.03367726775408264
-0.05585243797804895 -0.01134525165378229 0.033536605685505594
-0.0572761506197334 -0.01132111630934332 0.03328173154669212
-0.058401720710983096 -0.011307257859864103 0.032768230296154555
-0.05947770516854989 -0.01129506826802669 0.03221412569420218
-0.06049723393196543 -0.011284799169793679 0.03161257248004962
-0.06155721731966096 -0.011273065122119468 0.031050323096813492
-0.06264142357883418 -0.011260426693697045 0.0305132335370914
-0.06370182803805863 -0.011248569486659601 0.02995783985482864
-0.06475017902827335 -0.011237084026962049 0.029394602828694216
-0.06571486508531776 -0.011228506955323842 0.028757327289575585
-0.06670894690792922 -0.011218848180540256 0.028149639961982165
-0.067673003346571 -0.011210212624175982 0.027516608638034123
-0.06861220020524411 -0.011202423259009608 0.026862652521642993
-0.06943760636639151 -0.011198661800042286 0.02610368059955598
-0.07027447864597203 -0.011194472614911624 0.025356596161586253
-0.07112031126812252 -0.011189942642903562 0.024619191740263446
-0.07189855263165701 -0.01118782227102339 0.023818390433970993
-0.07265663433263175 -0.011186418683264233 0.022998793943713347
-0.07340105102003214 -0.01118550224471793 0.022166380589865586
-0.07415878707735074 -0.01118409923898726 0.021347161251388858
-0.07481141434641764 -0.01118650460807993 0.020425694169563358
-0.07547692394426203 -0.011188452569627378 0.019516199957715252
-0.07613401915510454 -0.01119071649462962 0.01859785803079944
-0.07673566958780226 -0.011195017608395964 0.017623891384698
-0.077330730484031 -0.011199580400188843 0.01664214525156371
-0.07795835117646033 -0.011202969028224197 0.015691740162857848
-0.07851605909696358 -0.01120894719849981 0.014669955156885572
-0.07906109866849143 -0.011215421157035738 0.013633649413911764
-0.07957403358232407 -0.011223113296985084 0.012562830608097042
-0.07999731707781244 -0.011234165781775605 0.011398107900963073
-0.0804447983528015 -0.011244371832202626 0.010255113215964562
-0.08081291048988248 -0.011257583333934066 0.009027161951064122
-0.0811312681983064 -0.011272716104111739 0.007743729528404353
-0.08143723714539675 -0.011288385405955097 0.006443009166725522
-0.08165516980620252 -0.011307433452158192 0.005045360881059613
-0.08216943460824538 -0.011315428197999548 0.003954879563985214
-0.08292242455180304 -0.011314461199877706 0.0031152694204281683
-0.08395949104932626 -0.011302753136547172 0.0025787790222588924
-0.08611772415045627 -0.01124851157659771 0.0032470765280618874
0.06414739526111252 -0.014367100130628875 0.07404837580422954
0.0652536376593511 -0.01442973386973439 0.07196517461428839
0.057032667051437114 -0.014191800417851015 0.07508970799705303
0.053540015747812586 -0.014105745019485721 0.07560090254065546
0.05009072974537293 -0.014020767869320928 0.07610521936084189
0.04668150781979091 -0.013936768027978452 0.07660420611849267
0.04331412155463671 -0.01385380863040606 0.0770965453150039
0.03998537503850769 -0.013771791566049194 0.07758375648800508
0.03669700576771351 -0.013690778898648611 0.07806453969135393
0.033445918518120954 -0.013610675226980387 0.07854038731632132
0.030233817220063852 -0.013531541561851625 0.07901001659806339
0.02705770297422283 -0.013453285098554113 0.07947489370937472
0.023918114100544452 -0.013375928586023132 0.0799344247252983
0.020815541656987735 -0.013299493391841388 0.08038803441597542
0.017747123592406322 -0.013223890408322673 0.08083715126229457
0.0147144823060823 -0.013149178095165328 0.08128053388240442
0.011714842200255149 -0.013075269685442172 0.08171958666427212
0.008748734149269188 -0.01300218747511773 0.08215373140996113
0.005816645127223519 -0.012929952473649593 0.08258240747203965
0.0029159225806528744 -0.012858481253004097 0.08300698454531252
4.811091463940986e-05 -0.012787829838970793 0.08342626048097532
-0.0027893645552006796 -0.012717916921258813 0.08384158276230308
-0.005594989611662826 -0.012648797584853646 0.08425176435801573
-0.008371264189727168 -0.012580392556001505 0.0846581312321647
-0.011117671956790975 -0.01251272341980482 0.08506012646277977
-0.013833736230842164 -0.01244581059477868 0.08545720923023548
-0.01652185031312725 -0.012379577718914786 0.08585067444601596
-0.019180572931486783 -0.012314077605745719 0.08623937150643565
-0.021812229750416245 -0.012249235744301583 0.08662457540145499
-0.02441540766944572 -0.012185104071353516 0.08700514956962782
-0.02699236731209209 -0.012121609859138549 0.0873823496697235
-0.02954261009793968 -0.012058773928780303 0.087755639114389
-0.032065673325619715 -0.011996616041320666 0.08812449612916426
-0.03456372463742641 -0.011935066023998363 0.08849014842418637
-0.03703541888970491 -0.011874173698998111 0.08885149329109776
-0.03948286462514955 -0.011813870521206705 0.08920974047641553
-0.04190474290764318 -0.01175420549729171 0.08956380032869635
-0.044303105356997774 -0.01169511165268307 0.08991486513803157
-0.04667747307728465 -0.011636609020129968 0.0902624176737605
-0.049027399701969565 -0.01157871666700252 0.09060595436687696
-0.05135485531658801 -0.011521369873441859 0.09094664222534926
-0.05427341268641611 -0.011443214492450391 0.09171297397874481
-0.05594050431822162 -0.011408390807181515 0.09161744770376892
-0.05703044110750605 -0.011393596765725237 0.09112195982250332
-0.05767540361276535 -0.011394326101856603 0.09031371405057784
-0.058320448695023175 -0.011395055531368024 0.0895053647958565
-0.05896557637013833 -0.011395785054277479 0.08869691203846305
-0.05961078665397834 -0.011396514670602787 0.08788835575851964
-0.060441205941739795 -0.01139070735454342 0.0872140896029118
-0.061086223151531505 -0.01139143632079312 0.08640579872453405
-0.061731322924380494 -0.011392165380351836 0.08559740438383312
-0.062376505276143246 -0.01139289453323737 0.08478890656094504
-0.06302177022267624 -0.011393623779467676 0.08398030523599775
-0.06366711777984119 -0.011394353119060672 0.08317160038911495
-0.06431254796350261 -0.011395082552034325 0.0823627920004143
-0.06495730660899662 -0.011395839099683289 0.08155331135150151
-0.06560290357588977 -0.011396568722932073 0.08074429386466622
-0.06624858321728871 -0.011397298439615906 0.0799351727758437
-0.06689434554907431 -0.011398028249752775 0.07912594806513115
-0.06735826110230514 -0.011405331491973049 0.07817644402772753
-0.06735877419755743 -0.011429444371532838 0.0768662885888867
-0.06735928946698866 -0.011453659424853317 0.07555058161444633
-0.06735905304214163 -0.011478004715061893 0.07422869745221672
-0.06735957109881707 -0.011502426190590883 0.07290177659306521
-0.06736009136474141 -0.01152695180967866 0.07156919717895238
-0.06735985513927506 -0.011551610004955212 0.07023031924918005
-0.06736037824289626 -0.011576346038691437 0.06888630906520904
-0.0673609035916567 -0.011601188236745727 0.06753653053829156
-0.06736143120004318 -0.011626137284056101 0.06618094645293271
-0.0673611958285582 -0.011651222117415675 0.06481889726059636
-0.06736172634860454 -0.01167638706388107 0.06345158445971677
-0.06736225916534189 -0.011701660950894935 0.062078352480435195
-0.06736202405974229 -0.011727073102323477 0.060698526687074816
-0.06732936426427355 -0.011753803058028166 0.05928577463149848
-0.06709753355449155 -0.011788081231129628 0.057700449831077916
-0.03989533682003149 -0.01283105208247513 0.03347616397540887
-0.04169036422794514 -0.012791880208880349 0.03346431511361753
-0.043482573751341236 -0.012752642226435065 0.03345941477451603
-0.04526292850906738 -0.012713677858299995 0.033453782701896195
-0.04705104426620116 -0.012674248924615716 0.033464131474777614
-0.04886763560630886 -0.012633569178453315 0.03350847462104212
-0.050634281195227004 -0.01259460179533229 0.03351934423903191
-0.05243497288689708 -0.012554168554357521 0.03356924842162945
-0.05423355698543786 -0.012513635678154484 0.03362707541534715
-0.055994253073615274 -0.01247436733196082 0.033661380345028635
-0.057643747249138844 -0.012439174771072472 0.033606859129329314
-0.05900045847270796 -0.012415042733218518 0.03330057818884169
-0.06019710511794185 -0.01239694910114406 0.032857115597943576
-0.06119712876889122 -0.012386341669996286 0.03224141181581419
-0.06214421335065473 -0.01237772851954302 0.0315804911651098
-0.06317559246996074 -0.012365817480368444 0.030998216911005738
-0.06423694670888275 -0.012352690986866241 0.030446229689982507
-0.0652487283067153 -0.012341430175441906 0.029851997697249222
-0.06625785420685354 -0.012330221510268613 0.029258098636049723
-0.06723519944919198 -0.012320201637201253 0.02863751229415812
-0.06820289372895477 -0.012310513358631968 0.02801041898847334
-0.06909755764161085 -0.012303642980600712 0.0273173228016082
-0.06988947268912021 -0.012300777338858976 0.026529185114196552
-0.07070739148961813 -0.012296874656299622 0.02576637790857439
-0.07155586186226465 -0.012291748282657574 0.02503361807580845
-0.07236391510107565 -0.012288196924290822 0.02426348815763718
-0.07321980649307408 -0.012282732471807197 0.023540244988888015
-0.07396677539656243 -0.012281571117353765 0.022713114059075223
-0.0746939069444788 -0.012281194509257918 0.021867005656217353
-0.0753431589396455 -0.012283925444296132 0.020944943235511382
-0.07598328035468782 -0.012287034537731981 0.020013224849252054
-0.07663782884971199 -0.012289579512382888 0.019094949610261813
-0.07730437734272638 -0.012291653975119497 0.018187926315879954
-0.07787826502928502 -0.012297472490934457 0.017187996459952504
-0.0784721873107817 -0.012302509165014014 0.01620665126952875
-0.07906737468286062 -0.012307518448687705 0.015225285945766776
-0.07956897961950621 -0.01231634975271431 0.014147878098139333
-0.080100825284949 -0.012323992739552692 0.013098966954738611
-0.08058521849873507 -0.012333607299871057 0.0119995334509016
-0.08103701797677793 -0.01234460016530489 0.010864089411852074
-0.0813802809449038 -0.012360093071073283 0.009613601900555546
-0.08174225008791541 -0.012374892003948389 0.008378510143895235
-0.08202982028641748 -0.01239282539220233 0.00706185476790111
-0.08228560772223653 -0.012412157037477004 0.005707138810683354
-0.0826315504313836 -0.012427852224299906 0.0044424720471339385
-0.0832329640845706 -0.01243302844984884 0.00344462010146368
-0.0841141442273935 -0.012426599005194253 0.0027436466381224878
-0.08583003250167487 -0.01238535215573283 0.002938801772653876
-0.08734926351751116 -0.012352119532960221 0.00293308005227072
0.06671994558403105 -0.01573382778840212 0.07409598600558331
0.06310714266550566 -0.01563673950964406 0.07462377656879954
0.059541276791666764 -0.015540934213579822 0.07514363358960013
0.05602142743734323 -0.015446386767889285 0.07565571119514475
0.05254414700085269 -0.015352982775240873 0.07616159575446096
0.04910741007590824 -0.015260657197523111 0.07666211128507722
0.04571300036040249 -0.015169479277024465 0.07715593641543028
0.04235768748447771 -0.015079341037695357 0.07764459672964097
0.03904322087703066 -0.014990310547100793 0.07812678849739357
0.03576647232689417 -0.014902282824599232 0.07860400992991515
0.03252915750927543 -0.014815324782861466 0.07907497456509341
0.02932824592682226 -0.01472933431137149 0.07954115418102406
0.02616427710984176 -0.014644336283984944 0.08000195346575897
0.02303774285694843 -0.014560354054115956 0.08045679591531774
0.019945751460294203 -0.01447728959689156 0.08090711531446201
0.01688993657691601 -0.014395207026098793 0.08135166679290917
0.013867494159057525 -0.014314010903088547 0.08179185985425216
0.010878956655958949 -0.014233725615506393 0.08222711495272886
0.007924812184852581 -0.014154374135127986 0.08265687019622717
0.005002381432836045 -0.014075864711526482 0.08308250013018811
0.0021132195626931694 -0.013998258787394396 0.08350279931404805
-0.0007452738161358718 -0.013921466951115596 0.08391911991584361
-0.0035715739296220406 -0.013845549612730008 0.08433027168781312
-0.0063682054201750216 -0.013770419609378772 0.08473758512087809
-0.009134650031926261 -0.013696100560319124 0.08514050200707418
-0.011870429543286987 -0.013622614801152072 0.08553848033190439
-0.014577960559409797 -0.013549878383545624 0.08593281931077151
-0.017255791750608596 -0.013477949224024326 0.08632236530343074
-0.019906271208212367 -0.013406745417378876 0.08670839746377504
-0.022527975971599556 -0.013336323917561366 0.0870897762625239
-0.025123188257499485 -0.013266604787317993 0.0874677613888161
-0.027691407351814412 -0.01319761081618908 0.08784181503514848
-0.030232168760631728 -0.013129363627474503 0.08821141428761747
-0.03274766054467726 -0.013061786103117095 0.08857779069759794
-0.03523652818474171 -0.012994932875352383 0.08893983875289882
-0.03770089990577424 -0.012928728621754678 0.089298771922186
-0.04013944758572241 -0.012863227079108407 0.08965349781274762
-0.04255424182545803 -0.012798354657380662 0.09000521232296282
-0.0449448014820642 -0.012734133287437874 0.09035339706880277
-0.047310678245662596 -0.012670583838296893 0.09069754739957558
-0.049653860192109434 -0.012607635206574156 0.09103883376987978
-0.05197308281058155 -0.012545338970604229 0.09137619543254832
-0.05426949885889443 -0.012483655337955655 0.09171023957731092
-0.055010046830931525 -0.012480921316591237 0.0909637971501861
-0.05565755421691643 -0.012481723568728308 0.09015218930558838
-0.056305144849559896 -0.012482525924007263 0.08934047711676443
-0.05695281874492053 -0.012483328382447858 0.08852866056359288
-0.05760057591905604 -0.012484130944070042 0.08771673962594373
-0.058434694068998705 -0.012477772734274448 0.08703920815617633
-0.05908225817158036 -0.012478574581680897 0.08622755286814382
-0.059729905507112324 -0.012479376532150999 0.08541579325611662
-0.06037763609164176 -0.012480178585704667 0.08460392929997906
-0.06102544994122139 -0.012480980742361765 0.08379196097961139
-0.06167334707190675 -0.012481783002142213 0.08297988827488756
-0.0623213274997616 -0.012482585365065779 0.08216771116567956
-0.06296862919538254 -0.012483417554086511 0.08135485810068582
-0.06361677776011737 -0.012484220127178014 0.08054247015093749
-0.06426500967061749 -0.012485022803473123 0.07972997773577933
-0.06491332494296331 -0.012485825582991626 0.0789173808350625
-0.06556172359323525 -0.012486628465753475 0.07810467942862978
-0.06621020563751923 -0.012487431451778577 0.07729187349631986
-0.06685801801477459 -0.012488264287105545 0.07647837964953055
-0.06750666839205338 -0.012489067483543285 0.0756653626307775
-0.06787837728145901 -0.012500859574128645 0.0746353297486178
-0.06787999761603364 -0.01252741350221432 0.07331146031197688
-0.06788162484902271 -0.012554080480454147 0.07198195466044102
-0.06788250282012254 -0.012580891421249327 0.07064617503375298
-0.06788414237009921 -0.012607786805655996 0.06930528392311347
-0.06788578894517694 -0.01263479743013308 0.06795864742565255
-0.06788668152376098 -0.012661954616137363 0.0666056132104948
-0.06788834065168792 -0.012689198085631986 0.06524736999283565
-0.06789000693460706 -0.01271655904204218 0.06388326937850952
-0.06789168041890392 -0.01274403824700008 0.06251327339578328
-0.06789259350446564 -0.012771667580158163 0.061136709765009345
-0.06786196550904489 -0.012800698224173141 0.05972797364840521
-0.0676367112401784 -0.012837777733524028 0.05815048614154855
-0.03982111865078719 -0.01400053901725431 0.03341388753405977
-0.04164402437874698 -0.013956672936430957 0.033425225267347536
-0.043429408857234175 -0.013914151665555423 0.03341433019527423
-0.04520394745183243 -0.013871888703617918 0.03340350130871683
-0.04698546674298981 -0.013829152129330368 0.03340793107098572
-0.0488026220425844 -0.01378475692648375 0.03345246326274104
-0.05058288119274157 -0.01374169026197774 0.03347482773596694
