# .PCD v0.7 - Point Cloud Data file format
VERSION 0.7
FIELDS x y z
SIZE 4 4 4
TYPE F F F
COUNT 1 1 1
WIDTH 776
HEIGHT 1
VIEWPOINT 0 0 0 1 0 0 0
POINTS 776
DATA ascii
0.01839970382152581 -0.021827448040069086 0.06485241528138924
0.0183113110837804 -0.02429828150427754 0.06520814276875164
0.018229371190614064 -0.026635858865631967 0.0654817464533391
0.01814943353753847 -0.028927788889299255 0.06573499213967599
0.01808244028426485 -0.030961271543280322 0.06581293356733492
0.018009813077618658 -0.0330988368379892 0.06597719113561001
0.01794587156272459 -0.035062156099595065 0.06602480615662765
0.017884212436155254 -0.036976175261018596 0.06604595637357374
0.017824066210015508 -0.0388560275008174 0.06605133742055636
0.017769606409860476 -0.040621475910293525 0.06598074345470523
0.017715837552795884 -0.042369262604435076 0.06590539990496314
0.01766324104229892 -0.044090233421992364 0.06581824193620517
0.017615438047595418 -0.04571519014175024 0.06566653184252574
0.017567981397801632 -0.04732968793651127 0.06551435460325927
0.01752209725226969 -0.048910388106453706 0.06534374263252801
0.017480035572589713 -0.05041466823130708 0.06512148370470405
0.017433956869526493 -0.05199184272311169 0.06496233774187105
0.017387514974196373 -0.05357219645084588 0.06481296355812971
0.017343212855629266 -0.05510836117457679 0.06463635814311036
0.017301233819304537 -0.05659713633244556 0.06442949163335421
0.01725809400615729 -0.0581043924666797 0.06424394070806955
0.017216483122052338 -0.05957945868545966 0.06403966604180378
0.017174945819992266 -0.06104980211886368 0.0638382724127825
0.01713276863142096 -0.06252877810701546 0.06365048258585171
0.017090046005969094 -0.06401454650518534 0.06347496305932121
0.017047785359556 -0.06548827733341939 0.06329654026858073
0.017009084773820297 -0.06689244551591456 0.06306809570902633
0.016965534795845196 -0.0683834398520144 0.06291723932198712
0.016924009861008133 -0.06983346039720673 0.06273960381344507
0.016882524613683305 -0.0712794116322607 0.06256533609338494
0.016842581261388646 -0.07269361980396666 0.062371327978682556
0.016800605428697216 -0.07414198587868764 0.06221249953378455
0.016757793773548156 -0.07560231233443532 0.062070624675053254
0.016720397179089568 -0.0769600777764965 0.061848793148904735
0.016680420355661342 -0.07836196516795402 0.06167071809565933
0.016642654694680497 -0.07972034344034301 0.06146193620161294
0.016604389154981306 -0.08108477719353063 0.0612646018240261
0.016565592545503088 -0.08245577211209765 0.061079276903674096
0.016529516930231934 -0.08377438931852127 0.06085477854299304
0.01649406509445459 -0.08507884015635825 0.0606238727178714
0.01645644028066315 -0.08641960716244751 0.060430820253834894
0.016426432915503993 -0.08762036401763124 0.06012020989192707
0.016392228575784325 -0.08889401677597608 0.05987942956874448
0.016364523105157784 -0.09004857216675766 0.059537933281076205
0.016331720407769156 -0.09129195222127573 0.05928089692421029
0.01630288810412528 -0.09246193377830686 0.05896308943013723
0.01627601407142029 -0.09359477584167208 0.058616426374704045
0.016246358443121313 -0.09477481046594038 0.0583173788802005
0.016219331612552883 -0.09590592705160211 0.05797847724051858
0.01619911104273435 -0.09691466036297314 0.05753129843087662
0.016180850718989132 -0.09788722600274358 0.05705403214085997
0.016180888172481006 -0.09853662056505308 0.056278715260849155
0.016201664018957493 -0.09882223750821084 0.055162614608475324
0.016224827691208095 -0.09906773385928924 0.05400517268042937
0.0162550472297695 -0.09919188846798682 0.05272889271643366
0.016290161232281147 -0.09923320527042911 0.05136858859229182
0.0163270286991916 -0.09924686696866597 0.04997577278771714
0.01637717464313423 -0.09903323497921734 0.04835805163753576
0.016437788802577145 -0.0986425282053307 0.046560504358421795
0.016540546186208656 -0.09752929166046564 0.044050517361131414
0.017257966194698156 -0.0865331372148202 0.030368647060337484
0.017153536660199496 -0.08901634994377694 0.03130839339939662
0.017083948237866523 -0.09089540659173528 0.03166726941248327
0.017030922973805273 -0.09248631573238836 0.031751121479390576
0.016981484083667436 -0.09401192736190189 0.03177888631941239
0.016945013872934685 -0.09531337183922511 0.03158958678319529
0.016913486456154356 -0.09652816101622141 0.031319008084664035
0.016887949034574586 -0.0976391943543008 0.030948430111091774
0.016863464876597394 -0.09873041941175204 0.03056213263437263
0.016844042247833205 -0.09973455102618134 0.030090644890675033
0.016826770206728407 -0.10070103929092261 0.02958372145652932
0.016814547149121607 -0.10158163027018308 0.02899065065412043
0.01680516930461879 -0.10241373048830626 0.028349136115096374
0.01679749696113189 -0.10321666769858656 0.02767869777238846
0.016794228249532826 -0.10394581152797983 0.02693178292143622
0.016790476852803677 -0.10468269430270344 0.0261936673481733
0.016791767467032717 -0.1053358956547526 0.02536702397996382
0.016798425346368603 -0.10590065758234657 0.02444537904771893
0.016809493132067324 -0.10639338193281672 0.023444930848924406
0.01682434037155366 -0.10682495004380538 0.02237625095161222
0.016841729147100557 -0.10721609000701438 0.021260857170768033
0.01686281402406262 -0.10754824694516868 0.020077753913517626
0.016890764580516863 -0.10777021485269844 0.018769622409721465
0.01692515717970053 -0.10788970776833279 0.01734308690859493
0.016969817971784092 -0.10784545855579308 0.015728304352964573
0.017019893278590072 -0.10771721536496259 0.014011458179153446
0.017095521011747654 -0.10718069929909774 0.011827112257911554
0.017258307049765952 -0.10524743495913774 0.008053084179834136
0.02252455052482933 0.0748675194590197 0.07554910193206138
0.022431627005421822 0.07213036306171716 0.07555251610602357
0.022396184522407485 0.07056438872456 0.07493174654007803
0.022425463871268335 0.07030944918193988 0.07359901405047417
0.02246602657846527 0.07027996240383927 0.07213845660435192
0.022518814131619522 0.07049360949877725 0.07053806085918901
0.022563621937221348 0.07054285892428058 0.06902216033503161
0.02260771380882746 0.07057435553607222 0.06751026150531647
0.02279602829126291 0.07349071796237044 0.06436827739642775
0.0229334925112781 0.07537643566495578 0.061784950522324134
0.022977479305947734 0.07538684928868405 0.06025161847534005
0.023001744042220662 0.07500121998890519 0.05893935475958295
0.02301029514751493 0.07430145136403715 0.05780490792094306
0.0230156428177646 0.0735374897642358 0.05670653095594674
0.023009653594464802 0.07254866323726361 0.05573856078895145
0.023017069283305432 0.0718251882494651 0.05461576153717351
0.023071836289436706 0.07203508612072207 0.052941337567492475
0.023129313135471737 0.07229418746029925 0.051230325377765173
0.023182300628675743 0.07246073603136205 0.049566773680818854
0.019969007973807854 -0.011059958652547663 0.0629491699028239
0.01978780852348188 -0.015183354420025885 0.06440263762996895
0.0196701617507447 -0.01811405911189473 0.06504419117081417
0.019562609350933825 -0.020848984476817933 0.06556433852768717
0.019475919252798717 -0.023190330155083705 0.0658204126256215
0.019394297653372968 -0.02543166755677473 0.0660175595619849
0.019316471454159368 -0.027596996773211202 0.06617191516444476
0.019242806307634044 -0.029680034107294306 0.06627811863812322
0.019174946704532788 -0.03165111710497831 0.06631373118152029
0.019108694666714145 -0.033587671388331686 0.0663340019073197
0.019044851991007503 -0.03547524742347763 0.06632797511378502
0.0189852674250076 -0.037280450862945735 0.06627048169552363
0.01892412570401475 -0.03910944695630908 0.06623935336520104
0.018866347218151728 -0.0408728256529578 0.06616823717722903
0.01880939679068261 -0.04261684913157976 0.06609108879628278
0.018756625020209 -0.04428110013574443 0.06596216713852421
0.01870730486211006 -0.04587915546334037 0.06579084112042666
0.018658712113196183 -0.04746039923294387 0.06561398841246696
0.018611863441227804 -0.049006668450511326 0.06541752805138162
0.018567987703548186 -0.05049615387516959 0.06518426793604232
0.018524179746158848 -0.05198111004093792 0.06495402371124559
0.018479842331924477 -0.0534721951346776 0.06473508098693304
0.018436586118242677 -0.054940687230658536 0.0645050690226861
0.01839243879856136 -0.05642173186163224 0.06429141193465354
0.018348275766304958 -0.057899716400506285 0.06408195387965893
0.018304865637095737 -0.05936104863169711 0.06386588346633487
0.01826350148348596 -0.060782999126730186 0.06362484864024931
0.018221072171174704 -0.06222057484967536 0.06340262319295964
0.018178839543377467 -0.06365148657392644 0.06318142788971454
0.018136935098593134 -0.06507345138097098 0.06295936241098626
0.01809447399373141 -0.06650198474632069 0.06274903045198138
0.01805462469650506 -0.06788171843898833 0.06250507400560146
0.018011761418210332 -0.06931093323207022 0.06230806275259965
0.017967927509929718 -0.07075377540281591 0.06212891998498299
0.017926556010140145 -0.07215060114296823 0.0619180858346029
0.01788632213497242 -0.07352461329179505 0.06169446253600208
0.017845968301367303 -0.07489765404826959 0.06147621236443096
0.017802979344378488 -0.07631304099331054 0.06130009698480238
0.017763340129697824 -0.07766759441946797 0.061078766694772135
0.01772975781265773 -0.0789152602260974 0.060771974341943424
0.017688084425612094 -0.08029886139116849 0.060587509267446826
0.017652478036497776 -0.08157570666358305 0.060317070209238766
0.017616931141782987 -0.08284884558741917 0.06004895751001876
0.01758090288782713 -0.08412748002062037 0.059791210989628196
0.017545850622513987 -0.08538683394115382 0.05952214482034296
0.01751457155612225 -0.08657967392473526 0.05919975268711347
0.017484144613855522 -0.0877557581285574 0.05886738477510223
0.017454233362109953 -0.08892085207097461 0.05852999263859815
0.01742765412890734 -0.09002766600243067 0.05814496527068291
0.01739964745483361 -0.0911564141909752 0.057783959450703304
0.017378315166517385 -0.09217133908461395 0.05732405799968998
0.01735594004260681 -0.09320206469814618 0.05688197232661696
0.01734280986344879 -0.09407707003404647 0.05630058974873764
0.01733329885459364 -0.09489092099148788 0.055664906661174574
0.017329295211581677 -0.0956127120350943 0.05494540166459638
0.01733317750519394 -0.09620370878632939 0.05410465110858753
0.01736182264583914 -0.09638617538625482 0.05288057527490381
0.017394390946840952 -0.09650618687351609 0.05159306655427309
0.017445009507024888 -0.09633202438213628 0.050021835589874
0.01752924557935214 -0.09561049273510164 0.04792157896040977
0.01833912446280142 -0.08649214197642863 0.030328407323566953
0.018228182224105473 -0.08897522244446882 0.03126781433046316
0.01815426825266639 -0.09085399363405028 0.031626196737592815
0.018097075143761788 -0.09245870799011163 0.031723598621270666
0.01804418565787603 -0.09399016177530956 0.0317570752036741
0.018005604822472012 -0.09528896075536175 0.03156499792099182
0.01797162292263465 -0.09651152412236957 0.03130216325947871
0.017942665617949966 -0.09765160360887026 0.030961059487495002
0.017918901115781368 -0.09870710026205903 0.030538277055319862
0.01789713987865212 -0.09972909018714604 0.030085029541246477
0.01787943319451265 -0.10068540842165091 0.029567565233115878
0.01786640178150191 -0.10156673650180464 0.028975176753521348
0.017856866064631216 -0.10239214240365735 0.02832659128237458
0.017849956887576908 -0.10317564904302196 0.02763564002905483
0.017844982159938884 -0.1039283785862622 0.026913388898272494
0.017840824386717427 -0.10466798572873498 0.026178067796113924
0.017842152949131017 -0.10532188755803934 0.025352090688952056
0.017848755837879968 -0.1058939981631501 0.024438243177405616
0.017861031320104994 -0.10637874720153462 0.023429168209716633
0.01787655002552639 -0.1068143139744746 0.022364736099904192
0.01789524259805987 -0.10720213535899509 0.021245671690465262
0.01791751787868549 -0.10753628535243859 0.020064670213055524
0.017947348025976584 -0.10775624769110281 0.018754266300828937
0.017984024507108974 -0.1078737196214869 0.01732541830872053
0.01802907484667288 -0.1078661649739091 0.015751304972616065
0.018084693343774393 -0.10770112764180428 0.01399349598905647
0.018165634771458862 -0.10715573783654486 0.011799098942831598
0.01833278732877705 -0.10531051140810399 0.008124236840349242
0.023858640633001867 0.07504254911514902 0.07545512711844665
0.0237640529687569 0.07237792536553173 0.07541880046284882
0.02371940037182818 0.07067519986799986 0.07487153590983722
0.02374647291660448 0.07034503877381709 0.07357956049395273
0.023801812301137926 0.07055160477537759 0.07198908980326368
0.02384988572106148 0.07061601565105557 0.07047035367737142
0.02390098628619373 0.07073446298979297 0.06891554846536602
0.023945159266845893 0.07071798889726577 0.0674298681786969
0.024174736764768678 0.0742049956981567 0.06396612544948338
0.024296700212789513 0.07564409778984477 0.06163336316523016
0.02433496773243081 0.07549748951756774 0.060188590000952
0.024356748962417473 0.07503810202253974 0.058918220794206055
0.02436980621979629 0.07441340477637265 0.05774038104158069
0.024370787966709648 0.07356154172927276 0.05669258700207824
0.024366257488023235 0.07260653452317628 0.05570481454337034
0.02438151681516818 0.07202119712262223 0.054500798034626874
0.02442983787431859 0.07205063552839203 0.052932164490153866
0.024490013491539446 0.07229702320295428 0.05122864278098421
0.024550103096859212 0.07253751701962213 0.04952095167386389
0.021295491841872047 -0.006867889661357318 0.06290582172971709
0.02109657894793912 -0.011134768648784876 0.06442242806692311
0.020960676139325073 -0.014278958444488898 0.06518577586439844
0.020848873945293195 -0.016990321042973267 0.06566507720384956
0.020751610169914156 -0.019438974987147972 0.06597495025058536
0.020661653106697327 -0.02175292429596648 0.06620285722036567
0.02057241877943022 -0.024047837556123997 0.06642946375170333
0.02049329301443337 -0.026160351220260447 0.06653795487907965
0.020418642852902485 -0.028189437137283557 0.06659733153732372
0.020347376963128862 -0.03015450084837823 0.06662068706335222
0.020278855047300048 -0.032066986205470216 0.06661563390425024
0.020214065835954996 -0.0339101110530281 0.0665693575005557
0.020151393110767586 -0.0357121308719941 0.06650182458459836
0.0200867475370841 -0.037543606229125726 0.06646466434750153
0.020025574471878128 -0.03931086372345027 0.06638878768415596
0.01996685109726719 -0.04103179410312424 0.06628681930176039
0.01991003356848772 -0.042715955310521136 0.066165418028583
0.01985649599661616 -0.044340114008812326 0.06600666721637416
0.019805988601707028 -0.04590887303340446 0.06581337130937037
0.019758219176652835 -0.04742752016902063 0.06558892656646542
0.0197116182920907 -0.048922949559839224 0.06535336922982088
0.019666171056502608 -0.050395538262972994 0.06510674417145068
0.01961848559228803 -0.05190265777142283 0.06489325096489706
0.019575171508425682 -0.053332747759777255 0.06462647721530279
0.019530738584181872 -0.05477854803058618 0.06437811362063406
0.01948785895960888 -0.05619512477563926 0.06411302515800948
0.019444830657473187 -0.057611127155479724 0.0638535556238723
0.01940180048368719 -0.059024087673452796 0.06359777335808942
0.019358483808117607 -0.06043874911333186 0.06334947265602009
0.019315692202456214 -0.06184158599576389 0.06309783748740266
0.01927275874086735 -0.06324372037570458 0.06285174755363365
0.01922912235314952 -0.06465442643977859 0.06261877154121065
0.019187274607648887 -0.06603246609507019 0.06236536299851492
0.019146727299687916 -0.06738607907560401 0.062097905107247386
0.01910542268023392 -0.06874925346333421 0.06184418661480612
0.019064388316384344 -0.07010504194543016 0.06159030085067885
0.019021689345860522 -0.0714851626346697 0.06136266334562268
0.0189808760604348 -0.0728314173299115 0.06111280218600734
0.018939051630248983 -0.07419124541074729 0.0608803235503535
0.01890049941169013 -0.07549484465437639 0.06060625514408774
0.018862194306405275 -0.07679167854507046 0.060332047985725945
0.018822827695896705 -0.0781029724438056 0.060075838117836344
0.01878690067203499 -0.07935585819636448 0.05977508070688964
0.01875155762827023 -0.08059675956841389 0.0594692241419999
0.018715367425365444 -0.08184876945757441 0.05917824513531028
0.018684508984853517 -0.08301258464270195 0.058815417830639205
0.018655389356138634 -0.08414633858255582 0.05843070709279735
0.01862852225820091 -0.08524200566891355 0.05801662776632632
0.018598609042584653 -0.08638433783968141 0.05764803206787722
0.018571905126321883 -0.08747346157321323 0.057236335006987604
0.01855341553831083 -0.0884302506032481 0.056709724825349916
0.01853631701785413 -0.08936368133149236 0.05616478415816489
0.01852479004891555 -0.0902078234388568 0.05554134056469395
0.01852247765045004 -0.0909058200687688 0.054786246076937106
0.018535050096944037 -0.0913694354581579 0.05381646652664501
0.01855564810680265 -0.09170795149347255 0.052729415975954264
0.018590387659052344 -0.09182642858783724 0.051435257175613536
0.018635099305283495 -0.09179154218970986 0.04999290829902242
0.018743289842229064 -0.09077006320581571 0.04761954815166192
0.019419430835354676 -0.0864687110355617 0.030305408191722283
0.019303128487204026 -0.0889340834371748 0.031227223907001334
0.019223388016249256 -0.09083542539299677 0.031607781068422824
0.019161002060563374 -0.09246791115385117 0.03173277348849879
0.019107186576163736 -0.09396628607170726 0.03173314955699347
0.019066052197170915 -0.09526942890555384 0.03154532382678965
0.01903061907912089 -0.09648379167167775 0.03127408420289368
0.0189978411768694 -0.09765573978725989 0.03096526903557556
0.018972450638754672 -0.09871464511148276 0.03054599546504916
0.01895110008256358 -0.09971134100614787 0.030066778160326768
0.018932395057460336 -0.100667056931669 0.029548596948821226
0.018918003678791127 -0.10155725782843705 0.028965328873134466
0.01890795181677525 -0.10238202184550305 0.02831602219788415
0.01890059026588865 -0.10316623322849156 0.027625756142814595
0.0188945508070244 -0.10393039019071626 0.026915511402868908
0.01889073840025037 -0.10466129949940656 0.02617097654561512
0.018891736739228195 -0.1053212204705859 0.02535137954230049
0.018899227645334752 -0.10588600643761864 0.02442967968030635
0.018913135606939222 -0.10635745755523995 0.02340623775701911
0.018928157348204473 -0.1068136491929681 0.022364016392253883
0.018949090945509967 -0.10718485621916746 0.021226868490474893
0.018971992951430997 -0.10752897497883485 0.02005667405897671
0.01900440609340655 -0.10773695737555072 0.018733057683447296
0.019042000513654445 -0.10787238719206754 0.017323945832735776
0.019088728297572834 -0.10787885446417483 0.015765400415755304
0.019149058331708334 -0.10769308307514258 0.013984514106772483
0.019237071493101596 -0.10711457529000873 0.011752903757626887
0.01940821653271936 -0.10535300329462555 0.008172169322691991
0.025204307066749965 0.07540971216632386 0.07525799435784253
0.02508958510195876 0.072474272338791 0.07536676064378592
0.0250443206485047 0.07080523256240207 0.07480088100782264
0.025077230919444922 0.07055321288132382 0.0734657708562225
0.02512831804042942 0.0706271187770321 0.07194756724991302
0.025176788175180924 0.0706504112898278 0.07045132823032701
0.025227898805155555 0.07071791524745213 0.06892475592004599
0.02527544589278553 0.07071798889733316 0.0674298681786592
0.02553041283231995 0.0744313919214234 0.06383866007095335
0.02565555271982202 0.07580569597036396 0.06154184389964018
0.025699634047182056 0.07572461105605155 0.060059205560810014
0.025713564994513497 0.07510336940406748 0.05888082159341601
0.025721372924119815 0.07437230158734143 0.05776407179351667
0.025722966961939178 0.07353041613925965 0.05671063183918851
0.02571738869469812 0.0725613654310101 0.05573115381081317
0.025731498420767687 0.0719407989533698 0.05454795332401108
0.025785128725717116 0.07201671091813372 0.05295217766880256
0.025844855589977244 0.07219637596650752 0.051288362133781795
0.02590639580499793 0.07240387790970276 0.04960070595110028
0.022634497692942096 -0.0027271974528471077 0.06293797757717745
0.022436714587268137 -0.006809318485203664 0.06429179049593559
0.022287683369254564 -0.010062247636703214 0.06510093918882165
0.022161306334374617 -0.012926766499331277 0.06566068451717505
0.022045893523349333 -0.01560000202570061 0.06610365537362822
0.021952962116220394 -0.017891508506102716 0.0662946929933676
0.021860926037098136 -0.020161865900416742 0.06648278421482134
0.02177336989748301 -0.02235178687919709 0.06662587758702976
0.02168685224088523 -0.024518616567831997 0.06676383811030201
0.021607204131465413 -0.026566264776534787 0.06682784132009023
0.021533444060993157 -0.028511587538604444 0.06682865955540362
0.021461683872695897 -0.0304190626384519 0.0668117025929007
0.021392605313172906 -0.03227771540722152 0.06676861406000639
0.021326818739318163 -0.03407783149417276 0.06669178023027966
0.021261871188660714 -0.03585979682395524 0.06661019706805538
0.021196722630603636 -0.03764064291820185 0.06653626783367583
0.021139182945487 -0.03929335858803862 0.06637580034439483
0.021078421782638888 -0.040994454139176795 0.06625896564746492
0.02102136201363794 -0.04263150324591203 0.06610207932260503
0.020966781314614363 -0.04422463283598871 0.06591958733305686
0.020914327355033936 -0.0457797758291556 0.06571549707545565
0.02086376061846393 -0.04730100216140726 0.06549248906354166
0.0208154732050673 -0.04878220730711119 0.0652455099759972
0.020769123409440416 -0.05022909790283947 0.06497850280795014
0.020724169469498996 -0.051650533175798374 0.06469794362461456
0.02067801891284727 -0.05308801975310817 0.06443587925986038
0.020634073517277394 -0.05448727320331509 0.06415004469721924
0.020590416656764997 -0.05587896894363664 0.06386414494519083
0.02054668986142067 -0.057268819548231265 0.06358264303171784
0.020504769004125487 -0.058627140726281446 0.06328193412992389
0.02046301885852228 -0.05997993049775058 0.06298244978621348
0.02042028299215351 -0.0613454232487069 0.06269881964988028
0.02037507441287864 -0.06274689293305041 0.06245006090333577
0.020330463883998093 -0.06413592321288825 0.06219732296460445
0.020288923936717926 -0.0654738764172606 0.0619089111011365
0.02024824481422154 -0.06679557503345712 0.061612804653012165
0.02020728577585902 -0.06811888333743865 0.06132358096785734
0.02016727599291774 -0.06942465952276972 0.06102540476382384
0.020128839665022696 -0.07070331485504133 0.06071007736758072
0.020090695436644386 -0.0719748471824534 0.06039405464683861
0.020051484589522602 -0.07326027608052721 0.060095007260800304
0.020011268684767408 -0.07455854436143533 0.059812259512718735
0.019978519522192446 -0.07573924806829707 0.05943485049228214
0.019940080168248626 -0.07700506235336829 0.059134921608407054
0.01990904348150943 -0.07815491866321633 0.05874043142721819
0.019877246505913677 -0.07931429156122055 0.05835850481750904
0.019847686136805678 -0.0804374151784541 0.05794945504698118
0.01982076880081791 -0.08151833414962978 0.057507600579052576
0.019797984176782378 -0.08253470684935021 0.05701272865028362
0.019775628749509486 -0.08354303820680531 0.05651394521758635
0.019753840807994517 -0.08454128223261903 0.056009340514116046
0.019737777711515872 -0.08545174318925136 0.05542935104486779
0.019732100823857342 -0.08620488419483796 0.05471028505741593
0.019745946898715026 -0.08666463014072678 0.05372703277860641
0.01977209612453797 -0.08694107696524839 0.05257539226334085
0.019803226615615486 -0.08714486867167914 0.05135371782371345
0.01986782706642238 -0.08685182881880721 0.04967178184096954
0.020018072766792423 -0.08528934056237109 0.04680985796195197
0.020497528890833075 -0.08647969475015688 0.030316189487341327
0.02037762521903888 -0.08890376311778225 0.031197307905508065
0.02029299092560648 -0.09081185461102576 0.03158440396331064
0.020226339933647603 -0.09245587613017442 0.03172077546831287
0.020170118084052512 -0.09394591838369937 0.031712739263956846
0.02012703393799375 -0.09524431263048755 0.031520024637694766
0.020088459025878948 -0.09647547088956704 0.031265659425930625
0.020053906566474596 -0.09764677791593823 0.0309561481939033
0.02002662061375844 -0.09871258746501854 0.03054389048487033
0.020004758480113724 -0.09969973456986103 0.03005484332852726
0.01998544569615302 -0.10064938287162045 0.02953032886290713
0.019969484253980867 -0.10155048695658209 0.02895829426675478
0.019959593278800484 -0.10236515262631118 0.028298405362902512
0.01995143819984388 -0.10315479888755602 0.02761375338674138
0.019944775173890872 -0.10392301416606264 0.026907728736550562
0.019940942356270756 -0.10465126955310372 0.026160339031071622
0.019941996234469902 -0.10531121377383745 0.02534071193215548
0.019949999760616018 -0.1058746840373927 0.024417547213905988
0.019964345486498614 -0.1063508038687822 0.02339907126676971
0.019980394893057633 -0.10680434191551214 0.02235394012099451
0.02000283034393707 -0.10717089841029331 0.021211679570522612
0.02002715207879252 -0.1075130237259711 0.020039226431459778
0.020060691200719252 -0.10773030491571256 0.01872574367787938
0.02010047346028206 -0.10786439234439804 0.01731511067717395
0.02014715932535244 -0.10790690076354731 0.01579655415083797
0.02021181220150295 -0.10770783108835219 0.01400098049012688
0.02030505266567527 -0.1071246983666031 0.011764264507567568
0.02049034446288474 -0.1053002291591647 0.008112638068064226
0.026551002978336985 0.07575794746994807 0.07507102405534724
0.026428141438853265 0.07278561389716931 0.07519859595924344
0.026370000604767897 0.07093533981464262 0.07473018559386765
0.026396766212905015 0.07054773216616511 0.0734687666591102
0.026453103176929147 0.0706655719283209 0.07192642318403242
0.026505499736862417 0.07071233658536136 0.07041707515427031
0.02655802355815039 0.07075790769123674 0.06890250342142096
0.02660808195547133 0.07075805672814339 0.06740744172993934
0.02689065904270561 0.07471294190028888 0.06368014207929529
0.027011354631281598 0.07589930486781976 0.06148882958029378
0.027056769609358867 0.07580131536774065 0.06001550937730127
0.027068671287539866 0.07513317156672578 0.05886374450162607
0.02707311614710534 0.07433829074078385 0.057783674713580035
0.02707521328580711 0.07350353836281881 0.056726214036909306
0.027066994362043434 0.07249503956115927 0.055769830143247656
0.027084612456221666 0.07192105638032942 0.05455953277605041
0.027135076482396013 0.07189660192505287 0.053023033685055565
0.02719435863339033 0.07201645592913358 0.05139511825115395
0.027260021970903648 0.07223906960167803 0.04969906164575427
0.023962011019346478 0.0009873882465194495 0.06329585291430234
0.02378169340895054 -0.002666668784401194 0.06432718534233511
0.023635097628537494 -0.005770884587034508 0.06500652548789754
0.023506032257471172 -0.008586429366454762 0.06550625886583217
0.02337855646041351 -0.011368408191811175 0.06599851418230707
0.02326712944538648 -0.013887577958661468 0.06632459769465393
0.02316910083399889 -0.016187449321523495 0.06651182194985406
0.02307768341487493 -0.018376557449249986 0.06663357306637036
0.022986863625181136 -0.020550365568095752 0.06675570689612831
0.022901376508526836 -0.02263441822063711 0.06682552073895581
0.02281211506297868 -0.024772249342682795 0.06694398270957513
0.02273188177290858 -0.026762851474519678 0.06696823529646279
0.022655264824269782 -0.028691736384169775 0.06695801986423194
0.022585173592218934 -0.03051384335181928 0.06688013495476908
0.02251487657379654 -0.03233465023343973 0.06680994624610315
0.022446687842504837 -0.03411816797485179 0.06672122268844682
0.0223828662095455 -0.03582956221668032 0.06658800779941754
0.02232145897704423 -0.037499480615748926 0.06643210400586752
0.0222599908161064 -0.03916639301193786 0.06628160255408855
0.022200665041064774 -0.040796329175418866 0.06611117481789774
0.022140700913190425 -0.04243227172150266 0.06595265648724269
0.022082901319457116 -0.044031132427943265 0.06577367616379487
0.0220283455036859 -0.04557658738053866 0.06556145103035033
0.021978037902068752 -0.047053594961488476 0.06530390458441793
0.021927904531975233 -0.04852471103119016 0.0650481750915195
0.02188035498819355 -0.04995327285272383 0.06476598115463206
0.021835848246317985 -0.051332557648165245 0.06445162511521602
0.021788859665131118 -0.05274660133890119 0.06416997732005403
0.021744291111548127 -0.05412101964954308 0.06386326724209823
0.021701144009809145 -0.05547111814394656 0.06354308177459489
0.02165789940062717 -0.056819911813348445 0.06322736387484235
0.021616644807288945 -0.05813601693427756 0.06289116110469828
0.021574321890095453 -0.05946549224365266 0.06257093508749512
0.02153136853265012 -0.0608016817335984 0.062261538606882494
0.021489378554864852 -0.0621207240584255 0.061943801272375865
0.021445499192358955 -0.06346522083408856 0.06165216423036324
0.021402322849360344 -0.06479644407725166 0.061355346849546466
0.02136203526476429 -0.06608203261310819 0.061026627882792395
0.021325229317026895 -0.06731348771781198 0.06065842649688713
0.021285023788354066 -0.06859279672261254 0.060334740183202396
0.021248895873457227 -0.06980941655103123 0.05996396602187892
0.02121742304279748 -0.07095524689228278 0.059538508604671914
0.021181215992105963 -0.07216853320781702 0.05917407094838678
0.021146565102823228 -0.07335670410155509 0.058793082307347144
0.0211156495782128 -0.07448806789129331 0.0583682187827026
0.021085638371326952 -0.07560425997268816 0.057934424320050026
0.02106022883094727 -0.07665158088558488 0.05744525602013345
0.021036804790816682 -0.07766844853668303 0.05693307381870144
0.02101373599864052 -0.07867866543578989 0.056418206455745745
0.02099571084251744 -0.07961451422530119 0.055841314670167286
0.020984265542665727 -0.08045433075181113 0.05518233005620543
0.02097932825558969 -0.08119978302069764 0.0544414107200516
0.020992835739357545 -0.08168015208073764 0.05346546186165785
0.021015858641145125 -0.08202510593896029 0.05236667000857792
0.02106165014787437 -0.08204617080551257 0.050973778160110395
0.021138329161985596 -0.08162978184230524 0.04917961684691252
0.021580502540493346 -0.08642257054786384 0.030260118027491678
0.021451922217738274 -0.08887921351780426 0.03117308567156346
0.02136240083902795 -0.090793281013273 0.031565982981456464
0.021291869825500312 -0.09244242404145908 0.03170736474006797
0.021233302587280168 -0.09392414285322809 0.031690918183538974
0.021187841278964017 -0.09522407688677614 0.03149964152334839
0.02114625806435246 -0.09646853653531928 0.031258638404692174
0.021111058302822876 -0.09762402602202441 0.030932992715021312
0.02108151787087165 -0.09870092690566745 0.030531961688192
0.021058097223573796 -0.09969358960095581 0.03004852449228118
0.02103822295239859 -0.10063714568769683 0.029517680386742184
0.02102126826687987 -0.10154033003797003 0.02894774172256298
0.02101085596282839 -0.1023550301213274 0.0282878342453024
0.021002472967440042 -0.10314201822426611 0.027600337380975337
0.020995761296450196 -0.10390624902359241 0.026890039328535786
0.020991675838861846 -0.10463522013549176 0.02614331741319781
0.020992079270276662 -0.1053045422420244 0.025333599764949755
0.02100151389527357 -0.10585470107406697 0.024396134560555838
0.021015504844232088 -0.10634548068919153 0.023393337826386806
0.021032146490873576 -0.10680234741733086 0.022351780831686097
0.02105642268898867 -0.10716026294109515 0.021200106028302357
0.021081924765110917 -0.10750371797541669 0.020029047715666937
0.021116619112933624 -0.10772897438518803 0.018724280834374607
0.02115977647377848 -0.1078464022382919 0.017295229699750447
0.02120630091470485 -0.10792292465336178 0.015814353433789508
0.021275798998083982 -0.10770514974896217 0.013997986733498613
0.021373112302995403 -0.10713279629306433 0.011773352507318036
0.02157176543022815 -0.10526183536794465 0.008069328394844755
0.02787431833451568 0.07568825809136126 0.07510844083664278
0.027760043300576107 0.0729579989612622 0.07510548574268894
0.02769886567012981 0.07110527629520663 0.07463784846713079
0.027713255831304053 0.0704929322978442 0.07349872070689542
0.027771554712464407 0.07059691015945274 0.07196417793015253
0.027826385647628536 0.07064077998539053 0.07045665564621695
0.027883890799817165 0.07072480999359021 0.06892091956211338
0.027939166656429034 0.07076911116825213 0.0674012544263291
0.028234410007650614 0.07470026470455066 0.06368727958154757
0.028355874311538888 0.07580144192797622 0.061544253127478465
0.028404946621269807 0.07572603127333982 0.06005839650491879
0.02841893561858164 0.07508208451886889 0.05889301815587494
0.028421752680203003 0.07425753524782952 0.05783021996702975
0.02842527479264671 0.0734441355588411 0.056760652385586974
0.028417615313955515 0.07245130327943711 0.05579533390181335
0.028422545080029487 0.07166033320277726 0.05471245263729807
0.028480686616599676 0.07171867461907305 0.053127998515423214
0.02854350571134776 0.07184799845618789 0.051495073020041804
0.028618380573127062 0.07216522872921882 0.04974312902555833
0.02535352907511887 0.0054915380766189514 0.06316144176504035
0.02513343910742062 0.0013496038043075975 0.06448629021254615
0.02499111459548092 -0.0015919511485730786 0.06502946069494292
0.024860223477456034 -0.004350639528335087 0.06546531137624878
0.02473149623861951 -0.007068421000701486 0.0658883560175294
0.024618354858677444 -0.009541871967781224 0.0661592033898935
0.02450761858728232 -0.011971982835554396 0.06641328211019093
0.024404623152716978 -0.01427835378086545 0.06659462072079714
0.02430570875861169 -0.01651688162683157 0.06674071611127397
0.024209317536669925 -0.018711384507037854 0.06686750042440204
0.02411654002090425 -0.02084571673269331 0.06696319235486936
0.024030574372108555 -0.022872278803691415 0.06699353903543337
0.023946406820857493 -0.024866684910947123 0.06701105628716031
0.023866861573551442 -0.026786946237593368 0.06698544276590168
0.023789508341901536 -0.02866968717940699 0.06694218689051185
0.02371492262851685 -0.030506554336766467 0.06687487223308197
0.023647932146124755 -0.03222618701319324 0.06673120670649862
0.023579258607239216 -0.03396663380682152 0.06661061466493995
0.023514598093348243 -0.035643592562098037 0.06645152411413285
0.02345089061215813 -0.037302543059768156 0.06628678355335482
0.023389256366003978 -0.03892709276022127 0.06610406187240364
0.023327945248083414 -0.040543125476902864 0.06592229814156486
0.023266128725231983 -0.04216280927188848 0.06575056074278451
0.02321021549635327 -0.0436924035253739 0.0655182538071396
0.023153752326219468 -0.04522659811568969 0.06529610886918763
0.0231022158224135 -0.04668561063393212 0.06502341099829484
0.023050387042466324 -0.04814571439202525 0.06475772717051748
0.023002134466481795 -0.04955079959644859 0.06445587776915612
0.0229573572291745 -0.050902653836873535 0.06411860179492979
0.022912467892157562 -0.05225338520401979 0.06378585296837441
0.022867582777086483 -0.053601307722464575 0.06345633149414798
0.022823213808926573 -0.05493906287001754 0.06312424392185628
0.022780374040703093 -0.05625216643677633 0.06277803301454621
0.02273735670935206 -0.057565189040588605 0.062436969826385524
0.02269489448288862 -0.058867649568692115 0.06209270267319156
0.022653765091031296 -0.06014851436924651 0.06173625646748404
0.0226154599028988 -0.06138669568064925 0.061350336872105726
0.022574673205755787 -0.06265774792873818 0.06099583599755942
0.022536247312321452 -0.06389287263399201 0.06061699289121675
0.02249684873992627 -0.06513938904524902 0.06025224398308554
0.022460391426195124 -0.06634202329204092 0.0598561202880582
0.02242405208323378 -0.06754076598257192 0.059461278393909966
0.022391927955082793 -0.06867810969345273 0.05901969654723849
0.02236289315928597 -0.06977021248466125 0.05854414688562792
0.022333118119884973 -0.07087088425818894 0.05807944320375025
0.022310743879726234 -0.07186651837226071 0.05752938414564779
0.02228765644289156 -0.07287070751665453 0.05698941827649706
0.022267426544543764 -0.07383380570513487 0.056417132818642135
0.02225462606208992 -0.07469273368588197 0.055757644122766625
0.022246370273695824 -0.07548805212142362 0.0550446770556669
0.022253546526301498 -0.07607000471933817 0.05414698619616115
0.022278402385624153 -0.07640907575929068 0.05303580933877622
0.022318016018949813 -0.07654701186482266 0.05174451368933852
0.02236371077987544 -0.0766040519692226 0.0503766331396826
0.025547809125655484 -0.03375886136448586 0.010857841103421473
0.022660814855215355 -0.08640572202999475 0.030243580011111604
0.022526509183390758 -0.08885321535638313 0.031147434192572543
0.022431069255165845 -0.09078613669311653 0.03155889736488854
0.02235804319116461 -0.0924218895044625 0.03168689333959451
0.022296809829203682 -0.09390025624085163 0.03166698160526532
0.022247557009042625 -0.09521988982588692 0.03149542396939553
0.02220464566036791 -0.0964546668198959 0.03124459534270252
0.022168378617933835 -0.09760127049997974 0.03090983354365079
0.022137302809536342 -0.09867897502251088 0.030509504828019396
0.02211190796592467 -0.09968198171014764 0.030036588164805755
0.02209114465009922 -0.10062422750950056 0.02950432802805969
0.02207461516162803 -0.10151120947489184 0.028917486874561416
0.02206219448171463 -0.10234490688613862 0.02827726236513578
0.022053656743087197 -0.10312856363334783 0.027586213945810456
0.02204671476166049 -0.10389149403205278 0.026874470891460944
0.022042530488054587 -0.10461916886712314 0.026126293832456904
0.022043536687501836 -0.10528118935611436 0.025308704488425315
0.022053603735040714 -0.10582938518339224 0.024369007433190815
0.022068137679265822 -0.10632218936974952 0.02336825143033605
0.022085295380183893 -0.10678306578290897 0.022330906093645964
0.02210998971918934 -0.10715095623278875 0.021189978446762903
0.022137035756249663 -0.10749108773697269 0.020015232644355396
0.02217277156236724 -0.10772498271638198 0.01871989221894771
0.022218626142993532 -0.10783574032458493 0.017283447153030096
0.02226991274249936 -0.10788219360928247 0.0157691095269184
0.022341601647190915 -0.10768034488317269 0.013970291719713535
0.022443579470116423 -0.10711052585148145 0.011748359224343974
0.022655555102460093 -0.10519805079162853 0.007997376939442635
0.02921515781445215 0.07590017948255612 0.07499465855723414
0.02909682797387937 0.07319127098930572 0.07497948869554608
0.029027586377463138 0.07125750481147619 0.07455513318579096
0.029030567155791158 0.07045594987186266 0.07351893559771555
0.02908749452660104 0.07049532887344184 0.07202003398698179
0.029145971200153907 0.0705554919928974 0.07050383145811129
0.02920441726792452 0.07061176261305113 0.0689838211115551
0.02926514740339229 0.07070002975300527 0.06743992012859451
0.029525662582886116 0.07387634701721085 0.06415116090597511
0.029652269278055587 0.07496916974574575 0.062015600878078
0.02971331673571803 0.07504392044889491 0.060446974918594465
0.029738505399003023 0.07456334551135524 0.05919026348494344
0.029755536508504803 0.07395601694895393 0.05800400685294255
0.02976041928679715 0.07316147700999798 0.056924521647809756
0.029755075952244726 0.07221019916537641 0.055935927954898546
0.029762630883748156 0.07145619141136456 0.05483218627475517
0.02982478185841026 0.07153383422134196 0.05323704159279741
0.02989091059669237 0.07166835364368584 0.0516016658318747
0.029965364895954562 0.0719254112329637 0.04988624933737429
0.030807754526763622 0.07121301344597658 0.026162615832763025
0.027109566942389692 0.01589417106012464 0.06065843848439623
0.0267009527831731 0.00910128849257641 0.06365868908180433
0.026530196168221006 0.005818450364893424 0.06438315682017037
0.026366816209676406 0.002653491119813556 0.06504779809077393
0.0262301076684637 -0.00011256901859973967 0.06546358112236428
0.026100548934194497 -0.002766475880680519 0.0658188741463136
0.02598237340510075 -0.0052473039850826075 0.06607132972044244
0.025870693230303176 -0.007626975993744622 0.06626796065918394
0.025763973721842314 -0.00992828540833568 0.0664232763333476
0.02565320064252078 -0.01228194088995116 0.06662628088554662
0.025548603848678964 -0.014540044039187405 0.06677544663542445
0.02544937028012662 -0.016714839067531295 0.06687825970264527
0.025352576225889135 -0.018848793305093703 0.06696350125931622
0.02526222424985123 -0.020884743271106954 0.06699060866533779
0.025169679609840602 -0.02294678157795743 0.06704616578449069
0.02508507515345302 -0.024890052365159177 0.06702765319849224
0.025005785509360716 -0.02675265655500869 0.06696095451244427
0.02492958153204502 -0.02856675459634922 0.06686827361790076
0.024855125956798216 -0.030351591474186645 0.06676298792337954
0.024784756007432244 -0.032074225740470474 0.06662088948906114
0.024717706923537912 -0.03374582204765447 0.0664494394490397
0.02465247377496493 -0.03538789309873819 0.0662638655137926
0.02458733245976089 -0.03702485994008081 0.06608188085510047
0.024523285268638263 -0.038642655489519284 0.06589303331487073
0.024462247570922566 -0.040214534151656545 0.065677186250435
0.024402070493258758 -0.041770810696746596 0.0654565634011019
0.02434514811844125 -0.04327815039210148 0.06520588155089074
0.02428689506715742 -0.04480069493937383 0.06497321305323028
0.024233868085212534 -0.04624720942310401 0.06468924261508546
0.024182532219783847 -0.04766717343829935 0.0643909924537393
0.02413238275424325 -0.04906771970686913 0.06408366742504445
0.024085820215451994 -0.050415802811042576 0.06374146453573731
0.02404286445028357 -0.05171146366513807 0.06336379609500342
0.023997005838347896 -0.053044530817098035 0.06302037377483916
0.023952157408890087 -0.05436105692152787 0.06266923335773228
0.023908070954316345 -0.055664529069501145 0.06231295903125089
0.023869183663906175 -0.05689438813750747 0.06190323291017635
0.023830718079688642 -0.05811622531072791 0.061491615711515235
0.023793141898870954 -0.059323714673176764 0.061072946307527465
0.023755801453990456 -0.06052580803406987 0.06065430632840246
0.023721914577185782 -0.06167893645337447 0.06020024075019342
0.023683863447423407 -0.06288637308476291 0.05979453116804695
0.02364948308159701 -0.06404207555504554 0.05935079837976531
0.023614970314364363 -0.0651975509397974 0.058910931509468356
0.02358605502536141 -0.06627583882632332 0.05841105667018087
0.02356425612072881 -0.06725707624033272 0.05783360057050568
0.02354313177180149 -0.06822802037429238 0.0572500943348328
0.023523599534686426 -0.06917648855947106 0.056650140970090745
0.023507721100737487 -0.07007517403570257 0.05601029930905438
0.0235025479843055 -0.07083072965160686 0.05525033615411973
0.023520836527814493 -0.07127502007826991 0.05422423591262254
0.0235549013259517 -0.07151174028323615 0.053017112695626756
0.023599200091782888 -0.07161540719201787 0.051690658447907545
0.023662640711291413 -0.07146963274102008 0.05014169030893173
0.026376945873127243 -0.03650258224817793 0.01810833171294879
0.02643825120203966 -0.03646966345772912 0.01648285005769995
0.02653744753425204 -0.03594475888811177 0.014414784829019478
0.026661034058583645 -0.03510736949760934 0.012056822229905118
0.02374142583273638 -0.08638667357423302 0.03022488259951428
0.023601286122977735 -0.08882721259880488 0.031121778178713644
0.02350042192482277 -0.09077113248365626 0.03154401644230781
0.02342379642151785 -0.09240843426859496 0.03167347947387383
0.023360719926923748 -0.09387355476721815 0.031640224277621753
0.023308886118602185 -0.09519616084594995 0.03147152217866939
0.02326330462311956 -0.0964387149872265 0.031228444140735667
0.023225530828866425 -0.09758264964636859 0.030890882383620255
0.023193586578816105 -0.09865290275818661 0.0304828328022011
0.02316586089204453 -0.09966968996547426 0.030023948634326836
0.023143995507135143 -0.10061334812689054 0.029493082988964803
0.02312712271920584 -0.10149495351724047 0.02890059772559328
0.02311394232944393 -0.10233073312996699 0.028262460451620675
0.023104663900931292 -0.10311847184121475 0.02757562047829032
0.0230976683388883 -0.10387807904960578 0.02686031633843894
0.023093672776581017 -0.10460110897757391 0.02610713995745756
0.023096058849212037 -0.10524715383345645 0.025272421017873137
0.02310588578363262 -0.10580406466769937 0.024341875349908615
0.023121948877234625 -0.10628691219134423 0.02333025541764855
0.023138925517742662 -0.10675979125954244 0.022305708562790683
0.0231637953039516 -0.10713965438558731 0.021177679750455702
0.02319218752914346 -0.10747912117971109 0.020002143513642934
0.023229291462576306 -0.10771699903146154 0.018711114606247914
0.023277106904617446 -0.10783040905791563 0.017277555537290545
0.023330158269688712 -0.10788486486697324 0.01577207675098352
0.023406000385962123 -0.10767431059135324 0.013963554340179152
0.023510883581847063 -0.10712739772833973 0.011767293900203646
0.023728180472299343 -0.10527074915851092 0.008079383493450665
0.030562441169279555 0.07619049469071892 0.07483878601437513
0.0304329533303819 0.07339437042408126 0.07486978874878122
0.0303617842297995 0.07147848618864971 0.07443506017166926
0.03035618944367188 0.07054636200829811 0.07346951559839562
0.030402569155759233 0.07038967771517268 0.07207812792664431
0.030460628057780673 0.07040425347923307 0.07058748684104665
0.0305283660977371 0.07055939390087806 0.06901295998343565
0.03059547452828124 0.07070141117527162 0.06743914692987146
0.03077858345198935 0.07255669546607796 0.06489414982189318
0.030907327785646994 0.07359856961981665 0.06279182445027148
0.030979743362743693 0.07380262821828104 0.061154102482905426
0.031019046499511326 0.07351529112226785 0.05979081456603358
0.031059025456041712 0.07323568500525968 0.05841918644829369
0.031074488565343793 0.07259439096656922 0.057253285705836154
0.03107256684499542 0.07169782071837633 0.05623470909705319
0.03110748310843565 0.07133942030896767 0.05490067508708063
0.031173199315955486 0.07142807719232408 0.05329943094079498
0.0312359893586901 0.07147048434775871 0.05171907219799521
0.0313114184439068 0.07169293039942581 0.05002499121362075
0.028329036223656297 0.017297676429568476 0.06266311459777979
0.02806831125105875 0.012828917494089986 0.06410947899031705
0.027907500315751087 0.009781040439437061 0.06465403502254397
0.027756185952697347 0.006875552470480217 0.06512162148117079
0.027622894895687485 0.00423119615261508 0.0654322783765035
0.027492532550143535 0.0016352666939662974 0.06572457832589573
0.027367940790633344 -0.000872799228415988 0.0659717057857302
0.02725001416311765 -0.0032810195299972644 0.06616470567032001
0.02713654319569383 -0.005620681265831873 0.06632367994993632
0.02703048284244447 -0.007851144555615475 0.06642030989544367
0.026919045382224557 -0.010150161230459975 0.0665749051207562
0.026808308429780707 -0.012433265574319674 0.06673026906070251
0.02669996851188456 -0.014677111520430275 0.06687015918919065
0.026598272458092178 -0.0168234306807451 0.06695371067039585
0.026503078643391808 -0.018874725991252728 0.06698161916412337
0.02641481139636723 -0.020825724272293733 0.06694914756576881
0.026326164535238002 -0.022776983504803006 0.06692622500813233
0.02624071425346161 -0.02467963544249513 0.0668782029855381
0.026157587075491512 -0.026545851843967405 0.06681326325961146
0.026078368308678636 -0.02835426717049716 0.06671569179621833
0.026002588086499984 -0.030111586202870966 0.06658970237832013
0.025932198158172975 -0.03179166237525333 0.06641576088200213
0.025864584658964407 -0.03343027724672959 0.06621911656403068
0.025797190371426897 -0.035062156099456177 0.06602480615652573
0.025732716020258874 -0.03665096462124262 0.06580598306275043
0.025668694278038914 -0.03823008975284792 0.06558694420045053
0.025607665519369233 -0.0397655171115982 0.06534224309344289
0.025546861324521927 -0.04129452941522194 0.06509935437142433
0.025488284514924023 -0.04279041071406536 0.0648380959351571
0.02543081233502743 -0.04426830354554451 0.06456958386453487
0.025374623888332497 -0.04572591976135032 0.0642918930659751
0.02532174553895775 -0.047136487847688924 0.06398429616524925
0.02527232815626617 -0.04849828830639297 0.06364492372634956
0.025225762605645158 -0.04981965726158388 0.06327966269765156
0.025179305247177857 -0.051136997388345706 0.06291639287655898
0.025133395852265174 -0.05244453347667488 0.06255057434601757
0.02509373038240899 -0.05366755209094842 0.06212330121809051
0.025057251096113686 -0.05484662407224972 0.061665644282032805
0.025019943260436512 -0.05603448544188544 0.06121903315598226
0.02498485826372736 -0.05719127315727174 0.06075171854460287
