# .PCD v0.7 - Point Cloud Data file format
VERSION 0.7
FIELDS x y z
SIZE 4 4 4
TYPE F F F
COUNT 1 1 1
WIDTH 760
HEIGHT 1
VIEWPOINT 0 0 0 1 0 0 0
POINTS 760
DATA ascii
-0.03344927573615897 0.03349400313556736 0.02338263532328444
-0.03474168854451576 0.03344373380711401 0.022914926074821096
-0.035036642118787986 0.033489235265792866 0.02159261141481761
-0.035297131186011854 0.033538262341121415 0.020236148667460596
-0.03538085472555741 0.03360459396745476 0.018721143202365842
-0.03545343042676258 0.033672300638749486 0.01719008574964004
-0.03552054866790727 0.03374083903992642 0.01564778675546602
-0.035595622140344396 0.033808909524229755 0.0141059903920423
-0.03566137996031565 0.03387819338250516 0.012549407880928953
-0.03573029903176583 0.033947479176808834 0.010989016630870485
-0.03580818989086204 0.03401619766801232 0.00943003699562639
-0.03586124783431022 0.03408766429667694 0.007842018805580775
-0.03593003607089257 0.0341579057973323 0.00626139287259192
-0.03599036966432445 0.03422929931587496 0.00466626375232343
-0.0012668776923163705 0.031902894646541655 0.0704734877773745
0.001102575978667808 0.032164900182304716 0.06750019784684663
0.0008570351574828661 0.032208547035728646 0.06624185006706029
0.0003414577178639244 0.03222966642744604 0.06516012439302288
-0.00015595532193496409 0.03225240068528717 0.064064315923831
-0.0006572090106951589 0.03227490212876822 0.06296908156290282
-0.0011288410570503005 0.032299999544614946 0.061851710808302596
-0.0015897099202138998 0.032326110406042205 0.06072474377217668
-0.001977128147337026 0.032358564313597356 0.05954496651486779
-0.002329784694598769 0.032394107672680715 0.05833825987662461
-0.002610012118154703 0.032435971024090765 0.057078035711189634
-0.002866892293891865 0.032479999438527855 0.05579773185484088
-0.003125518198118127 0.032524057871922495 0.054514683325546875
-0.003359690416893102 0.03257039409697616 0.05321037948969459
-0.0035662031736686806 0.032619297677541466 0.0518822339969478
-0.0037743872617428953 0.03266825786550264 0.050550844202623624
-0.0038527975638609213 0.03272862090739307 0.04912181496039103
-0.004046316759984125 0.03277927627485374 0.04777039481858347
-0.003955600126596792 0.03285477621189616 0.04620800655402074
-0.003960757520702685 0.03292226151372474 0.04470869068121053
-0.003840808035288079 0.03300091477143882 0.043111370876778854
-0.003756444221240385 0.0330767911172927 0.04153308325332561
-0.003438067038649739 0.033173434597595995 0.03977419142295624
-0.00301600731174001 0.03327956120683682 0.03792904135925135
-0.0026665914108460753 0.03337975609918934 0.03612856202717629
-0.002449000702097748 0.03346877742666265 0.034418204157815546
0.007274856836180732 0.03454087345608659 0.02228561172031074
0.004932648177626675 0.03440608030537471 0.02247668909505357
0.0025963254456514706 0.03427123986505499 0.022675827366128665
0.0002704794217543438 0.034136760697864074 0.022879457816490922
-0.002027301011564675 0.03400421493378126 0.023073757349635626
-0.004281206515034164 0.033875028928681654 0.023246007467841223
-0.006518051131430835 0.03374682079414831 0.02341695374258196
-0.008710291928828495 0.03362207081071073 0.023564542249659204
-0.010874760088694424 0.0334992861325616 0.023701744848904582
-0.013002538161937138 0.033379283860310006 0.023821109897694093
-0.015079854587351338 0.03326332695831064 0.023911105545089073
-0.017138675625302524 0.03314854550346128 0.023997135370434186
-0.0191619391893601 0.033036496260946784 0.02406508842526639
-0.021180660042376842 0.032924374917956224 0.02414005055609819
-0.02316270234326434 0.03281511142958847 0.02419549202317378
-0.025070101744458728 0.03271219389924509 0.02419947972527975
-0.026892723746828606 0.03261659201847519 0.02414263623950369
-0.02862167579383318 0.03252916996102575 0.024016438724344003
-0.030271536402291355 0.032448640426104396 0.023831995802875594
-0.03185157976496178 0.03237419381391975 0.023596168005252605
-0.033375564093020116 0.03230459911356803 0.023319796095160716
-0.034633112726787374 0.03225936840740399 0.02282187582681605
-0.0349318233898534 0.03230291836624609 0.021502306576154984
-0.035158849013966265 0.03235332830842285 0.020116385273724502
-0.03522704031749274 0.03241876728254119 0.018587225254010076
-0.035306998136213796 0.032483398111202114 0.017061923352067465
-0.035358497976030356 0.03255098152034166 0.0155052079994904
-0.035438084662308744 0.03261623130455437 0.013966653479483171
-0.035497772366541835 0.03268364471409127 0.012403941596119739
-0.03557121229191462 0.032750064416693564 0.010846827063537401
-0.03562852236903702 0.03281830666886203 0.00926860987954825
-0.03568413514773294 0.03288701727795539 0.007682052662786765
-0.035753563528363896 0.032954727291787576 0.006101169672588058
-0.03584465950035648 0.033020683096490436 0.004533277618890719
-0.0010478780824890732 0.030738929688437097 0.07032954361103294
0.0013048237112339156 0.0309899156734189 0.06736651887168082
0.001081462918901488 0.031033770593626615 0.0660926802843812
0.0005028242475234035 0.03104903882922566 0.06505226977772643
-2.820645353507345e-05 0.03106823023337052 0.06397845421237536
-0.0005169759784568462 0.031090933856900337 0.06287430384159626
-0.001012738218864273 0.03111315938156776 0.06177280507968935
-0.001441228631865299 0.03114096467010917 0.060623272400417705
-0.0018171419368429031 0.031173181898394478 0.05943502623108132
-0.0021561687643495975 0.031208552173228255 0.05821829259788808
-0.0024624713409244214 0.03124675294638941 0.05697552229231445
-0.0027381051512083143 0.031287632376200865 0.05570775452557197
-0.0029840662633291992 0.03133112472353179 0.05441531270760558
-0.0032359568672916117 0.03137430488573431 0.05312297742534444
-0.003407700144062553 0.031424296341323286 0.051769655988562646
-0.003633601650670948 0.03147000044954993 0.05045030099489006
-0.003761253897086203 0.031524058845085794 0.04905607976107862
-0.0038218816077915663 0.03158392240236956 0.04760835096778482
-0.003797172839517693 0.03165115542145517 0.04609299526225136
-0.0038242399395379545 0.03171433618335589 0.04460904355765921
-0.0038111044914612147 0.031781148080861604 0.043089571351230926
-0.003583025346501345 0.031866288947114456 0.04140511722823237
-0.003267200452307717 0.03195916854751362 0.03964742273690541
-0.002845476263632296 0.03206136622528015 0.03780183410861909
-0.00249969829523361 0.03215757280441769 0.03600339283328785
-0.0023237090272736904 0.03223980351826578 0.03432372652900084
0.007309143972792809 0.03326450383723797 0.02225933541809022
0.004994891385205036 0.03313709667458497 0.022428731039983163
0.002690452877503524 0.033009990281268 0.02260291189646607
0.0003736595102810103 0.03288128528964606 0.022799099546670254
-0.0019086547348007854 0.03275499667970676 0.02298085699119412
-0.004165886871731361 0.032630330536412365 0.02315522696613942
-0.006386602132500752 0.032508284207196106 0.02331292100187049
-0.008589699605572987 0.03238723978696597 0.023468590393296684
-0.01077539413435108 0.03226718509391999 0.02362225899937942
-0.01291247458617839 0.032150837765566244 0.02374868006895353
-0.015012404635779908 0.032037223765027927 0.023856572019000377
-0.01706977754384137 0.03192683247946169 0.023941133778624113
-0.019099769905773445 0.03181835789142319 0.024014286743645585
-0.0211180352885596 0.031710440874205166 0.024088604160490912
-0.02309461895723719 0.031605715423770574 0.024139263780212805
-0.024999612692377604 0.03150683436518942 0.02414095528539356
-0.026812947790501807 0.03141560587168593 0.0240760495130819
-0.028534678215472398 0.03133207533969148 0.02394343908501756
-0.030173508521648684 0.03125552228949395 0.023749304666611626
-0.03175325065244433 0.0311838787588626 0.023512783532481096
-0.0333008634548857 0.031114778610376287 0.023256113748100993
-0.03451588918413617 0.03107502937764934 0.022721414417047947
-0.03483075649020012 0.031115545656173294 0.021415234063827338
-0.03501663753839407 0.031167793518380605 0.019993218789637668
-0.035091264911759845 0.03123025938942845 0.01846901289665226
-0.035160442408497194 0.03129349338148084 0.016933652918191433
-0.035204937861588514 0.031359234604700324 0.015370099597107167
-0.03528328993385588 0.0314222102211234 0.013829742442109827
-0.035353284683700636 0.03148622470995011 0.012275475148207426
-0.03540811774191538 0.031551902677306044 0.01070105536992888
-0.03545640828081309 0.03161847125064167 0.009113969348993889
-0.035549486121571605 0.031681256392574804 0.007560439210005709
-0.035588564370309606 0.03174925982645244 0.005951363404017418
-0.035654080385285225 0.031815149811313385 0.004359340681780899
0.00024514195772140646 0.029597829793932516 0.07088679040894952
-0.000917598849864254 0.02956674399457965 0.07024391361586263
0.0014558623591139352 0.02980970630643811 0.06726668738579539
0.0011580800898293164 0.029846116250591387 0.0660417553601893
0.0006422956122716927 0.02986570193576474 0.06495904951438225
0.0001384139329513867 0.029886294589370047 0.06386646643724808
-0.00035882887384519613 0.0299074888739001 0.0627674187378009
-0.0008484000988181473 0.029929369298690618 0.06166111772299965
-0.001270646272291287 0.029956621114502386 0.06050669726683444
-0.0016496923282229292 0.029987379952113723 0.059319957204602425
-0.001991819972591402 0.030021172192943688 0.05810472884090695
-0.002295958217303329 0.030058100863415985 0.056859826618817055
-0.00255262410417606 0.030098935298828722 0.05557816791549425
-0.002800545790641873 0.030140629353538975 0.05428638875330949
-0.0030607045334942184 0.030181521688154512 0.052999183872137534
-0.0032427585058891206 0.030228798198120375 0.051652504908413
-0.003435905251134963 0.030275383862687796 0.050309114477209926
-0.003572766330533772 0.030326659495838567 0.04892073159127314
-0.0037048170507228417 0.030378531548137556 0.04752382948603767
-0.0036322679219829568 0.03044703734144397 0.04597328149365465
-0.0036293469434299785 0.03051022703583713 0.04446678696113332
-0.003554186948932947 0.03057949997822128 0.04290101874738356
-0.0033881390115855226 0.030656400007378893 0.04126131033488417
-0.0030747915766199396 0.03074553958156669 0.039504671477705866
-0.002697344068457952 0.03084024867971955 0.037691335231802625
-0.0023509862924062652 0.0309328272164927 0.035891859403960225
-0.002155083197030061 0.03101354206905725 0.03419657228175571
0.007362872600450543 0.031989502552794195 0.022218159927870573
0.005062815848763225 0.03186817067307801 0.022376395607882404
0.002794719006746327 0.0317489553517176 0.022522142522076016
0.0004968826810070603 0.03162678203081196 0.02270313141034902
-0.0017745394686864424 0.03150627238808527 0.022875844371882947
-0.004014559365030923 0.031387850143026357 0.023036100800066517
-0.006238881921401707 0.03127022526685826 0.023196010728348482
-0.008445527224491267 0.031153567544444812 0.02335387656054555
-0.010645292554301244 0.031036983258729157 0.023518186787894413
-0.012809790538356958 0.030922844003385377 0.023666100758333974
-0.014931432043905735 0.03081180082930858 0.023791105390061962
-0.017007026869593267 0.0307041413884781 0.02389012890925002
-0.019040638421734868 0.03059954601684193 0.023965967402443944
-0.02105639945221932 0.030496001416999513 0.024037970163123035
-0.023028513382646887 0.030395692539542454 0.02408466895868533
-0.024933069389931672 0.030300663781598132 0.024085706854767075
-0.026736092712081938 0.030213830814327276 0.024011900760544103
-0.028450572553450237 0.03013414344548087 0.023872866051737607
-0.03008611102799319 0.03006083077397916 0.023675580762660964
-0.03167030291830286 0.02999157926761256 0.023442442685280396
-0.03324912892760368 0.029922482155352325 0.023212010026852692
-0.034397632727712235 0.029889974876460012 0.022620067792830267
-0.0347143615396715 0.029928795284207922 0.021314955923313006
-0.03484850633532488 0.02998351110458873 0.01984760375355149
-0.03490368236487856 0.030045285371550413 0.01830569484250011
-0.03499362097687958 0.03010432746592176 0.016787645268085905
-0.03502721479102394 0.030168517433967937 0.015213731648190842
-0.035110064182864664 0.03022871457626656 0.013676529748725297
-0.03518456379656687 0.030289908381728146 0.01212546254760044
-0.03524487000586307 0.03035261556820135 0.01055514676070668
-0.03531220406662977 0.030414990074892023 0.008984405195242129
-0.03535653339629685 0.03047966259237469 0.007386166526324678
-0.03541466041349178 0.03054341495834455 0.005793472277979217
-0.03549542914124543 0.030605462060242047 0.004214543538365589
0.0001973744740845773 0.028410375311069283 0.070918011669996
-0.0007603182852868873 0.028395757587956576 0.07014053617255267
0.0017309734991027281 0.02863779501600544 0.06708484813952159
0.001329267156781777 0.028665038778762916 0.06592797292341152
0.000830165404826444 0.02868511328208523 0.06483348057363247
0.00032721583321515535 0.02870498018102936 0.0637395701720539
-0.0001743333532494007 0.028725031996236456 0.06264272582662123
-0.0006661021377127874 0.028745899862435934 0.06153722451185628
-0.0010894318213405252 0.028772007634094144 0.06038285621504241
-0.001483143483167415 0.028800456684681695 0.05920550717023293
-0.0018168473569640797 0.028833559860042345 0.057983824102959824
-0.0020642732781765427 0.02887333655508609 0.05669884864609909
-0.002361714711675067 0.028909476608322826 0.055444788783760635
-0.0026105466305679226 0.028949463182865703 0.054152913492097554
-0.002881086862002169 0.028987957705877084 0.05287230676133997
-0.003069257652636992 0.029032903789133428 0.05152927457924644
-0.003261172176938165 0.029077747563946637 0.05018432740811157
-0.003375654536177941 0.02912871669185877 0.04877919058089725
-0.0034567390215667904 0.029182463485463203 0.04734471530205059
-0.003436521620998001 0.029244236635041446 0.045831178227541625
-0.0033928764100534248 0.029308073908548705 0.04429418202443158
-0.0033309596883309145 0.029373589235888214 0.04273719154889005
-0.003126911975559088 0.02945039495317951 0.04106855054736108
-0.002814730105223262 0.02953592053291567 0.03931172766272606
-0.0024942799546890937 0.02962244639133269 0.037539860014232374
-0.0021212242507787082 0.029713437473145136 0.03571953875771222
-0.0019646592444709787 0.029787886134843473 0.03405298090960296
0.007436058775558085 0.03071567969349396 0.02216207294466027
0.005159082890846656 0.030601032750859243 0.02230222237219409
0.0029192394930580012 0.030488834081475277 0.022425683184310374
0.0006501895506280664 0.030373847456230212 0.022583733617903945
-0.0016029102394781725 0.03025963757899299 0.02274145821710949
-0.0038314985007049107 0.03014689006875778 0.02289199389312918
-0.006061896516493026 0.030033517194360305 0.023055939089245525
-0.008262749414857162 0.029922018419163907 0.023208445494431018
-0.010489685959972572 0.02980795469147525 0.02339371233964227
-0.012678733271106801 0.02969643922834868 0.023560703483773593
-0.0148358800981368 0.02958700723450418 0.023713851301570943
-0.016925727613686825 0.029482522933563713 0.023824047421243666
-0.01897434754063243 0.02938091426017342 0.023911797753996433
-0.020997775412366082 0.029280902931920833 0.023989810364280773
-0.022963385670095426 0.029185143868732978 0.024030881727195696
-0.024856563695429768 0.029094852013429984 0.02402218702031561
-0.02665624655915866 0.02901177786245239 0.023945255443015623
-0.028372298890087633 0.02893516389626651 0.02380718664661058
-0.030010331504990273 0.028864593779538157 0.023611657164378796
-0.03159986304978829 0.02879768836878606 0.02338270868435427
-0.03318971114709757 0.0287304626338387 0.023161356326774463
-0.03424397027031423 0.02870702343549213 0.022488377973963636
-0.0345950236786956 0.028741487559906534 0.021212142367078246
-0.034684039260445 0.028797767460450506 0.019705162144817046
-0.03476190431699938 0.028855221022707444 0.018182256306846944
-0.03480455520651937 0.02891585431257938 0.01662216863490984
-0.03488298161844777 0.028973780497848114 0.015086829466668894
-0.034955940787667616 0.02903242152004021 0.013540212484365932
-0.03501857562047184 0.02909218822090163 0.011977879646698053
-0.03507953420724885 0.029152363598592673 0.010407371869527171
-0.035123299557003884 0.029214253424926114 0.008814678859100145
-0.03518958744933748 0.02927452670711054 0.007235382865897699
-0.035254203612639146 0.02933521334390233 0.005647790112773221
-0.035306415976004424 0.029397223473513315 0.0040420358056942884
0.00040930361383145764 0.027241666606692277 0.07077949285988439
-0.000500314773843713 0.02723111024755814 0.06996964094251051
0.001982277267651378 0.02746247912557877 0.0669187447681332
0.0015900163859610128 0.027489298630493545 0.06575466145069281
0.0010676270965083723 0.027506906240555656 0.06467476525975646
0.0005414163763258206 0.027524310250378957 0.06359560314160906
3.553671286565807e-05 0.02754324608425983 0.06250088330692838
-0.00045425060755832636 0.02756341760282435 0.061393246125058476
-0.0008734259270272715 0.027588768266029202 0.060235238864413454
-0.0012451139555594848 0.027617656650378603 0.0590419366116583
-0.001588198040627986 0.027648735472244064 0.05782582917572904
-0.0018365072004500882 0.027686824295908314 0.05654059355371138
-0.002173765209635914 0.027718594266752678 0.0553134775839117
-0.0023677855232055456 0.02776093999801747 0.05398237272652434
-0.0026518541943963414 0.02779687810369382 0.05271038294658026
-0.0028439960304478817 0.027839694925036372 0.05136928076174857
-0.002992443328941552 0.02788589358277554 0.049992412480283355
-0.0031213205268817434 0.02793372108031408 0.04859655974053384
-0.0031818913302154583 0.027986778388310058 0.04714627322265885
-0.0032172577935056235 0.02804191555202325 0.04567200226421403
-0.0031008585552277923 0.028108509124313563 0.0440810319011235
-0.0030211960085494427 0.02817265505757125 0.042509854996370555
-0.0028364752192739373 0.028244872377366115 0.0408542368672688
-0.002535007989369731 0.02832608161313928 0.03910419729739689
-0.002188738524813494 0.0284109718195308 0.03731194207389249
-0.0017982261014914402 0.0284995242579781 0.03547729138983624
-0.001691675025536632 0.028567174679985013 0.03384713401877826
0.007547033899254985 0.029444225896351 0.02207702600935585
0.005283734686984121 0.029335406807091017 0.022206178836901347
0.0030595615233707796 0.02922908935324204 0.02231698323847159
0.0008303149498888329 0.02912193614450653 0.022443449134317617
-0.00139586957780663 0.029014560381684987 0.022579344814094515
-0.0036122467657016544 0.0289074745711288 0.022719397257096152
-0.00584475457751199 0.028798700122892977 0.022884086346208588
-0.008059453639907732 0.028690823124563728 0.023046688871202703
-0.010302150264300758 0.028580336898001525 0.023243696831963867
-0.012525540851812844 0.028470859682849008 0.023437504947624754
-0.014712212125710944 0.028363738999199722 0.02361386530538412
-0.016835123884185677 0.02826107696628506 0.023750403090829986
-0.01889476660266648 0.02816286456169694 0.023846768124565543
-0.020923962986195865 0.028066586582411738 0.023929173267190296
-0.022893221774651362 0.027974546485547654 0.023972935247293214
-0.02478499632165171 0.027888137907085015 0.023962767290005293
-0.02658622851676068 0.027808416451175717 0.023886813370386006
-0.02830280206257385 0.02773496591736548 0.02374887188155128
-0.029950073282196676 0.027666624187767715 0.023560826514166022
-0.03155063487372811 0.027601650657658825 0.023340962497480577
-0.03316191202937541 0.02753554793716679 0.02313765755917424
-0.034117885050002406 0.02752084279700469 0.02238032204341439
-0.03446126815325934 0.02755449924266598 0.02109690751098392
-0.03453090707488449 0.027609992718038438 0.01957253745457932
-0.03458835653894793 0.027666700364163514 0.0180311575725296
-0.03465373127196131 0.027723029559954673 0.01649016252483776
-0.034694336661836356 0.027781585398758704 0.014920852000462503
-0.03479975166475724 0.02783522229420881 0.013402068149233726
-0.03484663027182866 0.027893788965979417 0.011825000122707707
-0.034913072871479156 0.027951047615013366 0.010258590988525274
-0.03497202810017974 0.028009166360961842 0.008678764951166151
-0.03503025704236867 0.028067605698727304 0.007091477473657626
-0.035059511808257726 0.02812865130748216 0.005471025254821238
-0.03519525044690425 0.028181345922701943 0.003940577722857441
0.00046752125134502664 0.02606120267470403 0.07074144128337384
-0.00028562329277992404 0.02606176796712402 0.06982852842506476
0.002290809244890002 0.026289509111506064 0.06671481546816116
0.0018047690088175417 0.02630879335032796 0.06561192241574104
0.0012822254819067624 0.026325654231321445 0.0645313313868881
0.0007884638936477284 0.02634455831743798 0.06342955922346072
0.00029294132918733506 0.026363417264165287 0.06232691414574448
-0.0002011897225100423 0.02638244805538176 0.0612212610656902
-0.0006235613127200113 0.026406510984726475 0.06006448263344477
-0.0009941801954113094 0.026434252214590406 0.05886949844516204
-0.001317240068889891 0.026465403330574486 0.057638599291497006
-0.0015969017813723951 0.026499696021129077 0.056374112319494074
-0.0019014871369659736 0.026532393113378287 0.055123250102450116
-0.002108919805866971 0.02657200073195848 0.053800518400288766
-0.002373880937310946 0.026607748830828226 0.05251403008527755
-0.0025551867171477727 0.02664950281924439 0.051164151702857985
-0.0026937613969850727 0.026694427262206083 0.04977910630998439
-0.0028433801710668893 0.026738759584947272 0.048396977777846906
-0.0029193577525871706 0.026788464484608115 0.046956722025053466
-0.0029404333914368475 0.026842251809743055 0.04547103983746159
-0.0027498435702252855 0.026911240776084953 0.043824818501497775
-0.0027418695457032127 0.02696756543628719 0.042304856414433156
-0.002550945131424842 0.02703712484344095 0.04064354382453317
-0.0022011613765079985 0.027118286080933324 0.03885651109167915
-0.001752169486817834 0.027206865094080566 0.03698628438486273
-0.0015493929835408426 0.027278207967817207 0.03529066750980192
-0.0012597357079443539 0.02735607521947935 0.033521425207117206
0.007627158235601783 0.028169819946769346 0.022015621894428183
0.005416406759689796 0.02806954155128709 0.02210395572185514
0.0032101001062123102 0.027969160690252792 0.022200369077708337
0.0010150634194200925 0.027869172005264224 0.02229956413115919
-0.0011797792190215706 0.027768772520896167 0.02241014547354686
-0.0033861850321321163 0.027667102770453554 0.022541439738313795
-0.005600305971732555 0.02756443565855877 0.022690622275509498
-0.007825926603410638 0.027460487795800608 0.02286087809935733
-0.010099569315607182 0.027352572158727297 0.02308164616872682
-0.01235331048902183 0.02724565584286503 0.023298995949111445
-0.014575977333058376 0.02714056831310026 0.02350371899028353
-0.016715623152608494 0.027041156165052427 0.023653270760743805
-0.018800857174514074 0.026945339671682736 0.02377002995750055
-0.020840002694237914 0.026852525103105013 0.02386019967237224
-0.022820021720787176 0.02676370075742523 0.023912481285561726
-0.024711411155745377 0.02668108958361384 0.023901672261891604
-0.02651716970330803 0.02660450844211721 0.023829171938930804
-0.028241113053042555 0.026533711491138246 0.023697108653987442
-0.029896601185506577 0.026467735364528528 0.02351572028107468
-0.03150332422129054 0.026405132736046937 0.023300842397654842
-0.03311397213929401 0.026341959234398513 0.02309678876883431
-0.033966844946876296 0.026335680153261633 0.02225087960080946
-0.0342948859435796 0.026369058546934766 0.02095356367582979
-0.03435559699641039 0.026422843695811007 0.01942070493963094
-0.034436720337023496 0.026475317226011565 0.0178991360713342
-0.03451816652700013 0.026527999586904494 0.01637151176361956
-0.034571993239444265 0.02658302387550046 0.014813209306905162
-0.03463762963226802 0.02663739104449532 0.013258676343382014
-0.0346870909077619 0.02669324118085248 0.011683150969888367
-0.034749359725488316 0.02674835831619628 0.010112266402221293
-0.03480508906862134 0.026804226753336498 0.008528774089425428
-0.03485910585369556 0.026860479180449925 0.006936895687249589
-0.03490457621623361 0.026917646617845795 0.005330355913331142
-0.03504496655463174 0.026967716789976906 0.003803417258506192
0.0006422802849817 0.02488793899988562 0.07062721719213033
9.768590450903725e-05 0.024902056510591585 0.06957658677595252
0.0025006403999693894 0.025108197234311284 0.06657612410478725
0.0020144892872250852 0.025126624978304708 0.06547252821532784
0.0015360553121633869 0.025145631098267954 0.0643616758904797
0.0010568970013072887 0.02516466599297069 0.0632491417659623
0.0005517448705762984 0.025182070865256503 0.062151999508818945
9.534841138936212e-05 0.025202753139890215 0.06101972802926736
-0.0003239234472667829 0.0252259659800936 0.05985971161093662
-0.0007029359955394998 0.02525193177947605 0.058669359508898955
-0.0010174781823185097 0.02528226963198765 0.057431466122615016
-0.001315928026800639 0.02531379785407995 0.05617888778065094
-0.001594050003892511 0.02534680517019081 0.05490845869101241
-0.0018370479557786035 0.025382285868058473 0.0536095272075246
-0.0020606749875441976 0.025419203995055203 0.05229278979382446
-0.0022775589090324178 0.02545672407650157 0.05096696439490789
-0.0024485551065753786 0.025497472405776947 0.04960399021106976
-0.0025332562805451264 0.025544181634316668 0.0481742856302278
-0.0025683941717216108 0.025594417516951115 0.046703323706751065
-0.00259410073903088 0.025645496500886236 0.04521961745644687
-0.0024632329580333012 0.025707363560777942 0.0436156152410786
-0.0023841167046654843 0.02576598385237116 0.04204230046341606
-0.0020869816120381857 0.02583963624206823 0.040301184508377275
-0.0017676838503967174 0.025915101580493306 0.03853490709879731
-0.0013686738380858099 0.02599631119397187 0.03670021667082507
-0.0011245453538911154 0.026067288358452203 0.03497203342394695
-0.0009171798554961641 0.026136048132155427 0.033263117025656985
0.00975210255433534 0.026978797472618478 0.0220041440306481
0.007632882660408569 0.02688976761202792 0.02201123492219531
0.005513984228020186 0.02680038398093041 0.022028772809825237
0.0033641303701172354 0.026708482357352292 0.022081050099022836
0.0011977607249186728 0.026615046963248554 0.022157276606691922
-0.0009678614601862923 0.026521266393607888 0.0222442132901452
-0.0031521953195618457 0.026425784762296414 0.022357241254067517
-0.005350121547142095 0.026328948065966685 0.022492618703133016
-0.007577082703780158 0.026229668750119065 0.022662880138380526
-0.009854268623854634 0.02612644755629772 0.022885422683510792
-0.012142004759778724 0.026022042770156552 0.02312906223670841
-0.014382371497799085 0.02592051930570937 0.02334718798289126
-0.016569231554930397 0.025822328274229103 0.023534281054155004
-0.018684423923710558 0.025728773777665262 0.02367488643008414
-0.02074891740261242 0.0256384019668864 0.023785372872084265
-0.022731740992887106 0.025553430173302798 0.02383957259951086
-0.024638790757864293 0.02547347455723173 0.02384137824480914
-0.02645104548431909 0.025399922883828373 0.02377397993018021
-0.0281833213465007 0.025331759415155714 0.023648615652077487
-0.029850894012628415 0.025267926640787038 0.0234771641270915
-0.03147048893592741 0.02520725381273616 0.023272997613051294
-0.033071774166954504 0.025147629820323345 0.023060814967447163
-0.033798443703712766 0.025150731864458386 0.02210655853771676
-0.03413504781746124 0.025182001783673906 0.020815857787407244
-0.034190663809712474 0.02523373626358329 0.019277859640873696
-0.034273419993656795 0.02528373273066525 0.017756959228315328
-0.03431413999116284 0.025337005919934354 0.01619294097227747
-0.03439651654086329 0.02538748310321776 0.014658817806957769
-0.034453128850926884 0.02544006620028569 0.013095491242557933
-0.03452934172998107 0.025491451025161885 0.011542893502039964
-0.034570940643389 0.02554560407833259 0.009952797849962447
-0.034643821561882004 0.02559770221756077 0.00838387896166054
-0.03467025540014723 0.025653455698983283 0.0067663281282405174
-0.034729010836032026 0.025707075481916357 0.005170956345428301
-0.03481440920431622 0.025758967156281447 0.003592993155492441
0.0008703304557169389 0.023716887990794074 0.07047816152978148
0.00036302329646903386 0.023732669457556144 0.06940218569042067
0.002856504300992213 0.02393464172698682 0.0663409099889915
0.0023712219265506485 0.02395229004166117 0.06523541971348124
0.0018905026772692013 0.023970293168280768 0.064124769362918
0.0013963964881601454 0.023987533166295746 0.06302095965096882
0.00086045099010712 0.024002226453557866 0.0619433577780118
0.00040288660041315483 0.0240218895515228 0.06081071914317593
-8.007449559865876e-06 0.024044561828330147 0.05964381619404974
-0.00039965489830379175 0.024068536468753027 0.05846094898530335
-0.0007056477030464858 0.02409800718981872 0.0572159936485645
-0.001003952290579535 0.02412808314050887 0.05596212262645761
-0.0012723955416895638 0.024160171305700095 0.054683734321379074
-0.0015373290891616542 0.02419261284866903 0.05339897336088517
-0.0017659813379426459 0.024227492454132374 0.05208462609522374
-0.0019751916269875047 0.024263752820064575 0.050752205683367524
-0.0020992250701716286 0.024305596794484942 0.04935451327837559
-0.0021780572492108297 0.024350502831187844 0.0479192261603269
-0.002241235159649968 0.02439659677322895 0.046467112464342375
-0.0022311565004530798 0.024447584162468488 0.04495613578931301
-0.0021345381439895617 0.02450434992114345 0.043375693815089156
-0.0019689219585908857 0.02456579907530786 0.04173758771509323
-0.0017143503327318732 0.02463325009849349 0.04002621937721734
-0.0013289010945554125 0.02470945434377184 0.03820936707010836
-0.0009031235567854012 0.02478859250185577 0.036352940488731444
-0.0006835258353398155 0.02485465823036729 0.03464127048370497
-0.00045620807394092244 0.02492150350340028 0.03291551595054176
0.009705911033737802 0.025691071123297462 0.02203935321699102
0.007634027565459056 0.025609377541624546 0.02201035751235325
0.005542358968704031 0.02552603924662448 0.022006910225468357
0.0034620090061320274 0.025443093426651624 0.022005228772821517
0.001372822906443194 0.025359212932691555 0.022020935436421418
-0.0007601306070277869 0.025272082432833107 0.022081559465312706
-0.0029058668356692907 0.02518373398605012 0.022163329595040804
-0.00509200862730147 0.02509232580217975 0.022288340278172614
-0.0073257590089439995 0.024997358991167822 0.022462909075410487
-0.009594812427751898 0.02489963119200649 0.0226778757797641
-0.011898863130600013 0.02479914504708363 0.022933525845745206
-0.014169795524427764 0.024700444151885576 0.023175319551267615
-0.01639588468437103 0.02460432691888645 0.023393381620081588
-0.018550535864602313 0.024512598735840024 0.023565479691591618
-0.0206365157604666 0.024425101648110494 0.02369303463526473
-0.022634381403023984 0.024343176529277876 0.023759165924801373
-0.024561163823149768 0.02426570684655461 0.023776927486285293
-0.02637995927323189 0.024195225357538323 0.02371464628746417
-0.028124530807089543 0.02412948232416199 0.023599284529836062
-0.029798364779367315 0.02406827132100117 0.023432853243728957
-0.03142702103660555 0.024009876746777938 0.023236136222008097
-0.03305067136383005 0.02395156788501436 0.023042824812797014
-0.03364712684275617 0.023963456711313905 0.021976878911682707
-0.03393384567586949 0.023996689681360702 0.020642515417015006
-0.034028455312752726 0.02404330484083557 0.019137374140817176
-0.034089764640020614 0.024092426144221354 0.01759706037051023
-0.03415999944817766 0.02414114830226175 0.0160580320565043
-0.034243070759206296 0.02418919740121802 0.014523809999185011
-0.03430325938315826 0.024239051729905182 0.012962936442353246
-0.03437144960895344 0.024288571876213954 0.011402508940927925
-0.03445836506567074 0.02433700685807846 0.009852179327620447
-0.034486295936202005 0.024389787318065594 0.008242345827549069
-0.034504599386692425 0.024443480948934556 0.006616709520928465
-0.03451907552070005 0.02449768622722557 0.004980351577489217
-0.03458158835839403 0.024548752643069268 0.0033805032149243353
0.00120612988036356 0.022550752000512347 0.07025867997668417
0.0009961114774221236 0.022583266496802066 0.06898606919368411
0.0032193793149589145 0.022759292056358835 0.06610106176243852
0.0027519015240967115 0.022777151897004334 0.06498239445280318
0.002219160241819673 0.022791222183315713 0.06390510029484264
0.0017037279511735726 0.022806374973991322 0.06281439809211492
0.0011960600220782824 0.02282204985673595 0.061716533478540836
0.0007531536793097815 0.022841642360973753 0.06057267087922835
0.00032743346225111436 0.02286233887778487 0.059414577548264014
-4.521824843473077e-05 0.022886290395284514 0.058217385082198425
-0.0003669042732054595 0.022913390778528823 0.05698192453169493
-0.0006523694560397475 0.022942774490093756 0.05571783790013923
-0.0009121323775000412 0.0229738230484676 0.05443203592453383
-0.0011599005244546934 0.02300572081061416 0.053133828103171965
-0.0013712872742071003 0.023039945179498474 0.0518058247833052
-0.0015769423203487176 0.0230746563566382 0.05046934601883246
-0.001713158883381194 0.023113719035396163 0.049078800920260124
-0.0017956108217477285 0.02315620799105842 0.047644601022167665
-0.0018272326265804106 0.023201965777545283 0.04616819955322482
-0.0017906505024086194 0.0232520722920987 0.044636347671992316
-0.0016832605395060152 0.02330671365610226 0.04304629656950193
-0.0015098717053999011 0.02336562353376743 0.04140068927022955
-0.0012170916021713163 0.02343210530562732 0.03965929147915265
-0.0008360906694495629 0.02350428926447836 0.037843743039101096
-0.0003527461287163858 0.023583081432139552 0.03594238768786867
-0.0001520835851521185 0.023644745368059043 0.03424269084301618
0.00021817653807543191 0.023717163202980902 0.032406988475416953
0.009694364851083603 0.024405800017030434 0.022048154219672045
0.007622578816340597 0.024328195670513107 0.02201913137980349
0.00555257488989741 0.024250374844737875 0.021999038913396718
0.00350702732077246 0.02417375422577645 0.02197035550059001
0.0014687844825823637 0.024097266501353343 0.021946199057165272
-0.0006019712415102352 0.024018411720264983 0.02195772025056264
-0.00270199395591747 0.0239373790587171 0.02200283931101632
-0.004850929608500698 0.023852915419041873 0.02209754300122102
-0.007063336385793262 0.023764078578509533 0.022254106913190796
-0.009327536083108767 0.023671580174131977 0.02246407330131628
-0.011639582317679087 0.023575647134373563 0.022725010197578277
-0.013925656283823307 0.023480953441253827 0.022977932105663956
-0.01617690324991644 0.0233880716438857 0.023215389596991265
-0.018374594417268297 0.023298210119525726 0.02342170899204843
-0.02049566215285209 0.023212865534915434 0.023577323035963438
-0.022526923689373146 0.023132913243476952 0.023670419480422367
-0.024471552485804737 0.0230581843570962 0.023702526523713963
-0.02630983260936648 0.02298998372767486 0.02365611355157876
-0.028060819068223608 0.02292712337906317 0.023545824030754336
-0.029750685839505353 0.02286794410420245 0.023392633811387897
-0.03139223897692334 0.022811639360387163 0.023206640545353874
-0.03299790321957213 0.022757420300520033 0.022997839932342723
-0.03344580641273359 0.022778401916624863 0.02180434587132435
-0.03377655492889198 0.022807126906857683 0.020507004180871313
-0.03384014281425668 0.022853464380823155 0.01897428049274097
-0.03393480536658411 0.022897969204252046 0.017462145649331517
-0.03399125212146614 0.022945184282510803 0.015910338799134227
-0.034076926929367535 0.022990684119053792 0.014377629934804737
-0.03413099216318016 0.023038474533949648 0.012810571539308035
-0.034222143960226326 0.023084024516677272 0.011269758757880888
-0.03429228042292953 0.023131172869544716 0.009703735129731106
-0.034329601487646855 0.023180714832663915 0.00810155948687502
-0.0343446406776341 0.02323196475654647 0.0064722366534628595
-0.03436170235482011 0.02328331118840753 0.0048374691105018686
-0.034267080105328473 0.023342365214019205 0.0030934591586355698
0.0014839728210599423 0.02137931894355994 0.07007707930775708
0.0012334051801295431 0.021407893781009293 0.06883010067738732
0.0036232571517147427 0.02158398053435098 0.06583411204377076
0.0031248494423058992 0.02159921534691981 0.06473450818615656
0.002595002624623255 0.02161274907081266 0.06365389370513097
0.002084612493421234 0.02162742975690323 0.06255840053163536
0.0015714117799416338 0.021642011286768847 0.06146284871018853
0.0010575185847084279 0.021656612492061928 0.060365818617905465
0.0006835582968254816 0.02167917875391848 0.059171203612843615
0.0003299750513140465 0.02170298988014137 0.057959557499922765
8.418219046291142e-06 0.021728714286393794 0.056722579562719755
-0.00026731562684301213 0.021757147870227523 0.05545029705331067
-0.0005246996146497929 0.021786742316674802 0.05416135544707201
-0.0007583949136689139 0.021817809439065753 0.05285176861271523
-0.0009747136965033709 0.021849997255811847 0.05152569583307587
-0.0011311039421544322 0.021885751256070764 0.05015268584644644
-0.0012784300145740612 0.02192217242215589 0.04876833570558764
-0.0013601760729005097 0.02196251703772721 0.04733192630624805
-0.0013995154198270243 0.022005473099978693 0.04585938454560201
-0.0012881067748545805 0.022057316937924742 0.04427152287228636
-0.0012480825303174958 0.022105241915114066 0.04272865076536131
-0.0010260311352702223 0.022163926947578686 0.04104559713270095
-0.0006882767930931344 0.022229582849162332 0.03926907830754722
-0.0003040300916889449 0.022298220730017353 0.037448998684536994
0.0001272754494180961 0.02236989231529399 0.035584316674547645
0.0003316336516340779 0.022428585553505995 0.03387990477855646
0.0010708319920011422 0.022518881548016494 0.03176403382103987
0.009682819347326233 0.023120604482323323 0.022056954704868403
0.00759624923987795 0.023046210893209896 0.02203930932339493
0.005527603586225449 0.02297256292688463 0.02201827916792848
0.0035002739049528886 0.022901051239002712 0.021975587009371467
0.0014866430854464374 0.022830049663998746 0.021932290497402807
-0.000526716668862004 0.022758762489801552 0.021898795714841268
-0.0025736392519841167 0.022685170463919987 0.021901797510286314
-0.004642180669359286 0.022609972541028582 0.021932332733845428
-0.0067973135994414124 0.022529267695915053 0.0220424402042651
-0.009050272401254167 0.02244234634181683 0.02224228164802483
-0.011352475769605797 0.022352090089704988 0.022494116876587533
-0.013647737682321692 0.022261863687531733 0.022753233926459615
-0.015927648879430767 0.022172175240032146 0.02301279119052202
-0.018163650167307588 0.022084756913274137 0.023249335723321773
-0.02032324623204468 0.022001594650386317 0.023435682915560974
-0.022406334106870096 0.021922722429744895 0.023570827777670667
-0.024376914121509385 0.021850361521710056 0.02362395180751886
-0.026241654915710788 0.02178414734709433 0.023599207565808744
-0.028001987925511673 0.021724032609641095 0.023496458838296597
-0.02970202058989907 0.02166735249395603 0.02335158238030388
-0.03134875172369017 0.021613699470281376 0.02316976274192123
-0.032914401108567026 0.02156480462925294 0.022926654323410123
-0.0332653797651985 0.021590676491175218 0.021649718951158192
-0.033585505584915853 0.0216185714400196 0.02034240878499377
-0.03365451396440622 0.021662160178652204 0.018813511098504876
-0.03376139593751826 0.021703588851098524 0.017311167368049385
-0.03380399275692242 0.021749205461047114 0.01574644319224383
-0.033900951127937284 0.021791632261578587 0.014222799303974798
-0.03395855465901443 0.02183671058109493 0.012658056025289133
-0.03402999155057801 0.021881123434508917 0.011098912793436666
-0.03407447964586968 0.02192742904040926 0.009509067753406042
-0.034108432528273946 0.021974606441205042 0.007902844288296518
-0.03415523154806499 0.02202118565443233 0.006301164504693257
-0.03417579953533434 0.0220696348279594 0.004668683960126985
0.001844932146212508 0.020210534064319073 0.06984115301523047
0.004291983119683651 0.020379501041996234 0.06681975713363802
0.004033297474223596 0.02040648880719991 0.0655630891284868
0.003504894793463109 0.02041933585804939 0.06448190448828073
0.0029726408865320963 0.020432030476216684 0.06340148678068797
0.0024927827757564858 0.020447555063227357 0.062284063862781736
0.001965525835388504 0.02046062297780152 0.06119648327892063
0.0014958898954807731 0.02047681201988404 0.060067893018324436
0.0011102983473377237 0.02049755104989143 0.058879571591114954
0.0007440677802633688 0.020519409138762025 0.05767499877455523
0.0004290180935893062 0.02054409789646579 0.056431948269189014
0.00014610355919214557 0.0205706120801046 0.05516304755534368
-6.851410380676048e-05 0.020600908140145938 0.053842640759708627
-0.00031778202412241496 0.02062945989599903 0.05254223608371528
-0.0005571043355559469 0.020658665484082198 0.05123070776915706
-0.0007215022330691045 0.02069204589980144 0.049861763049862784
-0.0008299097309480419 0.02072859992129584 0.048448021238036876
-0.0009312233518470325 0.020765689709549475 0.04702390617107638
-0.0009397982953250339 0.020807982739459913 0.045527465359125885
-0.0007906771508359167 0.02085905606197195 0.04391041068840995
-0.0007150867040440212 0.020906319593135866 0.04233960562919753
-0.0005118184375683121 0.02096077546050993 0.04066821479388133
-0.0001861694427732763 0.021022177591469043 0.03889857260632401
0.00028066443915980566 0.021091604059594832 0.03701520434824451
0.0006401905210959291 0.021155403001627725 0.03520170883392293
0.0009788601221825677 0.02121831608849074 0.033394487418562324
0.0020963864449589087 0.02132461912614309 0.030990702687332228
0.00964934122512201 0.021834264924763612 0.022082473185919715
0.007565345135099988 0.02176414381901992 0.022062993004134723
0.005496961372474796 0.021694598394387997 0.02204188882802971
0.0034631343360680966 0.021626692383123914 0.022004357040116163
0.0014620879340923043 0.021560336617230325 0.021951414434067118
-0.0005289304614279899 0.021494262391549213 0.02190052912046092
-0.002525346686908958 0.02142760280175591 0.021863781235171076
-0.004532277501620663 0.021360065336474266 0.021845352020064546
-0.0065967401283758 0.021288985274582 0.02188284964023679
-0.00877687203360683 0.021211044792556595 0.0220235803772873
-0.011057518891189944 0.021127060433771997 0.022256910258823148
-0.013368353063931415 0.02104099628055363 0.022527350467379137
-0.015678055565090554 0.020954625422382293 0.02280991728443099
-0.01794733274639182 0.02087019216566481 0.02307257176349492
-0.0201537131857476 0.02078899650608278 0.023296411083950197
-0.022257495799035798 0.020713338970677987 0.02344790621011711
-0.024253310962643493 0.020643564674631805 0.023521328699004473
-0.026147744423576647 0.020579332331070063 0.023520823143536707
-0.027925478279266613 0.020521563514220565 0.023432259619351414
-0.02964263082541324 0.020467050427038787 0.023301484315594312
-0.03130622045207038 0.020415407122547163 0.023133695624365513
-0.032798199728732824 0.020373519689866115 0.022827592564578725
-0.03311456154605141 0.020399987325930256 0.021520466664701365
-0.03339617034274017 0.02042860252583251 0.02017929014511316
-0.033492769555723834 0.020468178464832718 0.018673427535923492
-0.03356079701895992 0.020509606902462587 0.017136516657795864
-0.033648434149806894 0.020550066181583542 0.015610293139709297
-0.03371027167972884 0.020592226735203636 0.014055031809737106
-0.03379370794640357 0.02063329955201045 0.012512254326118133
-0.03384929178755092 0.020676205566521694 0.010938249571228353
-0.03387588852699985 0.02072102446020674 0.009331569708662057
-0.03389869645371135 0.02076627031618585 0.007714401272495508
-0.0339450788226745 0.020810314754924487 0.006111356978603377
-0.03397009721848698 0.02085583470018774 0.0044819224221493426
0.0021855867582584176 0.019038515637369392 0.06961849806756265
0.004722859718328365 0.01920204488187501 0.06653655036063544
0.004488971576044276 0.01922871814708876 0.06526190381398111
0.003913373630162309 0.019238508096750963 0.06421040198380307
0.0034201856114644547 0.019252442872416856 0.06310235557772181
0.00291564597544941 0.019265866871670333 0.06199985188899265
0.0023955210474437827 0.019278565247201496 0.060905867254144874
0.0019650153358658495 0.019295806533035836 0.059749066318969535
0.0015560511186255566 0.019314199243465748 0.0585749463708532
0.001197309839814087 0.01933519370684273 0.05736353717735232
0.0008781811736468526 0.01935827070677283 0.05612158001930495
0.0005806241715740623 0.019382531359476114 0.054861136487886875
0.000402602444036837 0.01941294282214777 0.053513494481081225
0.00013769842575855895 0.01943907040424482 0.052222259026968754
-4.0473743636304516e-05 0.019469713912457685 0.050865773760671584
-0.00023522549855753416 0.01949963826164482 0.04951638122068647
-0.0003364948429036563 0.019534457218064974 0.04809564491768897
-0.0004274161436500501 0.019569948584385082 0.04666213491575444
-0.0003952614150745104 0.019611894490376935 0.045134305677517805
-0.00032961437952511163 0.019655733721074865 0.04357569925142907
-0.0001428283526154761 0.019705989009546065 0.04192190193007295
0.00010013631774974385 0.019759349938870994 0.040219099247248924
0.0004759385956764062 0.019819797711265658 0.03841000217827706
0.0009031805653094138 0.019883161034182396 0.03655334955821865
0.0013287762241967482 0.019946703134011753 0.03468805988208645
0.0016513918443721298 0.0200051552170145 0.032890091217305406
0.009625102010017705 0.02054862787562213 0.0221009493700845
0.007539023272951972 0.020482519646218132 0.022083165035781283
0.00545951634070474 0.020416477641360283 0.022070740022651747
0.0034192513189634788 0.020352222876431268 0.02203835085827771
0.0014230293835724162 0.020290020113409336 0.02198183384527619
-0.0005488534411274282 0.0202288402983474 0.02191612886792693
-0.002530835095856887 0.020166864680601575 0.02186810175250503
-0.004500709348041032 0.020105267655540167 0.02182036802199061
-0.0064866574024498025 0.020042551599069577 0.021795259969344782
-0.008542669103110745 0.019975829341451697 0.021836234328886817
-0.010750436273231856 0.019900708033111704 0.022009952026923907
-0.01305603101772973 0.019820022497320625 0.022274836980596624
-0.015387645058955901 0.019737591978098698 0.022573866435452228
-0.01768556392392423 0.019656618044700827 0.022858667153211054
-0.019941319668113522 0.019577566760263797 0.023121929265394747
-0.02209745822594772 0.019503555333934934 0.023315735469682852
-0.024135609462807572 0.019435611500699473 0.023423605518619828
-0.02605378448086637 0.019373882893937072 0.02344239744627241
-0.027857769175040903 0.019318095551109433 0.023375444932313916
-0.0295832210918619 0.019266344773562642 0.02325136940603706
-0.03127141448635751 0.019216402296444175 0.023104179675060565
-0.03269057266332531 0.01918097003297282 0.022735840414885244
-0.032990543467737665 0.019206793140098124 0.02141418228954639
-0.03322203163633636 0.019236496401686926 0.020029263828761468
-0.033292306959177675 0.019275216378237592 0.01849981093354902
-0.03336479787825397 0.019313985819081527 0.01696587072720268
-0.033457903615277285 0.019351786478284234 0.015443534496348665
-0.033535864611047295 0.0193905959298067 0.013901581413457098
-0.033603456039150215 0.01943015540105152 0.012343982536473452
-0.03366159356954468 0.01947041889810881 0.010771363904072684
-0.03371119813673107 0.019511339720168254 0.009184371674695602
-0.03375515031336612 0.019552761041311335 0.007585428382878623
-0.03377383727560285 0.019595786691304486 0.005956693581528394
-0.03378966330703076 0.019639167633986168 0.004318102610475105
0.002525793994184622 0.017864371916490422 0.06939613552898893
0.005346932231032386 0.01803089101412507 0.06612635968655739
0.004908328526443462 0.01804643164291047 0.06498472291980373
0.004385687368671676 0.018058117145442275 0.06389647051077818
0.0038687693594925965 0.018070116729460264 0.06280252990957425
0.0033852801287848067 0.018083728897911003 0.061684204535959464
0.002889339664310042 0.018096811889852113 0.060572115623032496
0.0024395479699277356 0.018112116011536474 0.059426564786479674
0.002031597240504057 0.018129451883179045 0.058249960523421795
0.0016750601359681316 0.018149283447370042 0.05703523386311038
0.0013486450363657254 0.01817061933849219 0.05579649309166379
0.0011024983521782938 0.018195844134179677 0.0544985309256773
0.000855667307015584 0.018221139062297685 0.05319696003900137
0.0006391261904217238 0.018247977773186607 0.05187000377572831
