# .PCD v0.7 - Point Cloud Data file format
VERSION 0.7
FIELDS x y z
SIZE 4 4 4
TYPE F F F
COUNT 1 1 1
WIDTH 766
HEIGHT 1
VIEWPOINT 0 0 0 1 0 0 0
POINTS 766
DATA ascii
0.030460900733243257 -0.06347243382685518 0.039369294547789424
0.03204359104002852 -0.06332320067378629 0.039134072850596446
0.03360762914122756 -0.06317669760552715 0.03889087726411217
0.035149577047373426 -0.06303356524167628 0.038636717898419326
0.036673474997656774 -0.06289309177731932 0.038374654427952126
0.03819059588475704 -0.06275324302510263 0.0381137564033891
0.03965177616966442 -0.06262298936930144 0.03781337596541334
0.04065528897053544 -0.06257581871899404 0.037139281382404354
0.04113356375800542 -0.06262465160753429 0.03602906119136151
0.04128396124607808 -0.06273388730179608 0.03464135827358694
0.04137664325108531 -0.0628542196372173 0.03319967668752599
0.04146785813810755 -0.06297535067606115 0.03175090754921073
0.04155120629807718 -0.06309846823577421 0.030289536881071555
0.04162390295696422 -0.06322410117052103 0.028813032773903458
0.04167672560606017 -0.06335397785639515 0.027313265291463162
0.041724255550139755 -0.06348541418947178 0.02580255115033564
0.04176002065497253 -0.0636196271170298 0.024275140543947304
0.04177749481846005 -0.06375785449578579 0.022725116662601574
0.041782106708067146 -0.06389910662213562 0.021156958888548683
0.041775623788162686 -0.06404307206078295 0.019572006224937377
0.041759827200366084 -0.06418943401464085 0.017971640692087842
0.041729998160383475 -0.06433909818411498 0.016351466222989608
0.04168790068900602 -0.06449175355535743 0.014712821262236109
0.04163344274997127 -0.06464743778443661 0.013055398908142779
0.041570280398099735 -0.06480547750308104 0.011382291466557004
0.04150116616494243 -0.064965365115581 0.009695834091100919
0.04142228061679604 -0.06512784139841168 0.007992383451450091
0.041385544095106586 -0.06528300261139965 0.00631962762330851
0.04091214349435929 -0.06552250322319006 0.0042342273848522405
-0.037847400789899066 -0.06959445361243281 0.038521755448014616
-0.03482078227172186 -0.06923282105489867 0.038990970866637054
-0.03195135176132702 -0.06889582924037534 0.03936977360692023
-0.02917196246652537 -0.06857245680275917 0.039702370317588276
-0.026447507649603075 -0.0682569341948517 0.04001195478598385
-0.023779044222192847 -0.06794948566286303 0.04029725896357328
-0.021205362488724733 -0.06765665281280071 0.04053077658340498
-0.018692334554778922 -0.06737280113548756 0.040735345870303696
-0.016266246741120927 -0.06710240309303374 0.04089188157412155
-0.013898505530849092 -0.06684072602022154 0.04101965225646026
-0.011549159393766495 -0.0665810819267313 0.04114643028335174
-0.009271927378113887 -0.06633256661194924 0.0412337107753874
-0.007038348504789238 -0.06609042635912667 0.04130115753222302
-0.00483204672237475 -0.06585192013878746 0.04136015028506501
-0.0026798639077778574 -0.06562163720406383 0.04139094944124122
-0.0005578460557828513 -0.0653955447097607 0.04141046458444175
0.0015334947049811531 -0.06517375619558514 0.04141802626496294
0.003585154142707103 -0.06495783995230203 0.04140668806986708
0.005605325520751658 -0.06474642706677751 0.04138211557003679
0.0075809992381680735 -0.06454178217599668 0.04133428678853157
0.009523468327534479 -0.0643420022689577 0.041271193304112774
0.011443656437580885 -0.06414523216401666 0.041200727793854586
0.013342947415038997 -0.06395125141203668 0.04112372588092622
0.015198377306561262 -0.06376405851993926 0.04102248513313972
0.01702086910017303 -0.06358179884873262 0.040904892898376455
0.01882399758473291 -0.06340214045255256 0.040781056271593064
0.02058925747650331 -0.06322832818643138 0.04063645409210376
0.02233111470840793 -0.0630578702282166 0.04048193350170759
0.024035332026624667 -0.06289328227804426 0.04030610568500903
0.02571325324709922 -0.06273261020350304 0.04011747792257847
0.027358596421965142 -0.06257698434530684 0.03991079593341457
0.028979571720335662 -0.062424989454937234 0.03969222741753253
0.030586057043305637 -0.06227490346674674 0.03946941088737965
0.03216506861256896 -0.0621290378193247 0.03923176606009643
0.033718935443385556 -0.06198700645747634 0.038980868805857605
0.03525363935224851 -0.06184777037477454 0.03872130159939968
0.0367648548312276 -0.061712118616180145 0.03844932553470776
0.03826487178570859 -0.061577879347576574 0.038174774246199195
0.039692784355035815 -0.06145596391638182 0.03784724352613561
0.04065074864161733 -0.06141782174823618 0.03713551171606627
0.041071843103140326 -0.06147603201127169 0.0359775447125964
0.041230340956653344 -0.06158180959867454 0.034596365506404936
0.04128195913530197 -0.06170734952673625 0.033119806174474575
0.041376665543658764 -0.061825643080951086 0.031673574944307725
0.04146077139841442 -0.06194637956727077 0.030212441064884854
0.04153696860446454 -0.06206908585510329 0.028738529415517633
0.041599713584459186 -0.06219478483858772 0.027246916860639292
0.04165811961425431 -0.06232183261309127 0.025745272153250287
0.04170755995019454 -0.062451084723255376 0.0242294658243839
0.04172031045314195 -0.06258763990456966 0.022675067009377103
0.04174143686457693 -0.0627232644563216 0.021121175914570633
0.04173115538695027 -0.06286528025481383 0.01953267533168812
0.0417087540247143 -0.06301016945460351 0.0179262306659142
0.041684387256407274 -0.06315607256581532 0.01631069981651151
0.04162630935089262 -0.0633088833974314 0.01465748286837365
0.04157450015025971 -0.06346121803821768 0.013002162629565994
0.04151962652187913 -0.0636148118287252 0.01133630172773209
0.041440029229769526 -0.06377371712210884 0.009640035892834131
0.041370409415728726 -0.06393147664195571 0.007944794131356958
0.04129666110820179 -0.06409072814874196 0.0062376553493427855
-0.03751625994239255 -0.06822762684501907 0.038744319610468037
-0.03458480361670346 -0.06788817960220953 0.039150459104484114
-0.03173910028406246 -0.06756133384941163 0.03951402380548957
-0.028964560434770692 -0.06724478455121684 0.03984410783146497
-0.02623518951438597 -0.06693434272861155 0.04015785683570855
-0.023563097043656167 -0.06663203003201199 0.04044647681082203
-0.020977548688852488 -0.06634270181822594 0.040689064833814514
-0.018480896480725206 -0.06606682434362911 0.04088306739601416
-0.016054616961779844 -0.06580142562972992 0.041040552442281
-0.013680939287470495 -0.06554363376617284 0.04117333522171451
-0.011348453640817102 -0.06529160645810353 0.04128898310391699
-0.009083228179974867 -0.06504970383823305 0.04136847186732845
-0.00684695949349351 -0.06481162078691498 0.04143858915635373
-0.00465454801715709 -0.06457986303977101 0.041488305671706804
-0.002498507052664689 -0.06435322003152447 0.04152260659805018
-0.000379190343749114 -0.06413178266006264 0.04154086923751482
0.001706283142980547 -0.06391510037241538 0.041544836250684114
0.003751126977094177 -0.06370434267117678 0.04152915965159043
0.005761442547858486 -0.0634985195829538 0.041497941319354914
0.007730580424961553 -0.06329878350270339 0.041445866537377585
0.00967699999848104 -0.06310205261413553 0.041386341465965926
0.011586675437536942 -0.06291072137354553 0.04130857291612844
0.01347460329417799 -0.062722278444466 0.04122353998512929
0.01533303759476451 -0.06253805951102367 0.0411251290625666
0.017166529574990763 -0.062357315548236925 0.04101652131171413
0.01895159169469668 -0.06218408029119397 0.040879366843788456
0.02070896250347143 -0.06201485171536394 0.040729183151960335
0.022433235973584154 -0.06185058258400023 0.040561467143310714
0.02413573109608197 -0.061689358877790555 0.04038471843034058
0.025817764986137248 -0.06153097316846664 0.04019975035970946
0.027464290043313744 -0.061378041209565 0.03999444508399086
0.029095020376375902 -0.061227187571151566 0.03978408660527
0.03068649704239257 -0.061082492561811925 0.03954975589796689
0.032260120283649274 -0.06094027785138951 0.03930820735392526
0.03381521895556022 -0.060800676307896144 0.039058714368393366
0.035339072539591176 -0.060665924395599556 0.0387907432207501
0.0368506525800516 -0.060532736133810626 0.03851943523628498
0.038345530335125055 -0.06040189778658392 0.0382410354510655
0.03973742657409485 -0.060288577243581394 0.03788411233783906
0.04063349429337032 -0.06026203176953765 0.03712118607205567
0.04105368572810858 -0.06031930963075818 0.035962389267027994
0.04118215922920937 -0.06042840593548114 0.034555936234788365
0.04123095363939161 -0.06055209609973673 0.033076780635363845
0.041348385950919164 -0.06066414255122848 0.03164959345123397
0.041435185160572874 -0.06078213277814146 0.030190628778954343
0.041506759993850395 -0.06090335820935591 0.028712640421371893
0.04156761498511091 -0.06102703520711565 0.027219262844368486
0.04162963652535273 -0.06115105093747742 0.025720603525758556
0.041661528506739154 -0.06128102592861794 0.024189388717531846
0.0416695663429148 -0.0614158708744016 0.022630654081019386
0.04167209091784013 -0.06155231110888787 0.02106016254459875
0.04165979644731521 -0.06169203909274758 0.01946956060840943
0.04163536761792885 -0.06183459063861301 0.01786098156772542
0.041608031527631206 -0.06197830972196147 0.01624245410320929
0.041557225958630095 -0.06212694535867515 0.01459541303700651
0.04149868689396158 -0.06227766130071357 0.012933688967870616
0.041442678928085896 -0.06242859564466543 0.011266439359720104
0.04138169359917565 -0.0625811252612822 0.009586794377329788
0.04130531235379059 -0.0627371737956909 0.007885070723108234
0.041273014229496696 -0.06288582042722397 0.006215847031607824
-0.037220948411072374 -0.06686856749626756 0.03894280241355924
-0.034371528673596274 -0.06654863344955109 0.03929460284007097
-0.03153076223922008 -0.06622879343909255 0.039655614359889346
-0.02874762186881835 -0.06591688768540563 0.03999236256523947
-0.0260387502621498 -0.06561563389130298 0.040292847139378696
-0.023380734788953528 -0.06532133367001652 0.04057248773280103
-0.02080420467702382 -0.0650389624100753 0.0408095067050564
-0.018309339774201128 -0.06476862192791746 0.04100292574483344
-0.015877852697583072 -0.06450742847409312 0.04116473012984245
-0.013488763513295532 -0.06425203843025401 0.04130908303978875
-0.011166068031983112 -0.06400638375030387 0.04141852389977224
-0.008892467261585157 -0.06376770964096935 0.041504705353826554
-0.006666869424819588 -0.06353588113001998 0.041567907294631945
-0.004486019611518177 -0.06331040872468965 0.04160998443526903
-0.002350052583863893 -0.06309135383347779 0.04163037805927072
-0.00023097837115876318 -0.06287416440193114 0.04164905234930516
0.0018467595286999483 -0.06266287038430249 0.041647932318184255
0.0038978281115140123 -0.062455092333034506 0.04163741061952353
0.005894251242324122 -0.06225547043389983 0.04159647423941826
0.007862280489011775 -0.06205971311455161 0.041544107903051575
0.009795174849773935 -0.06186896203746346 0.041474972149262435
0.01171005655728874 -0.06168040439232837 0.041401609868911005
0.013596989718074992 -0.06149570794560894 0.041316326508205825
0.015465576565594108 -0.06131329527217355 0.04122615603161345
0.017276953309388776 -0.061139677458727754 0.041101145684119156
0.01907610906247198 -0.060967373744427344 0.04097530680275463
0.02082858848375324 -0.06080217655813095 0.04082185097859137
0.022549034327667472 -0.06064166778288463 0.04065165271608051
0.024251656239283048 -0.06048348176562977 0.04047548813377755
0.025912546817046744 -0.06033167236520361 0.040274363339040276
0.027560320656369874 -0.06018143581132724 0.04007044663554127
0.029175122283205124 -0.06003615101160508 0.03984782139742715
0.030764156645387508 -0.05989462473992249 0.039611878176755766
0.03233443174195211 -0.05975568707904189 0.03936796920718272
0.033878755685533446 -0.05962058284695079 0.03911008404088179
0.035405904021044265 -0.059487835082908794 0.038845065043143834
0.03691612547135753 -0.05935741641157661 0.03857293646369214
0.03840233529088377 -0.05923055963938753 0.038287700867666474
0.03975017936157782 -0.059126984920043625 0.03789464452307345
0.0406253205740294 -0.05910455749074985 0.03711439973670155
0.04101373271464487 -0.059166234634324986 0.03592904162069782
0.04112759748092132 -0.05927578081727589 0.03451015348978442
0.04119815635132135 -0.059393331376380636 0.03304911457751247
0.0413246639726616 -0.059501655262446836 0.03162947687945317
0.041417820887362566 -0.059616275995678716 0.03017582572371097
0.04148661795067121 -0.05973566268965623 0.028695378547113293
0.041553856594850835 -0.059855850078831374 0.027207409531269544
0.041607581837041385 -0.059978943705952664 0.02570150240606328
0.04163942900338169 -0.060106435666446086 0.024170147866258207
0.0416557244212154 -0.0602372389681456 0.02261853917203749
0.04165451880379273 -0.06037172049008118 0.021044701887617145
0.04164218380696172 -0.060508775522965935 0.01945398278553534
0.0416130667629917 -0.06064942551765711 0.01784115349959642
0.04156984085144699 -0.06079321873439715 0.01620831979554882
0.04150959815480609 -0.06094069527979855 0.014552620555992934
0.04145468104905631 -0.06108788422399068 0.012893943394552687
0.041391048305104594 -0.06123730050446832 0.011219562811596973
0.041315806838282065 -0.0613894790103838 0.00952666112830286
0.04123735853158189 -0.06154292567685539 0.007822726375375733
0.04120583924556592 -0.061688600992367365 0.006153894948558225
-0.03698524958015237 -0.06552065038520488 0.039101218728821996
-0.034142283025606956 -0.06520792437948367 0.03944954051623101
-0.031325095230491706 -0.06489797663966124 0.039795389626618105
-0.028554032762517945 -0.06459401723384767 0.040124660394766476
-0.02584610977326529 -0.06429875813254807 0.04042522698606238
-0.02320210700178671 -0.06401237523885196 0.04069591816630086
-0.020622765663949383 -0.06373503964345496 0.04093557309766166
-0.018125108889999242 -0.06346949995233625 0.04113163892678562
-0.015697783619745276 -0.06321402835061828 0.04129122946379332
-0.013325331957100894 -0.06296623078855437 0.0414245267124011
-0.01101439741282867 -0.06272721197076617 0.04152624913554459
-0.008742233537459676 -0.062493397442301764 0.041611996009585484
-0.006528024714178182 -0.062267885825509066 0.04166760818109472
-0.004362745270562962 -0.06204928272696624 0.04169898942721395
-0.0022082544150167638 -0.06183150911524319 0.04173331733741098
-9.36871020607577e-05 -0.06161925611764581 0.041749264204346825
0.001980705415007944 -0.061412598544337255 0.04174623563133867
0.0040284878491022025 -0.06120938047923696 0.04173382461877273
0.006024860602050652 -0.06101363698320591 0.04169337543744028
0.007990755708524644 -0.06082202008314848 0.04163994370321783
0.009932950990813039 -0.060633454130669125 0.04157830372437049
0.011839518545793626 -0.06044990083761281 0.04149923217073398
0.013716238457485819 -0.060270448449180086 0.041406734214868623
0.015565676231033387 -0.06009470326261521 0.04130245635097335
0.017378283691500462 -0.05992425353076765 0.04117880127182871
0.019162722892390238 -0.059757710200714916 0.04104204229063663
0.020906648781823634 -0.059597129821738114 0.04088232010203191
0.022629460580334493 -0.05943935082218049 0.040714289941971404
0.02431981252310278 -0.059286266285000215 0.04052885468997797
0.02598118387098891 -0.05913732992219492 0.04032839495077395
0.02761695439108175 -0.058992007297435985 0.04011526829783435
0.02922564411910772 -0.058850567771321416 0.039888020174686234
0.030822852157657232 -0.05871043599108907 0.03965883050249858
0.03239273007824306 -0.05857426793516618 0.03941485318306126
0.03393759996768264 -0.058441700445985546 0.039157659852590954
0.035467143646096155 -0.05831113245189297 0.038894841704728955
0.036994475944558514 -0.05818037181892844 0.03863696061782029
0.03847011024876934 -0.058057755893918206 0.038343378169102604
0.03980482343466729 -0.05795840464407414 0.03793977359783518
0.04059534693058997 -0.05795071719755767 0.037089513734665014
0.04096559509688669 -0.05801427673390654 0.0358888625174712
0.04107483789880417 -0.058122478410871696 0.034465882941820514
0.04115988489243322 -0.05823527568545685 0.033016830798640706
0.041292725338258784 -0.058340408735992104 0.03160239246749691
0.04139040001923161 -0.05845202102309697 0.03015244941415579
0.04146922063764025 -0.05856735836767494 0.028680468926112812
0.04153642770878346 -0.05868520115800726 0.02719239396334211
0.04158552429898854 -0.058806685023393736 0.025682398818264618
0.041632982775859306 -0.058928990821580936 0.024164535481987492
0.04165941571003118 -0.05905547804557423 0.02262176991044218
0.04165451880373283 -0.059187961264795856 0.021044701887564465
0.04160324415212663 -0.05932909557005925 0.019419541893447412
0.04158239832973104 -0.05946556234629369 0.0178138856757476
0.04154189104068973 -0.059606073532957306 0.016183338634313538
0.04149185106602854 -0.05974888444294873 0.014536675206877903
0.041416283709256874 -0.059896815120560505 0.012859263358582562
0.04133188859128367 -0.06004696555699422 0.011165850440687186
0.04126213741520812 -0.06019521669031958 0.009477678347254437
0.04118543115102591 -0.060345368524276834 0.007775085513316904
0.041091297062242405 -0.060499287014645055 0.0060482584982206045
-0.03677120722763577 -0.06417751483970338 0.03924507943726713
-0.03391328905709706 -0.06386868721936728 0.03960430809261373
-0.031095039500603994 -0.06356470482691372 0.039951739938738406
-0.028327800925074975 -0.06326734149297579 0.04027926610391819
-0.02560917025769044 -0.06297626701299039 0.04058804850362985
-0.022990338983703895 -0.06269942496983381 0.0408422482456684
-0.02043560676167977 -0.062431377736486916 0.041065613750183305
-0.017951527067454454 -0.062173195132476655 0.04125291212593235
-0.015516724316353314 -0.06192161631764753 0.041418424435632595
-0.013146055193420214 -0.06167899477428898 0.041551163015054404
-0.010843624803883622 -0.061446025923428536 0.0416475417079929
-0.008578677104939092 -0.061217961136920296 0.04172880118765637
-0.006367088750275862 -0.0609973177040745 0.04178317223960781
-0.004195569776720254 -0.060782055328343056 0.04181969137838687
-0.002068739673416864 -0.06057293394296149 0.04183459894708891
3.378674011250693e-05 -0.06036677852108042 0.041842310107974956
0.0021049230100856353 -0.06016472678262125 0.041837399320532764
0.004128280935671413 -0.05996939812938663 0.04180746207397623
0.006123810655163042 -0.05977767034957471 0.04176678808344825
0.008103490688434467 -0.05958766216125945 0.04172403810716091
0.010038544996395782 -0.05940396741418881 0.04165749882184189
0.01194322846447965 -0.059224350677649494 0.04157743582804624
0.013815044441945867 -0.059049236921664 0.04148164337117277
0.01565359760512125 -0.05887871790735534 0.04136947384690631
0.017467528294328682 -0.05871143495868615 0.041247194797424
0.019233377197826695 -0.05855118430855328 0.04109648105115227
0.020980725531217104 -0.0583932394749886 0.040939703384108406
0.022697108529881327 -0.0582396298146675 0.04076697522515077
0.024389889118672237 -0.05808919035769201 0.0405837248555182
0.026044963671160937 -0.057944230643301564 0.040378602895337734
0.027681245397620347 -0.05780170922419394 0.04016615015823455
0.029296159911883224 -0.057662061401973844 0.03994412757055549
0.030879635645153614 -0.05752695096940544 0.039704253341462714
0.032449129370785645 -0.05739354925060149 0.039460209933174006
0.03400669332093703 -0.05726153057699773 0.03921352207479378
0.03553207118959739 -0.05713423443402635 0.03894761597233232
0.03706542163927068 -0.05700507429688127 0.03869493395106782
0.03855982525590751 -0.05688178595176229 0.03841707927717575
0.03982303425988504 -0.05679622283165841 0.03795481343008522
0.040578995458539935 -0.05679441475508909 0.03707593771520118
0.04092198706887101 -0.05686123938642369 0.03585246413423676
0.0410329825125596 -0.056967000921225044 0.034430762101019086
0.041129808447849414 -0.057075591139752 0.0329914599004727
0.04123978531120953 -0.05718245777733603 0.03155749857868828
0.041345603132899145 -0.0572904919028966 0.030114260036744
0.041437168315702155 -0.05740139740813717 0.02865299985824965
0.04150798728534261 -0.057516286942719715 0.027167891587894233
0.04156530238520978 -0.05763396454727509 0.025664885027541162
0.041598905814597575 -0.05775617556451495 0.02413486650106572
0.04162619123601197 -0.05788000133462147 0.022592690748787114
0.04162676967676299 -0.058008917090064255 0.021020287082808342
0.041601389661206134 -0.0581428294722819 0.019417901654931125
0.04154986518213594 -0.05828180379054163 0.01778495990277673
0.04150554944532825 -0.05842016869041948 0.016150857009977815
0.04145167979042419 -0.05856079394582194 0.014500582244142468
0.04137881456941689 -0.05870531722062431 0.012825421662147174
0.04128304291379459 -0.058854438465236025 0.011121502404207895
0.04121787099689672 -0.05899895319653711 0.009437277460646099
0.041119318932841875 -0.05914989870231299 0.007714430748274048
0.04105152066877121 -0.059296198324092934 0.006011574746509096
-0.03647065754596729 -0.06282275967214697 0.03944708287079052
-0.0336423061518909 -0.06252458099180233 0.03978745425909497
-0.030814889132581513 -0.062225342005759646 0.04014213553332896
-0.028055679575043735 -0.0619351720154982 0.040465232477053026
-0.025383311329659708 -0.0616569391757685 0.04074325559658304
-0.022776415959312957 -0.06138748350737346 0.04099006741789779
-0.020221587482088244 -0.06112482634453288 0.04121431737278852
-0.017747847531345284 -0.06087341730108069 0.041395213137539244
-0.015326616197264109 -0.06062897527160936 0.041551976241040844
-0.012965800199519872 -0.06039274880936589 0.04167849031332599
-0.010671870682218199 -0.06016577729844221 0.04176953140747741
-0.008418613751803805 -0.05994410335788074 0.04184311175421407
-0.006243979327367921 -0.059733583128039405 0.04187157401263275
-0.004058198011180403 -0.05952048187333376 0.04191887481583695
-0.0019358587116726222 -0.05931627665071941 0.04193106472229424
0.00013959038375815913 -0.05911846698277742 0.041919538466846984
0.0021980330706519724 -0.058922468896778366 0.041905733090937924
0.004230143051689783 -0.0587297396705661 0.04188262626884304
0.006234278571945695 -0.058540554782752593 0.04184874601894112
0.008208857459186258 -0.05835518273285249 0.041802636212104616
0.010154422527904494 -0.058173562731078814 0.04174440652414885
0.012039698512360641 -0.058000608020203535 0.04165018017748717
0.013899547803808643 -0.057830911206333074 0.041545709081125426
0.015726328309837334 -0.05766569265171692 0.04142491235384588
0.01753368155827295 -0.05750283442085978 0.04129789203633144
0.019311960307563603 -0.057343872483016825 0.04115702891253337
0.021056746136888793 -0.05718952966767629 0.04099859246731741
0.022770610111292278 -0.057039428274117704 0.040824219408554796
0.02445702016789769 -0.056893045086017405 0.04063628865023389
0.026118378856371915 -0.05675002183417527 0.04043639588840553
0.02776085723260724 -0.056609396695857905 0.04022915738882715
0.029373313901030207 -0.05647296418636707 0.0400055167890776
0.030966668106211015 -0.05633900386736366 0.0397738732545318
0.03253745179242229 -0.05620808784723502 0.03953123951221521
0.03409255503545461 -0.05607912842586521 0.039282941576803454
0.035623855882520705 -0.05595344641967317 0.03902222021091917
0.037140942217461614 -0.055829515478418176 0.03875664565414255
0.03863577184131234 -0.055708647904045776 0.03847946959154186
0.03985762950427629 -0.05563150789766794 0.03798338471480589
0.04056900212350856 -0.05563696864233769 0.03706764062057388
0.04087564135435262 -0.05570835194505142 0.03581378068178376
0.04098110401267657 -0.055812874387754965 0.03438723086886736
0.041054138233222404 -0.05592315775478848 0.032927628508956086
0.0411986998508998 -0.056022202428846445 0.03152265752949346
0.04130536734515994 -0.056127907026366414 0.03007995899912208
0.041393201061994844 -0.056237177976987775 0.028615319609119005
0.04146394115307228 -0.05634975183056743 0.02712994437265115
0.04152025405825599 -0.056465209647704365 0.02562586958225055
0.04156113691067992 -0.05658373681351763 0.024101983143856587
0.04158926756772985 -0.05670490907062388 0.02256037392961785
0.0415823616888234 -0.0568324533214069 0.020981215138082432
0.041564295612879776 -0.05696242919030134 0.019385093143378385
0.04152755315466655 -0.05709610967687683 0.017765121900959913
0.04148038534767451 -0.05723213709558248 0.0161283656812784
0.041428320053059575 -0.057369598894941636 0.01447959405998539
0.0413404001696977 -0.05751371563996118 0.012790726217853599
0.041247339163089036 -0.05765935090037467 0.011089086204451204
0.04115663258316038 -0.05780524758650449 0.00938138664535515
0.04106735567585268 -0.05795156419758761 0.0076667569713215755
0.04095772540136727 -0.05810200359805684 0.005925072125208097
-0.03621697184926109 -0.06147675200064214 0.03961758839748403
-0.033374156517271714 -0.06118258538462816 0.039968685534870374
-0.030551059270514824 -0.06089013720703762 0.040321439397227155
-0.027815443338570445 -0.0606094147368688 0.04062940872264109
-0.025155303177442023 -0.0603387143759118 0.04089993960630495
-0.022619682290624388 -0.06008536155962133 0.0410983691831332
-0.020059460420332742 -0.05982732878115954 0.041326965548464045
-0.017624576522669078 -0.059586887413395066 0.04148133661155884
-0.015190771282210358 -0.05934562667127889 0.04164740790249688
-0.012850659822174537 -0.0591173721427326 0.04175982239102399
-0.010529609065822898 -0.058891035598116294 0.04187057382592985
-0.008293340792727866 -0.05867648360228103 0.04193257647331333
-0.006079954470825599 -0.058464487949639245 0.04198935612708027
-0.003920923680783339 -0.058259803228001276 0.04201798790438854
-0.0018237436992135647 -0.05806360554312693 0.04201245532518466
0.00025612262790702944 -0.05786921410687677 0.042004597862357385
0.0023221090337804395 -0.05767611993564864 0.04199679283599278
0.004339371725845864 -0.05748962090958926 0.041963226257044905
0.006313144588782793 -0.05730896196023899 0.041907257993356595
0.008260997313345786 -0.05713150115633764 0.041841529818691825
0.010183380661604291 -0.05695718968213857 0.0417661250128859
0.012073553762560807 -0.0567870792520396 0.04167570911838714
0.01392499304397532 -0.05662219707142219 0.041565000235231686
0.01575258509870603 -0.05646028760388706 0.04144492642049896
0.017547710990929555 -0.0563026974178559 0.04130864363733672
0.019354719125676545 -0.05614260741143515 0.04118997435081628
0.021070564635417788 -0.05599594333399944 0.041009296916492854
0.022815676247023964 -0.05584412008610078 0.040859317621268265
0.024529960200325662 -0.055696441129438175 0.04069340089464735
0.026184040535869202 -0.05555750659354583 0.04048808526271014
0.027827972019711322 -0.055419562608190545 0.040282274075158275
0.029444722775964327 -0.05528527862739453 0.040062334784831566
0.03104325890764298 -0.05515327323970746 0.03983514056643822
0.03262103520712234 -0.05502396080305045 0.0395984579449864
0.034175576719055745 -0.054897748186975466 0.03935006490370152
0.035708180872582096 -0.054774450833392725 0.039090761069716096
0.037221952021614046 -0.0546535970047403 0.038822842882762276
0.0387107705283804 -0.05453617188220614 0.038541081204997274
0.03989494813079514 -0.05446659434640364 0.03801420516780213
0.040562642424805895 -0.054478876837391055 0.03706236039912908
0.0408356467249113 -0.05455413754526511 0.035780398299778304
0.04092920977085307 -0.05465839764772312 0.03434368642765867
0.04101674660946669 -0.05476407935152128 0.03289608691247514
0.041155777822823536 -0.054861961242568515 0.03148625904495733
0.04126786637646912 -0.05496460693869554 0.03004798939668102
0.041341891625168325 -0.05507384042858883 0.028571347056836283
0.04140794946346471 -0.055184843642750274 0.02708170566046819
0.041467835944311804 -0.0552973375573673 0.025580471313432995
0.041524281145760344 -0.05541088911853801 0.0240698948077559
0.041539407944408524 -0.05553166493087138 0.022516735133536914
0.041543495221228355 -0.05565477839965966 0.020947018847189247
0.04153183170803659 -0.05578101475746567 0.019356379847171923
0.041494079645900184 -0.05591208739060693 0.01773536003693238
0.04144030153551398 -0.05604637781302345 0.016092539314395193
0.041377852114576674 -0.05618269826440436 0.014434249783618958
0.0412982280785088 -0.056322463975110156 0.01275263686981526
0.041205048756079166 -0.05646510041546502 0.01105068983840185
0.041110453732621066 -0.05660861719593977 0.009339240328225584
0.04101159571017304 -0.056753492792930745 0.007615599897636938
0.04088189364985245 -0.056904157388924036 0.005855136344166734
-0.03601123477178625 -0.060139208847222944 0.03975586702024708
-0.033159637312469015 -0.05984997882641751 0.040113670215606356
-0.03033288709158133 -0.059563164451351625 0.040469713418869124
-0.027609403827574375 -0.05929010317637256 0.04077021509662837
-0.024967088454148745 -0.05902768113395162 0.04102927812884222
-0.02228524746262628 -0.05875846573446296 0.04132946108911251
-0.019963185783284487 -0.058540421378691775 0.04139385852801902
-0.01750021946527819 -0.05830097959511519 0.041568218855132344
-0.01506076932522804 -0.058063991806231 0.04173873485972934
-0.01273672539655507 -0.05784290341086015 0.04184030261673283
-0.01046077330770162 -0.05762795342946328 0.04191946495800619
-0.00823520559913199 -0.05741951607146334 0.041974094202304524
-0.0060411850167340075 -0.057214861318200624 0.042017195494692794
-0.0039165325097120784 -0.0570195858602779 0.04202115836259418
-0.0017758698120790006 -0.0568211403915958 0.04204720967655229
0.0003035783935418923 -0.0566309321958073 0.042039236848054995
0.0023424241155201586 -0.05644595619371058 0.042011702139272356
0.004367994065100134 -0.05626218464729502 0.04198434672036677
0.006348886308285007 -0.056084300625832605 0.041933775353570124
0.00829331673857725 -0.05591111510890675 0.0418656384210333
0.010222673792160408 -0.05573945963472684 0.04179559470945793
0.012102274584068373 -0.05557454031316783 0.04169736638426258
0.013930081671141015 -0.05541670545096607 0.041568858146974696
0.01577378976473104 -0.05525581445704388 0.04146108953935185
0.017599810883569267 -0.055096912274532714 0.04134857092960814
0.019400449988240476 -0.05494117417713258 0.04122520973328753
0.0211031326362075 -0.05479960903374323 0.04103452559878901
0.022832328270022184 -0.054653420623252166 0.04087228647772362
0.02452801551800121 -0.05451170617050031 0.04069187820308112
0.02622554942407529 -0.05436910681072647 0.04052076137571664
0.027858644620178563 -0.054235739076849455 0.040306549305227146
0.02948279571910728 -0.05410316968980784 0.0400926283348117
0.031091465651093164 -0.05397240631290114 0.03987370260694101
0.03268862408523582 -0.053842850482605585 0.03965281344692251
0.03425389803106865 -0.05371764786419183 0.03941338796342875
0.03578413097208688 -0.05359731384414281 0.03915249466781051
0.03729648433196636 -0.053479225346859185 0.03888374702195341
0.03878299447264383 -0.053364631503840174 0.03860041336013409
0.03993862791779429 -0.05330094461166754 0.038050279132673503
0.04053447520519671 -0.05332413733534022 0.037038974203654595
0.040756538906744744 -0.053405754879078476 0.035714369249314704
0.04087274552036735 -0.05350428272281337 0.03429630729368782
0.04096110003377457 -0.053607607070767435 0.032849146403887086
0.04109639980605173 -0.05370401158115544 0.031435905650159246
0.041194670050782645 -0.053806668963389634 0.029985589477051433
0.04127223273251346 -0.053913045684674886 0.02851164889040375
0.041348265981558274 -0.05402013425074492 0.02703028634581739
0.04140804126085301 -0.05413027319172906 0.025528684346881436
0.041444092379777864 -0.054244668491020304 0.02400007875374205
0.04147105813836943 -0.054361018647385496 0.022456913116256694
0.04148240146298576 -0.05448037948761353 0.020893266086573326
0.04146502940349489 -0.05460486436344983 0.019297295323395525
0.04142339179534105 -0.05473379470311867 0.017672510270825503
0.04137036538861988 -0.05486513258398483 0.01603003133618708
0.04131521375368774 -0.05499740328759397 0.01437797066399038
0.04123541922861773 -0.05513424548669485 0.01269590863851483
0.04114112339183973 -0.0552740505128587 0.01099265063143462
0.04104823392587037 -0.05541426077455307 0.009282453819327574
0.04093501426627999 -0.055558409267879846 0.007545340123973898
0.04079843988025922 -0.05570701519874716 0.0057781711621583964
-0.035829501205187464 -0.058806319549535344 0.03987801256448992
-0.03297010211172974 -0.0585222283228729 0.040241769238687664
-0.030165124752070727 -0.05824466454952986 0.040583727941164716
-0.027437458577211415 -0.057976900844753265 0.040887721622978046
-0.024786230329565506 -0.05771887305104613 0.04115356129975023
-0.022244962780945787 -0.05747539457011262 0.041357297495766276
-0.01976842906660453 -0.057240126864236344 0.04152917824945851
-0.017312087406405496 -0.05700677737907324 0.041699657598585294
-0.014958438142208041 -0.05678712966606351 0.0418106229742789
-0.01266839621498883 -0.05657567931097045 0.041888568519905245
-0.010464158109616317 -0.05637565678116917 0.04191706087614555
-0.008211732820889106 -0.05616789582906388 0.0419908574808881
-0.006036754713730774 -0.05597042263726628 0.04202037678359233
-0.003913239196770668 -0.05577955489095877 0.042023536159056574
-0.0018150384697478983 -0.05559155630644679 0.04201877494161216
0.0002992647194760556 -0.055400449393152605 0.042036088204422895
0.0023306630169395715 -0.05522057617596011 0.04200307063151443
0.0043192274861139635 -0.05504618211816822 0.0419483617949678
0.00630999058231918 -0.05487074213074902 0.04190491798491053
0.008265167875295909 -0.054699764709825155 0.041844640839970026
0.01019682398069377 -0.05453151318837543 0.041776207450423486
0.01209406908906513 -0.054367600826491704 0.041691178936355544
0.013957557832898926 -0.05420795878351786 0.041589689031935884
0.015786915235783572 -0.05405266918604401 0.041471094344349535
0.017579774221453792 -0.053902108683961523 0.0413332156260961
0.019352730566584653 -0.05375385421573717 0.041188442176782414
0.021189951991910927 -0.0535954532963654 0.04110177989408165
0.022895004432510635 -0.05345599935758588 0.040921099655231885
0.0245630165737154 -0.05332146260872089 0.040719284125208366
0.026252573276506264 -0.05318314129907737 0.040542034758215384
0.027886437088954885 -0.05305254944665742 0.04032854511136846
0.029517054358193795 -0.052921885099196285 0.0401198869523427
0.031150996930051855 -0.05279016183671763 0.0399213234878818
0.03273366885339385 -0.052665581290954 0.03968903880013386
0.03430050116477501 -0.05254285108952612 0.03945106676302135
0.03585171714183155 -0.052421949490917295 0.03920742991433379
0.03735902986323286 -0.05230716884565287 0.038934856154677566
0.038864324401129524 -0.052192196981176615 0.03866722610462486
0.039950455946384855 -0.05214043078742456 0.03806004758433473
0.04050085019957622 -0.0521700384428534 0.037011056611319204
0.04071924552910022 -0.052250452813527144 0.03568324152551294
0.04081899609991396 -0.05234936858993395 0.034251206172702164
0.04090178457064364 -0.0524513181066619 0.032799111015871296
0.041037001159227315 -0.052545659606497014 0.03138553476078598
0.041135174945228614 -0.052646120234389825 0.029934869857314972
0.04121630175477109 -0.052749654575222724 0.02846371564468686
0.041288561641387556 -0.05285501781450834 0.026978849061074672
0.041341782705749563 -0.05296379884437523 0.02547129915177021
0.04137770077821151 -0.05307575075034742 0.023942275150154513
0.04139898412228665 -0.05319047924222637 0.022393831546821175
0.04139998283236296 -0.05330888453381569 0.020820750840342017
0.04139541587205198 -0.05342868929588477 0.01923572435841281
0.0413545360293629 -0.053554722402236785 0.017611289442173883
0.041302266697761214 -0.05368311039671904 0.015969165651226802
0.04124693983597738 -0.05381255730020569 0.014316628126800623
0.04116508342056452 -0.053946774276678974 0.012632382145116694
0.04107623350390205 -0.054082703803736004 0.01093373571274936
0.040987877937865014 -0.05421917054287233 0.009227368372604017
0.04088394091440378 -0.054358732266743204 0.0074984827919543084
0.040689319592929096 -0.05451336953258153 0.005677535051697491
-0.03564792520487681 -0.0574745858909251 0.040000052206337455
-0.03279063650971009 -0.057197048007808955 0.040363062635406344
-0.02998159945913237 -0.05692504305657474 0.04070845527069872
-0.027270494770090026 -0.056665465923752344 0.04100182385586637
-0.024655776730924894 -0.05641817807568913 0.041243207186175135
-0.022140733722890216 -0.05618371019701216 0.04142931897698776
-0.019658228599407135 -0.05595281159066204 0.04160574709277165
-0.017251736802508078 -0.05573155727614573 0.04174182163798634
-0.014907866876605613 -0.05551813788397343 0.04184614951494087
-0.012622856533782756 -0.055312075442627305 0.04192073653060302
-0.010396473129244743 -0.05511338252981305 0.04196513465938334
-0.008218439041305592 -0.05492066175624726 0.04198606817815109
-0.006060014928959467 -0.054729907345094586 0.04200367420942225
-0.003932999914045887 -0.054542794574193344 0.04200926877406563
-0.0018313610972026662 -0.054358493871676974 0.0420069254269026
0.000238863068455053 -0.05417787734341566 0.041991999738082986
0.0022846808391821516 -0.053999973909451736 0.041969324164607524
0.004292718641808635 -0.05382670118011809 0.04192880088246237
0.006282653644633263 -0.053655285634952796 0.04188463626836614
0.008252655911978879 -0.053486000053220385 0.04183530756915965
0.010181312373072293 -0.05332192017999536 0.04176457380445331
0.012080734385267133 -0.05316134297742643 0.04168112374954802
0.013952469963577685 -0.05300406817317157 0.041585831694748
0.015800039768659624 -0.0528496099128745 0.041481098434228314
0.017609828390984572 -0.05269994961984558 0.04135624795015719
0.019401444009896185 -0.05255228381282294 0.04122597562160146
0.021162332170129083 -0.05240844342296951 0.04108038430049549
0.02287933743699838 -0.05227036213473522 0.040908897953618406
0.02460773020015894 -0.052130037788817564 0.04075429501671818
0.026303714362393038 -0.05199383959780131 0.04058229341061331
0.02794871475563182 -0.05186450719397538 0.04037783355329083
0.029581747009118642 -0.05173637354229091 0.04017136104108804
0.031193506942953142 -0.05161081120767587 0.039955328540327684
0.03279840041773291 -0.05148571897930112 0.03974109642808937
0.03436292984139533 -0.051366034906532874 0.03950154057042732
0.03591742640197659 -0.051247315820162676 0.03926083957519433
0.03745188661539822 -0.05113104810662807 0.03901073412668715
0.03894013678956609 -0.051021128780145204 0.038729506175837924
0.0399659221378631 -0.050979456213469665 0.03807282069717277
0.040476308866048916 -0.05101435912415892 0.03699068085428536
0.04068285391311466 -0.05109476315373446 0.03565286647657273
0.04075884961446746 -0.05119504587465072 0.03420073727658951
0.040836057270126014 -0.05129558614340389 0.03274366694090275
0.04095655163916584 -0.051390064575348886 0.03131731243432234
0.041051846995752705 -0.05148875272013659 0.029863832721209738
0.04113649966143401 -0.05158948191450512 0.02839532468312933
0.041214131640002316 -0.05169171792979777 0.026914725126973627
0.041272736040609714 -0.05179729060063091 0.025411499230920065
0.041299288577273385 -0.051908200547729676 0.02387400585595889
0.04131855797991085 -0.05202071260882839 0.022323439919429644
0.04132123126508441 -0.05213625845920205 0.020751462024825973
0.04131277098996161 -0.052254023099770494 0.019162627576282842
0.04128658354304654 -0.05237503198299223 0.017550871734780316
0.04123507426860484 -0.052500473531935064 0.015909109970667024
0.04117115190678278 -0.0526283903380299 0.014248534423948023
0.041100348904899886 -0.052757945492881445 0.012573914674623043
0.041006614069958536 -0.052891632366860675 0.010870526737976005
0.04092750064129336 -0.05302365838678925 0.009172263478068599
0.04082622859584312 -0.05315972597625798 0.007445534528856712
0.040439504500667134 -0.053340858062515525 0.005447143253482889
-0.03865342763429752 -0.05645833419026976 0.03955306210256787
-0.03547526109524157 -0.05614518086751697 0.04011610204807731
-0.03261503400177229 -0.055873509109766815 0.04048174512620345
-0.02981656603276206 -0.05560906220425725 0.040820615170979735
-0.027123002167394605 -0.05535770720264239 0.041102619564782006
-0.02453497218406525 -0.055119608682272725 0.041326222379318434
-0.022028273879437343 -0.054891567377602125 0.041507027867910495
-0.0195879193986101 -0.054671609289583395 0.041654598919957264
-0.017203005365768465 -0.05445830012996421 0.041775867928927346
-0.014895226068126433 -0.05425463849337537 0.041855029739532534
-0.01263651733719584 -0.05405684922531301 0.04191108690507439
-0.010433696986282048 -0.05386590176921589 0.04193869612568407
-0.008272097083770413 -0.05367982599251025 0.04194774784364358
-0.006143109835736182 -0.053497468638811524 0.04194400585167274
-0.004021948125285946 -0.05331543824665058 0.0419450475033325
-0.0019184385011823957 -0.05313509324279787 0.041943711034355236
0.00013851105082873794 -0.05296044263197914 0.041918750638489266
0.0021744922989277993 -0.052787974624266286 0.041888456443491096
0.004187707160961562 -0.052617952558021236 0.04185131276697679
0.006193255192306568 -0.052448290094633254 0.04181831010958309
0.008155659860300979 -0.05228393751823795 0.04176295358322546
0.01009856199453718 -0.0521216239530708 0.041702511339280934
0.012010967999751654 -0.05196290194137797 0.041628515603925165
0.013907690662935068 -0.05180571509456215 0.041551882540257434
0.01576470235094246 -0.051653452495914694 0.041454162717257215
0.017591796482665956 -0.0515047649586846 0.04134242901047863
0.019396473848380447 -0.05135861571335873 0.041222146139012816
0.021166278117218496 -0.05121678393006895 0.041083441013927746
0.022910670065244887 -0.05107795516218043 0.04093330029549247
0.024630082830551348 -0.0509420869855566 0.04077179718730628
0.026334584901255453 -0.050807764123655716 0.04060659493397456
0.028011928195200098 -0.050676744849072836 0.040427862594376085
0.02965972725008359 -0.050549391601625075 0.04023340768450773
0.03126716663861223 -0.05042727843995032 0.0400142511715641
0.032863108062357316 -0.05030629265233637 0.03979313481962404
0.03443930467542272 -0.05018762886709464 0.03956328989577024
0.035990510292970124 -0.050072059063727394 0.039320243467792115
0.037529076021860897 -0.04995781735302652 0.03907380951416756
0.038994007216847315 -0.049853751210326674 0.03877376086978096
0.03996501240051403 -0.04982096432650149 0.03807206936948948
0.04044721828684378 -0.04985917578303367 0.03696652802765937
0.04062006018576375 -0.049942677611104346 0.03560045433466125
0.04068044518984876 -0.050042983140497856 0.034134948149735556
0.04076391075221053 -0.05014034672785932 0.032682807953594184
0.04086142612130644 -0.050236074898393664 0.03123664465495629
0.04095198311376802 -0.050333248068013745 0.029778698690897387
0.0410318749797533 -0.05043242241760294 0.028305660586818437
0.04110012658689216 -0.05053375532866379 0.02681650596297036
0.04115298902536574 -0.05063781642968717 0.025307788761788463
0.04118206443633171 -0.05074587053780926 0.02377194508902425
0.04121033895919035 -0.05085452443357979 0.022228723043073273
0.04122575422651398 -0.05096558016184318 0.0206674574628834
0.04120778221561566 -0.0510821216095916 0.019069768328736525
0.04117109542992381 -0.05120198799670869 0.017448189295853844
0.041123028147237284 -0.05132410072361291 0.01580896466922016
0.04107754018680232 -0.051446374659282826 0.014164426456998502
0.041005548364814126 -0.05157319638989414 0.012488291916449346
0.040939790392184205 -0.051699649018402294 0.010809856090091552
0.04085860675894043 -0.05182901089771324 0.009109385702203265
0.04077417620469642 -0.051959452881819614 0.007397778975622493
-0.038383686741372214 -0.0551100738502927 0.039733352279828105
-0.03527774799212491 -0.054813597073162725 0.04024885322842775
-0.03241240994771999 -0.05454752017367305 0.04061869036527055
-0.029632129285673714 -0.054291562469074024 0.04094596194233724
-0.02696595457396883 -0.05404961474408093 0.04120994510669773
-0.024395119757908756 -0.053819282999991655 0.04142232700841353
-0.02195964487311508 -0.053605935134082086 0.04155444998591007
-0.01954808841551653 -0.053394893534862285 0.041682274050390544
-0.01720880610482184 -0.053192598979614744 0.04177181523393825
-0.01494004710335789 -0.05299887178364565 0.04182354276146916
-0.01271850197335922 -0.05281065385066636 0.041853175154633604
-0.010542024633497848 -0.052627692029668646 0.0418617555725167
-0.008405187811503512 -0.052449291430096176 0.04185270000044433
-0.0062938791681171335 -0.052273585303111055 0.04183574219495628
-0.0041944704143748734 -0.05209875665149343 0.04182048512618497
-0.0021079679782607386 -0.05192494659808203 0.04180612091090463
-4.614456134838241e-05 -0.05175375199064463 0.041783966529042926
0.00199891478526415 -0.0515841175361798 0.04175959954624475
0.004029549755605932 -0.0514157355398676 0.04173460820103564
0.006040653989138667 -0.05124930801087846 0.04170509280695234
0.008023121760870666 -0.05108608764593104 0.04166408708695024
0.009985755467164792 -0.050924892892141034 0.04161790687824768
0.011911402872846089 -0.05076808290377742 0.04155343737453859
0.013810971014391715 -0.050614190062512776 0.041478555126842065
0.01568188519124053 -0.050463586468849166 0.04139103587556392
0.0175326794153825 -0.05031511807825501 0.04129712403374913
0.019349747687154417 -0.0501706754397856 0.041186143884301196
0.02114358774677083 -0.050028832819734186 0.04106586400172785
0.022906753784961764 -0.04989063830390374 0.04093025023503821
0.02464077223349931 -0.04975590322451028 0.040780167018981406
0.026342301701183457 -0.04962511457028695 0.04061266965766375
0.02802916431811897 -0.04949581270866376 0.040441503786938116
0.029693001022278787 -0.04936917515369571 0.04025988267167213
0.031312480353772765 -0.04924820597498483 0.04005049899073393
0.032914669496362126 -0.049129143467080916 0.03983460092623953
0.03449051295301475 -0.049013273396103334 0.03960469197059702
0.03605339330397489 -0.04889873039613739 0.03937135590284685
0.03758602703988523 -0.04878796412336184 0.03912034708575812
0.03907341250210378 -0.04868312248275874 0.03883899251493095
0.03997865795442762 -0.04866040164034504 0.03808333886658066
0.04041357614465474 -0.048704442555320804 0.03693859620746809
0.04056088559933885 -0.048789650454621775 0.03555106298695676
0.04060839085960555 -0.04888948067522288 0.034074487384979035
0.04068990614555784 -0.04898488159106248 0.03262038158088515
0.040772655584734474 -0.049080524284128096 0.031161365989257173
0.040846558888154194 -0.049177859099968656 0.02968882446369242
0.040919837258727 -0.04927571306414085 0.028209643463065315
0.04098788608119813 -0.04937475432195935 0.026719807015548103
0.041043300859592735 -0.04947606201121803 0.025212790058836865
0.041085086088542666 -0.04957979556533283 0.023687511247394932
0.0411085320442125 -0.04968665558366664 0.0221396182543403
0.04110795663282574 -0.04979749053118201 0.020563814373363354
0.04110179894317767 -0.04990963552004641 0.018976029479108092
0.04107510642317891 -0.050025286839169465 0.017362843842922027
0.041026796620701744 -0.050144626806250196 0.015722954237837317
0.04097638192703257 -0.05026481289603317 0.01407353809845574
0.04091445280163203 -0.0503872367115619 0.012406015450830254
0.040828673541413285 -0.050513734384170506 0.010708970722035083
0.04076513098378487 -0.05063751496189588 0.009024072628845525
0.040697488388222625 -0.050762465354119386 0.007327421610257512
-0.038156005588129094 -0.053768862782714165 0.03988553044989285
-0.03507917292608631 -0.053483109905660284 0.04038231816816501
-0.03221368451086015 -0.05322329785185027 0.040753000689811136
-0.02949421485410897 -0.05298119329843623 0.04103969125058604
-0.02687299077854355 -0.05275075534001064 0.041273476100741724
-0.024362859750159338 -0.05253371146068883 0.041444495634046785
-0.021947814636052887 -0.052328074704837975 0.041562624589157104
-0.019603150974654704 -0.0521307158796564 0.04164401580548205
-0.017327177900049784 -0.051941466124459434 0.04168911460269947
-0.015114830622809494 -0.05175971657572826 0.04170075655596567
-0.01291791190715963 -0.05157923451973893 0.04171231732001873
-0.01076789892716512 -0.05140413667071359 0.04170132660034087
-0.008657077525616397 -0.05123344710605491 0.04167281087925384
-0.006559117327807784 -0.05106374179081991 0.041645281359086184
-0.004484918598718357 -0.05089645848176507 0.04161077937470753
-0.002410075544302337 -0.050728400020309386 0.04158680401124448
-0.00034456122710507797 -0.05056087690978515 0.041566145775783825
