# .PCD v0.7 - Point Cloud Data file format
VERSION 0.7
FIELDS x y z
SIZE 4 4 4
TYPE F F F
COUNT 1 1 1
WIDTH 782
HEIGHT 1
VIEWPOINT 0 0 0 1 0 0 0
POINTS 782
DATA ascii
0.058491657777765625 -0.0796134751341232 0.011005425744672892
0.06534922207590635 0.02644061557542038 0.07277847038507917
0.06520605635406698 0.024752749436408095 0.07238066480591313
0.06514716932981693 0.02359438217713372 0.07166393070477167
0.06513507489777352 0.02272893216188776 0.07076885165263075
0.06516183527207514 0.022105345659327535 0.06972405619444882
0.065227730068383 0.021723944018462393 0.0685267755664053
0.06534221480724718 0.021641861370726156 0.06713852017393895
0.0655454811133913 0.02210574895607037 0.06540021124077983
0.07413124473002153 0.06258626341964613 0.01686720932704744
0.0745947623606617 0.06446781268438245 0.013884939635354587
0.05979090379077281 -0.043918754658350545 0.05157889588675357
0.05931733039708674 -0.04732402579533551 0.05285860932696346
0.05899002758043532 -0.04989178576293257 0.05348771767084742
0.05872880836463849 -0.05207921856828274 0.05382521047406008
0.05850992947468186 -0.054022236509540855 0.05397673986248902
0.05827463215278038 -0.05605206664364387 0.05420987347342737
0.05806421473652485 -0.05793689371732952 0.054335377195014356
0.057879750638577566 -0.05967162624613709 0.054347219680570547
0.05771443011422357 -0.06129516920538636 0.0542757929051601
0.05756120968663133 -0.06284739731107464 0.05415296770067923
0.057410223952731446 -0.06438350586464325 0.054024164326287816
0.0573016861328986 -0.06568087210375068 0.053701424556351796
0.05720726363122047 -0.06689760505196773 0.053315676749945584
0.05711582836096564 -0.06809557660468052 0.05291861685099669
0.05703311189584736 -0.06924336206940956 0.05248309100585741
0.056960580987935314 -0.07033322683666027 0.05200178423409596
0.056892008036119296 -0.07139965281507771 0.0515037979925459
0.05685652699165023 -0.0722835578621343 0.050850331035263485
0.056808962522398504 -0.07323249542087845 0.05025556159123512
0.05676523448034407 -0.07415940503269708 0.04964380113361183
0.0567413100653238 -0.07497774149893965 0.048938213383547535
0.05672921644100028 -0.07573141262090732 0.04817633815264122
0.056716294473019006 -0.07648926732427763 0.04741881393081271
0.0567107384479177 -0.07720708741843019 0.04662597470270424
0.05671004402174251 -0.07789861531980607 0.04580967100494243
0.05671393303058397 -0.07856552117777299 0.04497104779968536
0.05671935075309787 -0.07922433333309326 0.04412483915450466
0.05672963337963642 -0.07985727869914688 0.04325462180945505
0.05675660824237619 -0.08040147208388226 0.042302025763706785
0.0567889005425542 -0.0809180321996793 0.04132242542413117
0.05684047729575346 -0.08133302051919383 0.04024650586028117
0.056901794069224125 -0.08169768142276235 0.03912077798832869
0.05694545275951618 -0.08215712420177518 0.038081129366574096
0.056991562917949004 -0.08260470363725614 0.037027986814033964
0.057041260360557684 -0.0830345355135601 0.03595556033484626
0.05709385981237691 -0.08345034599393675 0.034867133446235266
0.05716785981566934 -0.0837554030297798 0.033669477655103364
0.05725705499777198 -0.08398289438071754 0.03239298617384245
0.05735704025144177 -0.08415632626499625 0.031059298248793943
0.05746821254161518 -0.08427402765045244 0.029665930885060143
0.05758038933969994 -0.08438921589902254 0.02826423608996026
0.05769185503153084 -0.08451080455658272 0.026862928930956154
0.05780966970708787 -0.08460232278267993 0.02542589473662704
0.05792796655473549 -0.08469421555919732 0.023982979290402606
0.058078777965643306 -0.08462192265599022 0.02236923964825427
0.05824634193471749 -0.08446741881972786 0.020664646057308
0.058470630623715214 -0.08402691198715062 0.01866151586478121
0.058750860907112214 -0.0833064611335732 0.016361455388412438
0.05949961840904738 -0.08020831209767093 0.011613946226519734
0.06667178760324555 0.026991393819559117 0.07244405204450971
0.06649215564348568 0.025095217813844828 0.07217153204792878
0.06642233134827942 0.023875991847584432 0.07149097581548605
0.06641260877602338 0.02302589143092476 0.07058542547296459
0.06644796022420059 0.02245106948676423 0.06950928876369344
0.06652609114143761 0.02213594209206854 0.06826937793913163
0.06667951319513796 0.022276597613307747 0.06673970789897482
0.06705360215153885 0.023752256075839917 0.06435981117008033
0.061103628686785254 -0.04289121561463949 0.05076131272913437
0.06050751372496916 -0.04692971648399624 0.052543189398206125
0.06015714377265506 -0.049591945833991236 0.05324658412997052
0.059878509674213994 -0.0518490807514253 0.05363914327884539
0.05966529913762976 -0.053738519535079965 0.05374612969683451
0.059413028090667244 -0.05583798649917915 0.054034937752246215
0.059201925299803865 -0.05770522639433934 0.0541450619463576
0.05899748044862899 -0.05953093417623878 0.054231025903199004
0.05880601983845814 -0.06128073492582359 0.05426380866251945
0.05865062346234265 -0.06282909099779488 0.05413768794460999
0.058505039615349905 -0.06432029451703641 0.0539711237193104
0.05839253125359821 -0.0656282495390973 0.05365703495523505
0.05829413473355811 -0.06685698880779278 0.053281233611691126
0.058202242535704656 -0.06804818600528145 0.052878216341954054
0.05811908536880213 -0.06919002799236462 0.05243738333448811
0.05803887807881787 -0.07031399658996595 0.05198521673811385
0.057968290562267495 -0.07138433973215191 0.051490535644457824
0.057931852013674526 -0.07226982381753233 0.05083837354299575
0.05788366984224665 -0.07321729462573395 0.05024225735461618
0.05782720416701619 -0.07420785472683944 0.04968642912388077
0.05779179207660797 -0.0750848887861551 0.04903298174270354
0.057778063861693936 -0.07584579770245348 0.048278039841015474
0.05776759517561983 -0.07658908934181391 0.04750803347107385
0.05776024107098821 -0.07731564726388718 0.046723513189574184
0.05775925123878349 -0.07800842179256062 0.0459088469232643
0.057769575448451536 -0.07864156048076432 0.04504008549311067
0.05777834685429676 -0.07928310800278643 0.04417848135643576
0.05778924408322419 -0.07991371425784266 0.04330639869366104
0.05780949270295469 -0.0804956425728246 0.04238887441031969
0.05783457533970065 -0.08105281327916336 0.04144737673059318
0.05788295979643627 -0.08148919360590784 0.04039204514405076
0.05794437260367141 -0.08185901156049002 0.039271907845267406
0.05800363415391136 -0.08224144701921399 0.03816053278398107
0.058056730413376126 -0.08265719035564045 0.03707766908591359
0.05810577365755605 -0.0830951183792561 0.03601320490905541
0.05815002647166516 -0.08355888392376598 0.034970944939872683
0.058215311221548986 -0.08391564222977804 0.03382353651318282
0.058310991515662096 -0.08411814618481844 0.03252369765115637
0.05843215660548754 -0.08419259543347224 0.031094532073212056
0.058549176431191674 -0.0842910793299147 0.029682581860858315
0.058637941592957835 -0.084536174482164 0.028408486372036912
0.058744376908716145 -0.08469364640319327 0.027043332603009118
0.0588635330357128 -0.08478920202707518 0.02561123842801938
0.058987745098108474 -0.08486203859865471 0.024150286332678406
0.05914552850778191 -0.08476854173465315 0.02251616542397833
0.05932175348071408 -0.08458602528760306 0.020784116299241984
0.05953852079036804 -0.08420422618932016 0.018841046176449827
0.059824457548983 -0.08348125630442405 0.01653935116722738
0.06072804751014723 -0.07967985701966324 0.011073334666697188
0.06784375821743448 0.025819970778081736 0.07172895224712311
0.06774907723546403 0.02445761465821439 0.0711337632643067
0.06774697621565176 0.023653215968403474 0.07019793885335612
0.06779380256215953 0.02314199859428001 0.06908007602948463
0.06792718145408064 0.02314722623221266 0.0676375736787519
0.06833553795201797 0.024790346699662347 0.06516028967048265
0.06848491407158906 0.02488140668234412 0.06364631995177217
0.06250113082624618 -0.041437712483958056 0.04960480224277858
0.06172585460023105 -0.04639618663172451 0.052116402753422386
0.061325110779845066 -0.049298379142559245 0.05301049557419202
0.061018963114128306 -0.051677529295472646 0.05350044335251447
0.06079065879840844 -0.05362772890370926 0.053656077115730005
0.060546050122915016 -0.05566074681949129 0.053890106239423585
0.060336864774245665 -0.0574969337260971 0.0539739490313455
0.060124606523301205 -0.05934477391368376 0.05407728117459859
0.0599277321946235 -0.061105014060281904 0.05411791419785189
0.05976348814341474 -0.06268575186767272 0.05401804687270345
0.05961522357157447 -0.06417718623996205 0.05385104164280197
0.0594859469673303 -0.06556382204820022 0.053602687345218114
0.059385540873408985 -0.06679370040171206 0.053227564165763075
0.05929234841762185 -0.06798290347106539 0.052822562949775664
0.05920849151578682 -0.06912043455133254 0.05237774127619449
0.059124726002426936 -0.07025552211241748 0.051934839034320446
0.05904453379124365 -0.07136979090933437 0.051477935206426295
0.05898293966303353 -0.0723842371074544 0.05093798702680291
0.05892898754537571 -0.07335708569785415 0.050364607105601145
0.0588853773878929 -0.07427444824272184 0.049745020778529214
0.05885364901461244 -0.07512863173386414 0.049071670985210425
0.05883059530142235 -0.07593679338912324 0.04835894562736459
0.058821234888901695 -0.07667309957578111 0.04758312065761616
0.05881576402750381 -0.07738897510697584 0.04678939654478892
0.05881533216119831 -0.07807859675839285 0.045972228129353754
0.05882670677016845 -0.07870713250311245 0.04509961972078058
0.05884197581737856 -0.07931583340242515 0.0442083490274045
0.05885494632628097 -0.07993672799252183 0.04332751267752455
0.05887051848683941 -0.08054455842756741 0.04243398701226159
0.05889158284491086 -0.08112459803430955 0.04151392612294036
0.05893881596839982 -0.08157128612614067 0.0404685479964238
0.059001476844676624 -0.0819403511168198 0.03934810461596833
0.05907022390292126 -0.08227989436365363 0.03819673710721716
0.05912443506682811 -0.0826948807659153 0.0371133456393003
0.05916767173434101 -0.0831667518908481 0.03608136416873037
0.05920995041780288 -0.08364447739936032 0.03505281112767483
0.059272604630878405 -0.08402040636605801 0.033924259951661984
0.059376443201825044 -0.08419052582258363 0.032593647545301085
0.05950568583424391 -0.08423551491082432 0.031136226365987008
0.05960871683959088 -0.08441483099699476 0.02980342544216602
0.059702165589063515 -0.08464444526813059 0.028514761834704527
0.05980364611938083 -0.08483619667834796 0.02718398198698113
0.05991966292353534 -0.08495801089555682 0.02577866022451364
0.060047082191896854 -0.08502594976872124 0.024313693533194236
0.0602157576711683 -0.08489260647427643 0.02264048968160831
0.06040162429725885 -0.0846782929546197 0.020877055923013255
0.060643687621592335 -0.08419140626140381 0.018828066022428203
0.060929227951040194 -0.0834964462497848 0.01655481055976643
0.06185693985655904 -0.07965877415722311 0.011051766818031161
0.06918842864786427 0.025683642082413694 0.07038077975676554
0.06920075696560285 0.024962156802435465 0.06938943061121877
0.06940234947931993 0.02535405415472175 0.06770592287109067
0.06974241765064172 0.026554550602297167 0.06550883263747714
0.06979573635995426 0.026066535983634898 0.06435844487656339
0.06983557959327773 0.0254984691708654 0.06325640857575981
0.06987546834198888 0.024929753420280087 0.062153113350797595
0.06299474622253964 -0.045610952439293195 0.051488270203893516
0.06251893001205952 -0.04887712450644327 0.0526717194066012
0.06217465715498604 -0.05143082312578762 0.0533009805885834
0.061919283098669245 -0.05350352149690962 0.053555119142693675
0.06168278835842296 -0.0554701030925987 0.05373432160121716
0.061465691349479844 -0.057328471049623075 0.05383555654789679
0.06126054550877736 -0.05911866562781687 0.05389054445341124
0.0610756636531602 -0.0607972413320067 0.053862382008816934
0.060904171887107825 -0.062401082577931866 0.05378044155910605
0.0607374096330288 -0.06397614339753283 0.05368234670439875
0.060591808593792304 -0.06543646155645316 0.0534952527976259
0.06048097195865019 -0.06671162215466891 0.053157960674154625
0.06038514166601402 -0.06790592859159472 0.05275694182757962
0.0602998670052545 -0.0690430722968926 0.05231144129130205
0.0602148328511182 -0.0701770088291675 0.0518671972341157
0.060130924852528744 -0.07130315526067305 0.05142022343330371
0.06005977932758614 -0.072361361189959 0.050918070198621934
0.06000527965997819 -0.0733320237575325 0.05034267206990073
0.05996557201404261 -0.07422526262309337 0.04970174529140775
0.05993208201589385 -0.0750856430802479 0.049033648891778026
0.0599002424887168 -0.0759367933891445 0.048358945627383465
0.05988089120890149 -0.07672333368134976 0.047628019207203554
0.05987620187273322 -0.07743460018809045 0.04683038961507663
0.05987737413855745 -0.078115910713567 0.04600592965602868
0.059888952724214004 -0.07874437674907869 0.045133434560392816
0.05991549776584421 -0.07929724029054042 0.04419137954943969
0.05992474272209777 -0.0799382126296243 0.043328874759961944
0.05993692694114457 -0.08056456490011266 0.04245243796312287
0.05995631446212426 -0.0811549297835304 0.04154204573518072
0.060002336555675134 -0.08161194604098304 0.04050643938353021
0.06007054366695276 -0.08195883125243408 0.03936541632406537
0.060132107121367726 -0.08234050290158806 0.038253809738115985
0.060179287681246925 -0.08279534229835672 0.03720843935675561
0.060225208115683625 -0.08325753694832033 0.036167746117197475
0.060280108198282716 -0.08367619358620049 0.03508314618873176
0.06034120926540624 -0.08406538814701242 0.033967506808912196
0.06042973511115809 -0.08432042577573845 0.03271918683028696
0.06054772491032394 -0.08443219469083296 0.03132729170127341
0.060666928484687084 -0.08454070048282714 0.029926337074827114
0.06075973265951669 -0.08478152493255264 0.028649315256744745
0.060862206303319934 -0.08497712800986529 0.027323034015739045
0.06098827696097617 -0.08505979869849001 0.025879611655451884
0.06112113051168161 -0.08511230311576662 0.024399781373883378
0.061288781231057576 -0.0849986522628512 0.022746757296237374
0.061508184361638976 -0.08463779222496204 0.02083626023912355
0.06176609641129743 -0.08409559904286418 0.01873106138549513
0.06205087733749793 -0.08342959896440116 0.016486777502347838
0.0630804998388764 -0.07918245873267182 0.010564494322505114
0.07121232306959085 0.026243753565059424 0.06278547594078931
0.07125246085094208 0.0256709181963668 0.061682126486245936
0.0712938684644934 0.025104446804756875 0.06057305263796958
0.07132653893811307 0.02448712367286654 0.0594949470831182
0.06434562546426995 -0.044421833971400426 0.05053705842258188
0.06374055476035001 -0.04832464573658363 0.05222741179718471
0.0633876868933353 -0.05089235378165219 0.052865626321559944
0.06306344726830745 -0.0533024238634337 0.053391663435974956
0.062824654803694 -0.055259394207723245 0.05356214070687437
0.0626082760916493 -0.05709429668582505 0.05364318175934213
0.062398385332496684 -0.05889061696369596 0.05370220522627572
0.062238855213757154 -0.060421170347172815 0.053550144330950844
0.06205786238353167 -0.06205913078986036 0.05349502418263424
0.061877304190873846 -0.06369076608659141 0.05344288675989517
0.06170971839036258 -0.06525152848029397 0.05333925307511017
0.06157666733107932 -0.06663106589448486 0.05308964784850695
0.06147634438968034 -0.0678398090299967 0.05270057486915092
0.06138784599703398 -0.06898579967447682 0.052262358259422936
0.06129899849825935 -0.07013157628572092 0.051828055589550615
0.06121537295197631 -0.07124875332387992 0.05137310702794551
0.06115193994567072 -0.07226143019264092 0.05083106566628165
0.06110842470113352 -0.07317168328849716 0.050202336809846204
0.06106242599433954 -0.07409351934533676 0.049585832254976425
0.06101694497378876 -0.07501170469498392 0.0489682527475338
0.06097854837401784 -0.07589318235043302 0.04832017032374453
0.06095302720456235 -0.07670908986233493 0.047615288278542445
0.06094273523722558 -0.0774480607240779 0.046842483592432094
0.06094363005349617 -0.0781308337388954 0.04601940795747994
0.06096302418313685 -0.07872128639062331 0.045112470334980226
0.060989748615789215 -0.07927566942846487 0.044171692351785974
0.060999608230769505 -0.07991445669102953 0.04330707984005239
0.061006481969176456 -0.08056826951203944 0.04245585453805706
0.061029505327379635 -0.08114235394432007 0.04153038706954898
0.0610727584376324 -0.0816171201524537 0.04051126119049725
0.06113092485835812 -0.08201943017669072 0.039422183812660716
0.061179581776008664 -0.08246976872720918 0.03837553418495032
0.061231628155373884 -0.08290459174423742 0.03731185143584964
0.061294623228034084 -0.08328704869992465 0.03619582653788822
0.06136243473813961 -0.08364742802592523 0.03505563326507283
0.06141979118520488 -0.08406022699079785 0.03396254471578647
0.06149972383821968 -0.0843646840420873 0.032761959371594374
0.061603170684378546 -0.08455701843815511 0.03144855221484916
0.06173205151679964 -0.084628746004065 0.030012313582097938
0.061836589164069956 -0.08482077319634002 0.028687840213921956
0.061943946550712496 -0.08500159197996943 0.02734717176167406
0.0620705455861855 -0.08509247492404265 0.02591201938636012
0.06220216831405391 -0.08516215682059808 0.024449481795999484
0.062394477018586095 -0.0849448919973787 0.022692884575308325
0.0626405590718339 -0.08447567928545724 0.020672966681443083
0.06286906241862775 -0.08409559904293207 0.018731061385563907
0.06316293341090867 -0.08341060281568202 0.01646744439002884
0.07266695840309016 0.026597939711120067 0.061093033519752205
0.07270406872130916 0.026001382812678997 0.059999849549677964
0.07273432706298337 0.025365530969567007 0.058930410799711896
0.07276461060127919 0.02472914964211481 0.05786008151041777
0.06579852981764209 -0.04274609819120656 0.04919658675426236
0.06498505191152462 -0.047673187140650664 0.051703503862285505
0.06459280612196851 -0.05041318609601819 0.05247821764392119
0.0642715440549852 -0.05277975962966225 0.0529668327195163
0.06397267439042442 -0.055024403033738345 0.05337011752511206
0.06374769376196626 -0.05688440027056496 0.05347075136239715
0.06354005892960105 -0.058650860670454774 0.053504196984727914
0.06337749010998484 -0.06018315671182245 0.05335253050856287
0.06320203418409147 -0.0617773523106272 0.05325983174588017
0.06303319097402675 -0.06333412092019985 0.05314362599711814
0.06286103697221465 -0.06490390189733353 0.05304601374979745
0.06269711066771594 -0.06642832066969612 0.05291771708657422
0.06257943904185664 -0.06771605202980335 0.05259507196627983
0.062491320673862476 -0.06885259876855088 0.05214820416561483
0.06239899393217033 -0.07000830294729293 0.051721851515751094
0.06231214875323126 -0.07113452411771287 0.05127417544758689
0.06225443712129221 -0.07211332261871428 0.050702116385764384
0.06220843635596096 -0.07303248572334942 0.050080506515713386
0.06215472760129959 -0.0739889533387087 0.049493830875155354
0.06210385099530766 -0.07493018043955074 0.04889614714300011
0.06206521612270519 -0.07580968529868964 0.048245931699076094
0.062038625564745604 -0.07662884992702035 0.047543570932850165
0.062019494466881174 -0.07741066741812108 0.04680888657995719
0.062021771360385065 -0.07808680661218381 0.04597964317300812
0.0620419671272145 -0.07867509515871102 0.04507053233736258
0.06205153813467106 -0.07931583340251841 0.04420834902748966
0.062071145128018985 -0.0799077746623304 0.04330094940324597
0.0620849838731108 -0.08052825490047721 0.04241895109943261
0.06211526813488591 -0.08106909735089157 0.041462473182148185
0.06215640460188945 -0.08155797686237726 0.040456144958509965
0.06220232842105764 -0.082024602125508 0.03942702875915283
0.06225015511851334 -0.08248305833705061 0.03838804847787203
0.06230709280810405 -0.08289868840161907 0.03730626351795363
0.06237227019485414 -0.08327598247412044 0.03618529702814555
0.06244081490536239 -0.08363857597207286 0.03504716668630525
0.06250241825805343 -0.08403589342512102 0.033939149682977954
0.06259999969365926 -0.08426287041547603 0.03266356357100958
0.06270191983940368 -0.08447135183565213 0.031365331061513735
0.06280401675020995 -0.08468125262897713 0.030063586334590664
0.06292066044388682 -0.08482447532955767 0.028691474120492888
0.06308528819741878 -0.08474340598940355 0.027092428650979494
0.06319226260312301 -0.08493794232182728 0.025758756550630313
0.06331430879753806 -0.08506392163031101 0.024351548644583165
0.06353145675704794 -0.08474610937887289 0.02249368614430758
0.06375202391560043 -0.08441709520269702 0.02061395594900811
0.06397542000179504 -0.08407975098522763 0.01871501525556296
0.06434122516361082 -0.08308349159417427 0.016134530698958538
0.07415544974675484 0.026287763465279834 0.058337708863466786
0.0741821249242733 0.02562680807790063 0.05727991617241318
0.07420903293233559 0.024966551517439928 0.056220598811028255
0.07423831221219225 0.024318719667216104 0.055152078594745135
0.06626249560783691 -0.046876676085910896 0.0510629436418536
0.06580006394103037 -0.049939435744121574 0.05209518889874126
0.06547482804673069 -0.05229912297285 0.05257616275957572
0.06514373575704557 -0.05468124122740087 0.0530897026448644
0.064897074710889 -0.05663151007513234 0.053263001474301575
0.06468991572839117 -0.05837816459715417 0.05327898466924996
0.06451376970158774 -0.05996500568900154 0.053171407870718834
0.0643233286258943 -0.06161943638657108 0.053128023841024885
0.06417552177278416 -0.0630571525896973 0.05291122202347143
0.06403284601115632 -0.06446612157246556 0.052676725515260814
0.06386642588112439 -0.06598984857971507 0.05254588667431559
0.06371551149902224 -0.0674331479193579 0.0523538960744957
0.06361927490123974 -0.0686029302597232 0.051934236533942024
0.06351972839486639 -0.06978693783860296 0.05153113812516924
0.0634264227043644 -0.07093806896803906 0.05110402965844085
0.06335829714204325 -0.07196354472773858 0.05057171285023504
0.06330446162814306 -0.07291753450686239 0.04997989742459408
0.0632480792701869 -0.07388279952470689 0.04940043247852177
0.06319427589678332 -0.07483425872496757 0.04881130744491047
0.06315758092810292 -0.0757012971236552 0.04814956196054193
0.06312927598215991 -0.07652680202663387 0.04745236192924751
0.06310485823266715 -0.07733286001956374 0.04673897844872671
0.06310686657541924 -0.07801066191820538 0.04591087017847323
0.06313020361252455 -0.07858565292577946 0.04498932584001858
0.06312711162323027 -0.07928831478825515 0.04418323346204489
0.06314520406222482 -0.07988921192554876 0.04328391899378253
0.06317971667727823 -0.08041185595794914 0.04231160228199221
0.06321721253919561 -0.08092099571451189 0.04132517280567366
0.06324094157343338 -0.08149659116118796 0.040398939000859
0.06328379197159056 -0.08198174347029458 0.039386879890985826
0.06333401315957024 -0.08243284697700459 0.03834076645265744
0.06339662899551526 -0.0828263536018849 0.03723779367839464
0.06345999366586817 -0.08321768686426645 0.03612982877702059
0.06352692918129862 -0.08359356993625111 0.035004120501356706
0.06359604564669491 -0.08396065553547455 0.03386681367928235
0.06367396200001862 -0.08428796137624878 0.03268781224237949
0.0638104600968755 -0.08434275968585331 0.03124040971873293
0.06392122188001703 -0.08452071653579601 0.029906822737890193
0.06402553010987865 -0.08473115353606026 0.02859987215517623
0.06420957074023828 -0.08457326355175226 0.026924555042758258
0.06432766260490222 -0.08472519805335815 0.025547760363395955
0.06444796201899826 -0.08486949301842728 0.024157717832715975
0.06465989660689697 -0.08459347982357224 0.022340737319260562
0.0648665366057899 -0.08434646331473467 0.020542809670948514
0.06511049815341102 -0.08393251016075459 0.018565934184872956
0.0655664234366809 -0.08255251145902026 0.015594131761054952
0.07566001075879956 0.026011016716283586 0.055541746508407874
0.07567464422880427 0.025279416259170295 0.054524158758706864
0.07568906482432049 0.02454635598038002 0.05350695077411877
0.07570349091687553 0.02381301626372495 0.052489355036382135
0.06765008548232125 -0.045557263345853694 0.050001861927315594
0.0670918864241143 -0.04906054152875211 0.05138459998390216
0.06666940952634404 -0.05187773259706635 0.05223364922280438
0.06635166034761285 -0.05416681478461227 0.052669338762034945
0.06609720019372184 -0.05613609057595992 0.05285601319491273
0.06586089606390512 -0.05801031745673968 0.05297518965954562
0.06566457745718832 -0.059682588076449716 0.052936927086271734
0.06548087314492611 -0.06128867327837478 0.05285194533560905
0.06532032193266303 -0.0627773100380491 0.052676406292443745
0.06519166852123436 -0.06410646365430689 0.05237333719447684
0.06504527826736273 -0.06551943882122502 0.05214697267630619
0.06488107201963025 -0.06701605099832048 0.05199832074639876
0.06475734058900068 -0.06831244403442827 0.05168528783812221
0.06464491846969503 -0.06955134577338162 0.05132816773919269
0.06454035335648108 -0.0707498233433353 0.05094099397105023
0.06446607468465768 -0.07179984684119883 0.05042918992495943
0.06440604683442362 -0.0727796329082791 0.04985920140308714
0.06434818399603769 -0.07374772717966427 0.04928159039474794
0.06429263248500859 -0.07470349757365108 0.04869565337588394
0.06425166166763391 -0.07558831141706934 0.048049104479840565
0.06422678951531674 -0.07639539033585241 0.04733490797544221
0.06420508148575112 -0.07718686431103455 0.04660780471280723
0.06420523873808086 -0.07787395402000485 0.04578739720820313
0.06421703481812592 -0.07850585591978443 0.04491687644846154
0.06422096780844339 -0.07917521300227698 0.04408000823128
0.06425922158352361 -0.07968264097862354 0.04309440018247901
0.0642902673681143 -0.08022483713227074 0.04213912434241979
0.06430398749475211 -0.08084911409077539 0.04125853360949816
0.0643240262421809 -0.08144406065860754 0.04034998529262113
0.0643671439659835 -0.08193147984607396 0.03933979424136891
0.06442013304633436 -0.08237375330436592 0.03828512030968978
0.0644912912125909 -0.08273256171862142 0.03714901324045072
0.06455418045276723 -0.08313130865743446 0.03604763994530091
0.06462882174850153 -0.08347693398574046 0.034892563626692075
0.06471529627350749 -0.08376944004837972 0.03368297327325653
0.06478758871832942 -0.08412922697362324 0.03253440646413014
0.06489697336038291 -0.08431983796342585 0.03121814232255854
0.06502801371265711 -0.08441334954798374 0.02980197880626817
0.06513885982675517 -0.08460218451507989 0.02847327990545606
0.06532325179271967 -0.0844572474645584 0.026810086016466006
0.06546680978022908 -0.0845024586563976 0.02532685117583605
0.0656093580448494 -0.08455533914004637 0.023844529867694475
0.06579758320519388 -0.08440397212211193 0.022150833206530773
0.0660134782571121 -0.08413135639688435 0.020326136196241573
0.06629343563703179 -0.08357399618081579 0.018202939423210218
0.06683939621061404 -0.08182394447626556 0.01485264107692974
0.07716934815822257 0.02489205249156079 0.05177614844481665
0.0683770337335452 -0.04824314566973048 0.05072373269600905
0.06802727531301875 -0.050672426651794056 0.0512539552717049
0.0675858206761492 -0.05354135555321887 0.052158244367985496
0.06731695353358891 -0.0555614353595108 0.05238393258812368
0.06707958122168882 -0.057422975236619045 0.052490119596855345
0.06685108674190819 -0.059236513708726346 0.052566568216934784
0.06664580195570086 -0.06093306768600859 0.05255513151923957
0.06647127070285179 -0.06247699213009994 0.052424409701216146
0.06633775099082 -0.0638199000106362 0.05213160732211353
0.0662049310597036 -0.06515663414861361 0.0518393092831988
0.06604595290455681 -0.06661588531700202 0.05165717930839908
0.0658942525526557 -0.06803699693666804 0.05144922777818256
0.06576660873991322 -0.0693401707946234 0.0511462334838651
0.0656617753868613 -0.07053209757977041 0.050752426138032436
0.06558599205733748 -0.07158386950534024 0.050241150101413334
0.06551891897395709 -0.07259277503988171 0.04969565724163777
0.06546146794594171 -0.07355477898052792 0.04911182680592052
0.06540379657536903 -0.0745166114828531 0.04853035858742705
0.06536257331401713 -0.07539981717561545 0.047881511098382346
0.065336775088641 -0.0762097202362263 0.047168958605376066
0.06531243768218402 -0.0770122351874517 0.04645090452189421
0.0652980359200456 -0.07776779019945401 0.04569151129062865
0.06531067712708878 -0.07839690651849995 0.04481795897987817
0.06533116947542203 -0.0789897522946571 0.043910742784441015
0.06535391822589158 -0.07957255307651129 0.04299339987891376
0.0653644969828908 -0.08021221245947235 0.04212748124956989
0.06538053192946239 -0.08082687573455394 0.04123791712776298
0.06540251258244499 -0.08141445794793473 0.0403223982262475
0.06544973266855357 -0.08188637613448269 0.03929754226305787
0.06551537566669262 -0.0822747193323835 0.038191863987692476
0.06559083437671702 -0.08261949048441036 0.0370419835770851
0.0656745578438488 -0.08292808684229952 0.035854274463677005
0.06576157818916264 -0.08322341761596391 0.034650086982357275
0.06584313562842638 -0.08354542948525989 0.03346760268009108
0.06592424333729516 -0.08387120096433276 0.03228504224245499
0.06602975354536268 -0.08408820526283717 0.030993121836978776
0.06613954101788797 -0.0842881139606696 0.029679686175911768
0.06625858818135508 -0.0844486105236818 0.028322536130541698
0.06644425875548567 -0.08431210045312088 0.02666687452338462
0.06659118338188583 -0.08435328333406861 0.02517890160019126
0.06681857170479036 -0.08403752178697999 0.023328304621979046
0.06695891413689392 -0.08411512859111658 0.021861385474070627
0.06720034515926228 -0.08374549505048329 0.01993746474152802
0.06755241595020192 -0.08288938129883372 0.01750976808311827
0.0683396881125211 -0.08011168989398021 0.013110013629258566
0.07000535308738114 -0.04579902120122792 0.04874764988259006
0.06925596519511497 -0.05012691637106548 0.0508105548849494
0.06883482820209413 -0.05286485975570132 0.051605445412665985
0.06855487995135572 -0.054918340990396664 0.05185562905706037
0.06830095683932852 -0.05684173088240729 0.052010085596782996
0.06806121811767978 -0.058692263228000696 0.052114697391658804
0.06783521536779373 -0.06047251138505727 0.05217071834837583
0.06762792555208817 -0.06215928921330327 0.0521578253586355
0.06748286877396727 -0.06354714734118644 0.05190152765419642
0.06735048749995191 -0.06487212117851682 0.05159803833943449
0.06719494742060098 -0.06630350750796654 0.0513908770742284
0.06703564470060366 -0.06774936463858394 0.051202724917639
0.06690633255373783 -0.06905118197734389 0.050897260023188395
0.06679958435926597 -0.07024466618596248 0.05050348768360152
0.06671781563170609 -0.07131923387353778 0.05001074612263329
0.06664542772146113 -0.07234837652576559 0.04948175161168811
0.06657875998007853 -0.07334941241264659 0.04893113703662094
0.06652202565238666 -0.07430296637499062 0.04834139630158657
0.06647370616268247 -0.0752163791184815 0.04771841325493592
0.0664487577192369 -0.07602081284435824 0.04700011578822638
0.06643572023619365 -0.07676982264712717 0.0462331025134074
0.06643311335393229 -0.07747058773708415 0.045423081512368346
0.06641894200898611 -0.07822436832840429 0.044661307903350767
0.06641633644325949 -0.0789248993875385 0.04385155312403738
0.06643702375658428 -0.07951896790244556 0.04294423808417164
0.06645707178959048 -0.08011637915760933 0.04203909907527381
0.06649834686281113 -0.08061767507840645 0.04104397376866242
0.06651483858665039 -0.08123227342540551 0.040152618621574876
0.06656665290671715 -0.08168731486535813 0.03911106686826449
0.06663526333652164 -0.08206757192951647 0.03799680158116703
0.06671781564075835 -0.08238642843379484 0.0368213743921344
0.06679365475109046 -0.08273717725684909 0.035672624064025105
0.06688320512246425 -0.08302799887381873 0.03446317802307691
0.06697316151990287 -0.08331886036752167 0.03324977221441733
0.06707847233306102 -0.08354303563766818 0.03196789324073418
0.06717645083389588 -0.08380205443237904 0.030715139502640376
0.06727170871112374 -0.08407519493005877 0.02947177060762346
0.06738751530110203 -0.08425920773957729 0.02813662385206739
0.0675783239239826 -0.0841138773343898 0.026471294686668978
0.06774581003048134 -0.08407542031385123 0.024903321730232075
0.06797769817237635 -0.08375691230942911 0.02304855792048094
0.06817101065870639 -0.08361263823630216 0.02135784401242563
0.06842189273995658 -0.08322012156951492 0.019408265128712576
0.06885564963179458 -0.08203340592750358 0.016643094554910975
0.07053204463822772 -0.04937455033941385 0.0501990184919589
0.07011271983261257 -0.052073500157294894 0.05095878543209187
0.06978316806868369 -0.05434105905149428 0.05138139059162122
0.06951370761656868 -0.05631947403419785 0.05157876778338055
0.06927193770827299 -0.058162532030784087 0.051674881384621785
0.06904413795303804 -0.05993528417841709 0.05172231016559292
0.0688057897467511 -0.06175264093010724 0.05181660700807578
0.06863644826640934 -0.06324363020969165 0.051645496719788575
0.06848974495131836 -0.06462592321600491 0.05138925905338687
0.06833891636174999 -0.0660243581595173 0.05115290211887269
0.06819060884085305 -0.06740804675855677 0.050910213143607386
0.06807003502743952 -0.06866062895545605 0.05056078562825317
0.06796834357575078 -0.06982374070016212 0.05013893272501635
0.06787180853075502 -0.07096106919365314 0.04969891144359995
0.0677785513429692 -0.072081390300969 0.049248076473320246
0.0677000334775452 -0.0731323406813455 0.048740148593590105
0.06764197081146836 -0.07408826597231738 0.04815150064113399
0.06759728556078992 -0.07498204568141698 0.04751006347828779
0.06757836612429279 -0.07575776185724742 0.04676500444992143
0.06756841277959012 -0.0764924165284836 0.045983859591707865
0.06754801758567065 -0.07727413188840149 0.04524564489397931
0.06753608464786032 -0.07801721400318418 0.04447322810469845
0.06754321075726946 -0.07867417300872104 0.043622721297126466
0.06755945727763933 -0.07929027413322204 0.04273442265784533
0.06759097790883385 -0.07983819369190714 0.041782542785984256
0.06763332816972534 -0.08033828989272379 0.040784964536129176
0.06765094821181084 -0.08094967477203291 0.03988926206974208
0.0676975359043694 -0.08143236945323828 0.038872240668748725
0.0677642011669561 -0.08182677486110718 0.03777005263332561
0.06783935670284696 -0.08218489005322577 0.03663060451880579
0.06793110486535343 -0.08247112724447425 0.0354194775760619
0.06801268064960753 -0.08280413903821204 0.03424906647758941
0.06814722059157069 -0.08290556416916023 0.03285241663370525
0.06823523646222969 -0.08321414953299205 0.031650047657113156
0.06834977692018264 -0.08340825935194135 0.030332585744065665
0.06844818800930533 -0.08367524564590839 0.029081219878259013
0.06854432244134756 -0.08395417347222511 0.0278372110640015
0.0687156106200249 -0.08390792392534185 0.026268087642150217
0.06890396692882463 -0.08379104742670851 0.02462128548374848
0.06918348934009415 -0.08328303507818385 0.022576137696071863
0.06941641230397698 -0.08298214447967461 0.02072603139208673
0.06970294044578214 -0.08245485497466837 0.018637425334996793
0.07034080603801847 -0.0804219880413638 0.015011536835409234
0.07226508433400561 -0.04651784745473336 0.0478770399543208
0.07142611436367818 -0.05114190686496939 0.05019753340263361
0.07103617239276622 -0.0536672219372058 0.05082783182336381
0.07072838018771643 -0.05580464672994545 0.05115358582949836
0.07048928404018422 -0.05761876354998541 0.051223410745863784
0.07026468574760308 -0.05936129599938261 0.05124321865064635
0.07003098912667255 -0.061141135263130864 0.0513034929395651
0.06980685738713166 -0.06287241355536594 0.05133235806297959
0.06965574440023571 -0.06426504275253969 0.05108322741631699
0.06950735751238858 -0.06564218878703659 0.05082710254291217
0.0693625263702396 -0.06700015385105246 0.05056064611248823
0.06924400867867193 -0.0682355874384335 0.05019459824972217
0.06915410314024512 -0.06933885546345192 0.049718983533649785
0.06906033701307561 -0.07045779042383332 0.049260733749189656
0.06894029923095257 -0.07169348254386793 0.04890856682676964
0.06884355205929966 -0.07282181887579953 0.04846693901529586
0.06877835878492553 -0.0738063508377656 0.047902155693473225
0.06873997798359834 -0.0746692981923644 0.04723199445703491
0.06871936810874282 -0.0754519364667528 0.04649166194078819
0.06870214638532507 -0.07621903027830584 0.045738228427983085
0.06868274008554273 -0.07699551187834464 0.04499399856870301
0.06869522636072622 -0.07762982159941517 0.04412150633773604
0.06869927693891063 -0.07830179925792058 0.043282864892342676
0.0687061977813918 -0.07896115585038288 0.04243247261757899
0.06873609157379107 -0.07951921479604812 0.041488364793339394
0.06878817221413627 -0.07998013140969473 0.04045292705322551
0.06882389641138757 -0.08051398721328851 0.039483240414019294
0.06886084476514405 -0.08104319225534673 0.038507669640237885
0.06892262684798957 -0.08146448425369102 0.03742889808943045
0.06899234945322602 -0.08185235479040287 0.036315837129155704
0.06908149329226718 -0.08215704207721308 0.03512062565606472
0.06915410315136354 -0.08253536309155446 0.03399199475602416
0.06932435036081366 -0.08249187159025662 0.032454679960640664
0.06943934958424053 -0.08269075242283952 0.031144220692773006
0.06954054675106591 -0.0829514997846284 0.029888864890452338
0.06964880444626391 -0.08318388430389795 0.028601405216479303
0.06976314297252405 -0.08339232648001577 0.027285718355119615
0.06991122680429153 -0.08345846956552905 0.025824626703456255
0.07013321576242083 -0.08321165219158788 0.024046651034642597
0.07044116181480048 -0.08260270158021982 0.02189789598579467
0.07068010972270436 -0.08229350905260152 0.02003595548084458
0.07123051900976164 -0.08066704296899285 0.016836593249893395
0.07303672567832478 -0.048879211124964295 0.04834857019270572
0.0723715181836499 -0.05263822032003762 0.04998250458380382
0.07200398313450579 -0.055028108868235226 0.050512264200714696
0.07173045528452075 -0.056983434243401965 0.050695920576805775
0.07150577823510491 -0.058711789688995875 0.05070109431154596
0.07125943103427115 -0.060533770917641117 0.05079385385163393
0.07102294496858498 -0.0623063502794684 0.050854857143185495
0.07085107086921737 -0.0637831252917177 0.05067455472716165
0.07069814985465363 -0.06517129001947797 0.05042566111448199
0.07054150676491223 -0.0665731274886936 0.05019468157877588
0.07042238361464895 -0.06780392348791803 0.04982270542486844
0.07033169375172746 -0.06890537412046988 0.049343554203829576
0.07025201015769973 -0.0699559834960729 0.04882383750831726
0.070130051722032 -0.07119298954599362 0.04847051886897874
0.07000540965839488 -0.0724394895521221 0.048130550293390306
0.06993197339206965 -0.073456853484483 0.04759303642820084
0.06990305495481614 -0.07427613972649771 0.046882430691928434
0.06987467618881402 -0.07509247574742334 0.046170380915699305
0.06984374380265378 -0.0759194787524814 0.0454690883749046
0.06982142077275885 -0.07670809979430998 0.04473441134532824
0.06982296575416368 -0.07739180380582555 0.043905404942573556
0.0698279444914073 -0.07806054202774515 0.04306267532554514
0.06985078710651318 -0.07865153791874191 0.04214841320246637
0.06988998066406885 -0.07917189901446497 0.04116805313395877
0.069942651723372 -0.07963457441853738 0.04013257201773046
0.06999747250008387 -0.08008898806320425 0.03908717939475287
0.07003976727820066 -0.08059857178182123 0.0380911608000275
0.07010702613049272 -0.08100144687325633 0.0369928743474538
0.07017510789387708 -0.08140211525542634 0.03588965458857718
0.07024088971832944 -0.0818139928037856 0.034794214399807566
0.07030366212296164 -0.08224004667849377 0.03370953830984269
0.07048460629164902 -0.08216293298128396 0.03213842834132952
0.07062992823034421 -0.08224109709509175 0.030709660040789732
0.07074834514044728 -0.08243644576906478 0.02938851366893913
0.07086026364986728 -0.08266168174672783 0.028091474088556445
0.07098708393695419 -0.08282611336989104 0.026729939991549156
0.07111952359698076 -0.08296934514903842 0.02534202470363267
0.07138050823144276 -0.08257413693148574 0.023414374122304626
0.07168139018120674 -0.08201655301276278 0.02131354962028681
0.07230555284206627 -0.08011059111263275 0.017848471323961612
0.07271321077298896 -0.07912184219533142 0.015280139259036207
0.07386762115085577 -0.05091764549238226 0.048569048331401576
0.07337889938342516 -0.05382956275872336 0.04952241736770702
0.0730112197115888 -0.0561901198654195 0.05003726130983677
0.07275791947152242 -0.058032613662397814 0.05013420550898279
0.07251840531291999 -0.05980872920102237 0.050185471746372834
0.07225076196641134 -0.061705276826423905 0.050347823497101485
0.07207072590085661 -0.06320785320807942 0.050186716023381484
0.07191220260269857 -0.0646116692214499 0.04994858411191444
0.07173902312160417 -0.06607714889744526 0.04976962450999245
0.07160292797878955 -0.06737577679467932 0.04945384283393356
0.07151413968093649 -0.06846367221407368 0.04896100521208324
0.07143247175102503 -0.06951858822522644 0.04844302102485204
0.07132681124237279 -0.07067697871420126 0.04801888919179109
0.07120932728902422 -0.07188497167382468 0.04764266315316246
0.07111712675968189 -0.07298045076969062 0.04717167341704437
0.0710731304357615 -0.07386445265255098 0.04651639283160336
0.07103356276335047 -0.0747283766976033 0.045844954214895095
0.07099491306354942 -0.07558755486042662 0.045170862506484166
0.07096940284044148 -0.07638920927724085 0.04444639317043286
0.07096101992211565 -0.07711653273223656 0.04365548050560886
0.07098442719236303 -0.07770695825340856 0.04273996807220731
0.07101869251790774 -0.07825124324019783 0.04178116227595419
0.0710524657147784 -0.07879830279870492 0.04082350436838589
0.07109713762100754 -0.07929946156048645 0.03982189941007691
0.07115257374358418 -0.07975561119620211 0.03877650211053124
0.0712146031193433 -0.08018480307598636 0.037703553089531994
0.07128784186344204 -0.0805676449385917 0.036584380452961696
0.07137059236659629 -0.08091165024850377 0.035425395885204936
0.07143901956898807 -0.08131775821661097 0.0343220473744133
0.07152265381315845 -0.0816611240773607 0.03315582570431741
0.07168338256477048 -0.08168203167650351 0.03167607514770271
0.07182139392765885 -0.08180134736919203 0.0302846724651869
0.07195131919763215 -0.08195718584769485 0.028922934759089636
0.07204875702049661 -0.08225117550667305 0.027690614485062937
0.0721945058353525 -0.0823458570023457 0.026258534272967593
0.07237370843111618 -0.08230437462885298 0.024685921487261453
0.07268456183194331 -0.08172064661057776 0.022567896777232865
0.0732953412958078 -0.07990260161331758 0.019206097882435824
0.0736841543642391 -0.07901225436234088 0.016747837078305905
0.07475397283956438 -0.052666099407737366 0.04856154443661631
0.07435711473393422 -0.055133283283910484 0.049159809410057764
0.0740188721239082 -0.057334940808397794 0.049551877933662
0.07376018602703861 -0.05918081824428506 0.04965859200825529
0.07350164074572117 -0.0610211151976624 0.04977070107822801
0.07330139176694644 -0.06260162202725089 0.04967262357589808
0.07314040483808777 -0.06400703795305829 0.0494331356614649
0.07296466139721233 -0.06547358655797708 0.04925236742799477
0.0728036999743819 -0.06687257221869392 0.049020315385048696
0.07270497151469614 -0.06799882014674957 0.04855840633919878
0.07262272194546414 -0.06905193040242624 0.04803672721487007
0.07254335477346811 -0.07009102864437733 0.04750604638970607
0.07243869760445784 -0.07123745517711516 0.04707295208667717
0.07233791694734115 -0.0723652258019864 0.046627526549528064
0.07225239336024451 -0.07342568717809689 0.04612627911267114
0.07219483703510149 -0.07436493806414707 0.04552011778511339
0.07215426421972176 -0.07523063727449864 0.04485018038758348
0.07213292841826208 -0.0760136823687449 0.04410722167106329
0.07212421992732981 -0.07674269549450857 0.04331606576094488
0.07215675422064449 -0.07729679740017331 0.04236562430424856
0.07218771570026114 -0.07785817242678039 0.04142053889485536
0.07221923827179445 -0.07841777497329722 0.040472562932205636
0.07226095446040111 -0.07893508578114639 0.039484098066995765
0.07230914844914323 -0.07942599941885109 0.03846933355154947
0.07238406579945121 -0.0798058938095072 0.037348600790833686
0.0724826419471301 -0.08008834612979865 0.03613304397568046
0.0725973271768296 -0.08030551816034692 0.03485165037156335
0.07267825607639454 -0.08066532421164474 0.033701256661003154
0.07277329345224416 -0.08096812420905597 0.03249300348601619
0.07289616138375837 -0.08115750075717448 0.03117177511088226
0.07302837093975069 -0.08131064058838139 0.02981043843426867
0.07315155403315701 -0.08150352281572337 0.02848222204674644
0.07328212400138892 -0.08166839202193127 0.027121526042984734
0.07345534659082689 -0.08166077784945336 0.025586080450012316
0.07370391469443659 -0.08134809410671973 0.023742392853616345
0.07434332934936479 -0.07944417321678177 0.02031012875420829
0.07467692967185939 -0.07879836813692631 0.018105259537985363
0.07576503129857959 -0.05383805870339281 0.04808443286774233
0.07534539196522394 -0.056373530968411245 0.04874941663994953
0.07505019061161723 -0.058362763702079656 0.04897216289225026
0.07475804584934989 -0.06033322189228568 0.04919043081512575
0.07454047228818755 -0.06197697931702523 0.04914291789618741
0.07436844007241378 -0.06342090765100472 0.04893345929381898
0.0742111001245841 -0.06479858190153709 0.04867388378828885
0.07403135840055572 -0.06626913056999284 0.04850043037009244
0.07390796843726657 -0.06749570522498638 0.04812266879026372
0.0738163374529516 -0.06858466248844441 0.04762990223138469
0.073760991708982 -0.0695176651294177 0.04700421975503466
0.07368105209426483 -0.07055391969287989 0.04647155006575088
0.07357358115168033 -0.0717051582089222 0.04604371780968586
0.07346624159953966 -0.07285381021176068 0.04561781374085344
0.07337552075759435 -0.07393042716808779 0.04513175794886026
0.07331974815330694 -0.07485844112536855 0.044515770836315804
0.07329659486001629 -0.07564860964802117 0.04377749227147709
0.07329876486073175 -0.07633238507798651 0.04294353624488273
0.07332571973565369 -0.0769127332565615 0.042015098364185155
0.07335993935401285 -0.0774633319119209 0.04105829189863225
0.07339564143403819 -0.07800841676884568 0.0400950327055305
0.07343555287227962 -0.07853672334764117 0.03911478876406993
0.0734813229799301 -0.07904154807688124 0.03811105944599252
0.07356210452159778 -0.0794027322605152 0.036970929587668844
0.07368342766802781 -0.0795984958646262 0.035671771614843806
0.07385156736937847 -0.07960420804186652 0.03418781233689805
0.07393224556735763 -0.07997160649005708 0.03304118450656052
0.07400849100168788 -0.08035865833946287 0.03191007766144033
0.0741218599931294 -0.08059568283858365 0.030631626214809304
0.07425505848180342 -0.0807541312229959 0.029272610774429775
0.07439395211247901 -0.08089196856319963 0.027888125295676636
0.07456890981558861 -0.08088630849587142 0.02635782098429107
0.07477610887615375 -0.08075362635574701 0.024695646859430875
0.07546807262649462 -0.07866987197444447 0.021099884499031774
0.07580021235989284 -0.07804691905942468 0.018924355581933894
0.07687726244535696 -0.054562623411713196 0.04723790390073945
0.07638967636081814 -0.05735747258527746 0.048128623669579484
0.0760858310457987 -0.059361624583773254 0.04837084292055943
0.0758068801191803 -0.06125444944490338 0.04853020254586282
0.07561521802187221 -0.06277238642234201 0.04838059463088645
0.07544509707394013 -0.06419572081711478 0.04815722768669545
0.07526991354953674 -0.06563723258731424 0.04795602927864828
0.07511780870254423 -0.06697838128389699 0.04767462510015463
0.07501369771871011 -0.068115218100329 0.047221182309199417
0.07493277694972811 -0.06915297882923654 0.04668503429248644
0.0748622537830903 -0.07014577653503135 0.04611244929392777
0.07478036075814212 -0.07118467312381443 0.04558336534754964
0.07469661076929468 -0.07222977024750848 0.045062969375490314
0.07461212484194338 -0.07327636216749067 0.04454716368704875
0.07455013008519444 -0.07422821932771756 0.04394953126332679
0.07451198814605223 -0.07508034290320514 0.043264240412500876
0.07449891463319276 -0.07582838699239947 0.04248594571010794
0.07451604002635963 -0.07645194461697136 0.04159454785524169
0.07454957702711286 -0.07700845435454612 0.04064096383171145
0.07459698566362052 -0.077508777371248 0.03963424073170485
0.07464297609170469 -0.0780157787727559 0.03863183740713344
0.07469864671127889 -0.07848417198160079 0.037591635008631386
0.07478499843597729 -0.07882880478257565 0.03643328932493861
0.07492160348991525 -0.07897110550810116 0.03508098326277742
0.07509273587444167 -0.07897615225116733 0.033593314538033714
