# .PCD v0.7 - Point Cloud Data file format
VERSION 0.7
FIELDS x y z
SIZE 4 4 4
TYPE F F F
COUNT 1 1 1
WIDTH 793
HEIGHT 1
VIEWPOINT 0 0 0 1 0 0 0
POINTS 793
DATA ascii
0.03748684200665325 0.0646639038968555 0.07872724863783165
0.03754097277858521 0.06487449835590287 0.07757800461979952
0.03759526010561688 0.06508570188884899 0.07642543679887476
0.03764970466790622 0.06529751714183568 0.07526953073469983
0.037704578300565 0.06550766338459368 0.07410849356215196
0.037761606490300054 0.06570166390052823 0.07293094458783689
0.03781889838471114 0.06589548964779463 0.0717492278774633
0.03787627318020378 0.06609066763353239 0.07056452393730805
0.037933822326050755 0.06628643872561951 0.06937621992232224
0.03799163838378435 0.06648204105615024 0.06818368779057726
0.038049538902909144 0.06667900581151115 0.06698813039702262
0.038107708503232036 0.06687580588765513 0.06578830402316493
0.03816596362351437 0.06707397526682285 0.06458542662408379
0.03822439712530236 0.06727275145543382 0.0633788659249539
0.03828310300819357 0.06747136921169622 0.062167974040879925
0.03834189602619761 0.06767136671863128 0.060953991878062774
0.038400963657568815 0.06787121003867924 0.0597356364276988
0.038460119519948106 0.0680724401649428 0.05851416410440152
0.0385194579202204 0.06827429122930351 0.05728892267045854
0.03857907432991871 0.06847599460340864 0.056059243851059426
0.038638780642914546 0.06867909550219425 0.05482640763432284
0.03869867204950586 0.06888282602755319 0.05358974954208795
0.038758844920994136 0.0690864155141489 0.052348588796023776
0.0388191094034943 0.06929141341112482 0.05110422934106029
0.03887965768882614 0.06949627479013759 0.04985532304798679
0.038940298744074266 0.06970255193246422 0.04860319005180924
0.03900112925996516 0.06990947354587124 0.04734714502064202
0.039004417527246475 0.07057950606559604 0.046494063549496534
0.03902299724842797 0.07112743779868097 0.0455327440091165
0.03917178731408773 0.07063764097046243 0.04364738192112677
0.03918339979947596 0.07124466202277224 0.0427312593904659
0.039169933730691824 0.07205119684176309 0.041993528545206604
0.03912900705410665 0.07307477071396673 0.041452832255649885
0.03909467523723247 0.07404476188033682 0.04086655577454701
0.03924969337565523 0.0735204170898861 0.038919015346392194
0.04397083352239172 0.03707720173181672 0.004005976210374962
0.043835421507422624 0.0389252590368972 0.0040506238577111
0.04371821068601108 0.04062593105257023 0.0039688810249313144
0.039620252676154925 0.07342809982722903 0.03287983038441711
0.0393395168545358 0.07632419325384354 0.03408703513563932
0.0392561583869226 0.07767499713484172 0.033860490377665475
0.03924332764375177 0.07847549627965567 0.033119409738790295
0.04025409545110015 0.07135021248079354 0.024837930816839326
0.04053523168227302 0.06989724888137855 0.021904224144261297
0.041004317408599854 0.06700581679924589 0.017565912953895202
0.03399354468516936 0.01179042940933095 0.18359140960901904
0.03380918405555216 0.01442468373933592 0.18359878512768815
0.03362681235993353 0.01703051899747854 0.18360608107709583
0.03344647073939248 0.01960759774554416 0.1836129973839533
0.03326798077718676 0.022157967151744007 0.18362013963337837
0.03309145736348149 0.02468048511016463 0.18362690793176445
0.03291679736358555 0.027176374902474376 0.1836336047826369
0.03274404154032883 0.029645299279178805 0.18363993634394765
0.032573158965426674 0.03208769636548359 0.18364590837753503
0.03240398204599705 0.0345054718911883 0.1836521102812811
0.03223641745615685 0.036899721870303825 0.18365882880883633
0.032070576938862824 0.03926933740459365 0.18366547820933887
0.03190643402182065 0.04161469674396129 0.18367205954420113
0.03174402866847643 0.04393546653392699 0.18367828797376318
0.03158320301217964 0.04623342592315499 0.18368473773732408
0.03142399873027163 0.04850821828435975 0.1836911224770687
0.031266391426739544 0.050760192200273724 0.18369744317137665
0.031110420484781253 0.05298901786385174 0.18370342065688913
0.030955935258812628 0.05519638077924499 0.18370961752137518
0.030803038754092214 0.05738127386225006 0.18371547581608463
0.030651583747191208 0.05954533834375303 0.18372155248057745
0.03050167166429619 0.061687585122240596 0.18372729508754987
0.030353279084286047 0.06380834551734926 0.18373270854881332
0.030206442725209566 0.06590731777254405 0.18373752576179958
0.03006078381330175 0.06798855713207802 0.18374337897299478
0.029916464398120072 0.07005043318506066 0.18374944528808917
0.02977358206154871 0.07209200067037136 0.18375518564928817
0.02971376169053989 0.07326241712803461 0.18338138054361866
0.029680484661500646 0.07415441527470057 0.1828863265319672
0.029675703936074438 0.07474917007624154 0.18225912429561486
0.029680945439172258 0.07523982191917655 0.1815849227642956
0.02970464184820902 0.07553963364127636 0.18082315813860528
0.02974468293971263 0.07567142687819572 0.17998265099224212
0.029798703833669362 0.07566049492361138 0.1790736228960741
0.029889039742415358 0.07527763964716161 0.1779879930531662
0.030304795247845774 0.07155348567065367 0.1753299447160415
0.030405664918139483 0.07107517196622526 0.174178282306251
0.030507147459361488 0.07059428678239982 0.17301922367515565
0.030609309688923763 0.07011018082733639 0.171852402145824
0.030712220140546937 0.06962219220379229 0.17067743676904157
0.030815762809853417 0.06913154376018166 0.169494850231072
0.030920006004539414 0.06863757579924912 0.16830426281875485
0.031025019803133453 0.06813961566900051 0.16710528003233333
0.031130685975187457 0.06763890361180463 0.16589844182444777
0.03123713817903925 0.06713412394136747 0.16468303482201463
0.03134432091276178 0.06662588021278215 0.1634592870704744
0.03145217703146542 0.0661147884581264 0.16222743978868326
0.0315608431188313 0.06559951209122633 0.16098675457983833
0.03167019709281267 0.06508132133321098 0.1597378014102988
0.031780377541565374 0.06455886532736721 0.1584798246768486
0.0318913273006821 0.06403276138923741 0.15721306440190644
0.0319615160470426 0.06391769123159041 0.15615218235486544
0.03193081625903346 0.06481061884154427 0.1556120309795233
0.031957641859641304 0.06513019749078458 0.15477329837047255
0.03216312097903522 0.06367692532462566 0.15299802004546945
0.0322206569357338 0.06369739904992416 0.15199156717526566
0.03227846724519278 0.0637172721615597 0.15098114729594939
0.032336485374029764 0.06373721671405341 0.14996709510894773
0.03239464381918222 0.06375790943093773 0.14894975630236723
0.0325135261562225 0.06318339187481653 0.1476052959005842
0.03269629091959712 0.06198599690376316 0.14591277487796012
0.03284468012580575 0.061132207864027455 0.14439749934171764
0.032768316133586446 0.06248240400873539 0.14409181587206832
0.03274936821920347 0.06326920591257623 0.14347755335232326
0.032763822704564065 0.0637297966209347 0.14268192542959765
0.032811979386030164 0.06386310038281301 0.1417010970577197
0.032941186709188754 0.06321129005652898 0.14027251855851694
0.03368080166858758 0.05664927260289654 0.13546870951399753
0.03387381274342505 0.055401067012780414 0.13366185301286254
0.03402122109430281 0.05460017392052874 0.13210028019940873
0.0341403186210956 0.05407747208573155 0.13069039517493936
0.03424015426817398 0.05374438064509668 0.12938331262001895
0.03425687587448557 0.054212713232382415 0.12853976189053634
0.03423310221287512 0.05506960374355191 0.1279243392381643
0.03427338331792431 0.05531315424427963 0.12694654812084274
0.034584210178753676 0.052976299564142404 0.12442615457061054
0.034586087409246666 0.053593570160567094 0.12365847761479518
0.03455474779292564 0.054526686178837325 0.12308135241374718
0.034477851610295054 0.05589089861523999 0.12276804865477584
0.034427707413004036 0.05699895106203934 0.1223034082882743
0.03451528290776009 0.05680351510162407 0.12104153666784584
0.03464760251825783 0.056189222182082554 0.11951512448957455
0.03463073255624812 0.056984362851302206 0.11885545664681255
0.034626184364046915 0.057663104542654886 0.11812419360418203
0.03462163736634292 0.058341667976013756 0.11739312261314633
0.03461881567226618 0.05900391625773144 0.11665204692168629
0.03462728192121558 0.059560617654941916 0.11584408887747843
0.03463567386310623 0.06011832277955731 0.11503620294691738
0.03464446231257789 0.060672646844227296 0.11422557861737506
0.034653255223167645 0.06122725228994563 0.11341454280586358
0.03466755325973148 0.06173116048673877 0.11256996139068154
0.03469311487815617 0.06213141247813725 0.11165666020500445
0.03471871421942029 0.06253225514579208 0.11074201120508573
0.0347443513670903 0.06293368979821484 0.10982601140514503
0.03477730132351701 0.06326882992884308 0.10886419967572089
0.03481728852668168 0.06354060698453351 0.10785778588366274
0.034853713182232765 0.06384647709276015 0.10687154890889985
0.03490160152641346 0.06404891605971164 0.10581290841740898
0.034968722798867445 0.06407769346935022 0.10463295250566446
0.03505079890965126 0.06397281019943885 0.10335703055299292
0.03515660453384683 0.06365538006256583 0.10192938492868478
0.03532879570622815 0.06274000161648985 0.1000812447260657
0.03561322797566625 0.06081545976059588 0.09751999165253691
0.03558074524178045 0.06176279621348213 0.0969454304916067
0.0356195323935188 0.06206675144923457 0.09592115128005471
0.03575796271333588 0.06147611147531301 0.09426224986254231
0.035808537634106526 0.061678963543310705 0.0931572611893493
0.03585933991036821 0.061881637168924974 0.09204860455572403
0.035910286539827446 0.0620848866858289 0.09093679770630561
0.035961378138622324 0.06228871455208623 0.08982182719512316
0.036012615326403034 0.062493123239763915 0.0887036794995712
0.036063998726355795 0.0626981152350416 0.08758234101987025
0.036115528965228585 0.06290369303830884 0.0864577980785125
0.03616712113354395 0.06311061579501176 0.08533059523847536
0.03621894669955243 0.06331737336727289 0.08419960550638309
0.03627092100529541 0.06352472433526157 0.08306536982583229
0.03632304469201889 0.06373267125722626 0.08192787420290151
0.03637531840466026 0.06394121670614183 0.08078710456311292
0.03642774279187535 0.06415036326981155 0.07964304675084824
0.0364802314787475 0.0643608737495302 0.07849626598507611
0.036532958924327 0.06457123096221468 0.07734559262007765
0.036585839011929584 0.06478219714341543 0.07619158814140717
0.03663887240534722 0.06499377494134145 0.07503423806310663
0.03669205977222577 0.06520596701958298 0.07387352781510648
0.0367454017840935 0.0654187760572198 0.07270944274261079
0.03679889911638992 0.06563220474892889 0.07154196810547686
0.03685246363611852 0.06584702017896082 0.07037169402624677
0.036906273391828455 0.06606169692381525 0.06919739941235425
0.03696024051689529 0.06627700150176885 0.06801967051426899
0.037014365702682205 0.06649293667104739 0.06683849224431992
0.03706864964460758 0.06670950520606156 0.06565384942633118
0.0371230930421753 0.06692670989752136 0.06446572679496892
0.03717769659900531 0.06714455355255156 0.0632741089950819
0.03723237036994034 0.0673638075554635 0.062079611955480896
0.03728729610510481 0.06758293822477446 0.06088096124470971
0.037342384134200705 0.06780271637896007 0.05967876877447831
0.037399007116760516 0.06801158910209598 0.0584633735355119
0.03745681128815139 0.06821261421267544 0.05723716959291364
0.037514702388268116 0.0684150335067506 0.05600782038087587
0.0375728650298476 0.0686173069592998 0.054774010167349785
0.037631115696696006 0.06882098179957735 0.05353702738234373
0.03768954726054056 0.06902528915059936 0.05229620315672945
0.03774825374735469 0.06922945736288072 0.05105085222425626
0.03780704993286918 0.06943503790844235 0.049802287112899246
0.03786602956447127 0.06964125987236458 0.048549826436037
0.037925287560109114 0.06984734956042637 0.04729277213956151
0.03792453505031709 0.07055006085315707 0.04646815654755515
0.037949193311683185 0.07104384402384906 0.04545880805690872
0.03809003765573256 0.07058550762263449 0.043601029369805866
0.03810028709947914 0.07120116083570571 0.042692378711493784
0.03808624282595008 0.0720155692818607 0.041961518096533645
0.03804530799719798 0.07304855216230727 0.04142915205069986
0.038018161461034164 0.0739679448562851 0.040796812050776954
0.03817228340734973 0.07341611703865675 0.03882382332069806
0.04291209193005786 0.035760808988272996 0.0027982497759778124
0.042805784168174994 0.03740723542422408 0.002650627935760208
0.042654979415858295 0.03940820948133078 0.0028399695778446032
0.04253408102883162 0.04116327828130806 0.002811912908022518
0.03827671722089887 0.07608390684229416 0.03386194117132624
0.03814324249686291 0.07785474444219526 0.034029751319491486
0.038098293064351196 0.07891405346691677 0.03353453427004183
0.038981888924633924 0.07257693678407634 0.026005158747687995
0.0391927986600781 0.07161707743186935 0.023549160613073883
0.039524456398265885 0.06970778380767673 0.020163666871882535
0.04010262772413256 0.06586106238024553 0.014879492449156262
0.03302413582274143 0.011769797164192353 0.18358375088851236
0.0328450227794161 0.01440430900856482 0.18359116835342912
0.0326679140045659 0.017009592535368767 0.1835982027634155
0.03249263394271824 0.01958772502932199 0.1836054631058737
0.032319295089954146 0.022137554052624686 0.18361234618905156
0.03214779584677144 0.024660322265196544 0.18361915622337935
0.0319781070826512 0.027156458179405873 0.1836258943655976
0.031810336515308575 0.02962486778893536 0.18363197174634083
0.03164424973847474 0.032068259592481774 0.18363827914000652
0.03147982157110704 0.03448700788535075 0.1836448129224203
0.031317093354030365 0.03688074980664835 0.18365127915483578
0.031155973515300257 0.039250592165360865 0.1836579677592599
0.030996503043818163 0.04159617469122934 0.183664587893024
0.030838656741952068 0.043917868005376115 0.1836711406021646
0.030682473296339104 0.04621533955533064 0.18367734246319298
0.030527801133264143 0.048490344636309135 0.18368376482404486
0.030374680569358454 0.05074252792498646 0.18369012275865879
0.030223088373761656 0.05297223111390997 0.18369641723163596
0.030073062658243607 0.05517912540960013 0.18370237044041213
0.02992451902213016 0.057364218159071056 0.18370826483831446
0.029777375921434954 0.05952847929250832 0.18371437727685902
0.029631672785116372 0.06167156064309126 0.18372042989806417
0.029487564178773393 0.06379187056561425 0.18372560375426322
0.029344850481946422 0.06589165679735609 0.1837307275296508
0.029203396716474865 0.06797245461173229 0.18373634319163987
0.0290631864102567 0.0700345128589635 0.18374244359520753
0.028924372333470724 0.07207625973862497 0.18374821768904617
0.028880004593618544 0.07309921718986212 0.18330866741624152
0.028848876792379775 0.07397866438198925 0.18280751353474434
0.028847028020141757 0.07454383691221167 0.18216645012990632
0.02885543318437228 0.0749994820876066 0.18147574944643358
0.028878488531369748 0.0752993360818986 0.180713302273118
0.02892099329836489 0.07539318096114173 0.17985463096384308
0.028978652761509842 0.07532772103277036 0.17891953598107202
0.029068531916665603 0.07492294299797375 0.17782270812966097
0.029472177219972442 0.07120187081240537 0.17516505432405852
0.029570327767054715 0.07072246533268 0.17401183139825477
0.029669134235353774 0.07023985607842181 0.17285090170554906
0.029768662876945948 0.06975338305191825 0.17168188771771387
0.02986880146987602 0.06926426605084673 0.1705053075334806
0.02996967651061339 0.06877121327539887 0.16932047805228612
0.030071174350808763 0.06827545601929358 0.16812792873489088
0.030173423297300966 0.06777568907997938 0.16692696064437468
0.030276308248729875 0.06727315543871165 0.16571811484298266
0.030379959361992986 0.06676653623420248 0.16450067616515768
0.030484322613166245 0.06625643628812589 0.16327487304037058
0.030589342376958695 0.0657434729464425 0.16204094710906994
0.030695151662660222 0.06522630636139892 0.16079815809838888
0.030801631615442162 0.06470620960257656 0.1595470771630761
0.03090891719915248 0.06418182849203341 0.15828694676572472
0.031018960552930172 0.06363310839150699 0.15700736701122073
0.031056768237787705 0.06383096286962836 0.15610727193211932
0.03103911743984995 0.06459918192186986 0.15550187670642884
0.03107372395372872 0.06483162653599245 0.15461680491577284
0.031273576902472726 0.06337640497758257 0.15283955102359265
0.03132957431304678 0.06339635990270498 0.15183186558469267
0.031385838929911314 0.06341571114856226 0.15082020462817852
0.03144223944970219 0.06343580846752594 0.14980526664902116
0.031498909829565894 0.06345530052904369 0.14878630840469834
0.03162181586281339 0.06280620548602261 0.14740034694532736
0.03198554065508589 0.05972767918095617 0.14467836018201685
0.03191332068726279 0.06106098074490768 0.14435833403803894
0.03184852587586668 0.06231678249984879 0.14400020477880743
0.03183480702295732 0.06305678029384831 0.1433593560357348
0.03185330624312766 0.0634730512043718 0.14253822194828342
0.03190516389630716 0.06355600411994738 0.14152819604782613
0.03255479520188917 0.05766672075112905 0.13713241535728124
0.03282433510912203 0.055593478202728086 0.13486725456758064
0.03299860317834772 0.05447897917110334 0.13313348266216068
0.03313285110296152 0.05376876406997616 0.13162107833433007
0.03324161867240505 0.053316350822250724 0.13024914059000456
0.03333299229619459 0.053040242444936825 0.12897271140114158
0.03330787979151706 0.053918547199268974 0.1283672270910678
0.03330481801161046 0.05457844390072342 0.12763458884627643
0.033373955712892985 0.05452757724949309 0.12648042354841932
0.03364372140654951 0.05250836949257709 0.12414689932772305
0.03363381868779888 0.05324151736561589 0.12344716252276547
0.03359236698371916 0.05428303292224124 0.12293425924386212
0.033504629979741754 0.055775059541179506 0.12269771420167722
0.033492845457562696 0.05652336058140889 0.12201298280998071
0.0337381647304043 0.054769749818347924 0.11979246850130812
0.0337005836267535 0.05577251798505417 0.1192577341342956
0.03369125869792854 0.0565000178806051 0.11855457626206106
0.033674685341776436 0.057297276953136855 0.11789564122010446
0.033662780911061514 0.058048836593023345 0.11720913323153151
0.03365980607828606 0.05871391055926184 0.11646879724747444
0.03366400137854709 0.05930992426740961 0.11568478116491107
0.03366896081890425 0.05989876310479525 0.11489588942725909
0.03367605919821552 0.06046730236965536 0.11409360752485437
0.03368308419591062 0.06103681150664747 0.11329145912599994
0.03369630223375989 0.061547502513673136 0.11245059255660547
0.03372031991968512 0.06195586508862766 0.11154192091395271
0.03374437186821096 0.06236481021609236 0.11063195299933695
0.03376845815270586 0.06277433914352565 0.10972068603697069
0.033801113853640735 0.06310367162558533 0.10875442443755315
0.033839382029798394 0.06338122442338723 0.10775125739543787
0.03388013219922898 0.06363682664204728 0.10673064013890338
0.03393113064406314 0.06379755379984065 0.10564302312393573
0.034001417180735106 0.06377911137107367 0.10443003044594165
0.03408161055679383 0.06367049750050252 0.1031504316579677
0.03419166977467284 0.06328563159985456 0.10167529906610154
0.03436616570600237 0.06230357880153575 0.09977968001441095
0.034627400011954954 0.060520287619027335 0.0973149019704003
0.03458612180497519 0.06155859950709236 0.09680276824460321
0.034667805801449535 0.06145479374203622 0.09549124838453824
0.034768745977936936 0.06117582659653703 0.09405013676851567
0.034818049379750804 0.06137768937156152 0.09294327896762786
0.03486749280834387 0.06158012545787367 0.09183327757562401
0.034916994787541164 0.06178389238207366 0.09072066138561838
0.03496671983132082 0.06198748303857937 0.08960433590113562
0.035016586703263824 0.062191654386206885 0.08848482637931096
0.035066596011030154 0.0623964089129197 0.08736211917819456
0.03511674836575615 0.06260174912091399 0.08623620057779294
0.0351670443820798 0.06280767752671712 0.08510705677950775
0.035217484678164775 0.06301419666130009 0.08397467390557944
0.035267986143839344 0.06322206832665916 0.0828396043640813
0.03531871662711325 0.06342977716826931 0.08170070490856493
0.03536959326501053 0.0636380844195279 0.08055852428137447
0.03542061669004971 0.06384699267019683 0.07941304828246343
0.03547178753840441 0.06405650452500361 0.07826426262972802
0.0355231064499303 0.06426662260374466 0.07711215295841062
0.03557457406819058 0.0644773495414051 0.07595670482050848
0.035626105599495014 0.06468945143526034 0.07479849508548317
0.03567787232840098 0.06490140465726152 0.07363632998494521
0.03572978971616625 0.06511397473559227 0.07247078258700262
0.03578185842145214 0.06532716436707314 0.07130183810467877
0.03583407910676496 0.06554097626426786 0.07012948166467597
0.03588645243848471 0.06575541315559391 0.06895369830674036
0.03593889213902309 0.06597124483423289 0.06777508656858966
0.0359915725232409 0.06618694056486518 0.0665924079079313
0.03604440757540381 0.0664032695714365 0.06540625693996022
0.036097397977663245 0.0666202346469667 0.06421661835032005
0.03615054441618847 0.06683783860091974 0.06302347673446129
0.03620384758119504 0.06705608425933562 0.06182681659698458
0.03625730816697605 0.06727497446494063 0.06062662235096006
0.03631083811503068 0.06749528333928079 0.05942351866732726
0.036364615378599516 0.06771547183808613 0.05821621297777546
0.036418552169413136 0.06793631351385182 0.0570053258833057
0.036472649198368665 0.06815781127731668 0.05579084142419194
0.036526907180593954 0.06837996805653568 0.05457274354573555
0.03658132683547791 0.06860278679701948 0.05335101609756654
0.03663590888670367 0.06882627046185197 0.05212564283291932
0.03669056343929726 0.06905119751643551 0.05089727551372236
0.036745472200144846 0.06927602059462507 0.04966456553576987
0.03680054555324456 0.06950151759336426 0.04842816043676679
0.036855784239769276 0.06972769154738034 0.04718804357726247
0.036845637051502914 0.07051053358721837 0.046433378948405546
0.03687545437889524 0.0709547828660721 0.04538003637836474
0.03700792687496495 0.07053335687104156 0.04355466134453323
0.037016872112454136 0.07115764750785186 0.04265348718127632
0.037002303579227735 0.07197993355743798 0.041929500312248624
0.03696133361909196 0.07302310049949384 0.04140616449084611
0.03694111227335549 0.07389108962676577 0.040727033639493204
0.03709405440785009 0.07331252003880379 0.0387292729529049
0.041762207655069515 0.03512623609164878 0.002216060001655362
0.04163870911438853 0.03694222865543212 0.002221775926927294
0.04152162492483094 0.038700360068180284 0.0021837446465176047
0.04140923704272094 0.04041520867225684 0.002114779278903689
0.037248267980459514 0.07554593121245262 0.03335797969872201
0.03704530383340241 0.07792171464691983 0.03409281457314273
0.036972004141296595 0.07922437575458718 0.03382827567804614
0.03696970376672782 0.07994220882813063 0.033013213166278144
0.03791896498583726 0.07287698779235974 0.024754206628023634
0.03815563861221222 0.07166254983699949 0.02204303888615905
0.03852862831007944 0.06934726508947592 0.0182486657382826
0.03205461919956119 0.011749162625510456 0.18357609131663896
0.03188082540110489 0.014383116902295212 0.18358324601486795
0.031708836253022704 0.016989468677100883 0.1835906266121479
0.03153876181218961 0.019567055102032438 0.18359762658249537
0.03137050206801376 0.022117138643924172 0.183604551862958
0.03120396059769891 0.0246409327712086 0.18361170183493758
0.031039378540997035 0.027135773071728708 0.18361788648043842
0.03087645739235394 0.029605190784444624 0.18362430126333254
0.03071523760959074 0.032048820666296385 0.18363064905731974
0.030555627924867747 0.034467803246981066 0.18363722284890988
0.030397604377244106 0.03686250547318337 0.1836440190916055
0.03024120690827919 0.039232565965740374 0.18365074540015636
0.030086410547669955 0.04157836312673807 0.18365740284848173
0.02993325297795861 0.04389956360090047 0.18366370654863165
0.029781585316749692 0.046197946981999194 0.1836702308736002
0.029631446863266693 0.04847315663191232 0.1836766894161621
0.02948281460588275 0.05072554127059853 0.1836830831662157
0.02933572568028547 0.05295477108541752 0.18368913291354816
0.029190097111828715 0.05516186822334018 0.18369512259648904
0.02904584874505466 0.05734781675658973 0.1837013304934733
0.02890307696697751 0.059511618483822915 0.18370720132517473
0.028761644505604894 0.06165489349226999 0.18371328937459175
0.028621759908222164 0.06377539391319376 0.18371849822629543
0.02848322940330749 0.06587536774512764 0.18372365665585638
0.028345866239155647 0.06795696986377836 0.1837295773389485
0.028209821608884595 0.07001859091308676 0.18373544118995358
0.028075021950292576 0.07206112272140586 0.18374151706192116
0.028045368488139374 0.07293584519418661 0.18323587762928178
0.028018989787960143 0.07377326856549787 0.1827154066859919
0.02801724744727322 0.07433823003113249 0.18207365242595053
0.0280286306774541 0.07475876661170355 0.1813664054937753
0.028051042927936986 0.07505866264394029 0.18060327456873693
0.02809586567623328 0.07511383078650724 0.17972610287010096
0.02815687904943399 0.07499362424229516 0.17876483651337333
0.02825515325461612 0.07446889744587709 0.17761112764830642
0.028637620313717513 0.07085008123378267 0.1750000819967183
0.028733099510618264 0.0703689602126501 0.17384500366490915
0.028829275146098125 0.06988399417419261 0.17268190004745862
0.028926038750343948 0.06939639987976753 0.17151128468816884
0.029023512527504975 0.0689048890907718 0.17033248059437547
0.02912164545165937 0.068410054558042 0.16914570507277818
0.02922038501179415 0.06791250107186514 0.16795118796655578
0.02931985604353717 0.06741092029915824 0.1667482285931733
0.02941994658849428 0.0669065579689272 0.16553736912775477
0.02952495447302751 0.06635335414439147 0.16429569832940238
0.029631810787258468 0.06578445184469106 0.16303927420785475
0.02973938203423245 0.0652120721949409 0.16177405183200103
0.029847798939903216 0.06463486251615447 0.16049927673638925
0.02995694697663291 0.06405409166216508 0.1592155100479454
0.03006695891278151 0.06346839128637571 0.1579219789995602
0.03017771866422052 0.06287904335905609 0.15661925726367812
0.030170330290822955 0.0635450931952154 0.15595924035552705
0.03016098950830926 0.06423149144210188 0.1553103175214882
0.030203574533609123 0.06436970082432653 0.15437469041642962
0.030408244395801424 0.06280270724345749 0.15253703130666835
0.0304614387168454 0.06283587538615043 0.15153452791065755
0.03051481947378184 0.06286915977682794 0.15052851093251896
0.030568387648464455 0.06290256102770259 0.14951896186817862
0.030622144229653588 0.06293607975529364 0.1485058620833998
0.030765373494949375 0.0620381992634606 0.14698304108592325
0.03109762001479081 0.05917751067123439 0.14437763366791648
0.030988340940824092 0.0609191242691699 0.14428033207468954
0.03093979726312851 0.06202636050709204 0.14383956210575263
0.03093090298074748 0.06272112169518274 0.14317258971497668
0.03095268295202412 0.06309849079465146 0.14232857598484933
0.031019074919631347 0.06301647282039241 0.14122442967704862
0.031740035362395315 0.05619699578666698 0.136300053524271
0.031961671662893404 0.0545373845263476 0.13426562913262452
0.03211273027498186 0.05361039150670216 0.1326357687294164
0.03224833658906317 0.05284749150913359 0.13109008205939748
0.03235631290187848 0.05237222572169348 0.12970179083351513
0.03241654795281996 0.05238810514194209 0.12859243325590497
0.032362921885971126 0.05356544405700714 0.1281601243806499
0.032377165970689105 0.054051093709730214 0.1273234886444132
0.03271109704722804 0.05129531970198059 0.12456255324278798
0.03270872232943336 0.05195651542233998 0.12381755920611245
0.0326797346670809 0.05288646647940687 0.12323404786528594
0.03262427533795593 0.054082193285379554 0.12281301261252522
0.0325492255339177 0.05547290223047441 0.12251425210906974
0.032568341752136534 0.05591491119945147 0.12164142531069705
0.03275248602771045 0.05470338529625013 0.11975170976294369
0.03275122119627272 0.05535400554604131 0.11899922686181283
0.03275077477377875 0.05599640448547888 0.1182417261196719
0.03275538778484566 0.05658836474734691 0.11745274517330406
0.03272386624056432 0.057539910525601035 0.11688936899322239
0.032714584870672796 0.05826945366738728 0.11618795245900923
0.03271191277440003 0.05893315477286393 0.11544535604949491
0.03271495591507235 0.05954024018640813 0.11466676893747527
0.03271896483507049 0.0601379134512236 0.11388191533104222
0.03272297473771881 0.060735733214674015 0.11309686934520605
0.0327365712928148 0.06123947768647192 0.11225039122115874
0.032758438644600436 0.06166261556961322 0.11135025045585586
0.03278033522983563 0.062086319126155254 0.11044890633410356
0.03280233573523055 0.0625098602995185 0.10954587447004038
0.032835279779509896 0.06282754224092496 0.10857089036895168
0.032871287481412305 0.0631166918881414 0.10757444848382855
0.03291165589525832 0.06336489052484401 0.10654786835239674
0.03296025921443745 0.06353484002640591 0.10546546581216074
0.033032525803044874 0.06347777344621441 0.10422523547374388
0.03310913912198961 0.06338155818336372 0.10295297206388979
0.0332307007495972 0.06285526564494237 0.10137955771891508
0.03359516415667434 0.05999816288056575 0.09818665559551021
0.033628230489875434 0.06033524797500578 0.09718633389233147
0.033593755078031265 0.06132041648660752 0.09663636141271059
0.03372987274364184 0.060673926349636365 0.09494268569883374
0.033777679900443267 0.06087498033474292 0.0938376271287508
0.03382562276891344 0.061076605058122846 0.09272943159434299
0.033873701927746934 0.06127880295349181 0.091618085719128
0.0339219179589336 0.061481576468417676 0.09050357605045997
0.033970271447781086 0.061684928064429434 0.08938588905899336
0.034018762982939654 0.06188886021710549 0.08826501113812774
0.03406731266116628 0.06209413371392619 0.08714148210122827
0.03411608183775275 0.062299235063633884 0.08601418464978819
0.034164990845899565 0.06250492448241762 0.0848836549976831
0.034214040287859925 0.06271120450308837 0.08374987922385133
0.034263230769351 0.06291807767301927 0.08261284332716928
0.034312562899577764 0.06312554655426 0.08147253322588258
0.03436203729125944 0.06333361372363078 0.08032893475701597
0.03441157243031928 0.06354304427529195 0.07918261176229657
0.03446133295954898 0.06375231641345586 0.07803239732668074
0.034511237608692985 0.06396219466024616 0.0768788515597364
0.03456128700477425 0.06417268165266521 0.07572195996782558
0.03461148177845883 0.06438378004303014 0.07456170797310804
0.03466182256408126 0.06459549249909452 0.0733980809129369
0.03471222642792175 0.06480858782173476 0.0722316639112936
0.03476286091124597 0.06502153707882968 0.071061246086916
0.03481364333072541 0.065235108498852 0.0698874087131251
0.03486457433563492 0.06544930481240063 0.06871013678191384
0.03491565457905371 0.06566412876608274 0.06752941519732658
0.034966884717894595 0.06587958312261938 0.06634522877480453
0.03501818036148184 0.06609644040324003 0.06515818457980554
0.03506971202687423 0.0663131645243164 0.06396702638322616
0.035121395580598076 0.06653052743455884 0.06277235727670682
0.03517323169517497 0.0667485319623613 0.06157416171485708
0.035225221047103225 0.06696718095283594 0.060372424060372576
0.03527736431688611 0.06718647726794702 0.05916712858336337
0.035329662189062895 0.06740642378662404 0.0579582594606578
0.03538202852419111 0.06762779738703867 0.056746450223173206
0.03543463741266508 0.06784905362521498 0.05553038991731557
0.03548740298050736 0.06807096880703328 0.054310707950328774
0.0355403259286932 0.06829354588057812 0.05308738811908481
0.035593406962386255 0.06851678781154097 0.05186041412365072
0.03564664679096875 0.06874069758336143 0.05062976956657278
0.035699957732608756 0.06896605582060511 0.049396111435810686
0.03575351703071995 0.0691913109041567 0.048158080249772195
0.03580723727630214 0.0694172428868276 0.04691632873874407
0.035782976512124746 0.07032671711170424 0.04627164988432314
0.035919995236339486 0.06982902118694306 0.04438433605057979
0.035946503249168586 0.07029807338222699 0.04334546692432295
0.03594937127153118 0.07097335866159116 0.04248877242471638
0.03592858798785762 0.0718535936200485 0.04181598690179683
0.035882449220460175 0.07295212244511845 0.041342058023931094
0.03588093110434136 0.07366414401649801 0.040520984979365904
0.03607701426633205 0.07267627888243633 0.03814859125599818
0.04055979146270593 0.03490407689885472 0.0020122398096888428
0.040441246902734686 0.03670925567004957 0.0020069168828923956
0.04031245719004741 0.0385973496401919 0.002088247002710819
0.04019400724822107 0.0403922860702321 0.0020934175706040503
0.04007458048547784 0.042190915858954736 0.002111869916590403
0.0359659607530144 0.07783495194480183 0.03401111369555104
0.035867898487169994 0.0793657027358069 0.033962051443703234
0.03585318170633299 0.08018865707403489 0.03324770869490695
0.03668122917748846 0.07390905940525916 0.025741335429986967
0.036879011339280586 0.07296069224821367 0.023291112845897577
0.03716160475341382 0.07130862915862024 0.020144188209289038
0.03760111181885924 0.06835443212148512 0.015708485755775492
0.03108499479765916 0.011728525792902622 0.18356843089325678
0.030916448786482788 0.014362737575758788 0.18357562752255385
0.0307497206633268 0.016968537520239357 0.18358274653100562
0.03058471426879199 0.019547177951378336 0.18359009062320392
0.030421535498832076 0.02209750626168777 0.1835970564869665
0.030260154196338027 0.024619989767393324 0.18360365018929004
0.030100476059586406 0.027115851803249158 0.18361017430372129
0.029942474268119124 0.02958551158859435 0.18361662992608913
0.0297861225616747 0.03202937958656943 0.18362301812933424
0.029631269625568387 0.03444933524949395 0.18362992391246613
0.029478080619408823 0.0368435293292545 0.1836364678139201
0.029326405876294797 0.03921381671576035 0.18364323334313523
0.029176283977203652 0.04155983713129996 0.18364992960684784
0.02902769119659124 0.043881961345301534 0.18365655766334976
0.028880663948111885 0.04617985680321862 0.18366283404122014
0.028735059539197312 0.048455279236716164 0.183669330220633
0.028590915918295746 0.050707873310635476 0.1836757612264979
0.028448211211920368 0.052937980851319344 0.18368212803470632
0.02830698129288851 0.05514527305865341 0.18368815279618916
0.028167146704383916 0.05733075754841238 0.1836941180338255
0.028028630679156195 0.059495404507264316 0.1837003006661713
0.027891470330369785 0.06163886575226729 0.1837064227880948
0.027755811156927608 0.06375954937122058 0.18371166529612662
0.02762146523841997 0.06585970361390747 0.18371685705371368
0.02748830550723158 0.06794086411406708 0.18372254014656547
0.02735631645365526 0.07000327981914412 0.18372870743609146
0.027225641886576248 0.07204537866297844 0.1837345477176069
0.027209851983295216 0.07277230086876846 0.18316301106144414
0.027188051805670778 0.07356699777584103 0.18262290746780174
0.027186307143305367 0.07413294952085525 0.1819810020248525
0.027200481972105398 0.07451827480914353 0.18125716314383927
0.02722224899966864 0.07481821254012572 0.18049334896520958
0.02726918495075646 0.07483457390731613 0.17959761770135813
0.02733326538615656 0.07465940398733223 0.1786100798770028
0.027439373704595375 0.07401351166618464 0.17739892263490092
0.02780123350201693 0.07049687554559525 0.17483444558230185
0.027894029371495346 0.0700140294048141 0.1736775031144697
0.027988623370059886 0.06951476999700429 0.17250655253803274
0.028087641234469597 0.06896984693263852 0.17130743410575805
0.028187305366134802 0.0684216888010814 0.17010010612172677
0.028287736531602856 0.06786898909045708 0.1688838710756896
0.028388828282742244 0.06731297782062073 0.16765925033166265
0.028490645167012413 0.06675297827097754 0.16642584535877583
0.028593253491421017 0.06618829941016535 0.16518324183263886
0.02869654466886887 0.06562018997241892 0.163931978746022
0.02880064414425264 0.06504730612831189 0.16267131572343232
0.028905441869608525 0.06447090936494215 0.1614018038317698
0.029011005040633062 0.06389030258269168 0.1601230193878671
0.029117402714704147 0.0633047736392282 0.15883452188064803
0.02922458368654903 0.0627149340421887 0.1575365384777814
0.02933255663806165 0.062120736013273725 0.15622896403976044
0.029284756500125186 0.06323192008916312 0.15579707026932516
0.029290768963495983 0.06375463039328455 0.15506188270098983
0.02935528233738769 0.06364110168325698 0.15399280124485457
0.02954017460193135 0.06222287970311152 0.1522312792475112
0.029591944109276385 0.06225509185472622 0.1512264215847324
0.02964389538850968 0.06228741710890073 0.15021803568913125
0.02969602939866442 0.06231985606237089 0.1492061029456559
0.02980586850770933 0.061732362831737886 0.14785569932030482
0.02992439905675678 0.06105576833040527 0.14644922484581013
0.030156763742184005 0.05916144463709211 0.14436885188869084
0.030067135963702068 0.06072793948241023 0.14417520616576404
0.030037034105193813 0.06165396242312826 0.14363357554541464
0.03003819566589945 0.06224491494830697 0.14290761992498663
0.030070045832436682 0.0625088078980584 0.1419985233536088
0.03015071533254337 0.0622546015027704 0.1407954816336036
0.030898612279812436 0.05491854230251986 0.13557601610124434
0.03112498990445669 0.05313991499318149 0.13346953192026031
0.03127999946540777 0.05212535171391164 0.13178481832393266
0.031396956363594186 0.051518792840179906 0.13032425651177268
0.031490160480898914 0.05116724796864053 0.1290032136090134
0.03146365632049466 0.05207857183291709 0.1284119363959851
0.03144080223454293 0.05295051175731719 0.12779945310971916
0.031481226143581786 0.05315850045800169 0.12679692022010294
0.031791112449404565 0.0505500722558026 0.12412035833791502
0.03177362821005197 0.051371162553296934 0.12346822738615457
0.03172870557342896 0.05247739920429695 0.12298851056804597
0.03164754807280577 0.053958592203596334 0.12273839481798979
0.031600480948889814 0.05508274631649268 0.12227735952876187
0.03167393237548754 0.054956729462998455 0.12105629918738797
0.03180065706774933 0.05428295164865088 0.11949349402719403
0.03178504100207276 0.05508285174053584 0.11883174026830684
0.03177889996279342 0.05578455713999342 0.1181101242657884
0.03177759976949378 0.056436265352637016 0.11735772044405654
0.031778249772217916 0.057067917897844656 0.11659281047387926
0.031788798795430985 0.057598259752448255 0.1157638363550122
0.03177969432988941 0.05832982444964124 0.11506195864932811
0.03177420524722552 0.059024157760506235 0.11433695719939518
0.03177037844015996 0.059701353920270595 0.11360134653960394
0.0317712447404359 0.06033072983401572 0.11283511176605007
0.031785979937089856 0.06081955684118939 0.1119774628308298
0.031804924629238056 0.061266390331156106 0.1110912741444203
0.03182418167033586 0.061710831296516444 0.11020210561754962
0.03184389721116929 0.06215142589226924 0.10930896143462998
0.031877004633826256 0.06245814016326545 0.1083253610070477
0.03191010813954436 0.06276622381026475 0.10734020174244521
0.031950507336894175 0.0630025630166628 0.1063043433219126
0.03200118704855489 0.06313776111552283 0.1051970966629224
0.032073939770206325 0.06305479660740254 0.10393777236344343
0.0321593727741414 0.0628485120846014 0.10258869114184993
0.032278613688854416 0.06230975288937468 0.10100468911633459
0.03263126447587715 0.05946137100879695 0.09781573664653492
0.03261961614395794 0.06023210531804335 0.09711466898956952
0.03261200732894794 0.06096247947295508 0.09638628828931681
0.03275303949272497 0.06022763173368578 0.09462916184781095
0.03279637196441223 0.060459356833821365 0.09354404193630816
0.032839742110119995 0.0606924530026543 0.09245658472196053
0.0328832271137014 0.060926166483968036 0.09136624757664707
0.03292682743203119 0.06116049973327464 0.09027301904474741
0.032971865355749225 0.06138256080193255 0.08916757774616163
0.03301897604716458 0.06158625309488425 0.08804533168491152
0.03306622155614678 0.061790528298025005 0.08691987407057081
0.03311360246224029 0.06199538891712597 0.0857911910975398
0.03316104069539927 0.06220159840908862 0.08465983037715002
0.03320869392146262 0.06240763803916133 0.08352465845561563
0.033256484302347095 0.06261427068955772 0.08238621929871814
0.03330441243104138 0.06282149892420341 0.08124449878056678
0.033352478903957865 0.06302932532182126 0.08009948269371928
0.033400684320956366 0.06323775247604868 0.07895115674859987
0.033448949260774144 0.06344754755799031 0.07780008935556262
0.033497434147272194 0.06365718467248938 0.07664510410562453
0.03354605979735991 0.06386743041533427 0.0754867656484147
0.03359482682493583 0.06407828744087352 0.07432505935992068
0.03364373584747281 0.06428975841891887 0.07315997053097337
0.03369278748604536 0.06450184603484621 0.07199148436661668
0.03374198236535491 0.06471455298971945 0.07081958598548921
0.03379123944296176 0.06492865080710003 0.06964486887612392
0.03384072245312352 0.06514260521431736 0.0684661048127308
0.033890350599103156 0.06535718715918565 0.06728388338304725
0.033940124520373156 0.06557239940665055 0.06609818935382372
0.03399004486016766 0.06578824473793032 0.06490900740219246
0.03404011226551134 0.0660047259506249 0.06371632211499889
0.03409024426471282 0.06622261831332943 0.06252074919986267
0.03414060751174335 0.06644038035725319 0.061321014499791715
0.03419111978732485 0.06665878677516296 0.060117729696428424
0.03424178175391669 0.0668778404314253 0.05891087900890252
0.03429259407791103 0.06709754420740333 0.05770044656266843
0.03434355742966102 0.0673179010015924 0.05648641638881691
0.03439458787018365 0.06753968984030584 0.05526942710909322
0.03444585505206722 0.06776136204625116 0.054048157177036704
0.03449727529569913 0.06798369607013283 0.05282324105827324
0.034548849287569204 0.0682066948802349 0.05159466239947169
0.03460057771827796 0.0684303614626251 0.05036240474936593
0.03465246128256886 0.06865469882127512 0.049126451558009654
0.03470450067935816 0.06887970997820614 0.047886786176044804
0.03475661020785882 0.06910617835896193 0.046644074872976504
0.03472242793710955 0.07011237964306166 0.046083067219853224
0.03486286486023573 0.06954709212588428 0.04413497884423562
0.03488287081714656 0.07006790114792255 0.04314081700653932
0.03488043401593035 0.07079040981585194 0.042325255342332724
0.034856085244632365 0.07170852502416786 0.04168564622726678
0.03480523666803571 0.07286180993730523 0.04126048890370765
0.034838887617383164 0.0732617482069674 0.040155641351932
0.03943053759978338 0.033228424617847474 0.0021454969955788106
0.039313122532318674 0.03505971577192807 0.002155031029858978
0.0391962947703021 0.03688110340699435 0.0021654034146882384
0.03908343669672673 0.038662821173377715 0.0021489437103608955
0.03896210396675053 0.040514503840253735 0.002207313661029442
0.038862467507467434 0.04217102064891709 0.00209323270132461
0.03491222483419977 0.07751868829701353 0.03371330095437408
0.034769142380782186 0.0794691583029391 0.03405997931977306
0.034735884748254814 0.08045725802631332 0.033503282517402866
0.03477926173155979 0.08077804010807282 0.03231119750192546
0.03563667717447478 0.07404263828083874 0.024331328986247958
0.035863196287450785 0.07279904587515695 0.02158457271761438
0.03619305413244391 0.0706727313757467 0.01796060688382367
0.030115329559771222 0.011707061056534074 0.18356046314948918
0.029952031776436353 0.014341540689087662 0.1835677033969142
0.029790429852010948 0.016948409147024335 0.18357516867996834
0.029630627190143408 0.0195265034115108 0.18358225235107375
0.02947252981413478 0.022077086321512673 0.1835892604308175
0.02931617402675295 0.024599820113791804 0.18359589586329114
0.029161468459835943 0.027095928304375516 0.18360246126354537
0.029008387125229733 0.02956583020101844 0.1836089577344681
0.028856904577622865 0.03200993635294297 0.18361538635590943
0.02870687421196381 0.0344301264591399 0.183622332198005
0.028558395825321235 0.036825281071813765 0.1836292061892015
0.028411445460095677 0.03919578665903001 0.1836360094386458
0.028266058638867747 0.041541309125370296 0.18364245555419736
0.028122093794146125 0.043863653064082964 0.1836491220353371
0.027979588001022987 0.04616246056492429 0.18365572095307317
0.027838519190586143 0.04843808762872426 0.18366225332933742
0.02769886573676238 0.050690883112733176 0.18366872016555505
0.027560662527369356 0.05292051719874269 0.18367484220465183
0.02742383159589577 0.05512801230819597 0.18368090345533922
0.02728835260442474 0.057313696552956594 0.18368690481853459
0.027154151174816808 0.05947854025049165 0.18369312324698284
0.02702126326220665 0.061622195209643016 0.1836992808115097
0.02688982983120229 0.06374306938207364 0.18370455832920138
0.02675966881299536 0.06584341127891175 0.18370978475491112
0.02663065709633586 0.06792475671764103 0.18371550223467242
0.02650277965295781 0.06998735469528788 0.1837217036331755
0.026415271278857663 0.07156867207614304 0.18352352541153297
0.026373710461191656 0.07260556171124771 0.18308872104739687
0.02635600460341651 0.07336045163506666 0.18253028477229744
0.0263543122033808 0.07392679436318672 0.18188795686415624
0.026371091442986046 0.07427680633763473 0.18114747714621884
0.026395400191422794 0.07453951698091155 0.18036593883584587
0.02644105497002136 0.07455420783562655 0.17946862219673257
0.02650786249107776 0.07432445766678847 0.17845498704476925
0.0266211826206703 0.07355677971610858 0.17718609032016758
0.026984708248313304 0.06989040824195591 0.17455004167271884
0.0270797177210104 0.06934941490582613 0.17336385520610048
0.02717534406271016 0.06880522903550101 0.1721695858375312
0.027271648166015024 0.0682571861914622 0.17096685196103503
0.027368692565673574 0.06770460806531503 0.16975525685330686
0.02746637438444902 0.06714872383236559 0.168535318175167
0.027564812073188713 0.0665882133722977 0.16730632653248584
0.027663901384491353 0.0660243182634106 0.16606881120905523
0.027763705673123473 0.06545635437848024 0.16482236661370622
0.027864290030054785 0.06488362302198075 0.1635665710589219
0.027965548102765272 0.06430738478412046 0.1623019717384844
0.028067602961434467 0.0637262815335573 0.16102781553941314
0.02817040540668223 0.06314092150391365 0.15974432571242925
0.028273904660592354 0.06255192674008864 0.1584517394684027
0.028378226698384443 0.061957915335957126 0.15714927604533777
0.02843625797851171 0.06189099205745019 0.15611071714706268
0.02840447219455758 0.06283891777321748 0.15559356230041566
0.02842306979892869 0.06321863474615569 0.154782639963276
0.028618737112175174 0.06161048803421437 0.15292847193831124
0.02866889476209099 0.061641628807821036 0.15192477663125553
0.02871928943133297 0.06167219753752007 0.15091719548454216
0.028769800470584413 0.061703556450783126 0.14990643007735874
0.02882048949891523 0.061735025865523596 0.14889210296945826
0.028932475906411115 0.06108653361956157 0.147506868069278
0.029271757242025166 0.05791825883161544 0.1447444193857102
0.029217263656480738 0.0591293078677963 0.14435128571560424
0.02915399599099737 0.06043518156420319 0.14401422867722877
0.02913399112183067 0.0612606291290127 0.14341600897695164
0.029143394304427604 0.06176106884277327 0.14263839946119625
0.029184148954614728 0.06191694718268137 0.14166725177092138
0.029311095479064984 0.06112795801176718 0.14016115989630165
0.030127450859648 0.052787452598710594 0.13436909793293733
0.030301753657371637 0.051505185449091606 0.1325382746635151
0.030429468271412588 0.05073887922451442 0.13099034848727478
0.03053050439437611 0.05026863932849712 0.12960370224639148
0.030576476305026894 0.050401594806003924 0.12855933168858652
0.03052782054900504 0.05156388342466206 0.1281118082706638
0.030533739110097356 0.052132741324654175 0.12731981281192994
0.030880849201966477 0.0490114823892705 0.12435046554459281
0.030858686429577554 0.04989105409149441 0.1237293278535109
0.030827571627986716 0.05086616152037188 0.12316684861962374
0.0307669276708951 0.05215753210073709 0.122796514521966
0.03068127213046669 0.0537148411360453 0.12259124259993723
0.030672378497138757 0.054446291747918985 0.12189092074255817
0.03088211628048754 0.05283983390645658 0.11976358935594211
0.030862131550089638 0.053693432828179344 0.11913143203292434
0.030836414710125853 0.05460725121910909 0.11853797075259384
0.030823151449658512 0.055387627980580945 0.11786354754766312
0.03081200229352958 0.05614502670881355 0.11717576784088879
0.030808708137381804 0.056818794216039525 0.11643628316038243
0.030812212471577723 0.057420583557930005 0.115651565807571
