# .PCD v0.7 - Point Cloud Data file format
VERSION 0.7
FIELDS x y z
SIZE 4 4 4
TYPE F F F
COUNT 1 1 1
WIDTH 759
HEIGHT 1
VIEWPOINT 0 0 0 1 0 0 0
POINTS 759
DATA ascii
-0.019711890891273277 -0.06645093048614509 0.015923200948598504
-0.01967834419253993 -0.06478249116207557 0.015366319112766869
-0.019645226951333496 -0.06312688547223283 0.01480640625663937
-0.019608448748957376 -0.061391347246045946 0.014307451710703523
-0.019577257793586936 -0.05978556151470393 0.013724714701515817
-0.019544292293160313 -0.058142583862902386 0.013173376335448739
-0.01951056633009997 -0.05648550263947816 0.012637679954071779
-0.01947974779065516 -0.054896879526720455 0.012059505029708373
-0.01797904396830502 -0.014556045004211982 0.028020273507169957
-0.017792809073352053 -0.009620815464067067 0.030085595670009235
-0.017766091076370148 -0.00821551137084553 0.02955091577390112
-0.017760726218753305 -0.007281911513481731 0.028667223546300413
-0.01776965243512758 -0.006662204908967739 0.027547795139034104
-0.01777993125552434 -0.0060712788949213725 0.026404948651373106
-0.017775384485960225 -0.005155647961319398 0.02550776202178573
-0.017776727701650695 -0.004368789546477347 0.024512706813345164
-0.0177840152793987 -0.0037110748462859666 0.023417905070847345
-0.017799229809927333 -0.0032247077884384745 0.022189053635222777
-0.017818881530777545 -0.002833028028950191 0.02088370518329008
-0.01785164412592094 -0.0027228489909835174 0.01935437738823098
-0.0178935784690824 -0.0028074273383490445 0.017665781451515927
-0.017953661927471297 -0.0032786621018277007 0.015663537265887983
-0.018079374842702573 -0.005153488589655475 0.012533530388703584
-0.01635086338754519 0.04246897527631088 0.029537261206640908
-0.01627893223939462 0.04471457152941005 0.029930466293009383
-0.01620763120390484 0.046940496490456673 0.030320226925645455
-0.016136952037557103 0.049147007511311014 0.030706588166995674
-0.016066844437305286 0.05133522871663909 0.03109035683701089
-0.01599738521238434 0.05350365669312113 0.031470047079917685
-0.015928482489129394 0.055654268973526766 0.03184722253819666
-0.01586021189125107 0.057785591433667405 0.032220413038596296
-0.01579248324904043 0.05989955606760794 0.032591163784362276
-0.015725371026458677 0.06199471736778761 0.03295801998637282
-0.015658786709971062 0.06407296315071931 0.03332250882539334
-0.015592803628882448 0.06613287587089262 0.033683190605770574
-0.01552733487984129 0.06817630047582185 0.034041574888814874
-0.015462452681926187 0.07020184674491653 0.03439623678917919
-0.015398110460166904 0.07221053559060014 0.03474794704822215
-0.015334263059756638 0.07420335077066864 0.035097460086133125
-0.015270981078997086 0.07617894189132757 0.03544337271461101
-0.015208219261901275 0.07813829409693446 0.035786442018898634
-0.0151459337178508 0.08008235691104731 0.036127409273296995
-0.015084193475785308 0.082009818426724 0.036464892389491355
-0.015022954542423958 0.08392162964371086 0.03679963526327379
-0.014962174237867476 0.08581870739357733 0.0371323664666835
-0.014901920071101313 0.08769977696927544 0.03746172443682788
-0.014842149258457378 0.0895657567548801 0.037788440323496875
-0.014782820280291329 0.09141753234297684 0.03811323041822229
-0.014723999173120984 0.0932538649902222 0.03843475313044936
-0.014665644312759388 0.09507564190614548 0.03875372728568521
-0.014607575752343059 0.09688645215126152 0.03907355418459163
-0.014617384972289899 0.09736544152914028 0.038084146630164906
-0.021500831551700936 -0.08377194142452427 0.021393680541246518
-0.021462948831180925 -0.08202974349576825 0.020826153117465163
-0.021428491897157495 -0.08036487443211593 0.020214345195825933
-0.02139135218102154 -0.07864505873142502 0.019643900510473766
-0.02135287989282939 -0.07689972365172337 0.01909611482088569
-0.021314615062943958 -0.07516214544270128 0.018549311039009586
-0.02128028688302926 -0.07351230140785903 0.017950281369030374
-0.02124324553062399 -0.0718073088826705 0.017393584719915534
-0.021204686170709995 -0.07007305463031915 0.016862472372996595
-0.021168796170238934 -0.06839902889135424 0.016296826045304136
-0.02113207345923553 -0.06671035735697439 0.015746889558881427
-0.021095138424634816 -0.06502032358385695 0.015203785736246311
-0.021058129284171816 -0.06333188457517763 0.014665533853769841
-0.021023609974870627 -0.061699286015427623 0.014094668502282526
-0.020986851169058032 -0.060022368803569925 0.01356017776300189
-0.020948680442106064 -0.05831885600556952 0.013050223648049197
-0.02091538644155255 -0.05672114737839923 0.012472138585183923
-0.020879869544173698 -0.05507965128424991 0.011930400066614222
-0.020859400680036336 -0.05375629301947615 0.011168491424239535
-0.019128435628310462 -0.01095363964330931 0.029096752099146084
-0.019072101326740795 -0.008976068005099813 0.028983580453251445
-0.01905746000474098 -0.007858475769616902 0.028234802735873976
-0.019060674820304026 -0.007107614670865625 0.02721192892784058
-0.019061561909508147 -0.0063089343059061775 0.02622477176312743
-0.019056739825771316 -0.005393812874965931 0.025326222481466265
-0.019055410077736295 -0.004550136275303485 0.024373729979589198
-0.019063280957085524 -0.0038933133903225614 0.023277491368125847
-0.019076820710554474 -0.0033506308247959193 0.022091507920693865
-0.019097834209460686 -0.002957837528140328 0.020786501693459192
-0.01912966471459273 -0.0027813990929797527 0.019308532594041472
-0.019169896727518513 -0.0027713129930069247 0.017694211022198814
-0.019229575563356603 -0.0031483128300529573 0.015766699719482746
-0.019334812656434802 -0.004433153374619969 0.013106680468392529
-0.0175453277840517 0.04195294084869128 0.02909501619662952
-0.017468025458090772 0.04420419840572315 0.029490762951305483
-0.017391401313087366 0.04643570545746478 0.029883037780408683
-0.017315446463395664 0.04864772077849816 0.0302718861737184
-0.017240106825990798 0.050841372481163216 0.030658117642333782
-0.017165464916711372 0.053015153280906446 0.031040242173412558
-0.017091421981733093 0.05517104719634652 0.031419828334502575
-0.017018059261888385 0.05730757633029315 0.031795401869437134
-0.01694532365202428 0.05942584225453823 0.03216776497377444
-0.016873163703582172 0.06152690587385623 0.032537702331593976
-0.016801658796858288 0.06360933210849717 0.03290376275773621
-0.01673071466832204 0.06567499315827396 0.03326746924701712
-0.016660409491247304 0.0677224816764419 0.03362738563497447
-0.016590650711507067 0.06975362743796648 0.03398501739663157
-0.01652151532129848 0.07176705019799634 0.0343389431070269
-0.01645295373390945 0.07376376215843389 0.03468993134101184
-0.01638491787109745 0.07574473873207921 0.03503873443974892
-0.016317483000774385 0.07770863917725879 0.035383952572654864
-0.01625060093590531 0.07965644031259689 0.035726340738325424
-0.016184224939893254 0.08158908368230933 0.036066638207728985
-0.01611842861097247 0.0835052667205719 0.036403466151672614
-0.016053165102257672 0.08540593246398653 0.03673756645497395
-0.015988505979092203 0.08728982569515803 0.03706758482393052
-0.01693783571168069 0.07045628041663232 0.01932045682987399
-0.016978513064569406 0.07043320343061987 0.017727921026909177
-0.01701943046478198 0.07040920350328189 0.0161269248875599
-0.01706054555943816 0.07038508761923207 0.014518193456002193
-0.017101815157500828 0.07036167082682049 0.012902475547331704
-0.022988900498863617 -0.08580843540333605 0.021779077066618246
-0.0229460397321964 -0.08401249963519508 0.02123907824986193
-0.022909268064053533 -0.08234369837480193 0.020623241100404033
-0.022867301849099936 -0.08057254111774947 0.020079371874643703
-0.022827799744852002 -0.07885461243898295 0.019506934411752053
-0.022788953905497043 -0.0771531096297789 0.018929569279461045
-0.02275135068300352 -0.07547977021026081 0.018339371830842832
-0.022710993434274355 -0.07375406155753983 0.017789591428104934
-0.02267210258658015 -0.07206102978135032 0.01722400214598846
-0.02263239211034127 -0.07035470384188874 0.0166731723149125
-0.02259136024122711 -0.06862515121535467 0.016143999406843412
-0.02255331426030996 -0.06695846958517837 0.015578267817233982
-0.022512858367607497 -0.0652468594142025 0.015048972392616267
-0.02247608778042644 -0.06361173255284175 0.014473226361803149
-0.022437060392217333 -0.06193480470425916 0.013931927005997102
-0.022397307159137094 -0.06024664732271778 0.01340434598938306
-0.0223578375565578 -0.058567286062000956 0.012876657735956698
-0.022320787220272618 -0.0569387819350089 0.01231924944782764
-0.022281870698404854 -0.05527654563007467 0.011791319287424884
-0.022245991775540666 -0.053677065815612046 0.011224763237441038
-0.0205069734187169 -0.012948438148236152 0.027616779150634208
-0.0204036648070956 -0.010133938368412088 0.02811986990649401
-0.020369479356183814 -0.008656891822266422 0.02763599396277544
-0.020366393516048124 -0.007779349514414058 0.026705399715956424
-0.020346535580476423 -0.006580896211488774 0.026018585619383916
-0.0203396092907885 -0.005631139398476481 0.025145321998567838
-0.020335349330085132 -0.0047327808316395825 0.02423375854253834
-0.020343693643788383 -0.00407459724921988 0.023137813245094008
-0.020355185644198498 -0.0034755105851560497 0.021994770375999617
-0.020377614540167635 -0.0030827277956340104 0.020689235300075104
-0.02103974416266727 -0.014783196672638721 0.0099110941014241
-0.020447471188286877 -0.002763413968497719 0.01770042928131238
-0.020509320709019542 -0.0031063931470188266 0.015799876316005934
-0.020603498025325555 -0.004051739920227504 0.013410160261518811
-0.018743467831059894 0.04143442429324812 0.02865064398605649
-0.018660711844001636 0.043692283051413316 0.02904973092686508
-0.01857873278961692 0.04592939576279531 0.029444533353486346
-0.018497470876951954 0.04814693851376478 0.029835882101567013
-0.018416916736798187 0.05034516697908492 0.03022382229222459
-0.0183370130625211 0.05252519932940919 0.030609161024234
-0.01825784742067997 0.054685539220606094 0.030990412061161376
-0.018179315123285283 0.05682815403793984 0.03136913954518067
-0.018101502386704608 0.05895157658209654 0.03174387291911934
-0.01802430646158378 0.06105772897102524 0.03211615788894456
-0.01794781224343178 0.0631451724813838 0.03248453927862027
-0.017871964558129557 0.06521497281782496 0.032849807090777006
-0.01779670993624885 0.06726815657351615 0.03321273429049987
-0.0177221313455088 0.06930332652078247 0.03357188822788065
-0.017721367664421027 0.07002878833481574 0.03273583265678792
-0.017763110568676063 0.07000514693129944 0.031205436978831103
-0.01780509593879208 0.06998059657053995 0.02966707151307696
-0.017847280254733845 0.06995592987909283 0.028121416570231483
-0.017889619152477054 0.06993194726083019 0.026569174704714316
-0.017932205407547887 0.06990704738491599 0.025008790308906903
-0.01797494868053382 0.06988283385852156 0.023441725319523266
-0.01801794264683782 0.06985769745828779 0.021866399935828507
-0.018061096116086882 0.06983324969092941 0.020284298452880156
-0.01810450367678078 0.06980787336235617 0.018693816476430647
-0.018148120389385576 0.0697823747624014 0.017095671034319915
-0.01819190042755487 0.06975756823017915 0.015490602672900533
-0.018235939775048848 0.06973182446201792 0.013876969334167044
-0.018280192862862192 0.06970595574932104 0.012255504396392558
-0.024439289758348148 -0.0860691406076835 0.02161246878053813
-0.02439818682606385 -0.08435768120440817 0.02101723643537229
-0.02435546478690208 -0.08261837512436765 0.02044571492129793
-0.02431026608324353 -0.0808350431922169 0.019908758176380104
-0.024267930417566846 -0.07910964993306524 0.019340239702846873
-0.024228191673926324 -0.0774368130169551 0.018743096700987838
-0.024185432345336585 -0.07570968887419616 0.018187403407890157
-0.024142352836295736 -0.07397973744178876 0.01763959216970845
-0.024099973890145468 -0.07226627860245188 0.017086817469729287
-0.02405937996647516 -0.07058967915516667 0.016515242398118524
-0.024018301205804046 -0.06890702679611771 0.015953491449301638
-0.02397596930020957 -0.06720394904117466 0.015411435358127612
-0.02393363210756499 -0.06550397344726372 0.014873262061758874
-0.02389605604522344 -0.06389624515934622 0.014277713402910064
-0.023851932095635252 -0.06216914332993623 0.013770000924256398
-0.02381232146916145 -0.06052944797079074 0.01320785222043458
-0.023768429865628184 -0.0588131681363217 0.012704871975132814
-0.023728110394195555 -0.0571664754953648 0.01215929381665748
-0.02368838076794668 -0.05553375205519995 0.011609635679213803
-0.023646901699708418 -0.0538717107895712 0.011086515243936501
-0.023641557782548218 -0.05287906448913332 0.010091319306424373
-0.02183182493444073 -0.013732898689613415 0.02703477536615534
-0.021742163124215126 -0.011281354967398294 0.02726395732073389
-0.021691493013812818 -0.009542249920693358 0.026971979002318958
-0.021656328424410023 -0.008087003920609626 0.026473409497256184
-0.02163488104850092 -0.006881629190225003 0.02579058686551844
-0.02162411036383733 -0.005869888320186478 0.024963337302185196
-0.021618634692671525 -0.004953988432025158 0.02406423392269974
-0.021625306730991306 -0.0042560510636689974 0.022998004172331665
-0.02163444022165326 -0.003601597233066134 0.021897097920516584
-0.021658286481059223 -0.0032088251424442493 0.02059102881462771
-0.021686743502711086 -0.0028962990156297663 0.01921856583172954
-0.021728679528817105 -0.0028209723384315932 0.017655118990043628
-0.02178897980151207 -0.0030678803895151097 0.015830356568375004
-0.021879544704647758 -0.0038453594222565557 0.013574371370880911
-0.019945202851287085 0.040915247440051705 0.02820570589597826
-0.01985706079509619 0.04317790990928666 0.028606581436701195
-0.019769641729243295 0.04542156054279278 0.029004707700407417
-0.019683041162268124 0.04764465398759965 0.029398570091519693
-0.019597195992659446 0.04984835588586278 0.029788996909015264
-0.01951209637959377 0.052032918857986 0.030176032909301653
-0.01942768183646317 0.05419945124157777 0.03056048279362189
-0.019344044927714032 0.05634646754632355 0.030940864083590425
-0.019261075105895725 0.058475918693819906 0.031318736521335266
-0.01917886351121205 0.060586348098282616 0.03169263323086713
-0.019097301636812298 0.06267966189046525 0.03206409562499224
-0.01901647922955057 0.06475443172658363 0.03243167213408077
-0.018936338044087505 0.06681171410495318 0.032796150478340946
-0.018856821630417266 0.06885252680285198 0.03315830143388565
-0.018867263870860372 0.06939194197330828 0.032148501725835166
-0.01891184474165986 0.06936595056528749 0.03061285813874226
-0.018956588407599183 0.06934063662432838 0.029070686386794997
-0.019001592905576965 0.06931440006835793 0.02752044824865657
-0.019046762758093437 0.06928884316814038 0.025963589397312248
-0.019092196950306072 0.06926235796204738 0.02439854767907257
-0.019137799107715354 0.06923655460584494 0.02282679089148537
-0.01918366917762935 0.06920981718033742 0.021246732553309444
-0.019229759661521496 0.06918295127678814 0.0196590817490373
-0.019276022126218866 0.06915677052114877 0.01806457083227636
-0.01932255798917055 0.06912964690478901 0.01646157606706905
-0.01936926857736706 0.06910321064303726 0.01485162211703428
-0.019416256306354813 0.06907582556947345 0.013233059894071642
-0.019463727583565005 0.06904419346519286 0.011602566677519022
-0.025890611067073962 -0.08631777456671758 0.02145357484173882
-0.02584670440855094 -0.08459884366106712 0.020862245806302637
-0.02580049154230696 -0.0828414067888128 0.020301567464080406
-0.02575419061483028 -0.08108568356945761 0.019745854013450637
-0.02571108127271051 -0.07939066784558069 0.019156563959849382
-0.02566535168395617 -0.07765169950557266 0.018601856117457682
-0.025622872914663197 -0.07597423100310252 0.018012550039003816
-0.025576873998646707 -0.07423686370342447 0.0174686888795218
-0.02553278062822188 -0.07253678072565439 0.016906018616002105
-0.025489995623004108 -0.07086314427100665 0.016331442978658794
-0.0254437312529265 -0.06913073273301795 0.015802297947068333
-0.02540083370741679 -0.06746133613696853 0.015236510238901158
-0.025357262945140915 -0.06578308786601333 0.014682516779966126
-0.025313352534165882 -0.06410195205395092 0.01413635461587398
-0.025266427720344334 -0.06237081483234774 0.013630647570522514
-0.02522428726363151 -0.06072719627597045 0.01307045401150303
-0.025181158299445852 -0.05906923274663001 0.012525972171767263
-0.02513873905225901 -0.05742678431497017 0.011976425824050396
-0.02509365976864767 -0.05574085466853407 0.011463344054850666
-0.025054487503486607 -0.0541612181593778 0.010880890509131103
-0.025016869691900485 -0.052611448045400966 0.010282439853333436
-0.023162550172913896 -0.01453101133454715 0.02644264286724013
-0.023051141001018394 -0.011795656428866541 0.026880315458588655
-0.022990022536418974 -0.009927838620962914 0.02668278909818861
-0.02294796109728611 -0.008389432412066355 0.026245359939107482
-0.02292521698879042 -0.007182826796405417 0.02556223585737505
-0.022910123797979798 -0.006107797152906047 0.02478199295816419
-0.02290431892878964 -0.0051912768144630195 0.023882385631312786
-0.022908188636483886 -0.004438803703862293 0.022857194361612154
-0.022917601380089643 -0.0037796093736202074 0.02175920157996808
-0.02293972828612295 -0.003333877911347538 0.020493635862734505
-0.022965921207709752 -0.002954901787406816 0.019172679797044345
-0.02301027023256982 -0.0028785478860627878 0.01760979517638933
-0.023068451316257923 -0.003030507709751662 0.015859934528645148
-0.02315395870306357 -0.0036346453284802904 0.013742030597548693
-0.021150596448091804 0.04039448999858808 0.02775941323101777
-0.02105698584127152 0.042662886292497704 0.02816287154123731
-0.02096420020906747 0.04491129158948859 0.02856277424074921
-0.020872173298828237 0.04714086043005755 0.028959944249350722
-0.02078100571531859 0.049350058724781765 0.029352870870415826
-0.02069063109201692 0.05154004178682281 0.029742379882131298
-0.02060098516334502 0.05371192186540852 0.030129278656421565
-0.02051216620016793 0.055864209656691866 0.03051208058268884
-0.020424109818088315 0.05799801835388524 0.03089159585132517
-0.020336753648668014 0.060114419943861575 0.031268616853194486
-0.02025019370481113 0.06221196837078846 0.031641680375800785
-0.020164315793814502 0.06429255393937122 0.0320123235629588
-0.020079214463832238 0.06635475860396606 0.03237909843426656
-0.019994777603172042 0.06840042966378712 0.03274352431916494
-0.02001783268345216 0.0687524987516272 0.03155877584313971
-0.020065228863154646 0.06872494021688841 0.030018597612767817
-0.020112798577777282 0.06869805474181129 0.02847185785163414
-0.020160646062866872 0.06867023563675723 0.026917011883269504
-0.0202086698161023 0.06864309169814359 0.02535551116097623
-0.020256975083385434 0.06861500829207257 0.023785786943414766
-0.02030551183453646 0.06858679030751363 0.022208540443904634
-0.020354229057701338 0.06855925065343843 0.020624495898485917
-0.02040323354249866 0.06853076262688257 0.019032047715071776
-0.020452421372228625 0.06850295504617088 0.01743270361611199
-0.02050190038450384 0.06847419306438929 0.015824832933440613
-0.020551619379166962 0.06844529158178342 0.014209163779551226
-0.02060158010640107 0.0684162495809778 0.01258563928047024
-0.027346354099292713 -0.0866161740050545 0.02126287737526722
-0.027299410607092824 -0.08488641304199201 0.020677430294019805
-0.027251912279633906 -0.08315033732580679 0.020101902728545562
-0.02720136981377451 -0.08136550518666413 0.01956398344187621
-0.027159275620342583 -0.07972803798428435 0.018936055897203596
-0.027108102093300807 -0.07793902872675101 0.018413000349750186
-0.02705914955346937 -0.07619117379323315 0.01786915823244767
-0.027014153073260126 -0.07451363454515209 0.017284728482888756
-0.02696676531620696 -0.07279871990005615 0.016730943089119432
-0.026918321450546307 -0.07106919584844718 0.016192953085474526
-0.026871964891499338 -0.06937809030373543 0.01563511928433875
-0.026828021789815606 -0.06773067127063254 0.01505346500425686
-0.02677860609232113 -0.06599446234338102 0.014538064627667768
-0.026733159532671063 -0.0643280162643548 0.013981006569136478
-0.026687009009568764 -0.0626528889384746 0.013435736643513552
-0.026641958063428055 -0.060999210101266466 0.01288145507840327
-0.026595013942476133 -0.05931709139758862 0.012352805473175577
-0.02654882930150508 -0.05765075534353736 0.011819085287840925
-0.02650576657291949 -0.05603925801853993 0.0112525600482139
-0.026459722440518574 -0.05438138899146333 0.010724512580058299
-0.026416275553598243 -0.05276948246208102 0.010169578376012789
-0.02436360951600492 -0.012312461547453468 0.026494805999619675
-0.024291034396337414 -0.01031303457064614 0.026393893755596365
-0.024243787551402336 -0.008727792776510035 0.025990215543780726
-0.024217548017780678 -0.007484490107622532 0.02533353177798392
-0.02419771165889867 -0.006345997250111535 0.024600426599825587
-0.02419164728849598 -0.005429987650938994 0.023699447227843118
-0.024192281870364325 -0.004621728903561773 0.022716251594830428
-0.024202156365997155 -0.003961170189976049 0.021618556271304823
-0.024221929486248326 -0.0034578839927302263 0.020397058087394504
-0.02424867447986063 -0.0030642659785516946 0.019087047439623694
-0.024292172384301747 -0.0029350111867716966 0.01756534693185513
-0.024347817977860273 -0.002995406637833653 0.01588771466959371
-0.02442705707111846 -0.0034252977876085278 0.013908602497321565
-0.024590879972477046 -0.005185123419905402 0.010854957120062347
-0.022359665354266728 0.03987214473991035 0.027311759795918322
-0.022260553305514026 0.04214629930195385 0.027717814747528935
-0.022162316034521762 0.04440038183592798 0.028120285797306577
-0.022064942010795716 0.046634656912347194 0.028519220184861915
-0.021968361769070275 0.04885026881813598 0.028915438331878984
-0.021872680956350102 0.0510456946378105 0.02930743342147263
-0.021777829985947458 0.053222079469128214 0.029696028726769685
-0.021683741468748987 0.055380525787653234 0.030082029219808237
-0.021590518606042167 0.05751955509282636 0.030463952050408416
-0.021498038208405373 0.059641108304611945 0.030843357446852904
-0.02140640189082691 0.061743735684648304 0.031218778158000615
-0.021315543466737672 0.06382851402639922 0.03159101195216352
-0.021225398802091858 0.0658964805001751 0.031960839283150855
-0.021136820629479792 0.06793499581584173 0.032316511420979965
-0.02117310274072441 0.068110442753547 0.030966640329978257
-0.02122333691395009 0.0680813044746551 0.029421903166772123
-0.02127381001996158 0.06805202760316703 0.027869818647437705
-0.021324468989006053 0.06802342032118808 0.02631109223922168
-0.021375424841054712 0.06799386529124107 0.02474416071593788
-0.021426569495125898 0.06796498187507938 0.023170492483638117
-0.02147801505226091 0.06793514468579276 0.021588499918053228
-0.021529652409636887 0.06790598113624796 0.019999673959041286
-0.02158159476531068 0.06787585770956212 0.018402402178874955
-0.021633788359044514 0.06784558858010697 0.01679740461373791
-0.021686178365474693 0.06781599612871442 0.015185425009443032
-0.02173887965907852 0.06778543448553487 0.013564812949915517
-0.021791837723902745 0.06775472394005272 0.011936304944851595
-0.02886064903298339 -0.0887675753031561 0.02158618915581867
-0.028801860708406752 -0.08688087621598539 0.021093714730261615
-0.02875352615968367 -0.08516817383629416 0.020496347854450647
-0.02870177069139222 -0.08340298578961292 0.019938613645466563
-0.028651328481366773 -0.08166242378096039 0.019371000653925385
-0.028602561163973615 -0.07995221477827213 0.018789532018563426
-0.028549108494243164 -0.07816945167873357 0.01826154795438706
-0.028503942144646497 -0.07652371824857473 0.01764935761279879
-0.02845187610138985 -0.07476987151919678 0.01711441627311605
-0.028401569150597373 -0.07304761892830497 0.01656458337028155
-0.028350979858057537 -0.07132407527020601 0.016021645355739245
-0.02830231206170977 -0.06963451518251096 0.015461812403396169
-0.028254633283219432 -0.0679638696339745 0.014894979011356724
-0.02820620437693055 -0.06628433976695108 0.014339963963641844
-0.028156761687861093 -0.06459180652298457 0.013799733715199769
-0.02810631673988507 -0.06288655047669861 0.0132742784242032
-0.02806064706689368 -0.06126014369020899 0.012700154848918954
-0.02801207210277687 -0.05959076654167589 0.012161602046602327
-0.02796223328752916 -0.05790458248783337 0.011640770700532321
-0.02791676271201088 -0.05629034298314739 0.01107520047520838
-0.027868861956730953 -0.05464086177895949 0.010540220136999567
-0.027821302457758504 -0.052999807845548585 0.01000508971683789
-0.02778202892038306 -0.05149140439805561 0.009380544832167936
-0.025679518499705522 -0.012830621404713305 0.026108285976795875
-0.025594599435943742 -0.010698986450781822 0.02610443146834318
-0.025544768354907703 -0.009111440774524027 0.0257009214936747
-0.025511804282702902 -0.007785479212897961 0.02510533884376598
-0.02548695117765599 -0.006585625521106808 0.02441777162559866
-0.0254804854662089 -0.005667858816217064 0.023517152315080447
-0.025477588149091915 -0.004804826907287396 0.022575175683585302
-0.0254879921753671 -0.004144030830618761 0.021476904058789492
-0.025505102916008892 -0.003584226541685054 0.020298660634878007
-0.025533199350221976 -0.0031894907387509663 0.018988996215631104
-0.025574599414621122 -0.002993750545185858 0.017519106957702812
-0.026309024265401902 -0.0132334157784334 0.007785043998725039
-0.02569885317706308 -0.0032173127341003638 0.01407409030503426
-0.025836460598232986 -0.00445511003904564 0.011438917016351136
-0.023572489994390433 0.039347277285546656 0.026861944821826134
-0.023467779798081886 0.041628141808313646 0.02727140491341229
-0.02336405821573903 0.043887925703889 0.02767645806722646
-0.02326124944660155 0.046127822122583484 0.02807794650604517
-0.023159341493491182 0.048348092447125735 0.028475917081206448
-0.02305832256855211 0.05054899349973013 0.028870415826605822
-0.022958120770271494 0.052731645423000295 0.029262255501910694
-0.022858845873318552 0.054894551238325706 0.029649941174873184
-0.02276036656155185 0.057039681078231486 0.03003504733762352
-0.022662790915006042 0.059165567160075705 0.030416094882147138
-0.022565990053679905 0.06127413420035549 0.030794639657916734
-0.02247007039982204 0.06336394294182768 0.031169218079642513
-0.022374905441239542 0.06543687404308568 0.031541367776658724
-0.022286794063543558 0.06740379733266871 0.03182916265908742
-0.022333159994599817 0.06746495143292308 0.030371336593864984
-0.022386197975382143 0.06743502717620331 0.028822759817117127
-0.022439546094754355 0.06740414995221738 0.027266054932279626
-0.022493091187736486 0.06737393772442019 0.025702673956017386
-0.022546950606806806 0.06734276643211123 0.024131047057919852
-0.022601010119894734 0.0673122620744191 0.022552648552016774
-0.022655388224654113 0.06728079247479973 0.02096588407368566
-0.022710028628376455 0.06724917107811257 0.019371465656573272
-0.022764873926235142 0.06721821952014784 0.01777012879163037
-0.022820044365810033 0.06718629329301762 0.016160241540016274
-0.022875482865092688 0.06715421194425986 0.014542532238812689
-0.02293113120580246 0.06712280333639137 0.012917753256050657
-0.02298711142469304 0.06709041044240266 0.011284234130127191
-0.030261903227124038 -0.0871908482581093 0.020895621582670387
-0.030212278785005826 -0.08549500978303409 0.020286296437146856
-0.03015706671670514 -0.08371572998228138 0.019736484107312324
-0.03009840241363476 -0.08188650587000401 0.01922535810693765
-0.030051379150912477 -0.08024032787964497 0.01860121879688159
-0.030000283997823063 -0.07853438215546077 0.018021686406877957
-0.0299437910009286 -0.07674868327683321 0.017500663376795178
-0.02989218422881823 -0.07504131868848252 0.01693399434672488
-0.029836776411553374 -0.07327898297703433 0.01640994372829252
-0.029785730923965397 -0.07158661996714594 0.015845185693792452
-0.029736401717306085 -0.06992352433877597 0.015266483157761412
-0.02968214551070695 -0.06818855106549904 0.014742281288625425
-0.029630766050409225 -0.06650054188250781 0.0141922126282778
-0.029580899272045144 -0.06483858039144552 0.013630154284247797
-0.0295291091185761 -0.06315061020045376 0.01309181529539638
-0.02948043611472989 -0.06151281401194153 0.012524596053402837
-0.029428902447862008 -0.059834949110845526 0.011991003647753962
-0.02937971224131086 -0.05819543258564153 0.011436447327421995
-0.029328436062586744 -0.05652766456169278 0.010907562987667596
-0.02927780567515262 -0.054872694389176135 0.010375559341104568
-0.02922921198496794 -0.05325122337001681 0.009825539362024405
-0.02918124337689125 -0.051642037981047884 0.009272378760757427
-0.027005636201055425 -0.013449307706143332 0.025646778493572997
-0.02690585274427682 -0.01116081777129413 0.02575805990356539
-0.026848378367982734 -0.009496989526998179 0.02541019415822532
-0.026808135550268442 -0.00808807541274209 0.024875927500923822
-0.026781530330237634 -0.006880169889601495 0.024193257220661013
-0.02677090306664833 -0.005906021483668089 0.023334634006753507
-0.026764109192370007 -0.00498809796001487 0.02243396643912443
-0.026774965611140258 -0.004325933999749121 0.021335993548015686
-0.026789037355468583 -0.003709522560691958 0.020201078236194825
-0.026818557745497167 -0.0033147967569804315 0.018890881366447232
-0.026857495469305003 -0.003053637905616746 0.017471963267806312
-0.026909483403035932 -0.0029772926191947713 0.01590205083032331
-0.02698927269498442 -0.00329570718540545 0.014011714186845714
-0.027110488574534623 -0.004200940130745567 0.01164223531171854
-0.02490070808895697 0.036507945270774944 0.025990150136888712
-0.02478896351108695 0.0388217316910503 0.02641154867718931
-0.02467874840959706 0.04110748697856248 0.02682284354140657
-0.024569443241593724 0.043373916162059156 0.0272312849608336
-0.024461167271470647 0.04561945773371612 0.027635341087897947
-0.024353841446597725 0.04784529418848432 0.02803585153421362
-0.024247453315011457 0.0500516837683484 0.02843286276708501
-0.024141927118239002 0.05223975059100355 0.02882719025868119
-0.024037378428185707 0.05440799382326894 0.029217334894492464
-0.023933668917702714 0.05655839006145941 0.029604876128022095
-0.02383091237260206 0.05868946776624734 0.029988330743703162
-0.023729034404806396 0.06080232457332857 0.03036850678930436
-0.023627962947208796 0.06289801756482932 0.03074619461650291
-0.02352780917929743 0.06497511788223742 0.031119934288273365
-0.023443825868339808 0.06682799062773359 0.03130088801704195
-0.02349792249737057 0.06681761829840444 0.029774334246809697
-0.02355384136798395 0.06678609202621139 0.028221152456922916
-0.023610087772780633 0.06675360150553994 0.02665980227565451
-0.023666542406632816 0.06672177131370954 0.025091741546214963
-0.023723329006709853 0.06668897062457002 0.02351539379184875
-0.023780388775118406 0.06665601214991551 0.021931463116631245
-0.023837661755658667 0.06662371677684442 0.020340676832657167
-0.023895273507631234 0.0665904413696971 0.018741421297925942
-0.023953101877472936 0.06655783091172901 0.01713521106777588
-0.024011273661577782 0.06652423396007845 0.015520407208082954
-0.02406972868211244 0.06649047342614 0.013897740923409063
-0.024128469012727995 0.06645654811228252 0.01226715465079925
-0.024187496747367036 0.06642245680915998 0.010628590264016635
-0.03172471089415717 -0.0875136532851793 0.02068932728454176
-0.03166899969449025 -0.08576205858590724 0.020114669126168883
-0.031608078047311396 -0.08393674325500805 0.019593641156676056
-0.03155350042090286 -0.08220852544928425 0.019016060880831465
-0.03150107232567469 -0.08051512723612736 0.018421607558197495
-0.0314448057896018 -0.07876842222690972 0.017867856550173755
-0.031389662443503406 -0.07704146727078953 0.017307143085234122
-0.03133195437619763 -0.07528021960846587 0.01677520484231393
-0.03127944498477833 -0.07359823501849994 0.016196561273510823
-0.031224270988849768 -0.07188049848690914 0.015647666157354245
-0.031172222704392752 -0.07021143292064247 0.015071897744926399
-0.031114706314641954 -0.0684660640801622 0.014553678209620113
-0.031062118914610987 -0.06679543414639583 0.013990684848240509
-0.031008908662872505 -0.06511887571187674 0.013437539385254438
-0.030953587602607968 -0.0634149828528815 0.012909135935413207
-0.030899754857274205 -0.06173574490414668 0.012369700630414704
-0.03084937599902287 -0.06010926562511243 0.011799352127237539
-0.030795806143132428 -0.05843998680631446 0.011264647009501083
-0.03074222536605622 -0.05677368212916517 0.01073378288776361
-0.030691770442886568 -0.0551551354156502 0.010174953531057573
-0.0306406017744293 -0.053529367970501784 0.009626900220280787
-0.030586196600994618 -0.05186057303630914 0.009115454362933706
-0.030556637765553788 -0.050547503686303785 0.0083532562377156
-0.02834869193509537 -0.014249115305729365 0.025050164011444886
-0.028223914677281275 -0.01167587990158142 0.02537176544393932
-0.028154471874327104 -0.009882146321232965 0.02511976238350755
-0.028106475829950395 -0.0083911405663602 0.024646160623824853
-0.028078560498987503 -0.007181998981214188 0.023963190084008823
-0.028062984926252064 -0.006145612387026156 0.023151021155350837
-0.028055776869896003 -0.005225929471042279 0.02225071866406153
-0.028063230870443007 -0.004509139606743817 0.021194074108792815
-0.028074870262306685 -0.003849588949160321 0.02009199244444365
-0.0281048326531654 -0.0034413140970921408 0.018791818049151587
-0.028140624875431217 -0.003111282915993774 0.017426584772664733
-0.028194939296750997 -0.003032772969953801 0.015858142087744942
-0.02827164863274729 -0.0032570742266408437 0.01404245340910476
-0.02838619901592782 -0.003992815230855762 0.011808720810668527
-0.026126020489914387 0.03598239659626873 0.025542119686124576
-0.026009163172276608 0.038294576313198714 0.025959772937281356
-0.025893346568095988 0.04058616411014132 0.026373706632127736
-0.025778556836352204 0.042857433850357785 0.026783970239089128
-0.02566478038038081 0.045108654562199146 0.027190612353252264
-0.0255519359170715 0.04734098289749372 0.027594461731623443
-0.025440146766418818 0.049552884068060465 0.027993998773125695
-0.025329331506960272 0.05174551547005879 0.028390055104585477
-0.02521941129827671 0.05391999130233299 0.02878344374646863
-0.025110506596103883 0.05607482164168759 0.029172669407171115
-0.02500247337995713 0.05821196649118415 0.029559307047850814
-0.0248954302479324 0.06032996497956761 0.029941877197407374
-0.02478929977819125 0.06242990516481056 0.030321185508941917
-0.024684006958772754 0.06451283496070659 0.030698020038529727
-0.024608866758499742 0.06620141888772857 0.030726038917211873
-0.024667473602176363 0.06616762383099367 0.02917487748811054
-0.024726360260649904 0.06613366742193616 0.027616310133337263
-0.02478546483117686 0.06610036571398459 0.026051045255242433
-0.02484491685774395 0.0660660851630589 0.024477511936122298
-0.024904590253837188 0.06603246107709632 0.022897185105823337
-0.024964615829869863 0.06599785170271594 0.021308469240967853
-0.025024866302834202 0.06596390055328294 0.019712861982705554
-0.025085473768324904 0.06592895758318196 0.01810874279154273
-0.02514637551579727 0.06589384494620898 0.01649683473510738
-0.025207507587254506 0.0658593931626949 0.014877884784076978
-0.025269004042404092 0.0658239395860335 0.013250234081798151
-0.025330801286009126 0.0657883126006929 0.011614622293819266
-0.025392901530282137 0.06575251093130574 0.009970990868642116
-0.03319303653769575 -0.08788667178334514 0.02045094316155943
-0.033126508536492426 -0.0860170421090028 0.019950795950395728
-0.03307069146551108 -0.08430248821621839 0.01935725670557009
-0.0330103986983178 -0.08252793278516962 0.0188084614879645
-0.03295248638634279 -0.08079025279844049 0.01824178310855812
-0.032895099959159894 -0.07906319704672526 0.017674106937233036
-0.032832870385125855 -0.07727145132277236 0.017155131443508054
-0.03277825148738764 -0.07558966763489355 0.016569524995738882
-0.032718912844429585 -0.07384503309891377 0.016031605792116432
-0.032663504204578704 -0.07215848171356087 0.015460830056659991
-0.03260426255664226 -0.07042171974568817 0.0149297736655426
-0.03254565703086023 -0.06869709818048125 0.014396663091612694
-0.03249230393720144 -0.06704850708013438 0.013817736184563056
-0.03243870662198511 -0.06539952209956568 0.013244683237908339
-0.03237892054046065 -0.06366815437684065 0.012734196468109749
-0.03232476048161799 -0.06201758624483267 0.012173873402294255
-0.03226808707638384 -0.06033551241080093 0.011641284588124745
-0.032213367449846306 -0.05868339632019154 0.011093650853178816
-0.03215986227909121 -0.057050957312874295 0.010537923249399228
-0.032105098488751316 -0.05540432126436845 0.009997967465152469
-0.032049703128415596 -0.05375213916085714 0.00946780644984424
-0.032000000312994284 -0.05218047254418662 0.008885742720577627
-0.03194598227079813 -0.05055301714325516 0.008349275569151715
-0.029697089589623738 -0.015050979947630216 0.02445201508386069
-0.02954551249448999 -0.012193451805116606 0.024983588664606426
-0.029463131087991683 -0.01026805972256184 0.024828760080775225
-0.029406829795623174 -0.008694675764751747 0.024416037385334932
-0.029377600322257384 -0.0074842957351994865 0.02373276647494893
-0.02935657392375473 -0.006384361063146382 0.02296805375350236
-0.02934911469413518 -0.005465187337578337 0.022066371890091252
-0.029352715337520808 -0.004692518598612583 0.02105202035771936
-0.029364809501986982 -0.0040316007642901 0.019950238903057582
-0.029391864325103472 -0.0035667836026851973 0.01869357518905268
-0.02942430981951261 -0.0031712067532013166 0.01737941236803109
-0.0303429889939517 -0.014380860382291694 0.006876921832720151
-0.03028492102623472 -0.012773959155777337 0.00647014219940284
-0.029660538854366453 -0.003784913937042833 0.011975027440250696
-0.029889474525720997 -0.005935168209861452 0.008591261203533762
-0.027355725534626667 0.03544673586544833 0.025085468701964098
-0.027233106124386532 0.03776580374432259 0.025506611253679534
-0.027111654215991217 0.04006324907591863 0.02592319801930304
-0.026991280781780775 0.04234029344797674 0.026336085558680666
-0.02687197152022643 0.044597207395399296 0.026745322926850668
-0.026753712381555 0.04683425669075608 0.027150958315312557
-0.02663641895790231 0.04905258769277149 0.027553817944436454
-0.0265202195099348 0.05125067680851225 0.027952386138291818
-0.026405029483632145 0.0534296711798089 0.0283474919802153
-0.026290766998850718 0.05559067519509914 0.028739946054156806
-0.026177557343513364 0.05773220975477411 0.029128256872722247
-0.02606525087627296 0.05985621843800848 0.029513994930681797
-0.025953970956969382 0.06196125095746874 0.02989568448325841
-0.02584363717094731 0.06404838589641715 0.03027412880342173
-0.025780385872218484 0.0655495554759915 0.030127985935307577
-0.02584184290038424 0.06551495158487286 0.028572951150627968
-0.0259036604124384 0.06547936377451563 0.027009725808085083
-0.025965707293600874 0.06544442589139277 0.02543976832104411
-0.02602811954555455 0.06540849757420325 0.02386150110864338
-0.026090764812596947 0.06537322085848968 0.022276405056411708
-0.026153780428821306 0.0653369471058377 0.02068287783995787
-0.02621710117852428 0.0653004977089644 0.019081634464543973
-0.026280660552433485 0.06526470241063237 0.01747341358318827
-0.026344597920827884 0.0652278999945779 0.015856574973639848
-0.026408847150319877 0.06519091807107158 0.01423185006715183
-0.026473410528189703 0.06515375532355239 0.012599181023324024
-0.02653822027943883 0.0651172499779063 0.010959329261148176
-0.026603418561081022 0.06507972374285115 0.009310602525391842
-0.03465074828034035 -0.08808430018352681 0.02032464524625871
-0.03459130842529481 -0.08634970982617907 0.019736996560983378
-0.03452957046686 -0.08458718180305957 0.019173256547604434
-0.03446850569884447 -0.08283705934300595 0.01860754410867199
-0.034406866230357575 -0.08108245588451629 0.01805079663654713
-0.03434555932206594 -0.07933563110508662 0.017495041467774752
-0.034285591498748894 -0.07761008111631834 0.016931308620384444
-0.034224603922161076 -0.07587407010616531 0.01638049210635123
-0.03416249728103717 -0.0741263510662527 0.01584357781599277
-0.03410438655438256 -0.07243532354715765 0.01527476110135717
-0.03404304663196124 -0.07070436992908774 0.014738742186829357
-0.03398434991823822 -0.06901186003136017 0.014182744989895801
-0.03392750179403913 -0.06734703332450276 0.013613724961073326
-0.03386810857225331 -0.06565153506892046 0.013071503571145227
-0.03380685191066542 -0.06393458189444773 0.012550097212482958
-0.03374874892864454 -0.062262520025789414 0.012003690064023853
-0.03369333520864693 -0.06062898092441954 0.011436252497400545
-0.033632816445448625 -0.05893132698253695 0.010919478570487029
-0.03357702983180938 -0.05729897112889987 0.01036273305346197
-0.033521856631266 -0.055677631264628935 0.009803847036438551
-0.03346568954780253 -0.05404626647837635 0.009257753120956835
-0.03340928458014448 -0.05241480988198077 0.008717471104331409
-0.03335328160696387 -0.050791603263706575 0.008177014733353083
-0.03333981375870217 -0.04972349654033731 0.007239332981474167
-0.03087058091286234 -0.01271238288588139 0.024594392507992946
-0.03077436357657361 -0.010654731962612296 0.024537185567244768
-0.030714329328911952 -0.009064133794922657 0.02413593516200979
-0.030678654474390298 -0.007787061239313664 0.023501985564346684
-0.030651751089930797 -0.00662340285646168 0.02278486171840155
-0.03064395798468408 -0.005703604252864702 0.02188267306450281
-0.03064342074397097 -0.004876071221603717 0.020909832104040238
-0.030655963069134606 -0.004213783922337233 0.01980835191722824
-0.030679731964742118 -0.0036923346046853767 0.018595268517112906
-0.030713610137658352 -0.0032967677833695697 0.017280569874413176
-0.03076750162058747 -0.0031505800335843714 0.015764906184173977
-0.030835993926610114 -0.0031843743337898744 0.014100298799212707
-0.030933236536809707 -0.003573814491001026 0.012143892368530418
-0.031131421719305854 -0.0052168993185860435 0.009168898625236732
-0.02858915463303294 0.03491036809043552 0.0246282149625075
-0.028460886867847427 0.03723446799171681 0.025051252904052024
-0.028333688372931883 0.0395387345708178 0.025471311409367092
-0.02820769766239829 0.041821578271719895 0.02588683699896438
-0.028082822472970125 0.04408420968629201 0.026298683527002098
-0.027959048054718296 0.0463268960706088 0.026706899639709458
-0.02783635991661253 0.04854989998971715 0.027111533129453746
-0.027714670569502064 0.05075435762306457 0.027513407695969327
-0.027594113161959963 0.05293875648392615 0.027911011569069166
-0.02747460005080216 0.055104233572436045 0.028305171304565502
-0.027356046357737564 0.05725188357352501 0.028696695064919786
-0.02723858215179853 0.059380238125587514 0.029084095148405487
-0.027122052242222628 0.06149122455102779 0.0294689376091114
-0.027006584700605074 0.06358340306306953 0.029849750410583853
-0.02695666646017386 0.06489582192677817 0.02952821719332077
-0.02702106022767948 0.06485958497843863 0.027968539941994552
-0.027085832342661948 0.06482235255724628 0.026400631380014083
-0.027150915734020196 0.06478494120773454 0.024825187894961742
-0.027216242010716714 0.06474817572472158 0.0232429288974349
-0.027281954382811335 0.0647104047201415 0.021652257706813782
-0.02734791351655301 0.0646732811611439 0.020054672634388537
-0.027414264031563072 0.06463514527171482 0.018448551909673983
-0.027480865263429192 0.06459765839877563 0.0168354169796181
-0.027547863262351747 0.06455915229274184 0.015213620562752217
-0.027615188740269855 0.06452045797313494 0.013583896979704246
-0.027682844104088965 0.06448157405662197 0.011946187967381394
-0.02775083178435911 0.06444249914628475 0.010300434690329596
-0.027819154235566867 0.0644032318314422 0.008646577733678273
-0.036059020880489054 -0.08669370413132915 0.01951591778031775
-0.035990228045092415 -0.08487222247109116 0.018989032067782463
-0.03592760493947314 -0.08313432997257919 0.018414332515165333
-0.03586637706486075 -0.08141772486039517 0.017831661913396135
-0.03580113264942672 -0.07965236061598607 0.01728686146813213
-0.03573472221383881 -0.07787531239512852 0.016755999747259942
-0.03567613027250238 -0.07620231927375737 0.01616231575960203
-0.03560983407256641 -0.07443336760927433 0.01563837335687862
-0.03554413080178936 -0.0726754268310208 0.01511338460879147
-0.035484547728631556 -0.07099917214574913 0.014539497651810396
-0.03542217713728662 -0.06929038701922208 0.013993452795581618
-0.035360826725498895 -0.06759780983932612 0.01344234565853003
-0.035299003996908745 -0.06590238067073334 0.012899126102956626
-0.03523501000140356 -0.06418257275007605 0.012378737546861529
-0.035178497177396274 -0.06256081481113812 0.011796430752176845
-0.035118213057594605 -0.06089429131998819 0.01125089311427957
-0.03505655993641521 -0.05921359796524023 0.010721182063478663
-0.03499792612657926 -0.05757408579926082 0.010168399543769968
-0.03494138820697033 -0.055963920515089416 0.009600507996237573
-0.03488113356328007 -0.05431006304201197 0.009069360746740696
-0.03481919935396609 -0.05263828917833502 0.008556996372565573
-0.03476279440409483 -0.0510387405948593 0.007998579861001276
-0.03471440342965037 -0.04954195201216205 0.007371126444593812
-0.03219903870230611 -0.01323151039266074 0.024205049032873183
-0.03208817693746017 -0.01104216528179458 0.02424503715350984
-0.0320256121277782 -0.009450398983113895 0.023843090696511804
-0.03198163400258177 -0.008089151416272145 0.023271719417517767
-0.0319498276707805 -0.006878704450752282 0.02258920881880422
-0.031940484955906775 -0.0059434513971446945 0.021697872255509176
-0.031935348824672076 -0.005059797722440196 0.020767509156632558
-0.031948426126022694 -0.004397271839516492 0.019665448764806248
-0.03196843638682726 -0.0038179671825224193 0.018496897971138626
-0.03200374909446984 -0.003422410486008831 0.017181663087672716
-0.032054183511622245 -0.003207243645754032 0.0157200609727286
-0.03211761575870756 -0.0031457636380234355 0.014131020307392606
-0.032217749470800076 -0.0035213607478255526 0.012185851795898428
-0.032373683254362004 -0.0045598553498409355 0.009697298496125384
-0.029826396393508137 0.03437234234491415 0.024169547802539326
-0.02969237172984795 0.03670243574505999 0.024595297654448012
-0.029559546157461213 0.039011682275888804 0.02501723840932457
-0.029427903655976362 0.04130036046047725 0.025435420958333677
-0.02929734990693097 0.043569654373058986 0.025850688005362776
-0.029168027308561443 0.045818001762052696 0.02626149862964733
-0.029039841390675523 0.048046587310370314 0.02666869843540487
-0.028912777232573014 0.05025567042292445 0.027072334820246013
-0.02878674430660863 0.05244637721210299 0.027473228979124964
-0.02866188059708081 0.054617206209163716 0.027869873028330883
-0.028538020852770168 0.05677013678702436 0.028263856876619087
-0.028415300922972432 0.058903696822191876 0.02865368868588153
-0.028293631922521392 0.061018985816575 0.029040182115607494
-0.028172927743271563 0.06311706259731437 0.029424132940047032
-0.028137801391243746 0.06423939051195282 0.028925973290825413
-0.028205228498967352 0.06420068402144896 0.027360869181921654
-0.02827290635383186 0.06416261692901631 0.025789011236259207
-0.028340983308303862 0.06412353928077491 0.024208820770630968
-0.02840931500193662 0.06408510252543365 0.02262177929380066
-0.028478051243241036 0.06404564833691784 0.021026283306622207
-0.028547046296767735 0.06400683652648481 0.019423837208729033
-0.02861645144872147 0.06396700031048597 0.01781281226945136
-0.02868619490651436 0.06392696991846908 0.016193934611193783
-0.028756279149727403 0.06388674392723814 0.014567146678188425
-0.02882663060489994 0.06384716324636375 0.01293320442049578
-0.028897403581140593 0.06380654390671758 0.011290427353205956
-0.02896852492572304 0.0637657246251731 0.00963956398569632
-0.0290399972171724 0.06372470392181523 0.007980554465433387
-0.03752591085966341 -0.08700093555123928 0.019318465835145182
-0.0374532848680032 -0.08516532888340189 0.018799594618942872
-0.037386967817488584 -0.0834120227194427 0.018233845608079446
-0.03732395078381694 -0.081703084599212 0.01764514831465064
-0.037254669242559796 -0.07991941699138838 0.017111330644179634
-0.03719039235563678 -0.07820124123141742 0.01654057182998242
-0.03712172660727085 -0.07643192284868427 0.016009705895155046
