# .PCD v0.7 - Point Cloud Data file format
VERSION 0.7
FIELDS x y z
SIZE 4 4 4
TYPE F F F
COUNT 1 1 1
WIDTH 766
HEIGHT 1
VIEWPOINT 0 0 0 1 0 0 0
POINTS 766
DATA ascii
-0.05924560941985761 0.05249876498225747 0.05391186160882283
-0.05922526419614455 0.05150322142964886 0.05299551199527813
-0.05920475465834063 0.050507055909351506 0.05208060250286706
-0.05918443747958251 0.049512882121892476 0.05116551300109562
-0.05916395620349386 0.04851809184077116 0.050251867266545625
-0.06316121293848159 0.07045633480555658 0.02333122696374279
-0.06315634356500517 0.06951923840101437 0.022279082143829898
-0.06315167778659046 0.06858373704152743 0.021226135396514745
-0.06314680988316133 0.06764692644007986 0.02017431166790934
-0.06314194273013783 0.0667102602513358 0.019122650081680015
-0.06313707632734647 0.0657737384419052 0.01807115060033737
-0.06313221067461376 0.06483736097840803 0.01701981318640361
-0.06312734577176628 0.06390112782747476 0.015968637802412755
-0.06312248161863068 0.0629650389557459 0.014917624410909991
-0.05027105328621466 -0.05799515530374333 0.04137212597761114
-0.05004596786506662 -0.06016530826150074 0.04177396183003995
-0.04985017531703889 -0.062140474915171384 0.042019295501012854
-0.0496544038905336 -0.06410991244598946 0.042271176477156835
-0.04946302604140211 -0.06604560150824584 0.042504950335744085
-0.04926879614493377 -0.06799405941783765 0.042761369257175774
-0.04907559568098828 -0.06993040094261699 0.04301856168401047
-0.04888755104465749 -0.07182840361665649 0.04325299833744928
-0.048696720163118525 -0.07373873022129807 0.043509736728077786
-0.048527008232198465 -0.07550977569860362 0.043652099076683326
-0.04839335060553856 -0.07704801402963424 0.043593270924536076
-0.04829350059529032 -0.07836916316113224 0.04334434627739864
-0.04821687277796856 -0.0795412973575142 0.04296472427472581
-0.04815121660815732 -0.08064234269647125 0.0425241684641125
-0.04810103255785595 -0.08164457157169458 0.04199597726150245
-0.04805764774569516 -0.08260286317412013 0.041429885112024
-0.04802043922999678 -0.08352139412130422 0.04082918438474065
-0.0479942986581169 -0.08436999001892947 0.04016489641186555
-0.04796865465941014 -0.08521475621049435 0.03949858024329422
-0.047953796032109655 -0.08599198420395715 0.038769571665357216
-0.047941635191125646 -0.08675211590792087 0.0380251231642717
-0.047934388393243155 -0.08748160254376236 0.03725195960775057
-0.04793099951416987 -0.0881871511648667 0.03645610842878361
-0.04793462212754867 -0.08884957374948055 0.03561857172451971
-0.047946311709450316 -0.08946270842380483 0.03473268094757542
-0.04796397378626012 -0.0900396947347668 0.03381058219986899
-0.047986450326865285 -0.09058784578036416 0.032858933523508216
-0.04801645183672955 -0.09109088848843544 0.03186114506974003
-0.04806175948177999 -0.09150194838586295 0.030769780718357342
-0.048112097043528264 -0.09188386535794374 0.02964637284591476
-0.04816348402706711 -0.09226088506558788 0.028514869696684486
-0.048237811709461065 -0.09250120826057479 0.02724172564225341
-0.04832210587265329 -0.09268377228369329 0.025905106177620152
-0.0484093172684332 -0.0928512582244787 0.0245477283223115
-0.048513717002604796 -0.09291845230228823 0.02308168970512131
-0.04863251823756328 -0.09290271608879797 0.021523296299499783
-0.04876193838593229 -0.09282717789284323 0.019895200634749366
-0.04892757707088266 -0.09254030836618421 0.018038140315535633
-0.04915448791468829 -0.09189527463380942 0.015794504347407534
-0.04948070268055244 -0.09066999513009572 0.012924068199755334
-0.05892299906420368 0.06599708991113745 0.05650333860161977
-0.05848809108591311 0.061828457331532305 0.057440199110115386
-0.05826526463895289 0.05928249036844063 0.05743139848057932
-0.05824108142598204 0.05824807742472904 0.05652697385546196
-0.05821674197971868 0.05721318961948296 0.055624104527184415
-0.05819524143412749 0.056200439269961155 0.05470907319759505
-0.05817498906180725 0.05519771934205736 0.053789048929509864
-0.05815492670490187 0.05419701971045238 0.05286885247485529
-0.05813470237763452 0.053195690896742254 0.05195010529840266
-0.05811449211216007 0.052195058297881236 0.051031996918515676
-0.0580944714526099 0.051196433376683836 0.05011370687349903
-0.06195047763451955 0.07006234263435512 0.020243354964849414
-0.061945686689206234 0.06912235070537687 0.019188163724239538
-0.06194089648485249 0.06818250415386728 0.01813313567760999
-0.06193610702128679 0.06724280294610568 0.01707827078710311
-0.0619313182983373 0.0663032470483792 0.01602356901487445
-0.049079377303705256 -0.05848805589700279 0.041796776203279595
-0.04887561130479004 -0.060549459705522723 0.04210666754278519
-0.048684500823365014 -0.06252159593473644 0.04235111702748834
-0.0484925548297515 -0.0644936365241291 0.04260702443007153
-0.048298597171233734 -0.0664732533608352 0.0428812156421281
-0.04811100059416645 -0.06840560561882514 0.04312536874981859
-0.04792855966811209 -0.07029883725256103 0.04334614456696351
-0.04774488829517548 -0.07219474882017884 0.04358043261940264
-0.04756873918554818 -0.07403643260152099 0.04377721536700069
-0.04741504290042784 -0.07572745396407066 0.04384870353300396
-0.04729931529683754 -0.07716846602020211 0.043702631837513384
-0.047207208718467925 -0.07845370012268582 0.04342150109232101
-0.047139028477845304 -0.07958222616031624 0.04300227446351362
-0.04707577084864721 -0.08067714456108738 0.042556264451671544
-0.047029244273049275 -0.08166300361053802 0.042013065025920615
-0.04698786236872899 -0.08261461182262392 0.04144083379674607
-0.046952286262847934 -0.08352797754195518 0.04083535156116014
-0.04692581133436915 -0.08438238314312069 0.040176566520182866
-0.04690337116140416 -0.08521039662478808 0.03949445359699194
-0.046888270482268055 -0.08599125973592742 0.038768882334295984
-0.0468774085851169 -0.08674489144181774 0.03801821329766486
-0.046871122418342584 -0.08746935283445778 0.03724018236331039
-0.046866208953123635 -0.08818499483818754 0.036454024488774994
-0.04687397955884345 -0.08882088256779747 0.03559069956476951
-0.04688403946260682 -0.08944266215536367 0.034713105753742146
-0.04690165468806041 -0.09001753595159878 0.03378883178111741
-0.046926040429994285 -0.09055072646089607 0.0328223091858072
-0.0469551533108827 -0.09105523612653421 0.031825785656858174
-0.04700164824808159 -0.09145276875444369 0.030720752297113352
-0.047052841562251646 -0.09182258263393611 0.02958496193100918
-0.04710691670427619 -0.09217609936256632 0.028429466525727753
-0.04718148776404096 -0.09240495016201844 0.027144264490112202
-0.04726570649547878 -0.09257669525920487 0.025796129764989184
-0.04735162598774389 -0.09274047477724534 0.024434396433369976
-0.04745507231978416 -0.09279957514049858 0.02295944900214436
-0.047579099555811834 -0.09273613125474456 0.02135111254250721
-0.04771241973597594 -0.0926197494776359 0.019679692605029664
-0.04786936427494302 -0.09236381803788607 0.01785382822888154
-0.04810064804051239 -0.09166217712075264 0.015549819270562426
-0.048439403115982216 -0.09031787778938893 0.012552538562002669
-0.05740981102831071 0.0646400708005529 0.05730388621832083
-0.05719744865982331 0.0621291220193938 0.05726179877641435
-0.05717360179568287 0.06108886643282618 0.05635337410942709
-0.05714977480781322 0.060049477895276704 0.05544570661087411
-0.05712579396957025 0.05900961124152049 0.05453960675513103
-0.05710183324827252 0.05797061690668559 0.05363426700456492
-0.05707789261861647 0.05693249379357562 0.05272968640312947
-0.05705553148093944 0.05590723750301729 0.05181849604180422
-0.05703561189991125 0.05490139619795009 0.05089652307464709
-0.05701587925588781 0.05389758295217262 0.0499743699435084
-0.06073215724999305 0.06966588215950492 0.017136137897055315
-0.047901078738786254 -0.05891336764819177 0.04216319639751692
-0.04770440232505105 -0.060957233567418334 0.042459832148755317
-0.04751942847745898 -0.06291638725602333 0.04269484054874201
-0.04732753635937674 -0.0649165109986326 0.042977138099483336
-0.047142392148559475 -0.06686564343525486 0.04322645621732868
-0.04695634349780587 -0.06881529263058578 0.04348772384887051
-0.04678398706663539 -0.07066796311640866 0.04367434054382069
-0.04660641572578695 -0.07255022014599838 0.04389814797968472
-0.046445109089406376 -0.07431906293030716 0.04403115211955683
-0.0463101294403657 -0.07590849107414166 0.04401221412751838
-0.04620114132471055 -0.07732190483538925 0.04384194218710519
-0.04612276505431654 -0.07852996754516434 0.04349110850140919
-0.046063733600387846 -0.07960826601464832 0.043026164765189556
-0.04600136105689287 -0.08070675685979328 0.042583574366854005
-0.04595724981500638 -0.08168364481759216 0.042032200840815714
-0.04591535509277596 -0.08264471354051489 0.0414688858930084
-0.04588451644664722 -0.08353236632825495 0.040839462861472386
-0.045857860420446 -0.08439185954410111 0.04018549006715888
-0.045836714452335885 -0.08521475621042518 0.039498580243228776
-0.045823745629714016 -0.08598401486158075 0.03876198883904591
-0.04581234807192986 -0.08674272403325611 0.03801614027194511
-0.04580564627444148 -0.08747079402939106 0.03724156797211087
-0.04580263110545017 -0.0881749315634377 0.036444299032483196
-0.04581368866801153 -0.08878859829798397 0.035559336885615966
-0.045823745631664754 -0.08940900690643244 0.03468024138183823
-0.0458410763118487 -0.089983218963964 0.033755147221559756
-0.04586782480779174 -0.09049788656427177 0.03277017390300058
-0.04590122024655626 -0.09097106201648814 0.031742303190273435
-0.04594095458813155 -0.0914049987382003 0.030673129156971235
-0.04599347784617684 -0.09175913496968857 0.029521381547252368
-0.0460437514851776 -0.09212905403853372 0.028382078585215464
-0.04612151954380203 -0.09232718410568158 0.027065526497551173
-0.0462075047704809 -0.09247597081710285 0.025693618620166225
-0.046293811203778526 -0.09262531333653584 0.02431658584040891
-0.046392810023534986 -0.09269780769566993 0.02285480212288893
-0.04651214592361665 -0.09264629716624573 0.02125825912669893
-0.046652709350102586 -0.09246614802170777 0.01952010816672567
-0.046814647156052165 -0.09215739980893717 0.017638261886703532
-0.04704865369928216 -0.09140679894004794 0.015281745926703616
-0.04741197864400565 -0.0898635901584614 0.01207320596618311
-0.05632201935648756 0.0674764857879932 0.05716637089710547
-0.05611997284564574 0.06500150529121024 0.05709066481426506
-0.056096469417395725 0.06395534344439102 0.05617820457734618
-0.05607298566769822 0.06291005751020862 0.055266508309635254
-0.056049521571849996 0.061865646389074214 0.05435557505206606
-0.05602607710518787 0.06082210898322865 0.05344540384718299
-0.05600248133070436 0.05977809282693619 0.052536814256018805
-0.05597890542290614 0.05873495568986975 0.05162898966039642
-0.055955178732928504 0.057691352597054935 0.05072275445001806
-0.05593164262681103 0.05664997391066762 0.0498164593651248
-0.046969249096974704 -0.05693272578206121 0.04193279091732122
-0.04672312815298723 -0.059356521779677374 0.042544988394756844
-0.04653721380563852 -0.06135663577669309 0.04280574623752603
-0.04635335856787674 -0.06333685806537442 0.04306092181593768
-0.04616467798574041 -0.06534465786431137 0.04335186633932231
-0.04598951104273579 -0.06725389642240931 0.043568056816698564
-0.04581338070595551 -0.0691643733168858 0.04379647458548219
-0.045641205115481344 -0.07104242643698705 0.04400728214269256
-0.045475051509415165 -0.07287413841923895 0.044187661657468236
-0.04532901866592934 -0.07456384529992793 0.04425108336434391
-0.04521074946678261 -0.07606057899031393 0.04414957814963533
-0.04511770900113543 -0.07738278637948898 0.043897217830245805
-0.04504107534330838 -0.07859125288017949 0.043547042126105995
-0.044982006423791555 -0.0796789230959084 0.043090989205653796
-0.04492727170027008 -0.08073562326669681 0.04261019638400931
-0.044884633670699524 -0.08170944235046845 0.042056116923464115
-0.04484580250603556 -0.08265645891598633 0.04147983152755841
-0.044815464492592966 -0.08354553191549569 0.040851796039539645
-0.04479128921856871 -0.08439258847308251 0.040186176470364154
-0.04477019819996504 -0.08521838910095286 0.03950201902279937
-0.04475895049812209 -0.08597821870763123 0.03875647380071562
-0.0447504365808036 -0.0867196030356539 0.037994026110570844
-0.044743016833679414 -0.08745349876198516 0.03722493977409963
-0.04474258045494668 -0.08814114268779971 0.036411644430344836
-0.04475130965520695 -0.0887685067316561 0.03553981885556384
-0.0447630994797801 -0.0893760602539973 0.034648068954861666
-0.04478385592209472 -0.08992529081588646 0.03369828663184976
-0.044811415233647435 -0.09043073807770446 0.032703920833617894
-0.044843720251806 -0.09090611492957695 0.031677889761846656
-0.04488177938160188 -0.0913450858526273 0.030613400482578046
-0.044933652393298856 -0.09169565965099136 0.029457773451198543
-0.04497891923937051 -0.09209055108800507 0.02834329522965967
-0.045058881610901505 -0.09226294222446502 0.027000481708042645
-0.04514645836840974 -0.09238876278078034 0.025604863642182618
-0.045236160371063004 -0.0925036150792361 0.02419208805915085
-0.04533741814897157 -0.09254717565776588 0.02269990806311284
-0.04544892133800997 -0.09252835047875074 0.021136348246317105
-0.04558915892520363 -0.0923297176517957 0.01937836365122958
-0.04575820269957871 -0.0919521398172295 0.01742390511291858
-0.04600449962359597 -0.09108950758174666 0.014948681625115257
-0.04637831219479821 -0.08942718423772 0.011612740902688212
-0.05500955276814656 0.06684785846986163 0.05600144387019085
-0.05498641948775861 0.06579661064199555 0.05508568292200422
-0.05496330565576515 0.06474624660929806 0.05417069186371937
-0.05494021124765136 0.06369676525771834 0.05325646972485931
-0.054917136238942385 0.06264816547506707 0.05234301553658355
-0.054893912387072884 0.06159908364347788 0.05143115561110928
-0.054870708169123684 0.06055088872712755 0.050520066590654666
-0.05484752356020757 0.059503579601772105 0.04960974749802116
-0.045760744325701694 -0.05757414764383595 0.04248249387069547
-0.04554851020939645 -0.05979764385121383 0.04292502970488504
-0.045364873268834975 -0.061812000363868747 0.04320012819779939
-0.04518784007467139 -0.06377394393540209 0.043441468920788984
-0.045008111802946615 -0.06574933478909428 0.043706052913798143
-0.04483351015403336 -0.06768303176205093 0.043945627354678884
-0.0446713950919688 -0.06952362460943096 0.04411422089902839
-0.04450171267835471 -0.07141212240860184 0.04433598501189695
-0.04434714340931146 -0.07318971133247304 0.04446971636776664
-0.04421960835435934 -0.07477400221642394 0.04443990444781154
-0.044118867857204765 -0.07616793341769229 0.04424653940933232
-0.04403741445772145 -0.07742486314753788 0.04393542021899233
-0.04396424443324737 -0.0786218862974058 0.0435750004959492
-0.043905194531040546 -0.0797190714010726 0.04312782332576515
-0.043854890487738656 -0.08075412447440311 0.04262725910576054
-0.04381145108998258 -0.08174039356002771 0.042084810817932194
-0.04377825928094085 -0.08265499079425304 0.041478463370022145
-0.04374682703016351 -0.08355650235400852 0.04086207285964499
-0.04372354925004438 -0.08440133534366062 0.040194413047800914
-0.04370701359752618 -0.0851994971020637 0.039484136452616725
-0.04369422038929472 -0.08597169776405467 0.03875026912532442
-0.04368612189710201 -0.0867116543592451 0.037986423570410655
-0.04368207377684693 -0.08742394799702752 0.037196528766650805
-0.04368249985985033 -0.08810590774109245 0.03637759230092735
-0.04368782659453681 -0.0887548716060243 0.035526572959872826
-0.043703601345029056 -0.08933379176592376 0.034606793749478226
-0.0437225887761951 -0.08989166768547735 0.03366528314241668
-0.043749284392034654 -0.09039858161296338 0.03267219317155873
-0.04378221824513135 -0.0908647050080944 0.03163682009821078
-0.04382388420022502 -0.0912737288823755 0.030542262910066065
-0.043874976779829114 -0.09162145118216863 0.029383409753469036
-0.04392274207056762 -0.09199282192911945 0.028244854339670833
-0.04399480142698195 -0.09220510024954015 0.026941916812175726
-0.0440836899248631 -0.09230865684089778 0.025523336741332114
-0.044175988503830345 -0.09239256597108797 0.024078484398080524
-0.04427414504821501 -0.09244092200325393 0.022590648040196115
-0.044385602502596495 -0.0924052673996903 0.02100912834004376
-0.04452837229381061 -0.09216857939391798 0.01921094884244856
-0.04470539772755397 -0.09171315155197712 0.017174325284498138
-0.044950963502260945 -0.0908177267475338 0.014663390231688
-0.04535488050896899 -0.0889031194234971 0.011059784293972641
-0.053821731538513676 0.06554301986738537 0.052148279365613226
-0.053799032907423244 0.06448930949746018 0.051231518900259454
-0.05377635341398106 0.06343648753077857 0.050315531373068045
-0.053753527699965255 0.06238318287512051 0.04940115239636783
-0.04457084802609322 -0.05811198952585794 0.04294342806800794
-0.04437201943943526 -0.06027444436325641 0.04333580917605345
-0.04419674142430558 -0.0622595881382117 0.04358777481945397
-0.04402317540514725 -0.06422670110132728 0.04383566017817875
-0.043852177630696994 -0.0661696789872378 0.044073952001993266
-0.043686106512579294 -0.06807164287641354 0.04428754304877569
-0.043525515737027176 -0.0699288474305127 0.0444726275637653
-0.0433697603128006 -0.07174618612179584 0.044633006644413886
-0.043231150715115886 -0.0734357343974214 0.04468960838447872
-0.0431198992311348 -0.07492535081407897 0.0445758876296502
-0.04302976259453402 -0.07626086284685196 0.044330472179822444
-0.04295435542197734 -0.07748870753716014 0.043993385892325376
-0.04288868271303621 -0.07864504405688638 0.04359613601600937
-0.042830766904042125 -0.07974434451179996 0.04315101017742207
-0.04278127905433385 -0.08078224197317607 0.042653190443082856
-0.04273932511300952 -0.08176544464421026 0.04210803489143633
-0.042706635158184264 -0.08268214872279173 0.04150377211912448
-0.04267941433337934 -0.0835594276685167 0.040864813217828255
-0.042657017100797084 -0.08440206422638519 0.04019509940744803
-0.04264109291617274 -0.0851987704388234 0.0394834486161168
-0.04262985947170761 -0.0859622781178801 0.03874130633548778
-0.042621750108814006 -0.08670370525636151 0.03797882062234703
-0.04262081461194576 -0.08739511228737068 0.037168805235194724
-0.04261987915614232 -0.08808648896791982 0.036358825405018724
-0.04262881963876118 -0.08870965135712 0.03548264357364789
-0.04264306978494836 -0.08929652809332062 0.034570405749572486
-0.04266180709291915 -0.0898530273303148 0.033627354890710726
-0.04268994394936074 -0.0903456867220247 0.0326200036277805
-0.04272281722635502 -0.09080685425994206 0.031579444699208814
-0.042764738749697655 -0.0912073355592844 0.030476073723234798
-0.04281702046009992 -0.09153863558443198 0.029300420922475923
-0.04286974563657611 -0.09186860407231073 0.028119731842801032
-0.042935254838941166 -0.09211364871453936 0.026849322297013478
-0.043020123669794276 -0.09222993836991733 0.025443221921031156
-0.04311330404433196 -0.09229290776897847 0.023976533677321776
-0.043209773282331894 -0.09233674672594577 0.022483525200625687
-0.04332148961013011 -0.0922813592736842 0.02088105565696391
-0.04346446312622891 -0.0920202901329722 0.019056883516234246
-0.043648246004010176 -0.09149124626179173 0.016942585520239972
-0.043899102546222084 -0.09052119519436452 0.01435211773065298
-0.04435332596170183 -0.0882074348886705 0.010325746536287927
-0.0526493567772663 0.06528775542163173 0.04919148926974076
-0.04367153483592675 -0.05578503803175522 0.042423876728652
-0.04338852373382756 -0.058620799681926294 0.043379481876220316
-0.04320184220932621 -0.060728596020363346 0.04372707590674013
-0.043030773792274914 -0.06271401938023335 0.043981348428569156
-0.04286213295704145 -0.0646757735494386 0.04422664335040166
-0.04269652050273286 -0.06660952619552107 0.044458920767084575
-0.04253887231335387 -0.06847892986662785 0.04464589052986645
-0.04238955361826793 -0.0702816837775202 0.04478470006252372
-0.04224222199711326 -0.07206488819438583 0.04491636998544285
-0.04211942750370201 -0.0736630154858236 0.04489274908146895
-0.04202676253029349 -0.07503629600314726 0.04467556929207028
-0.04194462056982294 -0.07632957929615858 0.044392536070892274
-0.04187349807884418 -0.0775397638451169 0.04403974099550867
-0.041811848202041736 -0.07867865389030415 0.04362681088803294
-0.04175590436420781 -0.07977407219147431 0.043178283879743484
-0.041706846477158936 -0.08081775133750968 0.04268593892160405
-0.04166819255400632 -0.08178459854490755 0.0421257918713116
-0.04163764654725172 -0.08269168953183276 0.04151266329585429
-0.0416117176319756 -0.08356454683140913 0.040869608715845385
-0.041589881076600714 -0.08440716630601669 0.04019990383133859
-0.04157496415375323 -0.08519949710200053 0.03948413645255694
-0.04156451853418523 -0.08595937964499867 0.038738548439617604
-0.041559753830433206 -0.08667840981865116 0.037954626709905015
-0.04155843612676383 -0.08737276074254735 0.03714731577773467
-0.041557929340127586 -0.08806131267779466 0.036334494268754625
-0.041571211241263215 -0.08865220878549579 0.03542684076460162
-0.04158561800886949 -0.0892355959547464 0.03451090547765068
-0.041602777110745635 -0.08980005918420197 0.03357536289504415
-0.04163042388215458 -0.09029134233086972 0.03256638391270111
-0.04166391341986782 -0.09074254877486593 0.03151566760069069
-0.04170296765676561 -0.09115591351975594 0.03042480978850265
-0.04175641599728728 -0.09147006293172416 0.029231704829833505
-0.041811643012794636 -0.09177358441429673 0.028024020186136978
-0.04187205751777153 -0.09204287721231885 0.02677766627794992
-0.041953088881699144 -0.0921712295879728 0.025383471732073115
-0.042047192687811805 -0.09221184028959661 0.02389360133680052
-0.04215026769061556 -0.09219365347762909 0.022336383234901003
-0.04226108029328042 -0.0921256039794412 0.020720065421048206
-0.04239957405811317 -0.0918711251154764 0.018901908321579786
-0.04258767289875866 -0.09128139890623033 0.016723438078250774
-0.04284779801680384 -0.09020565434362482 0.014020890956507992
-0.042426703548079404 -0.05674670163569179 0.04324369541884543
-0.04220592649239018 -0.05915848377329669 0.043840280845857615
-0.04202782428071186 -0.061236056718574294 0.044164270146227924
-0.0418626156430639 -0.06320910270532976 0.04441012997581506
-0.04169870076849116 -0.06516669759898386 0.04465406445588027
-0.04155051358939432 -0.06699912606639097 0.044799911407343296
-0.04140378893264815 -0.06881544237407772 0.04494196777342574
-0.041263531558848175 -0.07057782506091886 0.04504662758523942
-0.041124017508335234 -0.07232984689593147 0.04515194919675619
-0.041023014837065434 -0.07378684638852667 0.04500342743161623
-0.040938349288816546 -0.07511755442454277 0.04474857808675853
-0.040862177002899375 -0.07638166245957961 0.044439576973234474
-0.04079470587885847 -0.07757804487951464 0.04407449715729328
-0.04073575121117539 -0.07870852306715698 0.04365407175439967
-0.040683146547952784 -0.0797896768904352 0.04319260043316908
-0.040637639090850226 -0.08081627194722463 0.042684574555277466
-0.04059878456424223 -0.08179196478125639 0.04213262087771974
-0.040568131077962734 -0.08270563270089282 0.04152565707654449
-0.04054395842393255 -0.08357039708898462 0.04087508908425569
-0.04052456189996103 -0.08439914867395593 0.040192353948584725
-0.04050933478878526 -0.08519659042785943 0.03948138508650878
-0.04050014473640761 -0.0859492345445585 0.03872889538031671
-0.04049639086130482 -0.08666178475079656 0.0379387256039182
-0.0404974774382417 -0.08733886646906708 0.03711472878860933
-0.04049688475321865 -0.08802821730185961 0.03630250988592526
-0.040511212841273445 -0.0886091121396852 0.035384974360840316
-0.04052624351891299 -0.08918539756122684 0.034461886714575174
-0.04054356239401695 -0.08974563953997611 0.03352194615093651
-0.040571799124275436 -0.09022767652824787 0.03250356708608243
-0.040606033096802885 -0.090667489928703 0.03144122549951195
-0.040646493614159895 -0.0910637370290297 0.03033291670826388
-0.04069670893987549 -0.09139145042501673 0.02915292788187468
-0.0407518492315384 -0.09168565387386146 0.02793544927489261
-0.0408074400445255 -0.09197850959547854 0.026712494181347857
-0.04088985235981758 -0.09208240541239243 0.025293071946909995
-0.04098058776571331 -0.092130009574103 0.023809888202826757
-0.04108341449883594 -0.09209506013933816 0.02223500027117531
-0.04119401414870261 -0.09200867794841017 0.020599209501435012
-0.04133770927028053 -0.0916927955498395 0.018716632580583703
-0.04153222006886688 -0.09102450818304991 0.016455162384687083
-0.04179474886518155 -0.0898857423646699 0.013685075759993226
-0.045093542444088544 -0.023731691245025444 0.021504206694990202
-0.04496873131598592 -0.025507370764038917 0.02140322076565787
-0.04494810074932038 -0.026452256921520312 0.020610247952351668
-0.04520147338289577 -0.0252275390990801 0.017978883015188463
-0.04122477517238828 -0.057421492068898294 0.04381895459143126
-0.04102818012684096 -0.05968700304389857 0.04429322550097303
-0.04085853025633413 -0.061733801605073246 0.04459309389135546
-0.0407023667991977 -0.06366889037851575 0.044808342680464186
-0.04055186792537008 -0.06555420693814912 0.0449914479478537
-0.04041267912791969 -0.06734594776674702 0.04510346118367137
-0.04027323853861245 -0.06913481489488466 0.045222964567113
-0.04013834436317664 -0.07088348160233116 0.04531697105027466
-0.040017917935779204 -0.07251520321845756 0.045316752602033716
-0.03993458120938553 -0.07385559850807599 0.04506487712627838
-0.03985237680705384 -0.07518435165410692 0.04480859383817526
-0.03978313583126993 -0.07641033838786815 0.04446547673533774
-0.03971706221700378 -0.0776095632340078 0.04410311333878325
-0.039659087046705226 -0.0787443583412713 0.04368677773165708
-0.039606811316860925 -0.07983351007058392 0.043232815247115974
-0.03956367612192108 -0.08085103378951991 0.042716633632288004
-0.039528365643930724 -0.08180743270504354 0.04214696070414686
-0.03949948700393349 -0.08271370447019522 0.04153317924023958
-0.03947653013690963 -0.08357405338388496 0.04087851420576738
-0.039457837128104474 -0.08440133534354227 0.04019441304768945
-0.03944358838229171 -0.08519441038501396 0.03947932152672273
-0.03943637166234868 -0.08593401559458774 0.03871441455507185
-0.03943252382488596 -0.08664804959207278 0.03792558856192091
-0.039433485714277086 -0.0873258836252725 0.03710224668629203
-0.03943646786892678 -0.08798863699385834 0.03626425826654178
-0.03945177052729417 -0.08855953539420164 0.035336812839113
-0.03946679600254277 -0.08913302953170732 0.034410749300571086
-0.039487522955862914 -0.08966468876671468 0.03344248722021148
-0.03951406592798389 -0.09015396130133924 0.032430834843069856
-0.03954722230504014 -0.09059525408215396 0.031369583201869
-0.03958935205479939 -0.0909715022980157 0.030240965566805944
-0.03963672181515789 -0.09131064978531167 0.029071958223792438
-0.039688297060883206 -0.09162056539272345 0.027869886774567088
-0.039754079398789104 -0.09182820768635386 0.026560313767938437
-0.039829498700714526 -0.09196771337598986 0.025176345443309323
-0.0399192960949231 -0.09200502123475446 0.023682024655087563
-0.04001653110265677 -0.09199135710095874 0.022128363032184184
-0.04013316268350272 -0.09184034164400512 0.020425215407102237
-0.04027584734386952 -0.0915048058371914 0.018521320416915676
-0.040469739221813766 -0.09080447831790361 0.01622538116119232
-0.0407494601472847 -0.08949263729970741 0.013272428959230864
-0.044190982586096585 -0.019564378845566388 0.021223728222840743
-0.04396800965975295 -0.022183323757252738 0.021802689974407152
-0.04379026952559442 -0.024423895046244537 0.022081969408389024
-0.04362617858570515 -0.026546589669103227 0.022275228776781286
-0.04346715642107289 -0.028622097362389076 0.0224406101228678
-0.04055216808800783 -0.0531128979201691 0.0416260539602642
-0.040045234721852584 -0.05795203518828457 0.04427124285881079
-0.03986012942570407 -0.0601663523270804 0.04470403113820809
-0.03969695532962664 -0.06219681427986129 0.044991994682965164
-0.039547338463178636 -0.06411212358485274 0.04519221789978595
-0.03940861786194342 -0.06593441697462638 0.045322476330463435
-0.039275475910299194 -0.06770696952469707 0.04541943931815029
-0.03914858902845475 -0.06942466163260069 0.045477983388873766
-0.03901787288514358 -0.07116842826992542 0.04556899729225117
-0.03892141845068377 -0.0726342989728701 0.04542264262840989
-0.03884701522963891 -0.07392126642059083 0.04512357019930058
-0.03876792647484021 -0.07524277546006586 0.04486108626395596
-0.038699439788009105 -0.07647747944412397 0.04452611774988119
-0.03864002062825348 -0.07763807423604646 0.044128999081294806
-0.038582771066674515 -0.07877943887027228 0.043718794871529465
-0.03853267508324622 -0.07986247758933962 0.04325939153871311
-0.0384912788827721 -0.08087543626216176 0.042739138790185704
-0.03845636413321837 -0.08183615463517396 0.04217358790365916
-0.03842949192504239 -0.08273278147294433 0.041550957292623536
-0.03840847137187425 -0.08358282812740603 0.040886734156185156
-0.038390753159019186 -0.08440643744808252 0.04019921749503563
-0.03837885645012325 -0.08518423642983736 0.03946969118169957
-0.03837408110648887 -0.08590647257819778 0.0386882073852064
-0.03837127263603155 -0.08661334457215075 0.03789239482070539
-0.03837043017528385 -0.08730496442315222 0.03708213432682805
-0.0383768899894052 -0.08794040662987501 0.03621764696867741
-0.03839140909959015 -0.08851425508588456 0.03529282510793852
-0.03840734592236898 -0.08907777178887494 0.03435679007968623
-0.038428553020117946 -0.08960161649806697 0.0333805773109761
-0.03845382564398239 -0.09009524884955922 0.03237290531494108
-0.03848826487442344 -0.09052011955522382 0.031295066041778175
-0.03853088161003708 -0.09088421891697834 0.030153950551654263
-0.03857813409309508 -0.09121477504999354 0.02897588293817871
-0.038627494638388354 -0.09153111071122749 0.027779780622416206
-0.03869963022993182 -0.0916777504580586 0.026407976094147245
-0.038769168726711156 -0.09184647167288534 0.02505295309160055
-0.038855268212365485 -0.0918935905570592 0.02356803064691565
-0.03895014070733542 -0.09187820770581523 0.02201201215876547
-0.03907108321251817 -0.09167181047918749 0.02025101990309064
-0.0392166226536873 -0.09128675364693406 0.018294774801882907
-0.03941029650106506 -0.09054967796071517 0.01595928847517114
-0.039713693915010756 -0.08900719460789319 0.01276285431472779
-0.04289452089647699 -0.020147543034834403 0.02170534776278943
-0.042718374891440876 -0.022422223327755564 0.02200103935562825
-0.04254627375673697 -0.024656363840205864 0.022276004461278254
-0.04237602347359191 -0.026868627283735458 0.022545450361929398
-0.04220794577088827 -0.029056417538378065 0.02280697955955502
-0.0391436459025874 -0.055473249143803804 0.04362766452707878
-0.03887328673931496 -0.0584495016990389 0.0446953333012402
-0.038697691209343354 -0.06062633459695749 0.04509823911164945
-0.03854241462961425 -0.0626278108748442 0.045363312558870994
-0.03840091127325644 -0.06450934297004368 0.045536241489239515
-0.0382700183318739 -0.06629786527682813 0.04563891117462171
-0.03814486673865569 -0.06803416957995362 0.04570581558435771
-0.03801968026324474 -0.06976616438088096 0.04577845124709684
-0.0379042363025096 -0.07141346828009848 0.045785727368160445
-0.037832123275687635 -0.07270110624527087 0.045482042091233243
-0.03775935172636896 -0.07399148493901853 0.045186330541022335
-0.03768463062656968 -0.0752951104235342 0.04490810800689976
-0.03761751373492904 -0.07653403615978005 0.044577199112133814
-0.037555799907069434 -0.07772657448065623 0.04420935032749351
-0.03750863519837565 -0.07879884164550999 0.04373650330941192
-0.037461955897874426 -0.07986544830391468 0.0432621170250575
-0.03742070306083107 -0.08088652699229265 0.04274936720582456
-0.037386669250494046 -0.08184793640662952 0.042184510414010334
-0.037360180427983385 -0.0827474544412411 0.041564631180625755
-0.03734083992248353 -0.08358867767071931 0.0408922138554933
-0.0373237967508942 -0.08441081054178051 0.04020333546209137
-0.03731532652653657 -0.08516388643408679 0.03945042851768188
-0.03730777032496906 -0.08590937208354232 0.0386909662634648
-0.03730604102275135 -0.08660828274429222 0.037887553417231434
-0.03730758828621225 -0.08728115621313304 0.037059244386984935
-0.03731569075943231 -0.08790224308033007 0.036180764547967925
-0.037329445705876894 -0.08847902743947106 0.03525860307416845
-0.03734558196902142 -0.08903757128623535 0.03431753426338929
-0.03736794050715897 -0.0895478403123614 0.03332779216708581
-0.03739252012375716 -0.09004152782050712 0.03231990064950413
-0.03742784704665266 -0.09045210742102222 0.03122761275100111
-0.03746792216518669 -0.09082695558528803 0.030096863284691744
-0.03751618095839162 -0.0911396052747323 0.028900555923154603
-0.037566409866722064 -0.09143873587559948 0.027686733049557877
-0.03763408530240698 -0.09160461511917739 0.026333926694704468
-0.03770897784614302 -0.09171722736398974 0.02492141617970267
-0.03779266668759664 -0.09176479987390707 0.023436277286966845
-0.0378901484775472 -0.09170940127396238 0.021838429474033694
-0.038009946485778996 -0.09148641812511504 0.020059396504578608
-0.03815200437306383 -0.0910975110498648 0.01809816095226796
-0.03834573504032757 -0.090319390242046 0.015718794787114576
-0.03866980171894091 -0.08855589066919878 0.012289115502709447
-0.041820408265111755 -0.018038044979406753 0.02155837946971567
-0.04164536604780179 -0.020353038762445208 0.021875061129307316
-0.041477109588630885 -0.022602448444428325 0.022150673531601384
-0.04130871386451032 -0.02484670370118014 0.02243487569883973
-0.04114281944699484 -0.027062950946562858 0.022708507240427833
-0.04097779999481468 -0.029265372072794393 0.022983242508640922
-0.03793088049411278 -0.05628619854150524 0.04431705688887272
-0.037710088876451435 -0.05890102296825406 0.04508025540290567
-0.03754301955142705 -0.06104676728806413 0.04545855282368433
-0.03739360720794058 -0.06303509900663523 0.04571420480660282
-0.03725995301886886 -0.0648832324428335 0.045860059518478435
-0.0371348614126149 -0.0666533637133726 0.04594842449930914
-0.03701650934204345 -0.06836147536587794 0.04599228438952829
-0.03689652640140023 -0.07007894446853041 0.04605364775284715
-0.03680064278184894 -0.07158793057354945 0.04594003370399613
-0.03674256986279606 -0.07277402387559767 0.045546874375445856
-0.03668622009370483 -0.07394340396252891 0.04514335642846096
-0.03661099445833469 -0.07526932440512596 0.04488493987132114
-0.0365400310118004 -0.07655665300310638 0.0445976263797635
-0.03648412108914858 -0.07771532729546193 0.04419913876988063
-0.03643016873144702 -0.07885554326299477 0.0437882534873511
-0.036388494251200186 -0.07989143957332484 0.04328596275242724
-0.03635002793260652 -0.08089909550220509 0.04276095850250461
-0.036318656289238076 -0.08184646373558085 0.04218314514692517
-0.03629177137786514 -0.0827555239626005 0.041572151249439915
-0.03627449024794769 -0.0835842905346158 0.04088810410104177
-0.036257402558014705 -0.08441081054175426 0.040203335462066614
-0.036248201356931777 -0.08517188140687237 0.03945799630671176
-0.03624254140031189 -0.08590357301617207 0.0386854484530158
-0.036243425652377315 -0.08658152449635903 0.03786196039468687
-0.03624422151615955 -0.08726023068178246 0.037039125942405715
-0.03625324374588207 -0.08787199325581918 0.0361515301930061
-0.036267051141570576 -0.08844522973669222 0.03522577016468953
-0.03628556600389713 -0.08898084116182353 0.03426213726095928
-0.03630711663481677 -0.08949260958422722 0.033273579286542565
-0.03633135839195617 -0.08998348697297076 0.03226263376985522
-0.036364176217875716 -0.09040627088636655 0.031182152846873146
-0.036406954899591316 -0.0907503307777674 0.030020474071669023
-0.03645350165154732 -0.09106582966712234 0.028826625992094734
-0.03650716431504087 -0.09132623166828702 0.02757340950905457
-0.03656521492647701 -0.09155368550877296 0.026282360555516582
-0.036643958079476555 -0.09161878116267691 0.024821223688293037
-0.03672994192814807 -0.09162941093660254 0.023297773887860806
-0.036826735111378635 -0.09155774157198132 0.021682478673187233
-0.03694369109552461 -0.0913305351342617 0.01989827428016433
-0.03708896701340215 -0.09088468414214851 0.017877044151527688
-0.03728501640133916 -0.09004536019760451 0.01543262018602476
-0.03762994302358614 -0.08804642139555957 0.011754319885476594
-0.04304866647274749 0.015805713651449338 0.01738981810375806
-0.042902508987681026 0.013615952792317143 0.01742604668163633
-0.04278817487838578 0.011725476346499175 0.01724285100776468
-0.040565842651624634 -0.018258828195353294 0.021739753398933526
-0.0403993230978699 -0.020543067553598637 0.022032000771103954
-0.04023730899951266 -0.022780482817928105 0.022298488815427342
-0.04007402719326584 -0.025022911533960357 0.022581951336693717
-0.039911623283465265 -0.027251153765784686 0.022866428122426508
-0.0397510783437074 -0.029456534660602607 0.023144497116377005
-0.036760824344961356 -0.05676937227208606 0.044726794912203216
-0.036554663503352 -0.05931107959346915 0.045429828875389044
-0.036393284556626354 -0.061449060104611875 0.04580332053828273
-0.03625090660463508 -0.06341323001483995 0.046039977224332174
-0.03612492841822078 -0.06522758292882813 0.04615829443509761
-0.03600539660821411 -0.06698044427028993 0.0462331959081404
-0.0358892437420461 -0.06869905575326957 0.04628774586434459
-0.03577880920941325 -0.07036317168103895 0.04630372229022994
-0.03569536779274251 -0.07178762737877153 0.04611665916089214
-0.035654498210177556 -0.07283846987223658 0.04560417438851183
-0.03561864903219767 -0.0738441419445034 0.04505463740802634
-0.03552404456737685 -0.07535728245826118 0.044963968128728105
-0.035457561820629924 -0.07662373000249423 0.0446582095388951
-0.03542437015842071 -0.07760055865354853 0.044094937889499586
-0.03538073207275879 -0.07866595771440343 0.04361522339915419
-0.035313313755690835 -0.0799337586741739 0.04332478847215082
-0.0352777154635515 -0.08092644688009631 0.04278618328555006
-0.03524977106391458 -0.08185235433325244 0.042188606135052986
-0.03522453844948868 -0.08275405680913134 0.04157078399423886
-0.03520699167021605 -0.08358940884751914 0.040892898802811384
-0.035191437834066114 -0.08440716630585243 0.040199903831183936
-0.03518182024205233 -0.08517406177948983 0.0394600601786495
-0.035179931690115594 -0.085875299320811 0.03865854604238067
-0.03518001752930223 -0.08655982507281484 0.037841205902936936
-0.03518121931797849 -0.08723497178621803 0.037014841269198184
-0.03519169552196511 -0.08783237101172936 0.03611323804530503
-0.035205960053216405 -0.08839847544994556 0.03518035053145152
-0.03522290345472218 -0.08894276943814738 0.034224960198668775
-0.035243653361341894 -0.08945601674710657 0.03323766081914992
-0.03527029380831325 -0.08992112118338391 0.03220109962075035
-0.03530293791243666 -0.09033748914878603 0.031113936276409127
-0.035344824508400846 -0.09067868246896621 0.02994904605637183
-0.03539219621299521 -0.09097624605314825 0.028736854987561566
-0.03544352836840017 -0.09124305175528746 0.02748962382258968
-0.03550104010309601 -0.09146110585932082 0.026188623826495727
-0.035580061980026424 -0.09150516201500686 0.024705589104885184
-0.03566525822548783 -0.0915018286044868 0.0231672566756298
-0.035763455821327415 -0.09139579707413775 0.021515952075801925
-0.03587549143372712 -0.09118102101893616 0.01974373498943932
-0.036024918576299095 -0.09066716388862867 0.017651051192880463
-0.0362327779184984 -0.08968606795479628 0.015057404707481625
-0.03660570782302369 -0.08737989359586767 0.011054658169878273
-0.041634519950904954 0.01726713936711194 0.021178340270111506
-0.041443965478619324 0.014602590009314242 0.0215602551926406
-0.04128633489541387 0.012260915558187147 0.021712311735639922
-0.04111659356005258 0.009809866435371128 0.021960112438444146
-0.04096467922502595 0.007535599419023931 0.02208578720103027
-0.04081686214166484 0.005306416397658109 0.02218870067770512
-0.040683007459912476 0.0032157286239294924 0.022196006688217085
-0.0405570855814529 0.001205571778429615 0.022151190717736746
-0.04042890099055161 -0.0008209171817918914 0.022129152757823345
-0.040311517360267356 -0.0027403647107128726 0.02203304207858342
-0.040203828877039924 -0.004563831255574913 0.02187032143709372
-0.04010591583842408 -0.006291146791396363 0.021639694411337895
-0.04001752517889107 -0.007925272463063404 0.021342356446744315
-0.03996924758318479 -0.009180660374085936 0.020747522418150366
-0.03996616269713849 -0.010012318727740943 0.019813981152485505
-0.0394974878516412 -0.015973309057169316 0.02145949216195553
-0.03931522598377788 -0.018456792254832766 0.021902381337645993
-0.03915425629171493 -0.020735941085920584 0.02219128980773316
-0.03899982049184528 -0.022948297567069953 0.022437819127248237
-0.03884346831754405 -0.025172104541394846 0.022706478472551195
-0.03868793655841447 -0.02738208849499102 0.022976295381620715
-0.038532795744447776 -0.02958223815788097 0.023250533911427118
-0.03559485795826396 -0.05724531338469713 0.045130399575206204
-0.03540377161881434 -0.05970536370546736 0.04576595627268193
-0.0352477519443524 -0.06183820333411305 0.04613681896621363
-0.03511372528567016 -0.06376481233616227 0.046342877066881116
-0.03499323405829079 -0.06556324333966523 0.04644900305526761
-0.03487939596498104 -0.06729661003867227 0.04650846439898265
-0.034767852335159166 -0.06900468016129957 0.046555238413405586
-0.03466449556795223 -0.07063449114889209 0.046542440074524793
-0.0346056365750704 -0.07186004088617792 0.046180706599291965
-0.03456636573140864 -0.0729074894500652 0.045665540849077924
-0.034533750698953675 -0.07389378092182203 0.04509900404020539
-0.03443797029339782 -0.07544291740312781 0.04504090912758746
-0.034377594958741244 -0.07667270027200151 0.04470243891196407
-0.034349722861471456 -0.07761106394569417 0.044104475866702963
-0.03430076075370773 -0.07873540031388954 0.04367860195940304
-0.034241284440330026 -0.07995083145687848 0.04334045192111091
-0.034206768771176094 -0.08094344659207708 0.04280186125425256
-0.034180008458891735 -0.0818663435792979 0.042201575125778434
-0.034157044744928956 -0.08275479038762368 0.041571467623477465
-0.034140363233399994 -0.08358721530623697 0.04089084395066267
-0.034126363350393485 -0.08439550415327107 0.04018892204953323
-0.03411753599715892 -0.08515807163873518 0.03944492441583525
-0.03411703647249099 -0.08584774541568535 0.03863232851188714
-0.03411670346426942 -0.08653595203743253 0.037818372452321114
-0.034119784041389295 -0.087194548578239 0.03697597716315404
-0.03413036214676304 -0.08778841389695718 0.03607075654608566
-0.03414394838536059 -0.08835674370847535 0.03513981006930672
-0.03416021607788967 -0.08890253199805942 0.03418566831293013
-0.03418443774545264 -0.08938064981714688 0.033163682827027585
-0.034209028593408373 -0.08985657690841442 0.03213741603610959
-0.034241955341312635 -0.09026222208912532 0.031039287672585236
-0.03428284574246682 -0.09060126282912195 0.02987186445485701
-0.03432905916132029 -0.09089664970696082 0.028657092142132135
-0.03438021557717311 -0.09115192967473917 0.02739783812823715
-0.03443491681321132 -0.09137924231956884 0.02610573713932607
-0.034512524283689415 -0.09141521065387209 0.02461404213956203
-0.03459604592732748 -0.09140444492028915 0.023067632795367665
-0.034695549955825224 -0.09126263654923039 0.02137902387253382
-0.0348124360844041 -0.09097900638046952 0.019534930630889402
-0.034960158580727 -0.09044200362518307 0.01741712063569123
-0.0351731764863017 -0.08936579229116437 0.014722934958131928
-0.04031363293747711 0.017906458620128185 0.022321974599737116
-0.040282698981026474 0.016763548000861106 0.02155603175258297
-0.03986980673372309 0.011839093667392164 0.02364410083707147
-0.03970384410641267 0.009372175768484425 0.023902391648997268
-0.03953441014584634 0.00687790504193142 0.024194980350025208
-0.039386907749758004 0.004606501651873929 0.024330531003389777
-0.039243230621801864 0.0023787825118013473 0.024444426158300725
-0.03910104942636283 0.0001716819637299638 0.02455406562898299
-0.03895765355120625 -0.002041401095097317 0.02467998339453098
-0.038821647163215844 -0.004176426283597046 0.02475652483637597
-0.038697308669556285 -0.006192190616786275 0.02475034500061074
-0.038573764099110404 -0.008195083939167624 0.024744204624170818
-0.038444675675868185 -0.01024660936134797 0.0247869418055644
-0.03833076206825262 -0.01214595476360264 0.024718607710052687
-0.03821353195483999 -0.01407259684001777 0.02468165475982903
-0.038103554522998226 -0.015924503488384034 0.024594002319910824
-0.03800966884178352 -0.017617151671828424 0.02438604420163515
-0.0379230391251874 -0.019236301801070332 0.024125848681334938
-0.03785922503035641 -0.020633468082419226 0.023690525630183035
-0.03787732977749801 -0.021245558818386745 0.022612169317101083
-0.03774759220668606 -0.023267417071901775 0.02270277212061589
-0.03760798148462194 -0.025377786801964397 0.022878155572207903
-0.03746090171859469 -0.027553241111568316 0.02311990944796688
-0.034807387547961734 -0.053454348964881215 0.043387778903509755
-0.03443684083674281 -0.05767685892271551 0.04549635617535536
-0.03425827927344288 -0.060074184792648755 0.04608037642893098
-0.03411100096085111 -0.062169851465455506 0.04642104369902139
-0.0339833911424434 -0.06407481396203146 0.04660995375979482
-0.033868923963885994 -0.06585140815037133 0.04669857670708133
-0.03375673964811195 -0.06760192447565655 0.04677428522054411
-0.0336512311690682 -0.06928554842902529 0.046801063573014334
-0.03355843222069513 -0.07084656713845805 0.046729033062974545
-0.03352255095645277 -0.07187544366821075 0.046194329868883055
-0.03347962769569604 -0.07296804799303369 0.04571938446209223
-0.03344763121465242 -0.0739579061500536 0.045156318283326946
-0.03335126853813594 -0.07553986225372417 0.045128011812721136
-0.03329854629589358 -0.07671638360652616 0.04474189318736482
-0.033276457533177185 -0.077609563233899 0.04410311333868444
-0.033217045456159715 -0.07884360783685218 0.043777360316149705
-0.033169375891631166 -0.07996790231629525 0.04335611360554792
-0.03313732079766972 -0.08094788098488753 0.04280595086893402
-0.03310929301997032 -0.08188990147740688 0.042223414913361956
-0.03308882871086636 -0.08276212597561744 0.041578303732343
-0.033072830802087894 -0.08359306467815047 0.040896323489408026
-0.033061205672354634 -0.08438384108974434 0.04017793941008185
-0.03305362145372242 -0.08513771806725229 0.039425658367142125
-0.03305289548790969 -0.08582961505952813 0.03861507748473725
-0.03305289548819336 -0.08651496952907844 0.03779830365668513
-0.03305902687137932 -0.08714544839804 0.03692877075115847
-0.03306758233716929 -0.08775453636996866 0.03603801626857256
-0.0330805854336858 -0.08832435748789841 0.03510834834968857
-0.03309901726173061 -0.08884646863944429 0.034130922407722974
-0.033122247949923085 -0.08932679259890164 0.03311081814394706
-0.03314697138274378 -0.0897948747025405 0.03207653662190668
-0.03318083337233266 -0.09018332935210382 0.030961043182936743
-0.03322005991323818 -0.09052595441225131 0.029796787585043283
-0.03326264651515516 -0.09084069117792853 0.02860101655932651
-0.033316402341316984 -0.09105931431631659 0.027304548280931484
-0.03337395017791752 -0.09124701467149049 0.02597185688280823
-0.03344713563378028 -0.09130071227762976 0.024497512731366577
-0.03353051794630232 -0.09126872068084851 0.022928786380897848
-0.03362892267418248 -0.09110978640482881 0.021221848946580857
-0.0337479080062269 -0.09077671187624864 0.019325837000286006
-0.033895877815843675 -0.09019817685337389 0.01716379648464378
-0.03411546877913749 -0.08900853319248886 0.014349842729294238
-0.038966568532269895 0.018262216534282005 0.023674399202184282
-0.03898615585138969 0.017628602991368758 0.02252924032282111
-0.038614829347772724 0.01298520353003102 0.02438977478336568
-0.03846016733797384 0.01057503786253361 0.02459727640069098
-0.038280671986359406 0.007917890139584605 0.025004949157115874
-0.03810317657406434 0.005288815706562311 0.025406253040108517
-0.03792896581210822 0.002700751027000514 0.02579102233693431
-0.037772988286332354 0.00030518604625734413 0.026042120598987806
-0.03762325543242973 -0.002020456595125897 0.026252197262671195
-0.03748306396571516 -0.004243263878343062 0.02639482817410238
-0.03734753119604759 -0.006413085722370759 0.026507834810622133
