# .PCD v0.7 - Point Cloud Data file format
VERSION 0.7
FIELDS x y z
SIZE 4 4 4
TYPE F F F
COUNT 1 1 1
WIDTH 789
HEIGHT 1
VIEWPOINT 0 0 0 1 0 0 0
POINTS 789
DATA ascii
0.05857047449455382 0.07934810800426484 0.04711883590200633
0.05854193664472427 0.08018025207889606 0.04643709621873188
0.05845521001730668 0.08131206396001145 0.04603025978299585
0.05841073610217574 0.08222425986034843 0.04542621201286434
0.058366896874726494 0.08313215519150768 0.044820395627523935
0.05832609621620132 0.08402344912559379 0.04420135976460532
0.05828832152355786 0.08489831265821984 0.04356903753077823
0.058252713857275464 0.0857612350108386 0.04292740848832888
0.05823591421479412 0.08652756842308823 0.04219660113219359
0.05821362379317324 0.08732140000497618 0.041492662344147835
0.05821009834442799 0.08801961172226919 0.040698857951591005
0.05820516345570994 0.08872486745365327 0.03991196785056966
0.05819219582813854 0.08947052912976505 0.039164173625958976
0.0581900820423439 0.09016126215536546 0.03836394882541139
0.05820135698933875 0.09078471902681662 0.03749847521319305
0.05824311246174099 0.09125574857803914 0.03648358478196401
0.058317744185620635 0.09156344620371265 0.03530625129433668
0.05834323051712225 0.0921179312504844 0.034368614231089945
0.05840676007080128 0.09248376999281516 0.03324258013689496
0.058475834936362804 0.09282357391591939 0.03208734119729245
0.05855092198669808 0.09313522594699919 0.030900349372617153
0.058632210007979337 0.09341800440193598 0.02968041417925127
0.058722619776763685 0.09365773413739925 0.028412704075355344
0.05882381864047198 0.0938465383585802 0.02708849590552176
0.05893953070057807 0.09396653133255867 0.025688654701132352
0.05906963501239046 0.09401881364042486 0.024213182514299048
0.059212568530563704 0.09401151895696652 0.02266936345625581
0.05942606606758129 0.09366397404893806 0.020764588278361917
0.05963400438506785 0.09334842349686162 0.018882066702244904
0.059929069363723775 0.09261553163606917 0.016550562873455188
0.06105365925916228 0.0322681106811199 0.06397424885417169
0.060677441488219 0.03515175791136399 0.06469971778702105
0.06044039258166228 0.03723023507749812 0.06484513720095503
0.060287494041096304 0.038822629101419814 0.0646388992856487
0.060137053215547374 0.04039738050442265 0.06442649752932389
0.06004598709211802 0.04163097587974601 0.06396381218839631
0.059957177083936726 0.042849602978855594 0.063494006126815
0.05990267860433872 0.043871854658064535 0.06287864552317751
0.059846153763200585 0.044904257401291 0.062273604827202456
0.059805042820780654 0.04584841275409435 0.06160321056610091
0.05978670521414357 0.04666346713340669 0.06083473328835948
0.05977579889251412 0.047436365176062645 0.0600342842733525
0.059794281233597237 0.048044363304708515 0.05910523093093206
0.05981262337223091 0.04865358521150731 0.05817627019437066
0.05985131522754447 0.049149725691969515 0.05715694738734911
0.05989857193932834 0.049599111384704575 0.056098592452628826
0.05994544640414348 0.05005174532791273 0.055040595169795425
0.06001452187645802 0.05038244274684189 0.05388230822946943
0.06011835752165842 0.05052253486019903 0.052566626868362665
0.060253928418199834 0.050489957041087996 0.051105641001881474
0.06039706891012201 0.050418921428336705 0.04960674552506511
0.060605585751818396 0.04999204800398227 0.04780866777112058
0.06094027221082852 0.04887833369771977 0.045433330838785146
0.059667557314147135 0.06011830656347045 0.046117990182023616
0.059185583322326096 0.06343112576111842 0.04750196454882233
0.058781253495242304 0.06631413108984302 0.048539200033878405
0.05859672099715088 0.06800587931447832 0.04856452038181963
0.058391224527535666 0.06980568723413472 0.04869298292697993
0.05824879332759431 0.07126306518272862 0.04853185164415236
0.05811220772048129 0.07268583510358018 0.048347295285200154
0.057990938967747076 0.07402373917105648 0.04809442899287247
0.0578838053122503 0.07528360715171384 0.047778187051552456
0.05778470821654394 0.07649829401300828 0.04742688206239587
0.057689052976756375 0.0776924050384582 0.04706202142793836
0.05760130692596902 0.07884247215269868 0.04666215156602127
0.057534164054177134 0.07988189478051982 0.04616621136464544
0.05752111883276658 0.08063532926882139 0.045412620618349
0.05744968581305746 0.08169470102557708 0.04494036753373215
0.05739797279115375 0.08264917423689627 0.044374966924902004
0.0573725696915245 0.08346504541109107 0.04368368124572286
0.0573304669076464 0.08436730640457868 0.04307418744932601
0.057283835727169524 0.08529210118458741 0.04248793621925606
0.05724686316130368 0.08616570060831685 0.0418558447656161
0.05722714543359611 0.08694914942582721 0.04114030173852251
0.05721493279108075 0.08769338951745415 0.040388457699445934
0.057204389695295475 0.08842874096996667 0.039628736667378595
0.05720106106571426 0.08912677397068897 0.03883367697641266
0.05720882828500919 0.08976785006312515 0.037983743403636194
0.05722783920844274 0.09035160933367897 0.03707772916609853
0.05727841151198026 0.09077478796402744 0.0360139264774198
0.05732949119104361 0.0911965878627708 0.03494615384124483
0.05737591758580548 0.09164323513183514 0.03390024817042464
0.057435279845422675 0.09202544793577833 0.032788024072461175
0.057501210864316726 0.0923758714562885 0.03164101531071556
0.05757726809856076 0.09267680105854392 0.03044096559692233
0.057656908244490435 0.09296151642725942 0.029220601788688294
0.057745389126682235 0.09320375701473749 0.027953053097757363
0.05785697585806483 0.09333241315850638 0.02656525092294537
0.057972270785142145 0.09344520305877047 0.025155333927381562
0.0580953209070486 0.09352209217329532 0.023702406722703018
0.058244046187886936 0.09347427217684895 0.022114059827550492
0.05857576980639262 0.09252243411758404 0.019578583807931427
0.058709139803269646 0.09255984376730275 0.01805853843798899
0.05905624802445653 0.09154550738595146 0.01542734638134946
0.060122649397650454 0.031099691382137362 0.06311674241549592
0.059691488799571556 0.03434739207954446 0.06410617530680335
0.05942388160147287 0.03663125698588643 0.0644007458039374
0.059234024783786046 0.03845635501414746 0.06436567807327032
0.05908123177856962 0.04006169630943307 0.06417473578945326
0.058984013481572894 0.04134140009909493 0.06374545434785606
0.05888876191982451 0.04260737676593396 0.06331036389934941
0.05879277257491503 0.04387529891221981 0.06288127095702328
0.058754285471559094 0.044809887807997606 0.062201283797856
0.0587292511585564 0.04566626690078873 0.061462868267368465
0.05870438699334984 0.04652106345128293 0.060724420891062836
0.05869084708982344 0.047310482132102705 0.0599362446769684
0.05870498217815166 0.04794160711259493 0.059024772640643874
0.058717932912375745 0.04857982073309325 0.05811820232042236
0.05874325549897893 0.049148031648271806 0.057155606746476184
0.05878933904531081 0.04959911128789274 0.056098592452756446
0.05883534546375126 0.05005174523100875 0.05504059516991067
0.05889445271168871 0.050431511708876886 0.053921769942676445
0.058999341692098466 0.05055472714894599 0.05259265452309497
0.05910852756584039 0.05065632546821325 0.05124086829059343
0.059254334607495435 0.05055509646896794 0.04971802113495144
0.059431048573469154 0.05028436502177447 0.0480488069929052
0.05969779692405941 0.049514934759401885 0.04595908258581827
0.05886675412144977 0.05844126834131236 0.04468831420936631
0.05829692647178932 0.06229022526531197 0.0465242049422378
0.05791159031252424 0.06511258222111432 0.047504025761447244
0.057671015238833966 0.06713267259484301 0.047808253892706654
0.05745380531015901 0.06901922980202008 0.04800825684510951
0.057306926954210725 0.07051698750535718 0.04787885989745638
0.05717166444897592 0.07194798004690095 0.04769810073164399
0.057048420923252206 0.07331044150349808 0.047463539964388346
0.056936345184308325 0.07460941991428699 0.04717875592592369
0.056831821575763455 0.07586486303713952 0.0468607302294507
0.056737410609498475 0.07706323798394754 0.04649672954007045
0.056653429272741834 0.07820320717249118 0.04608477495560842
0.056582966221340604 0.07926856929070425 0.04560936018904338
0.05653792863058844 0.08019603948822007 0.04501169163345614
0.0565340636631292 0.08090238955415857 0.04421346024591205
0.0564374747112903 0.08210304097976745 0.043871296063513865
0.05638772476555968 0.08305217665583609 0.04330092363237281
0.0563446424716288 0.08396471606494615 0.04269900947399752
0.05630244731515519 0.08487151261519671 0.042093939883326326
0.056267970972969684 0.08573650417948808 0.04145168773520236
0.05624050222930905 0.08656372060418832 0.04077546702315593
0.05622316015775262 0.08733701323312182 0.04004936584895019
0.05621770026422516 0.08804753936911164 0.03926413507359933
0.056221658484969884 0.08870863040496574 0.03843166103457696
0.05623913610476733 0.08929920903192562 0.03753083442838118
0.05628219382791667 0.08975692338946412 0.03650001922646989
0.05637687884226315 0.08994729808014157 0.03520588208521114
0.056371526284196435 0.09065880076193211 0.03441827765811295
0.0564039312698277 0.09117480715992976 0.03343806667246607
0.056465686158637236 0.09154009220137449 0.0323066564589114
0.05654013643376084 0.09184149418989568 0.031108281103096935
0.05661699806139013 0.09213231288154106 0.02989533849693199
0.056700593556711865 0.09239047999124272 0.028645406703799947
0.056786525078085785 0.09263872931066419 0.027380963593844954
0.05689046256377017 0.09279720614628073 0.026020550166057477
0.05700390100626876 0.09290985050415285 0.024607666259666428
0.05713724191558769 0.0929241973989226 0.023087594989232685
0.05732437463097159 0.09266931862258143 0.021282051759812126
0.057594989435878124 0.09199714765741585 0.019032836776415485
0.05786137530663721 0.09135285808533794 0.01679806111746962
0.05852086405109636 0.08873823373023937 0.012480519484774744
0.05915906275420395 0.03008068510338746 0.06236889065160178
0.05871158468397128 0.03347607826515958 0.06346323182691926
0.058383581510021494 0.03615057835528873 0.0640441226779242
0.05817503371504314 0.038108731679988794 0.06410636934601649
0.05801948684730085 0.03974814771233737 0.06393957566021768
0.057911673715038046 0.041101890308099076 0.06356484933686507
0.05780779041233527 0.04242981369728138 0.06317574563376588
0.05771952556313464 0.04366334100471564 0.0627197075194399
0.057665759132637794 0.04469228110788942 0.06211115477394047
0.057628898442347296 0.04562091357082659 0.06142792385193069
0.05761223881250624 0.04643061287641331 0.06065435377131467
0.05760405863239205 0.0471904651335186 0.05984277364797819
0.057605957323820275 0.04789147993663606 0.058985523007128116
0.05761895976129222 0.0485280813697293 0.05807747278211961
0.057636354236255086 0.04913956155881127 0.057148903337485624
0.05768010615129482 0.04959911119107818 0.0560985924528819
0.05772539119176625 0.05005089912253441 0.05503991841974215
0.05777412627803446 0.05048394873772338 0.053963940280984224
0.05785754817698928 0.050718980552968196 0.05272545404315104
0.057952296021169566 0.05089116455365489 0.05143174974515641
0.05809990376093374 0.05076339858960227 0.049888235438780515
0.05824871336800102 0.05063242355178893 0.04833473800241733
0.058449970100803224 0.05020649224953333 0.04653022136614904
0.05887636057023044 0.04850640244833937 0.04365775773136177
0.0574275838162321 0.060997139743123874 0.04541602170637665
0.0570371646646753 0.06389146659176037 0.046451994073914704
0.056776321007150334 0.06605275070777195 0.04687295560396748
0.056520664353441684 0.0681786923517923 0.047276446202126454
0.05637144945812041 0.06970670484775149 0.04716967383151832
0.05623526677477663 0.07115875577261332 0.04700370946913868
0.056107498915585544 0.07256087793169663 0.04680057489687234
0.05599300322179459 0.07388656616063005 0.046536054582787645
0.05588529664210475 0.07517202521304828 0.04624148137089418
0.055790604942112465 0.07638328852887721 0.045885810846234276
0.055704700271865214 0.07754402378326924 0.04548940827021031
0.05563485884897891 0.07861474485283637 0.04501573915727819
0.0555767459772082 0.07961971122566458 0.044485690968298686
0.0555448152208385 0.0804806321847879 0.043826518386990365
0.05555771890071517 0.08109711379164986 0.04294358062798337
0.055456416208452354 0.08233315006992875 0.04263433667784372
0.05538706057000187 0.08339385743131067 0.04216702055195204
0.055338628213698504 0.0843399197904377 0.04159595765097096
0.05529741284773695 0.08524592134043163 0.04098972557678604
0.05527171800092027 0.08606751791810752 0.040305777251165076
0.055255586831361454 0.08683721536399802 0.039573808399379795
0.05525236168246962 0.08753749378940173 0.03877630017952821
0.05526297897739661 0.08816383546946754 0.03790787858708894
0.055304681395728805 0.08862496774584688 0.03687922706184221
0.05538895056314811 0.08886106647422942 0.035629735547689834
0.05542232454607709 0.08936891482571002 0.03464109050107872
0.05540961869920908 0.09012117095373706 0.0338905558692294
0.055442205813195936 0.09063424962662259 0.032904717445001175
0.0555339527203973 0.09083687181476569 0.031609214324791024
0.05559415250863168 0.09120735362647137 0.0304760903253824
0.05565257434295561 0.09158863426816993 0.029350522654451927
0.055733122254099786 0.09185576608288393 0.02810679867655208
0.055826246849059936 0.092059340400508 0.026794333393339254
0.05593138471228626 0.09220275313340243 0.025415552465912428
0.056049499645576234 0.0922814503359502 0.023964810518584956
0.05620771809474328 0.09215553794666004 0.02229718689939436
0.0564217054653444 0.0917456306718632 0.02032731861514825
0.056603462628185296 0.09150700341033374 0.018523600798524997
0.05694095663322393 0.09047273010549756 0.015878927327387715
0.0577505594099789 0.03245599414554812 0.06271051055328047
0.057356035464107495 0.035573788835829734 0.06361619333954693
0.057122542215623656 0.03770818525160258 0.06380758276253101
0.05696191393350951 0.039397135247897896 0.06367631777943222
0.056834495152771565 0.040882117217563685 0.0633991270096273
0.056726701517098854 0.04224599256541378 0.06303638285644747
0.0566532893802744 0.043401043024837216 0.06251977269512204
0.056597600095046066 0.04444822267736698 0.06192411817242455
0.05654187670970785 0.04549420211460209 0.06133029344989421
0.05653671200777682 0.04623760308390784 0.0605048395426781
0.05652452139525468 0.04702263807366508 0.059712067400038704
0.056512336038724666 0.04780733459519321 0.05891963706146547
0.056518069583676576 0.04848566009794675 0.058044078515355924
0.056539437440324795 0.0490717860461124 0.05709526381796637
0.05657101688026478 0.04959826459508193 0.05609791891796889
0.056614855889441845 0.05005343704743265 0.055041948660382256
0.056655881658156076 0.050526224602949754 0.053997938933668
0.056725401108323054 0.05083318484071053 0.0528177886807068
0.05680595070410444 0.05107744301081546 0.051583160259357885
0.05693076841197383 0.05106560960054202 0.05013518745805967
0.057071626346679144 0.050963596050640436 0.04860679709609328
0.05725611075652784 0.050611852147155634 0.046864997265357144
0.0576113970841059 0.04927529141410464 0.04429613764296908
0.056591849115807905 0.05946119333102956 0.04409970499342036
0.05615415589379624 0.06267142946891718 0.04540089155628024
0.05590661097083226 0.06478826295394952 0.04577780857436603
0.0556459486697893 0.06697335841880242 0.046227026893183976
0.05543455578093862 0.06887267196179397 0.04643970078160131
0.05529959461879186 0.07033447915473484 0.04627847774153171
0.055169523141190335 0.07176529759696221 0.04609690946582323
0.05505148469891798 0.07312510067390349 0.04585902289895294
0.05494424497907252 0.0744212760295257 0.04557047213413984
0.0548439008881407 0.07567610496266758 0.04525042293705894
0.0547554917321358 0.07686167137916211 0.04487311560043161
0.05468225852186377 0.07796034557998971 0.044421596220971804
0.054620867053656416 0.07899126023528497 0.04391211916091581
0.05457899096363318 0.07991224679715003 0.043305052428420254
0.05456415571998368 0.08068234457923262 0.04256106014943778
0.05456148351425901 0.08138482637144184 0.04175517554820124
0.05446958746176872 0.0825793806072731 0.04140800134300632
0.05440442134391366 0.08362451863943754 0.040925788564012855
0.054365529084246404 0.08452375527781819 0.04030969075590507
0.05433848331637991 0.08535711674090563 0.03963333392319929
0.05432324876025322 0.08612524377505992 0.038896367712933255
0.05431702488893088 0.08684385360161995 0.03811286554331139
0.05432139459629982 0.08750467571843945 0.0372741423036167
0.0543313284362065 0.08813540831058686 0.036406101900028354
0.05435651051859093 0.08868382271073261 0.035457551478103755
0.054387954604983337 0.08919904231832188 0.034475209963246434
0.05447384807169351 0.08942158594171373 0.033203863533782796
0.054465060075067746 0.0901554108989524 0.032432264016997336
0.05455039615709737 0.09038408159658251 0.031160144646634413
0.05461069220422249 0.0907489161575269 0.030019062435693133
0.054691384096264166 0.09100637034464204 0.028767040785467435
0.05477581554377606 0.09124593894793637 0.027492530388670167
0.05487280214553005 0.0914209161337759 0.02614792999416432
0.05498003409700581 0.09154402211249368 0.024745136554269576
0.05511807316201107 0.09150689471081563 0.02317243717216272
0.05528861587435978 0.09130174732439833 0.021419238907326943
0.05550179796713797 0.09087645734405564 0.019428932338716898
0.05581180748805714 0.08994808956645695 0.016903965098199414
0.05679010847738503 0.031391550504839716 0.06192505633403067
0.056351800491690536 0.034829890955136555 0.0630642836234806
0.05609481369437103 0.03713892735418861 0.06338294625983593
0.05590503717061765 0.03902779874827167 0.0633993169452019
0.055765467012479225 0.04060350690704567 0.0631890378070088
0.055663018687397724 0.04194816332554624 0.06281058553927288
0.05557706023952264 0.0431893562903195 0.06235841595754765
0.05552041930854036 0.044249450517248934 0.06177178716776921
0.05546628771834467 0.045292809273606516 0.061175121453728276
0.055450237675259 0.04610339068076741 0.0604008724887643
0.05543799519215769 0.04689047342705188 0.05960913559402953
0.055425758113706 0.047677208702652296 0.05881774822459174
0.05541633782481699 0.04844662301592406 0.058013348308148416
0.05543883914806809 0.04902347917631866 0.05705703237290305
0.05546361172421654 0.0495872596177816 0.05608916265139202
0.05550194022292709 0.05007035610718502 0.05505548280643974
0.05554258112518046 0.050540595884559114 0.05400949650649567
0.05560011623948746 0.050910967951937114 0.05288067667190355
0.05568430068729599 0.05112397990802098 0.05162098635422041
0.055784263115182316 0.051245316884294345 0.05028203547066773
0.055911045621794726 0.05121005650019306 0.04880926503510824
0.05609351623987822 0.05084828283551668 0.0470602590818488
0.05637128457180679 0.0499280932697333 0.044838134756622905
0.05530858396193452 0.06118474818653752 0.04412006621847325
0.05503880736797599 0.06346212680626101 0.0446292691260084
0.05491773997211217 0.06487106277440069 0.04439667129203739
0.054468747776856646 0.06817241335533486 0.04582681140054806
0.05435679913962827 0.06951831537657216 0.045560384017928224
0.05423345888157222 0.0709268939488934 0.045355368175927224
0.05411617289831607 0.07229753879666168 0.045123223803396395
0.05400580089135906 0.07362555823002842 0.04485927056577216
0.053902926429314574 0.0749078831689654 0.04456019359992003
0.0538140938944918 0.07610747860375872 0.04419193754333295
0.053730310746716824 0.07727605708251106 0.04380031622214492
0.053662733614860854 0.07835047129094863 0.04332728680420361
0.053610714944610005 0.07933501443190655 0.04277546979702307
0.05358717508734539 0.08015726311704963 0.0420768042896299
0.053532154231500886 0.08115642662562772 0.041543433380085426
0.053485625847159685 0.08210639594499414 0.04096722217818066
0.053428591691282036 0.08311414045049831 0.040447679650877644
0.0533951603645896 0.0839882334299012 0.03980541133019816
0.0533806777177438 0.08475559040670883 0.03906394809846431
0.05337572146239491 0.08546946842588948 0.03827239773387625
0.0533736348607045 0.08616725850318807 0.03746573374630652
0.05338041667297372 0.08681578437806997 0.036611821159967306
0.053391897552150805 0.08743847005817695 0.03573255948994741
0.05340938931815447 0.08802825125417729 0.03482069406607241
0.053427284544862334 0.08861625896028136 0.033906121675284506
0.053475151189976755 0.08903995752725669 0.03282926820457649
0.05356207925019891 0.08925064705230773 0.03153956508697636
0.053592695743156504 0.08977169920936112 0.030552794122882698
0.053658778327939284 0.09009992991806781 0.02937207162638361
0.05373718248621173 0.0903627549031063 0.028122079057490645
0.05382775037495245 0.09056150697662269 0.026803113932952594
0.05393446531219884 0.09067506403643244 0.02539275609798336
0.05410826316905787 0.09042861025925353 0.02360993891816071
0.05420237342227885 0.09061651581115421 0.022261576162117658
0.05441501824509557 0.09016890646692838 0.020254345130370444
0.05470718116755251 0.08929983276052111 0.017799317263952785
0.05538865497390175 0.08635307014841259 0.013168914560107658
0.05582555404846525 0.030309586587277004 0.06112667388104909
0.05537446236941211 0.03388604527238148 0.062364029421095035
0.055074031723541174 0.03650272758123102 0.06290837462442117
0.054847572191893096 0.038647080569876424 0.06311377989727052
0.054704479518387354 0.04026314491581884 0.06293238404676205
0.05460151315872576 0.04162456416554916 0.06256525091712645
0.054507814193350795 0.0429254589018912 0.06215726199487198
0.054445434341538076 0.044028893403615876 0.061602761041147314
0.05440074740229709 0.045020762162439776 0.06096551073302209
0.05435640977773262 0.04600929273716009 0.06032797994881339
0.05432523719141885 0.04691520879743233 0.05962839996051428
0.054317931936121035 0.047672954424226144 0.05881441718938668
0.05431200646328628 0.04842200796327362 0.057993971230541674
0.05431848308593968 0.04909466313146982 0.05711336959051938
0.05434964780211887 0.04961603998163178 0.056112062435816346
0.0543836111364085 0.05012110316528612 0.05509607699311431
0.054423703779230136 0.050589618201471453 0.05404892070725459
0.05447355628575511 0.050999697669745214 0.0529524150320792
0.054551703463883196 0.051238997101204165 0.051714474448604275
0.05464457703182857 0.051390974209974405 0.05040105953609553
0.05476941526468284 0.0513518177508695 0.04892572232754627
0.054954430610534455 0.05095230805605039 0.04714617078974043
0.05516627600923091 0.05039588012110402 0.04522652081290074
0.05560587922125218 0.04847472765599642 0.04215651126725373
0.0542837741050478 0.061413746319838536 0.042855208554036406
0.053967672298307595 0.06399446902013706 0.04363346836723414
0.053715677013956124 0.06618877640804072 0.0440906669020919
0.05338509629570067 0.0688389650400899 0.04496266427824824
0.05329844129522413 0.07004812359158596 0.04457812381544446
0.053183117777620616 0.07142297705111694 0.04434563633514932
0.053073817795671274 0.07275959207520194 0.04408528198161854
0.05297217407768001 0.0740486824222325 0.043788221789058
0.05287392222980546 0.07531536659531934 0.04347651127646596
0.052770440375634574 0.0766098411109124 0.04319544465440339
0.05270262860604047 0.07769494979491276 0.042729008407211666
0.0526751378975084 0.07854521249015484 0.04205086488260279
0.05260563166021588 0.07963706412967109 0.041597051288487674
0.05255758951965919 0.08060358692132114 0.041030913082512555
0.052526383361013756 0.08147219521509158 0.040376204108826086
0.05249830373234092 0.08232207662933433 0.039705694971100824
0.0524773280072146 0.08313062476681427 0.03899783562842185
0.052467039274836 0.08387768997162154 0.03823295524087178
0.05245624044980034 0.08462738687704358 0.037471157456582305
0.05244968616654164 0.08535271128294819 0.03668665713226854
0.05244274812552098 0.08608003664921549 0.035904450849798486
0.05246819632282742 0.08662422704787776 0.034945650164926345
0.05247115397766238 0.08729584129298251 0.034109191583095666
0.052513240964047574 0.08774751442585699 0.03305779208810178
0.05254675282478144 0.08824839599546808 0.03205229437666418
0.05259787625900585 0.08865159145806006 0.03094849785832643
0.052693806814205525 0.08880594743951548 0.02959497775204184
0.052724952467352995 0.08932369722165556 0.028598225585421855
0.05279763890570503 0.08961141085489349 0.027369163365604743
0.052897175435502014 0.08975217056248819 0.025987883381219656
0.053048697577222394 0.08960800763726245 0.024312363388188596
0.05315287868750724 0.08972904382522634 0.02289796323012322
0.05336087733162449 0.08928131898384944 0.020895664668115266
0.05364245688637386 0.08843496857595062 0.018471346659750754
0.054248146207950425 0.08582035100091423 0.01420288969871153
0.05442342923327122 0.032733564503184376 0.06150898549666983
0.054063421216213485 0.0357746885709706 0.06236529572850397
0.053811088173740126 0.038116020181115096 0.06271548678905331
0.053646183257523655 0.0398913875744743 0.0626520562655436
0.05354783391308606 0.041237528208058705 0.06227182208059967
0.05344998074128992 0.04257787445327438 0.0618923181248941
0.05336918454563522 0.04380718567918657 0.06143285313226449
0.05331925139468721 0.04483858056543444 0.06082514089435115
0.05326954690074036 0.04586719088330993 0.06021790136194838
0.053231957712296774 0.04681795174760167 0.05955265473363558
0.053223986927438786 0.04758103765004923 0.05874244619176555
0.05321588349320737 0.04834474431273922 0.057933148782219335
0.05321750391221 0.04904721037195392 0.05707581411424928
0.05323938996570752 0.049622811035880066 0.05611745004597429
0.05327022309767051 0.05014308869846007 0.05511366396471462
0.053310169897665134 0.0506073640347649 0.05406319212036542
0.05335723492877867 0.05102841897086241 0.052975636381241975
0.05341635329336411 0.05137589890316746 0.051825750741219756
0.053508894625804694 0.051517896572942035 0.05050477431355177
0.053627525752691495 0.05150108779544277 0.04904834811235803
0.05376004845577122 0.05140176573770455 0.047517365860166916
0.053966035912266244 0.05085380753572255 0.04560672094636847
0.05429900381857667 0.04953148489082615 0.043038556481425794
0.053114125377260235 0.06249888521404179 0.04233134411554951
0.05280997901946633 0.06504149026583755 0.04308652425628118
0.05254850445846473 0.0673195845462628 0.043625852129463516
0.05242358392230744 0.06877211114054965 0.043449531452224244
0.05225091338121889 0.07050688703342767 0.04353112538238929
0.05214295488229157 0.07185085915740219 0.0432730690519425
0.052042027095136334 0.07315007713898253 0.04298084591872725
0.05194444828071785 0.07442669617409464 0.04267387457484384
0.05184710652284164 0.07569929662997216 0.0423687420358666
0.051810345325668555 0.0766110111221543 0.04173972410171822
0.051707257393269555 0.07791311511556298 0.04147094626512604
0.051674895668603844 0.07879607122314064 0.04082144636007695
0.051638123889245734 0.0797040648846793 0.04019699444723129
0.051611690741758975 0.08055048389359282 0.039517251974556356
0.05158528464218658 0.08139603679799357 0.03883820505338742
0.051578941006672874 0.0821238432453007 0.03804978981054341
0.05157627711196945 0.08283006241405949 0.037241304026849165
0.05156562445486953 0.08358260065153411 0.03647704373480182
0.05156232805631993 0.08429223460343732 0.03567236037733246
0.05156220122545757 0.08498345961128762 0.03485016819150072
0.051567399411899584 0.08564397299630605 0.03399830267916831
0.051587060725296764 0.08622141354910956 0.03306543456357347
0.05161232532250112 0.08676721782935365 0.03210053183062295
0.05164117497670861 0.087293168542944 0.031114670812231404
0.05168100741328502 0.08775714489163688 0.030065978630927304
0.05173519147730746 0.08814038626363341 0.02893488539543093
0.05184133810312337 0.08822959704551248 0.027507489363018056
0.051973283024693236 0.08817529584411549 0.025930044238375916
0.05200640646499797 0.08868382383017548 0.024911756192479984
0.05213426870189953 0.08865831888786907 0.02335080522658839
0.052338802723368716 0.08820435621214878 0.021346229844277198
0.05261560838080336 0.08734974257299905 0.018919654522237817
0.05321074963732164 0.08471792523618338 0.014649132026011369
0.05345691048479372 0.031633833573215364 0.06069307752588765
0.05306089190339073 0.034962659621274816 0.06175956473722799
0.05277140249825913 0.03758331936822418 0.06231596336948314
0.05259299625974706 0.039470435704354156 0.06233463279010937
0.052478482305215936 0.04093618439302066 0.06204336021047263
0.05237875768180953 0.042302597464662195 0.061682490137589585
0.05228886300204617 0.04360247428415964 0.06127597053443429
0.0522323371057973 0.04468374383030593 0.060705840120677756
0.05218481708663167 0.04570525427137295 0.06009245785504691
0.05213989871179312 0.04670868376167847 0.05946755520305258
0.05213023609407173 0.047483959713896184 0.05866643399092186
0.05212441375682026 0.048234305792184407 0.0578462108276952
0.05213341231298453 0.04888950281162402 0.05695099964499206
0.05214771055978227 0.04951105176503262 0.05602852648761508
0.05216453428649678 0.05011687463275416 0.05509269461708077
0.05220179711732136 0.05059299833077857 0.05405163918930195
0.05224283448208111 0.05104615607867008 0.052989976972382
0.052299915799408146 0.05139870480594033 0.05184428786268053
0.052375817788485865 0.05163373413202754 0.050599431135694206
0.052489481015332635 0.05163243597338907 0.049156251040094356
0.052612399101993265 0.051575943302447025 0.0476612144988095
0.05276394361459268 0.05134286432708912 0.04601276663999743
0.053000221852055225 0.050582445076872595 0.04391576306375483
0.05211144945248578 0.06257143601320103 0.040924651266488754
0.05176047350688984 0.06543759672410387 0.04197000343076229
0.05151363546255387 0.0676566272313488 0.04246292148154934
0.05133527546767881 0.06945062138728364 0.042591981922104394
0.05126901244964859 0.07055654769078085 0.04211623130598535
0.05113636162441967 0.072064362495799 0.04200535663916377
0.05103963817602811 0.07335056770796267 0.04170192794824662
0.050950231864510705 0.07458983227676724 0.04136143583429447
0.05089971557391851 0.07559175867459128 0.040809477336971045
0.05078315392719472 0.07699030883155783 0.040624316314239406
0.05075453589968747 0.07785690365287723 0.03995529992945401
0.050732216152957484 0.07868493298763318 0.03925218925509738
0.050704907474495874 0.07954221165551145 0.038577632836038045
0.05068425758730156 0.08035898012274223 0.037866717447086695
0.05067187570351681 0.0811259241260529 0.037110089363134646
0.050665624497515355 0.08185608755681073 0.0363193701434828
0.05066287442345275 0.0825653165008276 0.03550909823036913
0.05066037460997013 0.08327298947425443 0.03469749969191133
0.050665249306108905 0.08393706117474659 0.03384412877800552
0.050676502260894034 0.08456370157292553 0.03295429533875821
0.050692264820860394 0.08516415220678197 0.03203835391384957
0.05071404831476993 0.0857297384959107 0.03108743258900387
0.050740238319437476 0.08627014935118549 0.03011050483671046
0.05077737672553443 0.08674739509538965 0.029069693717280243
0.050825511587679714 0.08716164519919589 0.027964186460453955
0.050887857815666446 0.08749468049094095 0.026774832436649354
0.05098286697095568 0.08764018035407928 0.025393809434584413
0.05114247346519705 0.08741490173155536 0.023633592888681054
0.05133732744314029 0.08699073784852202 0.02166238233274953
0.051598287345103064 0.08619161494046385 0.01929778539776611
0.05238637091360209 0.08237444482327072 0.013829905512562024
0.052466629167305406 0.030645882347058673 0.0599601007135635
0.05205716836348394 0.03412332906451582 0.061133468177412054
0.0517383545597584 0.036983062834841596 0.06186577342820654
0.05154541705658779 0.038993753632101724 0.06197518532160601
0.051409084336589875 0.040622047461265576 0.061805199318398396
0.0513067177076712 0.042020781404645324 0.06146767778653428
0.051225770262880894 0.043274594876566985 0.06102469686995443
0.05116031037957285 0.04442364352174605 0.0605054343456522
0.05111178007826465 0.0454590529026378 0.059901738974078744
0.05105724479247651 0.04653268144402478 0.059330481937546364
0.05104129572725027 0.0473510251671001 0.05856234597064569
0.051036370347578124 0.04809658038096587 0.05773779242845484
0.051031445918381636 0.04884199172153891 0.05691339800420947
0.05104583287133927 0.049461074471185695 0.05598876107037931
0.051058930747669054 0.050088964806057235 0.05507036877887428
0.051088652899166656 0.05060905383058911 0.054064551223273916
0.0511298538366829 0.05105544614207452 0.05299748809910948
0.05117867901309364 0.051453595179551004 0.05188890381124506
0.0512495433935914 0.05171063256085684 0.05066226882023972
0.051335548201432234 0.05187198410485505 0.04935304049259809
0.051451856783035314 0.05184068225065397 0.04787985534391348
0.05157014913972223 0.051799889613471484 0.04639221776958269
0.051794888028981606 0.051080210966319095 0.04433123414033718
0.052126701079636864 0.04968209507952476 0.04168821867184325
0.05123046949391675 0.061856202323943565 0.03881894829237281
0.05079207932630783 0.0653142376596203 0.04039115245809327
0.05056728721345181 0.06742693603367095 0.040792689335591714
0.050368322347910464 0.06937252275453631 0.0410579661484175
0.050251703445147906 0.07080092154976408 0.04087018440915752
0.050161650730840876 0.07206137281398212 0.04053754220326594
0.0501251198402327 0.07298826429139321 0.03990733827757931
0.050061193997879914 0.07408319521882023 0.03943264834929616
0.049953563957746284 0.07544543728855391 0.03920697164033354
0.04987744569565086 0.07661108581941245 0.038806345547021004
0.04983774320824005 0.07755140373053226 0.03820132985211694
0.04982180576713169 0.07834528097694932 0.03746220096509861
0.04980600194333144 0.0791378975705675 0.03672283919093122
0.049794032270441956 0.07990673254986341 0.03596202549057437
0.04978589122705931 0.08065198017957226 0.03517960005408055
0.04978305478478616 0.08136485740512239 0.03436686181605775
0.04979168820795999 0.08200831473220022 0.03348789694580151
0.049778615759790305 0.0827829320401351 0.032734513772702534
0.049787124308748765 0.08342732005417924 0.03185606148219
0.04981130950009995 0.08397783050198088 0.030885897061775025
0.04982057021910531 0.08461840798734493 0.030002217621137417
0.04984911500165038 0.08514401056502902 0.02900511964871344
0.049893417953033856 0.08557646668327978 0.027914379469574868
0.049945618103256643 0.08596319120566631 0.026775579915510717
0.05002680061454782 0.08617940274406172 0.025463598665273812
0.05016290157156983 0.08607278245552491 0.023823132790379398
0.05040166793567743 0.08536365213852204 0.021567404560118963
0.0506575251858909 0.08456049943355837 0.019201770133652096
0.051078432236586084 0.033075502186573624 0.06035184428287582
0.050711387502103064 0.036314554025239365 0.0613643945512386
0.050495056444071054 0.03851486212735977 0.06161407180559092
0.05035396449453929 0.04019673902215243 0.06148275443782697
0.050231876133589995 0.041745474333860444 0.061257826869534404
0.050155247325890426 0.04298251786819379 0.06080086074059865
0.05008331684137114 0.04418558595438321 0.06032201238097462
0.0500267354730551 0.045282974601617565 0.0597653406615512
0.04998273132609599 0.04629401549924872 0.05914460526519094
0.04996088519645049 0.04715483972688256 0.0584087323362385
0.04994717759466618 0.04796044401168659 0.05763062493499682
0.0499365213126426 0.0487452310557851 0.05683681875571872
0.04993804329285314 0.04944836591908591 0.05597864931840668
0.04994958838460825 0.05008473555395937 0.0550669857496322
0.049977140623959936 0.05061496856254011 0.05406930797408016
0.05001477246904826 0.051079091380134 0.05301660543382836
0.05006941394328733 0.05143164107470238 0.05187105920439539
0.05012340822568421 0.051790028642223984 0.05072714746326701
0.05018136117856826 0.05212385508372969 0.049559953194083683
0.05029728408999264 0.05207790865893075 0.04807577432345578
0.05042589799127339 0.05195195155384641 0.04651846920805469
0.050596022677128205 0.05155772357330363 0.04472980037932256
0.050856990441226956 0.05057452285305741 0.04243705448789037
0.04993170083685414 0.06446861390045389 0.03816239547596023
0.049649006302758855 0.06698133815398405 0.038920758246495823
0.04940646511249333 0.06923096379428645 0.03945961395305092
0.04929868629486356 0.07061968063687646 0.039235422686960675
0.049164191960167 0.0721742311934005 0.039168260398373345
0.0491424411789683 0.07301371228960035 0.038456557450297746
0.04905061255914415 0.07429364740012173 0.038150260332538544
0.04900195657627191 0.07529984385638344 0.037597053815781545
0.0489586387660708 0.07627120392181325 0.03701449677277363
0.0489297621392184 0.07715105137565553 0.03634928625642375
0.04891892693360926 0.07791755058468997 0.035579649994845086
0.04890967818785714 0.07867386825580103 0.03480108656697961
0.048903108818780204 0.07941328713712908 0.03400709226230941
0.048900919382715236 0.08012538864904645 0.03318750772121193
0.04890250052292304 0.08081412618825173 0.03234571098540284
0.04891052966332347 0.08146315362030027 0.031465638472227164
0.04892830053581508 0.08205248673344417 0.030527380492652023
0.04892744815236614 0.08275661756931252 0.029699544988203708
0.04894437840780718 0.08335184685536079 0.02876541983593034
0.04899462918923247 0.08374402523731167 0.027630934612040636
0.04902162661440238 0.08427934748021909 0.026634557157962535
0.049084532300720685 0.08459712537860659 0.025420738756505468
0.049215756730850706 0.08450231087832527 0.02379166318992959
0.04942372738768999 0.08394683481996851 0.021692737979803645
0.04976852496900092 0.08257128099236749 0.018754697243277607
0.050086229835689264 0.03207440325423894 0.0596050769887006
0.049695470772899486 0.03553839171117462 0.06078227597401997
0.04946033952314229 0.037905046630177686 0.06115423356313576
0.04929091152994759 0.03980733706127121 0.061187531831151665
0.04916912723033228 0.04137362820377277 0.060974389694107844
0.04906496818803992 0.042814150668939344 0.0606718308893886
0.04899693914392461 0.04400163861898215 0.06018028205097781
0.048939187843983566 0.045116175145834436 0.059636130171355384
0.048902586987742545 0.046083297809146384 0.058980495128140464
0.04887212805839832 0.04700712294866766 0.058293069790421204
0.04884543002750925 0.047904255455769984 0.057586392959220356
0.048834510837488694 0.048692583262165245 0.056795151772038865
0.048839101181835765 0.049374637681457445 0.05591998595878256
0.048842947800904306 0.05006189616228374 0.055048715906011625
0.048873245988864014 0.050569334333122384 0.05403260865546472
0.04890930506430881 0.05103855436026927 0.05298383119265532
0.04896012666120444 0.0514088395075783 0.05185252576518401
0.049013053296566245 0.051766382598942284 0.05070782516203254
0.04906822353239708 0.0521103414408971 0.04954885178374124
0.0491672400235379 0.052160857568398056 0.048144279673494716
0.049286361152326694 0.05207927026300302 0.04662417726451368
0.0494294351743886 0.05184067700372563 0.04496597362127924
0.049627603801047665 0.05123793043283681 0.04299371956466275
0.05008557598003474 0.04890785918659052 0.039552601566127665
0.048834385367384756 0.06581532623293646 0.03639074310463475
0.048566053326837416 0.06826778508687609 0.03711121807417578
0.048405124131599246 0.07001790030001964 0.037210481798340855
0.048218756492134786 0.07192743563163911 0.03746513932526596
0.04818600269787773 0.07284269417732675 0.03681908116677568
0.048102085881715204 0.07408559109294671 0.03647721029457285
0.048077184184885345 0.07494787272282083 0.035787677932445805
0.04805855484639955 0.07576932572496542 0.035061642059701414
0.04803501842329685 0.0766215351970635 0.03436557661075407
0.04802361872615463 0.07739581788182726 0.03359759771932341
0.04802973780151782 0.07805853253096567 0.03272472424482642
0.04802865778302183 0.07876703124555112 0.03189503111140207
0.048030697690864065 0.07945577967634548 0.031046515529995822
0.04803993964896357 0.08009917412918827 0.030154266908968053
0.048051226874523706 0.08072997175738644 0.029249261556596795
0.048069249428420606 0.08131882536525598 0.02830279611997888
0.04809546634816481 0.08185689390781281 0.02730559727556736
0.04813809979105206 0.08229317096257238 0.026206818088280515
0.04820738950014885 0.0825645557605924 0.024942631901428314
0.04831643441601412 0.08259076742275467 0.023430866567875575
0.04852645464020166 0.08199377643655892 0.02129084144810106
0.0491025754541229 0.030965453866793557 0.05877785890442505
0.04870136658391552 0.03457006296166937 0.06005603333425524
0.048416711844946204 0.037330489750446394 0.06072098248272906
0.04822841204198932 0.03939587989085247 0.06087558820436656
0.04810405991551712 0.04100097088266025 0.06069033419385772
0.047998980185664154 0.042465604997254824 0.060404719422358255
0.04791365774625634 0.04378721340655661 0.06001506868532025
0.047858366711783284 0.04489409368186664 0.05946409568338007
0.04780441950359468 0.04598984663495176 0.058907713976665
0.04777536525145367 0.04690885776756226 0.05821612797390768
0.04774998689910933 0.0478011942238708 0.05750526246179338
0.0477359129117808 0.04861358051828335 0.05673262668151602
0.04773809619422013 0.049311900637212525 0.055870067975443916
0.04774549672259925 0.04997389319719453 0.054978319746130155
0.04776491894729807 0.05055242952574712 0.05401901375803819
0.04780697365689985 0.05097435054975985 0.05293192227001864
0.04785080868622021 0.05138519012911402 0.051833303209885606
0.04790351695997095 0.05173597560987375 0.05068297814923273
0.04795022156265734 0.05212976671791181 0.04956480977610461
0.048027569565867886 0.052313949939450155 0.04827071461844157
0.04813832440417949 0.052270912357150257 0.04678329062813841
0.048253680802224606 0.052199638190208564 0.04526558836968836
0.048430814386986716 0.05170919814347902 0.04338916016567862
0.04874129201954761 0.050313847090617814 0.040738618508528834
0.04787165728051786 0.06626853585196629 0.033806354149265305
0.047520744632946525 0.06930079341987494 0.035067867128800057
0.04736630998455312 0.07102839336952632 0.03515454820440861
0.047274296584600826 0.07234115139223324 0.0348684023088473
0.04719935382144481 0.07353922753671893 0.03448176716615681
0.04718121801348981 0.07436343313547228 0.03375147644600168
0.04717493888623838 0.07510970759762692 0.03294933596617122
0.0471441600426572 0.07601533852506126 0.032297655594751506
0.04716428002750682 0.07658935271499645 0.03133404492289166
0.04718086231597332 0.07718690044163423 0.030391537172249405
0.04718868369448235 0.07784160281809199 0.029502630194319812
0.04720231809495704 0.07845903173456176 0.02857738387369385
0.0472185711142378 0.07906001134041052 0.027635360692901734
0.047243149869033295 0.07960800572843924 0.026640813666229612
0.047278935707863734 0.08008492619343482 0.02557526959258949
0.047320972961621945 0.08052295441343932 0.02446922478857727
0.047505122854721284 0.08005590947285174 0.022467437953570535
0.047872022220613306 0.07843160866711951 0.01930588253325921
0.047720686128272474 0.03345729150030535 0.05922145923508093
0.047394194632221893 0.03657425723827579 0.06015073682421679
0.047183614096979354 0.03883570359739291 0.060450894097325625
0.04703112113258008 0.04066786685181767 0.06043642792728782
0.04692300534888436 0.04217300635408211 0.06018048353320676
0.046836176592922114 0.04352053323975874 0.05980959316633089
0.046782086500619956 0.04462859063553104 0.059258424831510115
0.046714916913565 0.045829401402334935 0.05878275681113421
0.04668021686658069 0.04679428495912785 0.058126417242802375
0.04665564905243783 0.047685281127265444 0.057414014880241004
0.04663987755482759 0.048512436542911264 0.056652578348987015
0.04663655855137722 0.04924998826801219 0.0558208061623332
0.046648295448645 0.049879915626504845 0.05490314431829191
0.04666015689997825 0.05050931463492908 0.053984340510848994
0.04669399526383015 0.05098279972844827 0.052938753538574856
0.04672942966350962 0.05144599565559993 0.051882727099594406
0.04676813592824467 0.05188711023358489 0.050806477992211996
0.046817893077362886 0.05225133453709774 0.049664678115043326
0.046887994817733585 0.05247365769594625 0.0484026130319028
0.04699173683211203 0.05246148612309626 0.04694151699861354
0.04710452239409291 0.05238901209903529 0.045423653453151136
0.04725104302675347 0.052083715599633984 0.04370341767264141
0.047500067089117394 0.05106655604270527 0.041373563959618775
0.04695554200709219 0.06637005002359236 0.030880744068689514
0.04676992255599505 0.06833759190495775 0.031176122966612152
0.04659865956404041 0.07020307661053121 0.031388926169551745
0.0466091934987204 0.07084569030896082 0.030473255969205526
0.046561059999664554 0.07188066788012465 0.029924455719216925
0.046522105747904996 0.07285297288009784 0.029319782399257144
0.046496997122272815 0.07373198680826015 0.028629352303226885
0.04648015533862463 0.07455536909738314 0.027887635906326202
0.04648462951248006 0.0752370982495415 0.02701154225815522
0.04651432249329021 0.07575237106025268 0.025975117503860612
0.04661085055043798 0.07582806878891657 0.02451191239804018
0.04678590077366554 0.07539041386597545 0.022543617356865164
0.04673067419420503 0.03236026091125577 0.05839869072805309
0.04636287367870549 0.035847059624386834 0.059602385261528223
0.04612649432027804 0.03834027693947034 0.060075289524968656
0.04596882698888625 0.04023913833152176 0.06010963252718937
0.04584776143160993 0.041860695718889784 0.05994114115741933
0.04576272785896133 0.04321090157059526 0.059571023752374885
0.0456837171794064 0.04451381259579357 0.05916951253407543
0.04562704933413508 0.045649040079324354 0.05864228868489291
0.0455902383290895 0.04663597769829175 0.05800246232171702
0.04556368306625027 0.04754625023498282 0.05730456879680984
0.04554815849656954 0.04837464639919692 0.0565435271275781
0.04553889511510493 0.04915665230461025 0.05574654149972297
0.045548853278997735 0.04979774763580286 0.054837415731253336
0.04556206037004888 0.050415437791998974 0.05390884411316699
0.045581073510915913 0.050991248477149254 0.05294558445948078
0.045612294121235866 0.05147892262890014 0.05190949080667856
0.04564483687372924 0.05195798616330105 0.050864394387246215
0.04569385475036202 0.05231883358111389 0.04972012882375537
0.0457488191630282 0.052638273946123304 0.0485385652379583
0.045843419230601035 0.05267382278059518 0.047117812286062155
0.04594819149945345 0.052639196327223525 0.04563247517603053
0.046075002454443924 0.05244973507517181 0.044010544527811835
0.04628560444938128 0.051664391840577084 0.04187786662799464
0.04665521269772387 0.049749822738441196 0.0387741197738567
0.045712178563283315 0.03142746075776193 0.057699094395373685
0.04535568188208305 0.03489830086072315 0.05888696299259755
0.04506690796142201 0.03783897137490716 0.059695227896233494
0.044912985440847174 0.0397396544354387 0.05972890431077971
0.044766875441444455 0.04157580282046203 0.059722810644852964
0.04468183524792609 0.042942444697811 0.059364179291492625
0.04460998119170981 0.04420620384719126 0.05893122465996031
0.04453960645710245 0.04545644188260939 0.05849229029127945
0.044503425624739835 0.046445812117751284 0.05785356225348359
0.044470471764802226 0.04740966602472524 0.05719704875985965
0.04445587892690836 0.04823418785026906 0.05643236404942731
0.04444525140052398 0.04902844247378918 0.055644528704536234
0.04444875558246115 0.04971638681903301 0.054772332827131176
0.04445633109400295 0.050373979742140196 0.053875503310213735
0.04447624334834423 0.05093970373143625 0.05290391043423759
0.04450059220827035 0.051473013026262004 0.05190468745587168
0.044532342366292284 0.0519520808893113 0.05085956896801169
0.04457948409121603 0.052317989914490604 0.0497194358296148
0.0446321962909463 0.052644180104926164 0.048543443055934
0.044701834952466775 0.05284704285731068 0.04726163053550009
0.04479464254517442 0.052881386608744696 0.04583462457945958
0.04492429863271184 0.052647728500362756 0.044176680801706225
0.045087602557336084 0.05217133123495449 0.04230549390895455
0.04536427495405113 0.05087011181749923 0.039724140630666205
0.04435993986581973 0.03381075264265876 0.05806688495646345
0.0440266334867399 0.03716024873549889 0.05918065861328714
0.043848081307849555 0.039285599937094295 0.05938280435207205
0.04370199687774722 0.04115107754149677 0.05939731815697469
0.043598787212162746 0.042677046698760546 0.05915969167602664
0.04352306107107031 0.043985522224221196 0.05876027455390126
0.04346056304199108 0.045188675074670503 0.05828374941491349
0.04341283934443905 0.04627516552509742 0.057719945603632916
