# .PCD v0.7 - Point Cloud Data file format
VERSION 0.7
FIELDS x y z
SIZE 4 4 4
TYPE F F F
COUNT 1 1 1
WIDTH 759
HEIGHT 1
VIEWPOINT 0 0 0 1 0 0 0
POINTS 759
DATA ascii
-0.03139437777369694 -0.08536601034368446 0.027099885923871525
-0.03127669609657229 -0.0826964253695846 0.027113986024646153
-0.031148785951989316 -0.07988171114790665 0.02723287658575363
-0.03102672426708618 -0.0771612149313809 0.02730523985868838
-0.030901442478413383 -0.07440018540401405 0.027416737659363588
-0.03077204479992274 -0.07158567099212865 0.02757625951236098
-0.03064147949932401 -0.06876150232857298 0.027755982037016624
-0.03051463282376947 -0.06599968282211999 0.027909032025029368
-0.030388255594834206 -0.0632521698391093 0.02806638426522534
-0.030263301968266675 -0.06053290686398999 0.028218746346743373
-0.03013823771959304 -0.05781932749993729 0.028380885761837282
-0.030010079721119347 -0.0550678933985454 0.02858192082530886
-0.02972773998995689 -0.0500776902477269 0.030301620440856436
-0.029834775240703118 -0.05076537368709105 0.0282146844809813
-0.029888954220997604 -0.05067983352170491 0.026641541349841202
-0.029899646287602798 -0.049961382720964675 0.025494989461586626
-0.030025360237387177 -0.05090460657684609 0.023205384286684283
-0.030084941691458433 -0.05088666787046353 0.021566104066702785
-0.03014286943278047 -0.050841444636420374 0.019939213139063827
-0.03020196962537445 -0.05080967790663787 0.01829652174594376
-0.030260254084280964 -0.05076276396867935 0.016657929449135078
-0.0303249813419348 -0.050804614448521745 0.014950171592560901
-0.027843337405869237 -0.014488849932228598 0.03905849344473494
-0.027603142719989034 -0.010253158195547674 0.04053295740529522
-0.027431412478609203 -0.007004949398760119 0.04132514096349932
-0.027295869233672037 -0.004280235500447649 0.04175856218545343
-0.027182859299219004 -0.0018825104425903016 0.041969793082596574
-0.02708878598014843 0.00024102446771095964 0.04199357702893369
-0.027012127334187775 0.0021134906232185835 0.04184368658313975
-0.026952593326692236 0.0037404958983487946 0.041521314285459576
-0.02691011108163724 0.005124564716753599 0.04102543055924068
-0.026884746140483928 0.006266273235235931 0.04035356902639292
-0.02687437314588598 0.0071968439928087324 0.03952623309974285
-0.02688038561208951 0.007898144132509721 0.038527192519277664
-0.026899191770698615 0.00842162924959361 0.03739265751537246
-0.026921039896856937 0.008903939414156792 0.03622458985250748
-0.02694571814468414 0.009348279073562948 0.03502492318518441
-0.026970366002477764 0.009794481362764007 0.033823861951090495
-0.026995589705344054 0.010234171972744344 0.03261492426171825
-0.02702070871447719 0.010676779217047239 0.03140535357056118
-0.027046787746043355 0.011107653216451074 0.030183697106075158
-0.027073603456018454 0.011529942753978506 0.028952267086606864
-0.02710154214273144 0.011938423062916925 0.027706800415202293
-0.027131912483564048 0.012315311920026328 0.026432952662227283
-0.027163272083674767 0.012680487981082955 0.025146200855473422
-0.027196397045943118 0.013023479299354768 0.023837950302593114
-0.027232534442872856 0.013327510985062574 0.022494328929699714
-0.027271707988595 0.013592525849056014 0.021114760947801292
-0.027310063235686133 0.013870890822790916 0.019741503406250915
-0.0273496159451705 0.014135345909552621 0.018352306555361186
-0.027393342329114407 0.014345940344404728 0.016913964363138745
-0.027434859406165624 0.01458875962776962 0.015497210684030871
-0.027468571982097977 0.014938586778362017 0.014164857191962865
-0.02751126244843528 0.015170340798806914 0.012729427811132121
-0.03296167317835235 -0.08828908388955237 0.026939909482895597
-0.03282214569832576 -0.0853767195014688 0.02709315731132722
-0.032702088761266554 -0.08274947073399058 0.02708046762906907
-0.03257023416797355 -0.07996122953238899 0.0271823452314075
-0.03243954329944464 -0.07719686806520976 0.027282455158834373
-0.03230906600469161 -0.07444283553156894 0.027389327279699227
-0.03217283435734062 -0.07161478066742805 0.027557445724598784
-0.0320371338955984 -0.06880183182709021 0.027729769873189702
-0.031903586205658266 -0.06602676863150542 0.027891328576699292
-0.031771147290159805 -0.06327474528878357 0.028051545945260214
-0.03164119813855538 -0.06056502935539054 0.028197514539669843
-0.0315095410039482 -0.05783867988758462 0.028368022945625737
-0.03137868101613195 -0.055130820252377866 0.028539861685279944
-0.031088808410318067 -0.050214359852409185 0.03020976308076978
-0.031187610288251642 -0.050719599964349604 0.02824562112613277
-0.03125317984534223 -0.05075806716658343 0.026588372346257716
-0.031254832414519165 -0.049907515214309806 0.02553180232121033
-0.031386423930067006 -0.05085310504531748 0.023240775493413135
-0.031452143915342186 -0.05088259372532017 0.021568919351890925
-0.03151211068129791 -0.05082919993378093 0.01994772101328901
-0.0315731993331628 -0.05078786885011055 0.01831175875681923
-0.03164169716363454 -0.05084471706984561 0.016600357123556897
-0.031623674146851743 -0.04971379044191254 0.015720700387554964
-0.029141781262482847 -0.014937279468774989 0.03873999301953068
-0.028877485024903456 -0.010521003368349546 0.04034167367508762
-0.02870278705903804 -0.007338045409821747 0.04108595323763381
-0.028560678853645934 -0.0046071653221177455 0.041522516541997345
-0.028439596144120134 -0.0021690019486929057 0.041761812877132654
-0.028345017680853922 -9.584466752260434e-05 0.04174768911350002
-0.028265210629864507 0.0017727847906908178 0.04159364161062451
-0.028200564018745433 0.0034328884391465198 0.041294330440728
-0.028159865982029148 0.004767691489916959 0.04076066066359796
-0.028133140475019473 0.005912925409362835 0.04008999014056097
-0.028123692316851558 0.00682555470273466 0.03924776769307309
-0.028130856712691592 0.007515902000783059 0.03823895857530385
-0.028150873237601726 0.008035451346918965 0.03709987922089625
-0.02817328766829358 0.008524244916797818 0.03593517032381349
-0.02819906094104474 0.00896973719459232 0.03473482383062115
-0.028224881412320133 0.009416045301249898 0.03353227914608303
-0.02825090805595002 0.009861073334693049 0.03232590490618992
-0.02827730102322477 0.010302727644462495 0.03111403648042249
-0.028305337837360344 0.010724235755716849 0.02988348032633864
-0.028333669966815387 0.011143434960559528 0.028648005346643635
-0.02836462065965878 0.011529922330074993 0.027383500638625657
-0.028397564895828366 0.011892085859336599 0.026096203958331066
-0.02843299903085928 0.012223619643043748 0.02478073812605408
-0.028468521704857506 0.012555981827447327 0.02346198535054711
-0.028505588672167518 0.012870276490905164 0.02212465336615005
-0.0285437251859517 0.013172784552098749 0.02077358786990452
-0.02858326465496741 0.013459284921216452 0.019405159451210685
-0.028625359864146705 0.013715022667624144 0.018007010086688258
-0.028659403322687318 0.014076767263552337 0.016691661662605606
-0.028684600187467952 0.014554053807501022 0.015468395827102854
-0.028718128197272274 0.014925963656316377 0.014154321123258373
-0.028813151832323865 0.014513241492235762 0.012178056189112052
-0.0343989645340932 -0.08834629122937027 0.026904169017901547
-0.034249978912225094 -0.08538742914898856 0.027086428391079942
-0.03412625120253443 -0.08278130380314758 0.027060352926309705
-0.03398523009601123 -0.07994622412039731 0.027191880777573674
-0.03385411139088982 -0.07725333008800694 0.02724637216293896
-0.033716518391658346 -0.07447960928395897 0.02736569353911872
-0.03357391081494152 -0.07164534983281456 0.02753768865418227
-0.03343229131998252 -0.06883208370699068 0.027710107678936335
-0.03329281287009366 -0.0660552835338582 0.027872691060417065
-0.03315449338612887 -0.0633015565792856 0.02803392349038608
-0.03301804623987919 -0.06058039399378823 0.0281873591098859
-0.032881583338172156 -0.05786632905173805 0.028349645534855195
-0.03274972110173366 -0.055221138138148995 0.028479494853714593
-0.03260187431125346 -0.05236953965148089 0.028761238461693095
-0.03254116968984156 -0.05068729495196744 0.028267454827290872
-0.032616375858782826 -0.05081608622471606 0.026548941563237838
-0.03261708612681599 -0.04995195515710793 0.025501432372880883
-0.03275279032376757 -0.05087614386603706 0.023224943623343652
-0.03281490410377238 -0.05082013136128871 0.02161208044180779
-0.0328830275750375 -0.05084008430662823 0.019940158481718262
-0.03294553327229134 -0.05078241701883629 0.01831556777000304
-0.032968217969644255 -0.05019813136357698 0.017054586479120004
-0.03296552326397069 -0.049279810774905675 0.016027252025059724
-0.03042593278956676 -0.015161296221014975 0.0385808834887541
-0.03015963529517774 -0.010868501765648464 0.04009350494690789
-0.029974535612222474 -0.007648257544467296 0.04086319784362269
-0.029828049816635865 -0.004940165449096312 0.041282088093855585
-0.029700139897038333 -0.002481032285189977 0.041535292599633955
-0.029602626704571193 -0.0004224819260602586 0.041509269664062154
-0.029522116725333263 0.0014110564914242008 0.041328168185694736
-0.02945883441444443 0.0030180537903323756 0.04098822352060355
-0.02941280856568772 0.0043995235355822615 0.04048751102849074
-0.029385607920397717 0.005536700291295438 0.03980934599349212
-0.029375976177591624 0.0064472013659250815 0.038964004279684605
-0.029383631790472035 0.0071360400507827215 0.037952519434580834
-0.029404890721097095 0.007651634311990563 0.03680889080378763
-0.029427666909866756 0.008149039247644596 0.035649172374787486
-0.029454366488811567 0.008597789937104028 0.034449778331774816
-0.029481777666191002 0.009038944001560023 0.03324172476782916
-0.029507911257094996 0.009497738649379917 0.03204444915961807
-0.029536254175884145 0.009930025625917716 0.030823770444096343
-0.029567069138070872 0.010332670944409483 0.029576884150196436
-0.029599786560960094 0.010713037508943313 0.028309193339798477
-0.029632911435500998 0.011090042540443101 0.027035366525587023
-0.029667285596991572 0.01145317516620764 0.025746975444241982
-0.02970249680246858 0.011807687882529172 0.024448021804597764
-0.029738803755047716 0.012150421661448307 0.023135830853367734
-0.029777228872144266 0.012468741373370396 0.02180001093914563
-0.029816177314378158 0.012782621002808858 0.020456456109763488
-0.029850213423854757 0.01315945387129308 0.019160152392743435
-0.029872833918736155 0.013679250918722796 0.01797762359800048
-0.029892079801677733 0.014241892479801732 0.01682803421677187
-0.029923983669955394 0.014649741485834755 0.015547841826121511
-0.02999631720793303 0.014562681303280256 0.013851099799455535
-0.0358389565290643 -0.0884344485691767 0.0268490924010103
-0.03567531378522906 -0.0853644808976941 0.02710084712809052
-0.035549798391953776 -0.08280252830834467 0.027046941596801044
-0.035408282000187086 -0.08003777314904215 0.027133704327189645
-0.03526822946377716 -0.07729940149674797 0.027216929476503282
-0.035122954688179865 -0.0745002052221177 0.027352456984494455
-0.03497483972501758 -0.0716715552642121 0.02752075190757247
-0.03482619200466603 -0.06884360937395384 0.0277026166264418
-0.03468199573281982 -0.06608095005465242 0.027855915271839615
-0.03453778728238991 -0.06332554837217813 0.02801815423588
-0.03439585620290456 -0.06060693533402767 0.028169816256058022
-0.03425831000423424 -0.057952063252216524 0.028292660910153367
-0.034118235693006184 -0.05527178723495474 0.028445641953980694
-0.033961658614412006 -0.052387138426291335 0.028749410173417977
-0.033891898228864924 -0.05062135370084864 0.028312021870274928
-0.03396503815576752 -0.050683879748716576 0.026638791698583353
-0.03402418052958577 -0.050564266982693395 0.025082981685685957
-0.034031813196771295 -0.04978652368967457 0.023973715293533093
-0.03418572237033985 -0.050864939700808465 0.021581118310613157
-0.034245636461150954 -0.050744865727949506 0.020006317767834236
-0.03427346759358016 -0.05021616141168084 0.018711183104280937
-0.0342748657906698 -0.04935257614124666 0.017648592784872685
-0.031939363005055225 -0.01906914739878457 0.037367251341324736
-0.03165611187228928 -0.014689308108318255 0.03891611672974421
-0.031443056155208114 -0.011204130671915002 0.0398538129124173
-0.03125349288773436 -0.008023848872810546 0.04059349530762407
-0.031098397012557243 -0.005283687916483648 0.041034062439137875
-0.030971419197678575 -0.0029018722606156677 0.04122978129077082
-0.03086656822513305 -0.0008017324998076947 0.04123244662958381
-0.030781757165517166 0.0010443353285271018 0.04105903048304588
-0.03071562509230351 0.0026547300741150415 0.0407201265813632
-0.03066793426633077 0.004033830472449429 0.04021619755504291
-0.030640576922345446 0.005159723737791111 0.039528141315115894
-0.030630523807744028 0.006071257473501346 0.0386820479401363
-0.03063937377141991 0.006750131474458465 0.0376615207667097
-0.030662252579677998 0.00725753743278823 0.03651010878683714
-0.030686631105674423 0.00774777944470012 0.035343314835398765
-0.03071268914031678 0.00821877910285429 0.03415931958887325
-0.030741732911261612 0.008654758924489303 0.03294571237854138
-0.03077109172299996 0.009088403847623772 0.03172735959826595
-0.030802070088357433 0.009503919106762349 0.030491912153512324
-0.030834329449004907 0.009905526420129651 0.029242428966923528
-0.030866133104860374 0.010314295239135685 0.027995300528920686
-0.030898963900284307 0.010712323203294405 0.02673642807892812
-0.030934317461876627 0.01108170676891157 0.025451408823115806
-0.030971244851702023 0.01143402575213509 0.024149118240206324
-0.03100782037568207 0.011792456242859795 0.022847952415885553
-0.0310383954463457 0.01222445158735519 0.021602501900147786
-0.031060725987944484 0.01275629995070976 0.02043506198037459
-0.0310793740827902 0.013333099367114909 0.019302047017073276
-0.0310970706886748 0.013922151231963553 0.018177166880992468
-0.031125870650223875 0.014380609520847465 0.016942596970947577
-0.031193248672332842 0.014384637977524761 0.015327736366737954
-0.03131882271250787 0.013705874088106085 0.013135947354771194
-0.037294296431689744 -0.08870995905784052 0.026676966060444618
-0.03710450802681504 -0.08539201934478508 0.027083544473364196
-0.03697419737590038 -0.08283285233201587 0.027027780434537074
-0.03682664302975344 -0.08006329335401341 0.02711748711807127
-0.036679314210679916 -0.0773038606215184 0.02721407987115826
-0.03652928268492871 -0.07451786037702018 0.02734111041760312
-0.03637546420790315 -0.07169193938223684 0.02750757753252514
-0.03622339773243777 -0.06889548172440069 0.027668902161600784
-0.036071222858445315 -0.0661051933584591 0.02784006971063946
-0.03592066196646213 -0.06334248534406889 0.028007021976556135
-0.035773267763571905 -0.060626494175205936 0.028156888599299212
-0.035627078232365675 -0.05793270114962362 0.028305530342787433
-0.03547853250714624 -0.05521703221679097 0.02848223933993682
-0.03532078406887873 -0.05239526148177148 0.028743950640779004
-0.03524363751359568 -0.05057291987499202 0.028344756368989976
-0.03531869770948026 -0.050623199748519365 0.026680031070255072
-0.035394519430048205 -0.050679099487098034 0.025004505821108136
-0.03546358035239073 -0.050648574857545536 0.023381325994218938
-0.035464023288737316 -0.04977722750407165 0.022332719053482053
-0.03552191130753071 -0.049605492895651415 0.02079797006225459
-0.035607089398274124 -0.049762592321512866 0.019028069849937712
-0.03575198950836984 -0.05063989301370436 0.016744247167298776
-0.033114877359714516 -0.017833706027256757 0.03823993394239128
-0.032876525845482805 -0.014135661361719232 0.03930934863900115
-0.03269898998068338 -0.011182569863995129 0.039869210817258804
-0.03252494428371181 -0.008280246388224333 0.04040938282812934
-0.03237136485316574 -0.00563224936720802 0.040782398601747594
-0.03224199932662469 -0.0032819628421605906 0.040953852257014534
-0.03213255798867302 -0.0011763001313848664 0.040959041775007754
-0.03204291703783605 0.0006876936962276758 0.040797290178839374
-0.031975181325594966 0.0022864242188077033 0.04044835331569446
-0.03192575601260371 0.003664231851256916 0.03994198648554054
-0.031896890618126866 0.004795800296177433 0.039256673574483536
-0.031887757853225465 0.0056924438118942655 0.03839793928530788
-0.03189751771543562 0.006365544971390746 0.03737151902337105
-0.031920553070597636 0.006882695225865598 0.03622592458010082
-0.031948383201578875 0.007344603148146001 0.03503599646165384
-0.0319763519123695 0.007806261015250504 0.033843182220199
-0.03200536151260763 0.008257113545977246 0.032639328901787557
-0.03203532719499944 0.00869822889197669 0.031425112138881495
-0.03206525853036141 0.00914122638356274 0.03020944151218591
-0.03209733163922074 0.00956078367357438 0.028972494588970443
-0.032131013908597884 0.009963243553356427 0.027718950102491646
-0.03216677069388226 0.010343333834410884 0.026444398793931012
-0.03219886476495468 0.01076753721356083 0.025201433240735704
-0.032224348511989936 0.011269586847563129 0.024017578668629913
-0.0322441971253406 0.011837766383319515 0.02288439126421815
-0.03226251244931307 0.012424540165366704 0.021764274286848295
-0.03228038993618461 0.013017238142053134 0.02064715725546562
-0.03229856274387169 0.01360744233764477 0.019526226651511047
-0.0323266882341088 0.014084957223165773 0.018310912485013153
-0.032393890740831745 0.014118851119677311 0.016726417854643516
-0.032497311613532046 0.013744506117542521 0.014796258862397549
-0.038704803719166576 -0.08841898025811185 0.026858756454620103
-0.03852996870605626 -0.0853721303573764 0.027096041038564278
-0.03839803189103508 -0.08285408153525159 0.027014366136432655
-0.038245160404857224 -0.08008881637209309 0.027101268121319577
-0.038090672279666345 -0.07731129260555575 0.027209330406447685
-0.03793437733176833 -0.07451933181451514 0.027340164830519376
-0.037774883647374385 -0.07169630774182645 0.027504754298209533
-0.03761720533133068 -0.06890268726476823 0.02766421898454785
-0.037457626271880824 -0.06609378459794635 0.027847526657949317
-0.03730352363951913 -0.06335801204094765 0.027996816663282742
-0.03714986482209322 -0.06063487713267329 0.028151347825835893
-0.03700094806118171 -0.05797557704938089 0.02827703222151895
-0.03684447250455255 -0.05523345744135161 0.028471261083933552
-0.03667676707476841 -0.05236547898278582 0.028763967929999412
-0.03659416670831159 -0.05051373764107098 0.028384755271906592
-0.03667129453555054 -0.05055444958890715 0.02672675507689043
-0.03675035095068849 -0.05061424560847927 0.025048826711204564
-0.0368277943261564 -0.05065128273090669 0.023379465263852317
-0.03690441023036254 -0.05067490809549857 0.02171242883568647
-0.03697914297798418 -0.05067279960794385 0.020056390484358644
-0.037053131528485 -0.0506584224913631 0.01840219696682277
-0.03712274329732315 -0.05058939950934982 0.016779719158157458
-0.03432398879732118 -0.017081409665871794 0.03877133591596288
-0.03409926265485002 -0.013650046813031835 0.03965426015984291
-0.03392510133470315 -0.01081639486671232 0.04013071774789945
-0.03377048899795196 -0.00821751564330564 0.04045442826479706
-0.03363424480005758 -0.005838360647479002 0.04063358482905194
-0.03351003882602362 -0.003604585641953928 0.04071964231558389
-0.03340064279972189 -0.0015472440484321504 0.04068828194739982
-0.033307656653302944 0.00031633859035429257 0.040524751611589416
-0.03323596179378352 0.001931362935770231 0.04018635323639119
-0.03318836759351395 0.003267203598285362 0.039647424932140574
-0.033158236037247185 0.004401378835373948 0.03896245590956565
-0.03314761447515451 0.005311806676667752 0.03811246303270038
-0.03315637224300038 0.006001366328765745 0.0370969060593308
-0.03318117982701265 0.006509222533348846 0.035942778662356234
-0.033209296365394256 0.006980791339629866 0.03475868340775967
-0.03323774154032437 0.007449985426964512 0.03357014686565468
-0.033267173614432904 0.007909405844477413 0.032371422128480154
-0.03329731574499104 0.008362238103460484 0.031164838238273207
-0.033327324235128394 0.008818006082557506 0.029957712606399955
-0.033359745154620916 0.009248173165624318 0.028727719837118026
-0.03338334649547306 0.009778491663181843 0.027573512118489574
-0.03340584602523421 0.01032222653312298 0.02642769392153904
-0.033423829630973574 0.010917308179395846 0.025320601771596063
-0.03344088460467712 0.011523562385413466 0.02422074147716824
-0.033459095766478875 0.012117811927504885 0.023109606117549142
-0.033476376755520086 0.012723217691056499 0.022005756174468483
-0.03349586298600506 0.013305105459696154 0.020881141001575232
-0.03352489667948039 0.013782766241831779 0.019669492788190746
-0.03359707951800133 0.013787596323868612 0.01806662987795754
-0.033692076011928904 0.013545682250562074 0.016253053229079106
-0.0338176377727982 0.012973831550753323 0.014156396620534029
-0.04014068589153855 -0.08844682452815922 0.026841360699784433
-0.03996013727911545 -0.08540885016408645 0.027072969626646126
-0.03982225543597048 -0.08287834583329234 0.026999034012948453
-0.03966190525820502 -0.08009181937484677 0.027099359886189167
-0.03950118307520318 -0.07730831995659465 0.02721123021023275
-0.03933846900561622 -0.07450903293765332 0.027346783809645947
-0.03917370276161571 -0.07169339569750866 0.027506636459875278
-0.039011554987508544 -0.06891565771863939 0.027655788889762556
-0.03884753637206203 -0.06612373427208024 0.027827951362014824
-0.038685992167996126 -0.06336789327276854 0.027990322003226875
-0.03852530064242656 -0.060629288660434044 0.02815504169755051
-0.03836954849795155 -0.05795482978361505 0.028290822326569487
-0.038210992293150385 -0.055255359616206534 0.028456622129179376
-0.03803847745108019 -0.052403384959570976 0.028738490904120506
-0.037943268092830086 -0.05044247137307739 0.028432921273366607
-0.038025235362469746 -0.05050593322292346 0.026759727809615275
-0.038105895735281434 -0.05055076164615535 0.02509221140749135
-0.03818749504518956 -0.05060254845622869 0.0234129548506814
-0.03826561404080104 -0.05061114912624359 0.021756485869631137
-0.03834465422946787 -0.05062658108499679 0.02008850384499039
-0.038420522065688745 -0.050602579942467085 0.018441211523380407
-0.038494025774128825 -0.050548467484182236 0.016808474168285903
-0.035536930106181704 -0.0164258980193569 0.039234371772497334
-0.03532299019151596 -0.01321023246481573 0.03996664173829523
-0.03514984586595299 -0.01046107441080063 0.04038447281940477
-0.03500010656288112 -0.00798133540765944 0.04062402338495602
-0.03487051249269835 -0.0057330616157212355 0.04070961157845471
-0.034762902546031905 -0.0037353243789411406 0.040624731798346025
-0.03466115881931079 -0.0018076584063193013 0.040498200011443886
-0.03457407378041596 -4.70774263887086e-05 0.04025803956625018
-0.03450269604853981 0.0015358338151543194 0.03989449188998767
-0.03445081106888208 0.0029003893631263655 0.03937527964364046
-0.03442124637817112 0.004016798216910311 0.03867557899760887
-0.034407305631648843 0.004960176036482633 0.037848741535820296
-0.03441737293853749 0.005639667952724303 0.03682416336865563
-0.03444373057642014 0.0061413742630677115 0.03566389686551025
-0.034471099900482804 0.006633244156577789 0.03449376795680337
-0.03449783176809252 0.007133316410520785 0.03332746441222656
-0.03452207205683603 0.007661707125888928 0.0321805717221621
-0.03454420034231452 0.008214126268813293 0.03105010405348524
-0.03456557568141145 0.008775713663564944 0.02992477469777516
-0.03458384864255918 0.009371801182538497 0.028824520978699586
-0.03460028148287409 0.00998856646352847 0.027738884656769935
-0.03461819931397295 0.010590110274306952 0.026639705319284
-0.03463515510502318 0.01120280456889683 0.02554776311362289
-0.0346524219785627 0.011812944928136726 0.024452227420728778
-0.03467098342183626 0.012410039872000012 0.0233446181501466
-0.03469192571159145 0.01298259183106043 0.022215461140354553
-0.03472866025283694 0.013388020451053695 0.020948535864255213
-0.03480196711914782 0.013406717624131814 0.01936220449243753
-0.034889807557793015 0.013274759739969666 0.017645333476222325
-0.0349986064859272 0.01292520659215679 0.015740619201992267
-0.041577010546926696 -0.08847776644981437 0.026822029673163994
-0.04138823165310585 -0.08541956128105399 0.027066239783141766
-0.04124192835801302 -0.08284953253402372 0.02701724073096018
-0.04107760306619147 -0.08008281098108311 0.02710508451585414
-0.040911543553384604 -0.07730386099321207 0.027214079870071517
-0.04074275949168579 -0.07450167691616838 0.027351511469330625
-0.04057328348729467 -0.07169922019201153 0.027502872111379806
-0.040403665431796215 -0.06890268750943734 0.027664218983853017
-0.040235459662663 -0.06612943952342343 0.027824222437925872
-0.04006687472366961 -0.06335942384396681 0.027995888871688024
-0.039902712346240786 -0.0606460549826609 0.02814395980191975
-0.03974163475156087 -0.05797419407014248 0.028277951601608897
-0.03957319865020761 -0.05522798250913524 0.028474920593314468
-0.03939687216729634 -0.05240203118451486 0.028739400873969756
-0.039292657105187014 -0.05037929259661811 0.0284756212739522
-0.03937715987284037 -0.05043856734471358 0.026805511032035823
-0.039462026887031605 -0.050498097594683544 0.02512820183205189
-0.03954553248098751 -0.050538939598810506 0.023456666040553076
-0.03962778096358505 -0.050562325174483724 0.021790222922738023
-0.03970726112554545 -0.05055183660614748 0.020140437439515657
-0.03978068996411866 -0.05047188273708286 0.01853252338746758
-0.039858904375095504 -0.050440716580898715 0.016884169730848386
-0.03675986916146473 -0.015924097448026087 0.03958883026382859
-0.0365461152159061 -0.012794224599335546 0.04026211458038609
-0.03637447083215048 -0.010128966531803119 0.04062165044020505
-0.03622689387886267 -0.007730915621106449 0.040803843565646924
-0.0360992185677391 -0.005553630458152881 0.040839162264617423
-0.03599430889233436 -0.003626552558527396 0.040703695453957744
-0.03589844708915813 -0.0018011166028039094 0.040502975092870874
-0.03581999782476123 -0.00016620299315678322 0.0401706130282618
-0.03575570890343688 0.0013140648001880306 0.03973084833992757
-0.035707945363934235 0.002615432926136474 0.039163865969510325
-0.03567617385849793 0.003744670334112188 0.038472585934861914
-0.03566572982379607 0.004646236976594387 0.037613288573941306
-0.03567024822916392 0.00538893631780657 0.03663509641053825
-0.035690243110084514 0.005968332695513334 0.03553270655886237
-0.03570885143755799 0.006563233141613223 0.03444040260750242
-0.03572677399475427 0.007166173006576626 0.03335264448282116
-0.03574249621272113 0.007793006840985439 0.032281737507675046
-0.035760048857241405 0.008401362146684244 0.031195145696292503
-0.03577660852248174 0.00902087597527318 0.03011571099723398
-0.035793587990212594 0.009636744666227381 0.02903197249618794
-0.035810482370789855 0.010254251770945855 0.027948034201809135
-0.035827190094337366 0.010874446669367932 0.026864737845848696
-0.035844420424251726 0.01148996533140545 0.025776248749191766
-0.03586420503500112 0.012079828938966197 0.024665716107357405
-0.035889500213611154 0.012613696047950873 0.02350840008970989
-0.035937547298378884 0.012914370576299183 0.022160304110417528
-0.03601057599022808 0.012960451932859496 0.020601000682861803
-0.03609315310450595 0.01291185808994233 0.018957829775443802
-0.03619057599289758 0.012715020651831499 0.0171855065543427
-0.03631723402188236 0.012224011512866784 0.015161521181853876
-0.0430109831068678 -0.08848086097876168 0.026820096430571483
-0.04281485288987742 -0.08541344077988089 0.027070085445051018
-0.04266211997053111 -0.08282830399522129 0.027030654766327156
-0.042490903996451855 -0.08004828169889006 0.02712702686761681
-0.04232105681358257 -0.07729048437354985 0.027222628519090908
-0.042147953517540464 -0.07450461946915099 0.027349620423171683
-0.041972496848882324 -0.0717006764311221 0.02750193100890569
-0.04179849493451388 -0.06891998157264939 0.02765297875003042
-0.041621567795888714 -0.06611517709319686 0.027833544569311863
-0.04144731168923535 -0.06334672024272076 0.028004238778462975
-0.04127827813685615 -0.06064186343430694 0.02814673035392551
-0.04110855475320549 -0.0579368505353291 0.028302772701024992
-0.04094239534631325 -0.05527726410013262 0.028441981710834785
-0.040757032624109964 -0.052419632586173937 0.028727570820177184
-0.04049049301804485 -0.048704401585815404 0.02960761087685232
-0.04072891741238052 -0.05037391580004735 0.02684944954134194
-0.04081643045270455 -0.05043059825876156 0.025174330614059548
-0.04090253334220433 -0.05046858557069556 0.023505012416383753
-0.04098605234383774 -0.05047555408622317 0.021850181151706338
-0.04106875497288856 -0.050470326544515054 0.020197071855738657
-0.041149079011787326 -0.05043649922234872 0.01855724421193189
-0.041226346207339074 -0.05036709491345803 0.016935889356779088
-0.03804356539697619 -0.016093154998328252 0.039469412640362744
-0.03777570869249456 -0.012473672681933945 0.040489789106154306
-0.037601883891122546 -0.009848129661821192 0.04082221245286871
-0.037452110798383544 -0.007480816394078715 0.04098343356056644
-0.03732689723822769 -0.005375470929332216 0.04096779482545537
-0.03722016032684278 -0.0034673506289911726 0.040819269159622196
-0.03712643687856329 -0.0016986557868653995 0.04057776351490289
-0.037046582083141016 -7.739345903101658e-05 0.0402357906957751
-0.03698542884232067 0.0013474541627301329 0.03975548647124166
-0.03693946202325924 0.002613288671243441 0.039162275192255125
-0.03691127150423358 0.003694470686079143 0.03843513970778606
-0.0368973482088617 0.0046281295822059865 0.0375997081810312
-0.036897763751281065 0.005414449548521327 0.03665433503322374
-0.03691303886765401 0.006049034263315933 0.035593890032106834
-0.03692718222089176 0.006695807408687859 0.03454145654441615
-0.03694050352051431 0.007351546606712944 0.033494707517554734
-0.03695570985616608 0.007988726934937851 0.03243253883783237
-0.03697040731746359 0.008631712145343529 0.03137358552837216
-0.036985220835416006 0.009274154384333322 0.030312968239230853
-0.03700129961798042 0.009904472591768243 0.029241604238727237
-0.037019065157868826 0.010518506830018481 0.028156057844539506
-0.037036115206234343 0.011140486662525373 0.02707529004527376
-0.037055485516669935 0.011739948939315459 0.025975153593291334
-0.03709176760729727 0.012171153683569302 0.024738769621853396
-0.037150956710721876 0.012375374802456762 0.02331674041052123
-0.03722227573053485 0.012461374622558474 0.02179405542212748
-0.03730182912016406 0.012468630948073989 0.02020123995807427
-0.03739068079909341 0.012387126963675776 0.01852904546686107
-0.03749882863437353 0.012118570624593816 0.016695521507701372
-0.03770995868189477 0.010838249660940324 0.014017057921972886
-0.04446744591263155 -0.0887223497378038 0.026669225319050194
-0.04424201490183964 -0.08541344090532127 0.027070085444627523
-0.04407845216849438 -0.08276766145422682 0.02706897384709639
-0.043904848100526445 -0.08002276339723935 0.02714324302458193
-0.04372964101474915 -0.07726819165238413 0.027236875163678398
-0.043549104533841705 -0.0744648999864369 0.027375147488682805
-0.04337171917167001 -0.07170213267957826 0.027500989900391903
-0.04319053871232611 -0.06890701111531128 0.02766140900539371
-0.043008407299391566 -0.06610947244784482 0.027837273255870376
-0.04283037872479592 -0.06336224723428147 0.027994033271512675
-0.04265542991131156 -0.06065443880024374 0.02813841853946608
-0.042482570747234716 -0.057975577530584355 0.028277032220199727
-0.04230674556796932 -0.05527315700735891 0.02844472690028299
-0.04211704111479229 -0.05243452720974939 0.028717560027550493
-0.04182983878136025 -0.04859773463769462 0.02967970273265763
-0.042080663994496066 -0.050313322497401725 0.026890629991581982
-0.042170412320661904 -0.05036311993898013 0.025220445033718897
-0.042258039086430124 -0.05038743619430991 0.02356077720296257
-0.04233557417979266 -0.05030482484435189 0.02196815381110484
-0.04242747751041152 -0.05036576682288746 0.020269721498694104
-0.04251364137583455 -0.050364389049194935 0.018607624166218195
-0.04259519892960608 -0.05031257649774662 0.016974188865274853
-0.03943530051626018 -0.017348181008142727 0.03858289613653748
-0.039036924116729835 -0.012494190809500039 0.0404752160275359
-0.03882910303162844 -0.00958345058805049 0.04101123524387057
-0.038681062135497005 -0.007284534363561912 0.041124378790506455
-0.038555096853228304 -0.005214051313747026 0.04108434104648939
-0.03844631223792524 -0.0033214392735230747 0.04092519449065385
-0.038353772926598445 -0.001596249517702042 0.04065251212203386
-0.038274869169574406 -1.1354555205345118e-05 0.040284256928151574
-0.03821353201682437 0.001394835533106098 0.03979044932236658
-0.03816787314224273 0.0026422325087708254 0.03918374916969436
-0.0381385325814063 0.003725446332641602 0.03845824599743136
-0.038123289052174825 0.004667537232749597 0.03762926384234572
-0.038121679595884916 0.005473967159331294 0.03669921504519136
-0.03813026538768053 0.006179570274792046 0.0356928551788121
-0.0381422919667285 0.006851595342854289 0.03466020494488231
-0.03815411117352007 0.007526160022049866 0.03362852437466479
-0.03816679809975106 0.008192693112926752 0.032589693729927594
-0.038179816337824274 0.00885650544112132 0.031547720881640484
-0.038193597362631504 0.00951339806499385 0.030499295016701733
-0.03820717278004376 0.010172868635084542 0.029451759119091092
-0.03822712240257389 0.010770830831275557 0.028354689269257716
-0.0382557351792322 0.011285439077368231 0.02719000986510256
-0.038304746099813 0.011603444810038388 0.02586654127443838
-0.03836692020338322 0.011796120147174294 0.024438769028721608
-0.038436057888923306 0.011924140781619907 0.02295385465109201
-0.038511795418516175 0.01199144421671805 0.02141411517169084
-0.03859684899320022 0.011972328839230106 0.0197978368964683
-0.03869288771252971 0.011851362901896756 0.018091245587758986
-0.038813526869111846 0.011498903953055473 0.01618646393205303
-0.04587612439828954 -0.08845765419873153 0.026834595127520955
-0.045669773631308495 -0.0854195616573798 0.027066239781871615
-0.04549782079547835 -0.08274189322684633 0.027085256435338878
-0.04531907706949116 -0.08000175045896873 0.027156596164781666
-0.045138088787678395 -0.0772459010903972 0.02725112042839606
-0.04495536002639127 -0.0744796102709902 0.02736569353622631
-0.044769086761666035 -0.07168465991139372 0.027512282799750154
-0.04458093885547696 -0.06887819039253845 0.027680141174312556
-0.04439521157316539 -0.06610376794742251 0.027841001847699498
-0.044212143833775266 -0.06336365894285634 0.02799310546260675
-0.044031273023083906 -0.06065304163642887 0.028139342097268982
-0.043851050828759425 -0.057956213363198616 0.028289903025216945
-0.043675708632783285 -0.055315602036274836 0.028416357457561547
-0.04347349253788353 -0.052412862932301574 0.02873212095325617
-0.04317078889662758 -0.04851377153179387 0.0297364500010196
-0.04343162789532245 -0.050248708305693 0.02693454311505511
-0.04352437916770961 -0.05029970947929552 0.025263779498583494
-0.04361494216714267 -0.05032524227296997 0.023603516068680275
-0.04370000865796377 -0.050292635155569865 0.021976576873642073
-0.043789247450761716 -0.05029789794858697 0.020316877826738022
-0.04387761209440891 -0.05029094297612924 0.018658937448765955
-0.043962048441817385 -0.05024172302380553 0.017023963823182164
-0.040935052394897024 -0.01958714824678004 0.03700135004167854
-0.0403640037541609 -0.013159899771517158 0.04000239123143018
-0.04009958834089702 -0.009759112813359117 0.04088578471552101
-0.03991800817154445 -0.007178668702962687 0.04120039831664768
-0.039784540076353465 -0.005074851812910008 0.04118484418217594
-0.039674916005506315 -0.0032085159546635933 0.04100717195212533
-0.03958056780712402 -0.0014949863148231435 0.04072642638057139
-0.039499719568634906 8.387462676739954e-05 0.04035414599474996
-0.03944077399471383 0.0014475873191853172 0.03982937500983669
-0.03939432126103755 0.002688319222141855 0.03921794172182885
-0.03936625828123633 0.0037500096054833287 0.03847656899223678
-0.03935052506016958 0.004692029702807576 0.03764763317779318
-0.03934399175709986 0.005545151103060364 0.0367528921880641
-0.03934543119968355 0.0063216773957357475 0.035800592890127714
-0.03935495591653904 0.00702101391919796 0.03478934321177446
-0.039363155305075996 0.007733368798321316 0.033787321019522254
-0.03937457362831566 0.008415428343354459 0.03276131007275529
-0.03938622048572068 0.009095776940012124 0.03173307171966555
-0.03940087201006195 0.009748127942176665 0.030682106373826235
-0.039425426583153636 0.010307447364736377 0.02955713469673904
-0.039470615677196674 0.010673095707857572 0.028277751534463824
-0.039525292371786494 0.010951247965879374 0.026925520976063155
-0.039585275717446126 0.011181749257253792 0.025531010352654204
-0.039654324561091796 0.01132968647418281 0.024065654699458316
-0.03972564636004738 0.011459138184596263 0.022579896097731644
-0.03980515652216446 0.011515031966373102 0.021028934328058024
-0.03989409027712017 0.01148635748935345 0.019402830859075626
-0.04000149696877931 0.01128958729254581 0.017632190355098498
-0.0401569472629233 0.010651629068596402 0.015490425660812657
-0.047301372235409034 -0.08837412792121269 0.026886778623859686
-0.04709418527512605 -0.08539202022267539 0.02708354447049599
-0.04691825377920855 -0.08272825243716214 0.02709387589956691
-0.046730299824415136 -0.07995222733777424 0.027188066629714236
-0.04654805315305938 -0.0772399573960782 0.027254918932320182
-0.046357532166770236 -0.07445313278552484 0.027382710211786954
-0.04616649479151766 -0.07166864439704612 0.0275226338617503
-0.04597204114476906 -0.0688580181104308 0.027693252270911406
-0.04578067230447213 -0.0660852290476272 0.02785311911787458
-0.045592908440524965 -0.06335518967481046 0.027998672225399257
-0.04540796549381087 -0.060660028268605226 0.028134724247876886
-0.045223240244167795 -0.05797419455147784 0.028277951600201023
-0.04503550997252308 -0.05526631206376925 0.028449302101556606
-0.04483552464972947 -0.05244671461887179 0.028709368869209495
-0.04451149223228491 -0.04843250504689328 0.029791374734811193
-0.044782606255051975 -0.050188150006267696 0.026975699776390027
-0.04487767048861924 -0.05023362045105356 0.025308944483466045
-0.044968931145146385 -0.05023874124016375 0.023662958437863202
-0.04505380503980613 -0.05017889679119786 0.02205516928033019
-0.04514875294973617 -0.05021241339504362 0.0203762737755388
-0.04523927520913574 -0.05019985000950933 0.018722579757451563
-0.04532745352302085 -0.05016135961951934 0.017080419548477277
-0.04541082677516811 -0.05007360681784234 0.0154665366367564
-0.041718480876971165 -0.014046026782586929 0.03937301283295758
-0.041424699849606485 -0.010442986620914363 0.040397390753505236
-0.041210745790613366 -0.00760805940170306 0.040892063816780955
-0.04103247741744899 -0.005119031458773238 0.04115294623338345
-0.0409069795526758 -0.0031350964473875753 0.0410604713768572
-0.0408066013777351 -0.0013926884294918618 0.04080109587593922
-0.040726951950583436 0.0001509394541655551 0.040403365155507465
-0.040666873803295187 0.0015078572354384479 0.03987384833480262
-0.040620815549726574 0.0027311805508236087 0.03924974130928088
-0.04059165355981452 0.003794856158397919 0.03851002225124289
-0.04057406230398935 0.004749521447754201 0.037690751837717196
-0.040565728955300646 0.0056173700541662375 0.0368073497899819
-0.04056367473718009 0.006426598134140926 0.03588013797677947
-0.04056881092407564 0.007169130025946657 0.03490224381259416
-0.040577488277521286 0.007879123522579468 0.03389902172376924
-0.040591539712494636 0.008539875750844472 0.03285719619297456
-0.04061498036110411 0.009114736816869029 0.03174775899935506
-0.040651739380808787 0.0095681594821857 0.030541944226505913
-0.04069855724915458 0.009930802699515906 0.029262221034448477
-0.040753660138701894 0.010219480737810371 0.027920662524570317
-0.04081029855428389 0.010496288757652406 0.026565452555161406
-0.040873582413702834 0.010714771456894923 0.02515944965067901
-0.04094264274477743 0.010883215499785659 0.02370850913736311
-0.04101847070966908 0.010992968787510604 0.0222049991950673
-0.041103952469797894 0.011018306081868323 0.020627329842062336
-0.04119873624640238 0.010962968366531767 0.01897741099293293
-0.04131300803076598 0.010735709461747123 0.01717958879782938
-0.041629587399083574 0.008693774175355773 0.0138820432343838
-0.04873282885224285 -0.0883555706431316 0.02689837244519755
-0.04851779557183547 -0.08535836283898868 0.02710469188242748
-0.04833545786124123 -0.0826843039384535 0.0271216462956147
-0.04814605763634188 -0.079949226393915 0.027189973713839966
-0.04795442032256 -0.0771998407615409 0.027280556270382783
-0.047760156222509516 -0.07443254133190319 0.02739594404210821
-0.04756517506587477 -0.0716657327071612 0.027524515794334903
-0.04736407634030968 -0.06884793270593559 0.027699807380057728
-0.047166318177702206 -0.0660695435004035 0.027863371411254223
-0.046974660438025485 -0.06335660133878196 0.02799774444580949
-0.04678381726899812 -0.06065863106962027 0.02813564782892647
-0.04659539541176075 -0.0579907938822708 0.02826691865042824
-0.046406020595170065 -0.05532107963729116 0.028412696483382738
-0.04619762488129227 -0.05247921719493537 0.028687523540094406
-0.04584503991055154 -0.04828869835370109 0.029888567807234034
-0.046132490675662566 -0.05012088284502492 0.02702141590874635
-0.04623026132291081 -0.050164855313701295 0.025355938307591586
-0.04632396866249345 -0.05016713372880638 0.023712166189553685
-0.0464092106205856 -0.05008686662326639 0.022118761492262995
-0.046506848535712575 -0.05011882613548746 0.020441299597984575
-0.046600073563462525 -0.05010607786956511 0.018788093874185896
-0.04668941708288301 -0.050053801014726285 0.01715598002033386
-0.04677468497037951 -0.049960418757661385 0.015546489719824697
-0.04308702747854232 -0.015010000721381422 0.03868834305993213
-0.042760587228368584 -0.011185974944878163 0.039866779679219644
-0.04253493359555048 -0.00830153551913948 0.04039409627102336
-0.04234988742866167 -0.005798451867753629 0.040662399810144245
-0.04219399128359775 -0.003569444876188377 0.04074515352350688
-0.04206983622210664 -0.0016365522295274104 0.04062309454674995
-0.04197307676789533 4.16763635280315e-05 0.04032317671893931
-0.04190416740222986 0.0014626563943597737 0.039840494657988834
-0.041855994579558554 0.0026926055847900088 0.039221122002761455
-0.041822527867391025 0.0037873823436745946 0.03850444725725938
-0.04180428518224509 0.004743134219275191 0.03768596152246212
-0.04179922717986757 0.005579139769725128 0.03677852189054698
-0.041799227251791214 0.006369375720536863 0.03583675524134233
-0.04180887401257064 0.007072867656096715 0.03482886854230832
-0.04182782749416396 0.007693213304385771 0.03375654761138802
-0.04186059505761965 0.008190580286840499 0.032588066057939125
-0.041898022203634956 0.008647551075745497 0.03138585542925659
-0.04194108110527808 0.009055721584890264 0.0301428497190529
-0.04198838207157186 0.009427776107944763 0.028868349997282605
-0.04204233314343428 0.009742575041665036 0.027545238881227507
-0.04209952490642034 0.010030702164066374 0.026196973299601634
-0.04216524871515502 0.01024556116047326 0.02478611261609326
-0.0422367014828029 0.010412364639086236 0.023331861366358952
-0.04231514580747738 0.010520322816544192 0.021824893782437738
-0.04240477356766185 0.010533010176548507 0.020234966533502985
-0.042508157876971556 0.010428507057875736 0.0185429914581709
-0.04263638601358166 0.010110620687087124 0.016668797169580196
-0.043084905021505214 0.007002268234980791 0.012492467115970851
-0.050166641300860404 -0.08836020998327437 0.0268954740748365
-0.04993973343264149 -0.08531094468311695 0.027134485350792104
-0.04974737704387181 -0.08259340220321931 0.027179085652460966
-0.04956083331925439 -0.07993722263405767 0.027197601804433258
-0.04936261373522144 -0.0771790423563743 0.027293847945333682
-0.049161547653116575 -0.07440165756520845 0.027415792554170593
-0.048959761495739725 -0.07162497136587148 0.027550860325353088
-0.04875325142808155 -0.06881191676416337 0.027723216096761816
-0.04855094236598283 -0.06604530428870053 0.027879214456317525
-0.04835565661693417 -0.06335095534341012 0.02800145552696859
-0.04816041875017424 -0.06066422052279391 0.02813195346786962
-0.04796915857738501 -0.05802122913414737 0.028246689418835735
-0.04777373929606886 -0.05534709909276442 0.02839530560959297
-0.047555491330271885 -0.05247109124523586 0.02869298517762131
-0.04719327791497809 -0.04828736737548561 0.02988946743999915
-0.04748151365536109 -0.05004960245090695 0.027069859511038907
-0.04758035014472883 -0.0500772450719168 0.02541581077959415
-0.04767781507098315 -0.050088797900537885 0.023765997545510453
-0.04777403827909175 -0.050085513648242486 0.022119696469925676
-0.047867953391539646 -0.050057812788524 0.02048369260948585
-0.047963441950210815 -0.05004086905190186 0.01883365218696187
-0.04805840601108292 -0.050015691874788104 0.017182751941156205
-0.0481491982477924 -0.049949512300131116 0.015554193832717833
-0.04448292911311302 -0.016164372691370055 0.03786844163167413
-0.04410394602045445 -0.011953417529995125 0.03931870439579932
-0.043866851257622366 -0.009024467718653784 0.03987497705955845
-0.04367503591010654 -0.006508066399814216 0.0401500530096085
-0.04351273117582458 -0.0042613690444891494 0.04024284696700231
-0.043381390336661316 -0.0022956579380832842 0.04014199925953432
-0.04327446229971268 -0.0005511598859352373 0.03988809246511804
-0.04319452006715383 0.000950710988264214 0.03946272959182645
-0.04313542618301903 0.002265616896659217 0.03890433232258361
-0.04310308456879945 0.003342700944808763 0.03817273831277079
-0.04308231915421997 0.004316839006743456 0.037366241894939256
-0.043078435509513666 0.005142128870724516 0.03644898893665682
-0.04308365448779823 0.005887595812693935 0.035471496882831244
-0.04309919739589872 0.006543073011019196 0.034425036174150714
-0.04312289757500825 0.0071280156488657265 0.033323402697202464
-0.04315319877915134 0.007656410095132737 0.032176490970682925
-0.04319049475863463 0.0081252022532593 0.030981219988683084
-0.04323274375498902 0.008552462655987803 0.02975090393493951
-0.04328021965640564 0.00893609688178243 0.0284833639767913
-0.04333381622604364 0.009268684212214051 0.02717218856369602
-0.0433933323181835 0.00955229305885602 0.025818345919935537
-0.04346017483702802 0.009775166702704674 0.024411833378642223
-0.04353441080809448 0.009937134399969516 0.022951710398200265
-0.04361735910243148 0.010027325134458864 0.021428421368502537
-0.043710492315415586 0.010033653021094435 0.019831234656428
-0.04382235151275833 0.009883953739257545 0.01810036895911682
-0.04397180064975911 0.009418982646749452 0.016103624763901758
-0.04450196067066557 0.005731807518106313 0.011448780664712832
-0.05162961498119036 -0.08863098904874073 0.026726303712663935
-0.051364905715378016 -0.08529565063687522 0.027144094859892165
-0.05116706632027101 -0.08257825546815817 0.027188656698223457
-0.05097206653368789 -0.07989371389528632 0.027225250318426097
-0.050771990961085305 -0.07717012940049245 0.02729954400942808
-0.050563887693402386 -0.0743810707451944 0.027429023406540742
-0.05035635485378739 -0.0716045934972025 0.027564030819429763
-0.05014588189305599 -0.06880903584949699 0.02772508863249179
-0.04993636831489751 -0.06602962153018976 0.027889464926956764
-0.049735831503467116 -0.06333825222429151 0.028009805116835484
-0.04953643086606098 -0.060664220643709965 0.028131953467459003
-0.049328874325630274 -0.05792440477781868 0.02831104546456864
-0.0491348658320986 -0.05531286388649559 0.028418187908472337
-0.04892182676046252 -0.05253881787402703 0.02864746529932155
-0.04854015937640778 -0.0482740569794608 0.02989846346550823
-0.04882963792730523 -0.04997431279648151 0.027121027883432125
-0.04892700109415577 -0.04996407812360276 0.025493148573979107
-0.04901787808780608 -0.049893082046069126 0.023900490796547713
-0.04912212983625952 -0.04993672493264095 0.022222508396280483
-0.04922913708147888 -0.05000088251231816 0.020523248646188375
-0.049326399879294366 -0.04997567986611551 0.018879196783875174
-0.0494172153623804 -0.04989052306276626 0.017270683660077613
-0.049501354341843724 -0.04974375377013113 0.015699536203074682
-0.04594029318819964 -0.017790851678108732 0.036713222590114836
-0.04546620971032538 -0.0128428256252347 0.038683526452000405
