# .PCD v0.7 - Point Cloud Data file format
VERSION 0.7
FIELDS x y z
SIZE 4 4 4
TYPE F F F
COUNT 1 1 1
WIDTH 763
HEIGHT 1
VIEWPOINT 0 0 0 1 0 0 0
POINTS 763
DATA ascii
-0.02066367942603281 -0.051947384543901985 0.03153219919922645
-0.02072495494019244 -0.05205014413084684 0.03003153758724464
-0.02078647335889705 -0.05215331107082298 0.02852492714771443
-0.02082204199469473 -0.05226066725602446 0.026991041376684566
-0.02085775736674017 -0.05236846633252767 0.025450827654733443
-0.020881481920680955 -0.05247847005351718 0.023894274963099926
-0.020890101187402643 -0.05259114508048865 0.022318611665104515
-0.020892662179684662 -0.05270519212526421 0.02073110692881075
-0.020877925569905087 -0.052822259527452425 0.01912225492249847
-0.020858020688248935 -0.052940594040456736 0.017501958284300123
-0.020823705334337084 -0.05306155795794762 0.015862305127968435
-0.020795385196718696 -0.053182172627738666 0.014220359240904867
-0.0207546020242258 -0.05330515174808929 0.012560416968478982
-0.020685807766273934 -0.05343280378614381 0.010868936279778307
-0.020614616825501364 -0.05356137407927672 0.009167554552014012
-0.02053583098559747 -0.053691638689070564 0.007451684974077666
-0.020452506148276428 -0.05382315524917047 0.005723831448786354
0.0559442624140854 -0.05930929556523824 0.0392780174188892
0.052967369135600406 -0.059023585471883876 0.03960944460242338
0.050041514861847214 -0.058743666303820226 0.039923073003877985
0.0471825328755085 -0.05847172455295513 0.04020808550106697
0.0443848371989114 -0.058207047098589766 0.040467507185608764
0.04167380060914472 -0.05795313970122505 0.04068397765485393
0.03906105968534468 -0.05771165797474306 0.040848886200791135
0.03653397158008337 -0.057480944405159974 0.04096967010577224
0.03406551462195517 -0.057257354272587414 0.04106361137971426
0.03164079200889214 -0.05703888139450584 0.04114019509774419
0.02927959358729615 -0.05682828435193397 0.041185552003848824
0.02696957739399858 -0.056623906269508244 0.041207469289561816
0.024680903501700602 -0.056421655346091594 0.04122594042111338
0.0224595116739722 -0.05622791494945303 0.04120904585310087
0.02028153701464558 -0.05603942085747296 0.041172663589625735
0.018102965933999293 -0.05585007691604714 0.04114710913601205
0.015986434408213956 -0.055668616732069895 0.04108845099164177
0.013866428143406218 -0.05548592956328577 0.04104231086352761
0.011872759318092119 -0.05532019305277254 0.040916590922648655
0.00983235437937019 -0.05514721617122502 0.04083347720053715
0.007843791392687038 -0.05498082067930863 0.04072278929948625
0.005858321664360233 -0.05481417592169628 0.04061917213635313
0.003927750834679611 -0.05465459762283732 0.040485038028559794
0.0020531438321041984 -0.05450228034271842 0.04031901452363795
0.00021170975762646593 -0.05435403678375344 0.0401372151438828
-0.001588543685393351 -0.05421103041035262 0.03993338647990763
-0.003385755480651731 -0.05406786215401537 0.039735380631363504
-0.005154420398352233 -0.05392817103291962 0.03952418577712924
-0.00689923618492333 -0.05379130699202557 0.03930302930488905
-0.00861431834632792 -0.05365813112224229 0.03906723285612551
-0.010310551712703286 -0.05352710340915189 0.03882473351843363
-0.01199130718540059 -0.05339775227110697 0.038577916778386956
-0.013648606218808701 -0.05327123897484399 0.03832052431606031
-0.015282821331144225 -0.05314752765710476 0.038052599105083906
-0.016908453958537184 -0.05302453584915371 0.037785133154441486
-0.018496486233636034 -0.05290647971846933 0.037495464755287033
-0.019738289009000876 -0.052838279674339884 0.03694150927740186
-0.02036566053079142 -0.05285934619327973 0.03590781219885775
-0.020552832705281465 -0.05294480119868986 0.034524507275120186
-0.02062364693352814 -0.0530476540790234 0.03304365748144006
-0.02069573859409185 -0.05315076039850677 0.03155784430297537
-0.020762089878455958 -0.05325515346431956 0.030061401793679443
-0.020825686288488576 -0.053360401747207874 0.028556630940957728
-0.02086334640678489 -0.053469933336471376 0.02702461434093517
-0.020895105691829452 -0.053580811534503094 0.02548134686954162
-0.020920928954523965 -0.05369305031036565 0.0239266808024034
-0.02092456440039958 -0.053809073602986444 0.022347073908636828
-0.020920089713048262 -0.05392680956549934 0.020753878990289465
-0.02091864936847876 -0.05404460606777688 0.01915624592128229
-0.020898837950961036 -0.05416566528443461 0.017536208035987655
-0.020879960240097417 -0.05428711475837353 0.015909758791632755
-0.020838446072964756 -0.05441249811078909 0.014256875470645247
-0.02078029689342259 -0.054540937693151846 0.012582321862717016
-0.020706417090135876 -0.054672317247726254 0.010886598616905385
-0.020628048024243062 -0.05480495622659345 0.00917912597868309
-0.020548261904231813 -0.05493839735599929 0.007462451141407034
-0.020470163556442378 -0.05507217434854841 0.0057392048062280265
0.058836419655853234 -0.060936600443993245 0.039016025615129124
0.05573174341713805 -0.060627867816377405 0.03941459952580911
0.05275062116044826 -0.060335020709519356 0.039749530957603696
0.04984178465350014 -0.06005104114111658 0.04005288810056257
0.0469837320220452 -0.059772993063740704 0.04033802354405536
0.044193394553363685 -0.05950327009650408 0.040593338697533954
0.041493355964093315 -0.059245073793904424 0.04080324551965803
0.03887614196422484 -0.05899742803858048 0.04097179495369502
0.036325829017865296 -0.05875816500796893 0.041108789017371916
0.03384947310528735 -0.058528325788118556 0.04120881575294216
0.03142928369019049 -0.05830546439982533 0.04128314484477574
0.029078588873336086 -0.05809150178028326 0.04132215868511102
0.026748702507062905 -0.05787961493684995 0.04135841408545998
0.024469217634445872 -0.05767400488919751 0.0413714079851471
0.022246147510215197 -0.0574755625895953 0.041356478856910406
0.020046542858105254 -0.05727964930296941 0.04133594085340914
0.017886327093997678 -0.05708854792312513 0.041298464184606865
0.015768175885502944 -0.056902669658787805 0.041241778581717625
0.013698106896158635 -0.05672290691518779 0.04116120848289445
0.011649021354239897 -0.05654541473851429 0.04107550254997355
0.009636360629866891 -0.05637242395349981 0.04097344775662415
0.007668363720278015 -0.05620514758093478 0.04084875948854477
0.005710903715297033 -0.05603870127978763 0.04072560899310074
0.0037573090134432885 -0.055872126444115384 0.04060877134744273
0.0018992716075778016 -0.05571869500445433 0.04043132917525777
3.841971733908878e-05 -0.05556421950494668 0.04026439325712283
-0.001782058001382758 -0.05541497110761882 0.04007618095861165
-0.0035351788310654664 -0.05527491265828173 0.03984624023359934
-0.0052900529454841805 -0.05513401427546213 0.03962536056968663
-0.00701707224044873 -0.05499660134036848 0.03939140589266493
-0.008712526773573426 -0.054863239517863926 0.03914128805052536
-0.010390442856952564 -0.054731894131352946 0.038885302503648356
-0.012059313882509692 -0.05460132777298313 0.038629754441232955
-0.013690567377239338 -0.054475759755530935 0.038352681684373724
-0.015316368187829277 -0.054350467464317265 0.03807844677686906
-0.016936726946711333 -0.05422545107458998 0.03780703472097657
-0.01851755240143127 -0.05410577272525415 0.03751187141688178
-0.01977423154147101 -0.05403380314943107 0.036969652378397944
-0.020417506245088257 -0.05405296640385071 0.035948625540107804
-0.020606731383853216 -0.05414004039127908 0.03456716433069451
-0.020685637319814654 -0.05424400224087253 0.033092981455638826
-0.02074982557867361 -0.05435061772108956 0.03160111012723227
-0.020816273154884213 -0.05445735145237209 0.030104976406382045
-0.020856849484560236 -0.054568442706916964 0.028581826495978735
-0.0208985988180192 -0.0546798360608781 0.027053268130741714
-0.020930428099432574 -0.05479321211987516 0.025510210604196504
-0.0209573339743509 -0.05490782601807422 0.02395658761940378
-0.020969154116520505 -0.05502523029896598 0.02238389935957147
-0.02096477753308018 -0.05514561239251259 0.02079098162622922
-0.020956310728692584 -0.055267143793298404 0.01918768078969002
-0.02094270624817135 -0.05538999227256783 0.017573017909716937
-0.020907569890443067 -0.055516679918238984 0.01593304883262886
-0.0208589476539513 -0.05564599574933405 0.014274261100168162
-0.020793656784978132 -0.05577844721084779 0.01259371117975594
-0.020721872544542774 -0.05591248472880866 0.01089984405125427
-0.02064664342518835 -0.056047647313337716 0.00919514653816994
-0.020568978207378907 -0.05618378606694611 0.00748039311276788
-0.02047639517226696 -0.05632284656988002 0.005744630339613865
0.05854491263786432 -0.062249652099731996 0.03920231847197425
0.05545861384214451 -0.061936573495396954 0.03959013495252672
0.0524953492889082 -0.06163966981054288 0.03991451568716803
0.0496105396055303 -0.061352715293167756 0.040203186337912145
0.046765524382762824 -0.0610702757939725 0.04048064603847379
0.044004706936297266 -0.06079870026033266 0.040717359383045826
0.0413092302654644 -0.06053536351346462 0.04092494643754768
0.03869265109980291 -0.060282252797350964 0.04109375532168341
0.03615295198053664 -0.06003914054930517 0.041224337058183125
0.03367332914501581 -0.05980367526748813 0.04132720444852067
0.031241320913584114 -0.05957411097170437 0.04141018113125455
0.02886804883968913 -0.05935208588858952 0.041465245753581736
0.026558193133454144 -0.05913832141613201 0.04148860724102876
0.024292383437057086 -0.05893006516243884 0.04149292596962856
0.02205549527205758 -0.05872515796854223 0.04148821809399528
0.019855225066904347 -0.05852473826522136 0.04146887116078468
0.017701321258687674 -0.058330252440853145 0.04142771878730628
0.015584746420064577 -0.05814041858817822 0.04137063860301354
0.013509344867273121 -0.05795582708335658 0.04129454492275775
0.011466357695667284 -0.05777522731784067 0.04120524083281624
0.009474306736822424 -0.05760136204607484 0.04108917988370969
0.007467430116116669 -0.05742460197932809 0.04099304484419497
0.005522637410917852 -0.05725626268825436 0.04086153866650172
0.003607883683337365 -0.05709166438955795 0.04071724761157253
0.00172263398136413 -0.05693075113186168 0.04056026078401426
-9.90177268890835e-05 -0.05677860116320487 0.040365259035770484
-0.001939949097448046 -0.05662295472544787 0.0401926890145628
-0.0036684931757064443 -0.05648339437954115 0.03994514830371215
-0.005442523222360607 -0.05633646539146946 0.03973909542876247
-0.0071579576872984885 -0.05619768342239238 0.0394970694351548
-0.008851393264553808 -0.05606161639978029 0.03924600192563377
-0.010517990150403389 -0.055929008075926524 0.038982001708595226
-0.012163336484553866 -0.05579903948050246 0.03870904499352196
-0.013782643812685569 -0.05567244928212563 0.03842324541422226
-0.015379379066447985 -0.05554873504602134 0.0381269963183275
-0.01697307151573646 -0.05542495802264858 0.03783518890799731
-0.01850952748163809 -0.05530934089163309 0.03750562148359293
-0.019769239948285555 -0.055235313339346 0.03696574394731378
-0.020482292545702552 -0.055244271220425197 0.03599962580948718
-0.02068854688095284 -0.05533065865265901 0.034631915606590236
-0.02073161648437022 -0.05544238818715642 0.033129565759465185
-0.020782870787279473 -0.05555334138407953 0.031627543994809215
-0.02083834317646116 -0.055664122871306225 0.030122725289542074
-0.020884992278607017 -0.05577674018560247 0.028604580045204553
-0.020932837446533847 -0.05588965868664768 0.027081097899837647
-0.02097078812849762 -0.056004595890052494 0.025543190835405183
-0.020996764486095443 -0.056121887335263965 0.02398897988576104
-0.02100461536753334 -0.05624250398850462 0.022413185855940154
-0.021002347390623677 -0.05636522095097512 0.020822174482487354
-0.020985823616118338 -0.056490697472459446 0.019212314359144
-0.02096208652882231 -0.05661785036103204 0.017589279896823073
-0.02092188434810799 -0.05674814056346696 0.015945123752147183
-0.02086919757409872 -0.05688096354594765 0.014282953176864066
-0.020799822556416714 -0.057016997713210005 0.012598967504286074
-0.0207393871322617 -0.05715222136148707 0.010914854177496436
-0.02064251127882677 -0.05729380389723374 0.009191586555957754
-0.020573121183883825 -0.057431658173311174 0.007483981260965611
-0.020509626838858652 -0.05756918799328081 0.005773563367841794
0.05825515587373015 -0.06356116912031991 0.03938749279728959
0.055185824108440584 -0.06324365081829814 0.03976545196940795
0.05220702498234436 -0.06293796840733935 0.04010086253164519
0.04932941450208295 -0.06264573625644383 0.04038590422914401
0.04652666478407874 -0.062363212122834466 0.04063676684108253
0.04378005022571774 -0.062087729900769016 0.04086502185122515
0.041109940915967924 -0.061822300886602545 0.041056670020621466
0.03851311121977247 -0.06156651420948443 0.04121308959974734
0.035971459318044574 -0.06131777864875007 0.04134564363479176
0.03349609510133211 -0.061077765768604096 0.04144632580364105
0.031079293891293602 -0.06084539313984741 0.04151968851134663
0.028712411970671703 -0.060619434305615894 0.04157101957221332
0.026397964910681082 -0.060400299200967164 0.041598106409173885
0.024126442375086155 -0.06018662335001827 0.04160695834397232
0.021895769805447496 -0.05997813263855293 0.04159858716869158
0.01969456464274466 -0.0597731691882673 0.04158050029591415
0.017533916087880463 -0.0595734037834703 0.04154467665950662
0.015410702262383003 -0.059378402954733144 0.0414929054035611
0.013347038877194017 -0.05919149852747259 0.0414091935256225
0.011308790238742261 -0.059007632150148544 0.04131715434343497
0.00930451883570399 -0.058828106430409303 0.04121043531658253
0.0073190952353128225 -0.05865067485694364 0.041099560382605926
0.005376579885470412 -0.05847897300958136 0.04096699328727038
0.003459671210428339 -0.0583104259828069 0.04082484339434378
0.0015679367453936832 -0.05814498796311298 0.04067317762926059
-0.00027418856192745755 -0.057986380173770294 0.04049381747027664
-0.0020676699432128354 -0.05783449862259654 0.04028693440151193
-0.003842194438208879 -0.0576848689872406 0.04007402008188843
-0.005580064319028688 -0.057540203331549356 0.03984169389954084
-0.007296637179471377 -0.05739818664702983 0.03960107852013378
-0.008990156756593426 -0.05725910443120656 0.039350638133205884
-0.010655808926282817 -0.0571237136756829 0.03908648817548699
-0.012299198903009734 -0.05699117597539658 0.038812605238920383
-0.01391556208597422 -0.05686224336790973 0.03852510870945974
-0.015513459353870496 -0.05673561706844983 0.03823030445520287
-0.017099211924626545 -0.056610333788377744 0.03793290311284364
-0.018659935950160078 -0.05648839949992815 0.03762276195584291
-0.019839109770230234 -0.056425225833864966 0.037020452208541554
-0.020488271652433165 -0.05644430272816819 0.03600433260785374
-0.020623696168948935 -0.05654361745991406 0.03458059077824033
-0.020694634161495917 -0.05665344004125679 0.03310013998478406
-0.02076484687532626 -0.05676384697182 0.03161312611936251
-0.02084235561865605 -0.05687358241984455 0.03012595212679081
-0.0208970521371612 -0.05698738016435365 0.028614330483800354
-0.02094391326370043 -0.057102904513893285 0.02709010052195382
-0.02097785020853593 -0.057220970946064334 0.025548961619962895
-0.021002829956385527 -0.057340967642445534 0.02399396268513454
-0.021014745877671104 -0.05746355904368896 0.022421552372627773
-0.021021636990346704 -0.05758748322874202 0.020838189920148797
-0.021006174528462374 -0.05771551160691812 0.019229300688046624
-0.020965146383486566 -0.05784818430233161 0.01759184741986325
-0.02091779461855181 -0.05798245066647087 0.01594167387256401
-0.020856897600324165 -0.0581194801039884 0.014272522625809192
-0.02079879494244352 -0.05825666293541749 0.012598091462644123
-0.020731145184321287 -0.05839598943701746 0.01090779076949322
-0.02066936854604534 -0.058534982813005496 0.00921472498940129
-0.020577264065681167 -0.05867950175270931 0.007487569327138954
-0.020529355258600335 -0.05881749097941744 0.005790739843890724
0.05799579114868697 -0.06487538091013181 0.039553244537767374
0.05495516328808564 -0.06455526237652914 0.03991369349736773
0.051977706290575965 -0.0642432070589846 0.04024907346502071
0.04908554111050467 -0.06394253631199932 0.040544410286733
0.04629067669084119 -0.06365509854067293 0.04079101080165731
0.04358141322142334 -0.06337923452084167 0.040995582074644266
0.040903184627481604 -0.06310689058860366 0.041193329000196954
0.03830468286258687 -0.06284535075615011 0.04135162510243656
0.03577137385767598 -0.06259250764697157 0.04147937731797874
0.033302920740887754 -0.062348363134890075 0.04157616085740601
0.030903907583890056 -0.062113657544422315 0.04163822488112173
0.028541104318346666 -0.061883451356147944 0.041687443557491544
0.02625831930338285 -0.06166437220358773 0.0416935395205798
0.023988062652973985 -0.061446298632443525 0.04170205095146834
0.021742079102309075 -0.06123101344737501 0.04170478626802626
0.01954223158419316 -0.061021847673507164 0.04168634345963462
0.01738639006039272 -0.06081851511824185 0.04164774593858528
0.015272497372314064 -0.060620738348063516 0.04158999495803878
0.013204273806654121 -0.060429118790166124 0.0415100389464681
0.011167200340507388 -0.060241475396776226 0.041417719668844555
0.00915509217849364 -0.06005688550844601 0.0413171495988337
0.007166416939597298 -0.05987513280287738 0.04120919481776836
0.0052206851380458 -0.059699234894494295 0.04107955045554451
0.0033038962206037303 -0.05952707075028157 0.04093792923413436
0.001441656644637801 -0.05936261726087097 0.04076535219531091
-0.0003930403924830017 -0.05920174376661049 0.04058104320777495
-0.0022146039334126066 -0.05904223851952919 0.04039535719404386
-0.003993387411510396 -0.05888871616926244 0.04018619259598771
-0.005739697854111159 -0.05873960942292687 0.039960772174915726
-0.007454103345154339 -0.058594857326327056 0.03971917753788473
-0.009136112443152378 -0.058454564064433716 0.0394606976977977
-0.010809051341483189 -0.05831510315787269 0.03920266798074268
-0.012447298964975317 -0.05818050238201638 0.03892549354854263
-0.014066767987669815 -0.058048288892369425 0.038640986918113795
-0.015663675545981248 -0.05791907422996512 0.03834604521944046
-0.017254497429935622 -0.05779027430098245 0.038053194459676476
-0.018806214369176233 -0.05766711975706818 0.03773668588081808
-0.01990695757911204 -0.05761499723556386 0.03707357722802396
-0.02044641376263645 -0.05765190101494946 0.03597138175813641
-0.020584774597778466 -0.05775287513843858 0.03454978706155465
-0.020669641830935448 -0.05786282332094154 0.0330802543034458
-0.02074982557849736 -0.057973992235857065 0.03160111012709127
-0.02081627315472756 -0.05808784154922202 0.03010497640625609
-0.02087896204798767 -0.058202785009870556 0.028599704582270347
-0.020926795806005927 -0.05832061693905662 0.027076187146453323
-0.02097179701388069 -0.058439415473477356 0.02554401524693234
-0.020994742617437945 -0.05856229645488042 0.02398731891548206
-0.021003602285293688 -0.05868799448287273 0.022412349178482782
-0.021007423800359804 -0.058815057987997035 0.02082638923680269
-0.020999051969391225 -0.0589446609116053 0.019223355690153376
-0.020977385284974115 -0.05907699964025813 0.017602117078067303
-0.02093824234260161 -0.05921277594645235 0.01595892249126929
-0.020882521602954618 -0.05935186521334736 0.014294252141055841
-0.020815236066707765 -0.059493465903485254 0.012612107532755379
-0.02074247776612209 -0.0596365917871731 0.010917502872695939
-0.020667302743786697 -0.059780748792073575 0.009212945231703684
-0.02060004822257916 -0.05992423457244976 0.00750730222483037
-0.02048158802191674 -0.06007684249739702 0.005749151475052117
0.05779533385563024 -0.06619684900279306 0.039681350413422134
0.05476515186140035 -0.06587157365147063 0.04003581039688403
0.05178590431288632 -0.06555269069081879 0.04037303697587724
0.04888011022888972 -0.06524363987072251 0.040677930548788266
0.046088793444488796 -0.064950689168783 0.04092296352462693
0.04337523285858047 -0.064668365477502 0.041131100400310816
0.04075781025723746 -0.06439952573049833 0.04128941658833962
0.03818603399263126 -0.06413656246395433 0.041430487120372894
0.03560769611278214 -0.06387154544832059 0.04158877670981892
0.03313218503119064 -0.06362118549661444 0.04169091459593072
0.030726219951615952 -0.06338047281704631 0.04175831662143792
0.02837721987997177 -0.06314753457275017 0.04179882258336537
0.02608269379614886 -0.06292203469206749 0.04181356111611623
0.023815220221127198 -0.06269979222545226 0.04182082585056046
0.021599133321375807 -0.06248458482920306 0.04180356070837182
0.01941810681983952 -0.06227392900413183 0.04177258710156084
0.017258699406262956 -0.06206576837498677 0.04173695720449111
0.015138990419297171 -0.061862927213761194 0.04168378419068902
0.01305818890990229 -0.06166531497104437 0.04161322940360446
0.01101779174618922 -0.061473197272815215 0.04152383828390044
0.009012512773406367 -0.06128578155142929 0.04141897385938886
0.007036121970514231 -0.0611021208691415 0.04130275635035541
0.005079271995766632 -0.06092077115890833 0.04118165179708838
0.003176736570954408 -0.06074721646344637 0.041030241586613225
0.001291534838523678 -0.06057567619912942 0.04087492933573461
-0.0005398824691065784 -0.06041192016962987 0.04068881107613176
-0.0023421407735654265 -0.0602520992754109 0.040489466803000085
-0.004112553180434242 -0.060096664231397506 0.040274603608767445
-0.005860126462779058 -0.05994421097973397 0.04005060562387475
-0.007577884004213331 -0.05979586935415961 0.039812012555414
-0.009269457994646235 -0.05965108548075141 0.03956124844497083
-0.010932175077727813 -0.05951030931640317 0.03929601349269218
-0.012574734788122155 -0.05937217185183631 0.03902263067643741
-0.014189276452723165 -0.059237952261569804 0.038734872549006094
-0.015777271062567544 -0.0591074386080115 0.03843356995108832
-0.01735929102852507 -0.05897733631473499 0.03813437243626033
-0.018909340150597753 -0.05885184978451772 0.037817001855414256
-0.019941869364612674 -0.05880965486889534 0.03710091325133036
-0.020432458984619484 -0.05885524741325304 0.03596039645057536
-0.020591761136330156 -0.058954923568524754 0.03455531642092241
-0.020633646817257767 -0.0590741664736962 0.033051614102403704
-0.020704754212757748 -0.05918914671920621 0.031565056170595296
-0.020806240437474144 -0.05929964740613699 0.030096908016939483
-0.020896047179529753 -0.05941253994419736 0.02861351797197592
-0.02094995433286989 -0.05953182207334191 0.0270950108109278
-0.02101517376974854 -0.059649755885499256 0.025579460598948778
-0.02103820781611654 -0.05977516679973158 0.024023025687486155
-0.021046146856314507 -0.05990362031001767 0.022447485598916905
-0.021059195049065838 -0.060031785403317724 0.020869372980281686
-0.021049921243387393 -0.060164219585579264 0.019265814829307837
-0.021022254178737543 -0.06030029641124343 0.01763976655203453
-0.020977086656769395 -0.06043989076733431 0.015991689500561623
-0.020923512466115846 -0.06058150436324157 0.014329012970535904
-0.020845031800593328 -0.06072791712187095 0.012637508417052912
-0.020755869903321733 -0.060876770311332075 0.010928980029523472
-0.020686926914632253 -0.061022876044210445 0.009229852110847425
-0.02058865650226893 -0.06117457891621791 0.00749743608616138
-0.020488857761373824 -0.0613272136121719 0.005755480846958316
0.057649537323182565 -0.06752546426184543 0.03977452433676426
0.054595493854922184 -0.06718984295865249 0.04014484652218803
0.05161821627681695 -0.06686470372437564 0.04048141540831157
0.04872353462269896 -0.06655100753857633 0.040779697215054256
0.04590530966373668 -0.06624787436008188 0.04104289018980817
0.04320399705846095 -0.0659616280442939 0.04124365034738825
0.04056158558125533 -0.06568337402365934 0.04141911452489849
0.03801575087432629 -0.06541901406562288 0.041543668732090255
0.03546785930638313 -0.06515327566616196 0.04168224122808223
0.03301102294300129 -0.06490067590008401 0.04177234924490869
0.030576835386783907 -0.064650601215805 0.04185927948608664
0.028224378782892856 -0.0644123207256509 0.04190269634145327
0.025931247700736737 -0.06418238944244939 0.04191705862223244
0.023685387016216752 -0.06395896221246963 0.04191004541110055
0.021477531730919264 -0.06374061859525423 0.0418875864764921
0.019265982797815773 -0.06352080532107172 0.04187828502374513
0.01712761105527244 -0.06331167592016405 0.04182854227637495
0.015026269789985447 -0.06310756493268221 0.04176297093780673
0.012936153701751385 -0.06290440351653365 0.04169943180505614
0.010889978884588869 -0.06270740562011233 0.041614618361989375
0.008881251811016677 -0.06251557332928218 0.041512714960545205
0.006907026511094316 -0.06232846758871501 0.04139545654529275
0.004966657130403285 -0.06214601414711701 0.041262960568296314
0.003059516953047514 -0.06196814121218233 0.041115337910136385
0.0011839109600391695 -0.0617946045750458 0.04095348632322965
-0.0006499400834901747 -0.061627078474108206 0.040769582710334096
-0.0024546023575963694 -0.06146357084698359 0.04057245235982471
-0.004228455083982174 -0.061304369084450604 0.04036059310699591
-0.005974145826527388 -0.06114907074093861 0.04013565811104469
-0.007699487182538545 -0.06099643060038898 0.03990321447077988
-0.009385016608912056 -0.060849634980749294 0.03964838674749793
-0.011049015519381644 -0.06070573715580297 0.03938459536305472
-0.012687709355932109 -0.06056537270309538 0.03910874480644588
-0.014294364686325112 -0.06042966747728245 0.03881540800512162
-0.015883703074240973 -0.06029623322447105 0.03851557524091315
-0.017456977105342886 -0.060164878208404535 0.038210044597186354
-0.01896938650790797 -0.06004300453546465 0.037863766899439544
-0.01999372590875237 -0.06000128106717142 0.03714151706688623
-0.020447410491222007 -0.060053898467343415 0.03597216639047196
-0.02060573340548022 -0.060155766084375784 0.0345663745002191
-0.020648645608568106 -0.060277266806977134 0.03306354821089891
-0.02076684962059344 -0.06038673739579586 0.031614728176223905
-0.020860410508484084 -0.060500794932598106 0.030140472009741848
-0.020930212606876886 -0.06061932098382894 0.02864114084167646
-0.021003308357603057 -0.06073780573396219 0.027138377915659373
-0.02106257368514225 -0.06085912812096517 0.025618193479106932
-0.02109580839022518 -0.060985362344955274 0.024070344706598745
-0.02112411927066199 -0.06111297613475052 0.02251188092520745
-0.02112515655443692 -0.061245760865250146 0.020924138366422096
-0.021078401792963164 -0.06138723037773007 0.01928958673565989
-0.021051820778649866 -0.06152588912492388 0.017664575876275235
-0.021005703450312385 -0.061668483136513 0.016015829114299884
-0.020956298475960367 -0.06181226433400386 0.014356815968805392
-0.020874822632789725 -0.0619621652610437 0.012662905122656887
-0.02077647125805876 -0.06211562078826773 0.010946635537053884
-0.02070035275423926 -0.062265933596779094 0.009241418920442834
-0.02059279902893313 -0.062422326230403447 0.0075010238447611455
-0.020467047668495608 -0.06258255415496812 0.00573649196985343
0.05749975353903014 -0.06885256268898132 0.03987024638576103
0.054416553003185375 -0.0685056165739691 0.04025984856386572
0.051444011040423454 -0.06817466222631555 0.04059400597162621
0.04853947330896513 -0.06785308830756533 0.0408993282785573
0.045762275209117076 -0.06755029833636203 0.041136378808138474
0.043056046861568886 -0.06725750630129158 0.041340895122246535
0.04043935562571199 -0.06697770874089388 0.04149990443034901
0.03783174773407366 -0.06669823296249762 0.04166596959304558
0.035406710075886194 -0.0664466306646224 0.04172311232288012
0.03290599049663434 -0.06618197678650761 0.04184294294735319
0.030524209157274884 -0.06593522259297453 0.04189484738356569
0.028154061520821116 -0.06568933328674505 0.04195048530927309
0.025842355421209107 -0.06545180718862655 0.04197780716262278
0.023566346848855724 -0.06521904675781605 0.04199184814735657
0.02136190096521473 -0.06499684558100562 0.0419674864504167
0.019139690273375976 -0.06477088116675418 0.04196603485604061
0.01702094764798001 -0.0645606956367857 0.0419030628249244
0.014923956341296729 -0.06435317079065421 0.041834846593909125
0.012823309578646191 -0.0641442059270587 0.04177914187028042
0.010771289017415753 -0.06394228144706982 0.04169891876239851
0.008774737039385139 -0.06374855397549041 0.04158878336504551
0.006804701202544117 -0.06355835356691097 0.04146893376976102
0.004868448517688195 -0.0633728892810982 0.04133386791783794
0.0029587868705714393 -0.06319101297636605 0.04118846355104844
0.0010893821494064593 -0.06301498885076827 0.04102248493858679
-0.0007448408696227315 -0.0628440189456867 0.040839230699943385
-0.0025445237939313303 -0.06267802904761526 0.0406388055108054
-0.004319850593651531 -0.06251536909278804 0.04042840091494582
-0.00605539532264282 -0.06235861170036011 0.040196265989379976
-0.007766544877750359 -0.062205243217280534 0.03995350748390314
-0.00945889501489916 -0.06205435539192678 0.039704095609463974
-0.011122391010764288 -0.061907637579399204 0.039440224545668645
-0.012755461027151138 -0.061765378284891356 0.0391603880774648
-0.014370847574774914 -0.06162547559193835 0.038874021458742525
-0.015966778516030955 -0.06148824129149976 0.03857958441986409
-0.017536497313428545 -0.061354826554570537 0.038271644634562785
-0.019042416208647883 -0.06123157898874079 0.03792064357478242
-0.01999073458759726 -0.061201810981612856 0.03713917485425977
-0.020484285602810848 -0.06124874659380317 0.03600119475922575
-0.02060074343292201 -0.06135972623279343 0.03456242528397907
-0.02068063888090066 -0.0614773839427803 0.03308900434101192
-0.020795886941290254 -0.06158953491270776 0.03163795601234515
-0.020898520476498594 -0.06170431705699735 0.030171120342692703
-0.020977430671796915 -0.061823644332453936 0.02867931681534558
-0.021048596603030767 -0.06194481163796503 0.027175189010837264
-0.021096855248762314 -0.06207043137329598 0.025646206687238216
-0.021146320118973605 -0.06219638803253627 0.024111840221097414
-0.02117675696619442 -0.06232616906340027 0.022555352986542987
-0.02117385115968351 -0.06246227041910142 0.020964567687194624
-0.02113839971043574 -0.06260459556194958 0.019339665294420882
-0.02109769042476256 -0.06274845428425 0.01770306508120889
-0.021051685249245833 -0.0628938632732847 0.01605461692830079
-0.02099727264004947 -0.06304137456645005 0.014391562637237065
-0.02090768958814293 -0.06319567267558919 0.012690924225436662
-0.020806339060798595 -0.0633527092303549 0.010972232456427367
-0.020706548960045923 -0.06351016613832394 0.00924675715886053
-0.020597977054086947 -0.06366986309137834 0.007505508427669394
-0.02046600902723522 -0.0638343881091024 0.00573558768066218
0.057294306999677413 -0.07016987249625745 0.04000154072992129
0.05422163377549982 -0.06981773986112044 0.04038511961811925
0.05126197625997342 -0.06948229607521296 0.040711656846525446
0.048389710696116084 -0.06915953261452665 0.04099666682452702
0.045614140128673264 -0.06885101934200508 0.04123320124182256
0.04294547295328688 -0.06855848432776612 0.04141357319258343
0.04033373448889338 -0.0682739637892136 0.04156971646308044
0.03777758568338779 -0.06799728937414581 0.04170196933425052
0.03528571224507254 -0.06772991453171136 0.04180398519361511
0.03287263834676668 -0.06747425159556313 0.04186535937032615
0.03050585432100955 -0.06722508624549993 0.04190725266018569
0.028175881546319614 -0.06698091373895398 0.04193565599900628
0.025815935438691928 -0.06673086366809079 0.04199586244687903
0.02355444666490708 -0.06649590531258337 0.04200002578714429
0.02130057270657948 -0.06626124293358826 0.0420098638076532
0.019085923089493084 -0.06603206908240591 0.04200339305589962
0.01693403584791703 -0.06581229040407537 0.041963783883631534
0.01481939808271826 -0.06559775767435283 0.041908299239016567
0.012752672269339849 -0.0653902646986186 0.04182903817304873
0.01071592488686618 -0.06518688564251687 0.04173824156631417
0.008719820471837447 -0.0649894150461228 0.04162800248564258
0.006724657979789772 -0.06479128945587817 0.041526410790146406
0.004782418919086873 -0.0646011639946829 0.041395981928516956
0.0028778029817339013 -0.06441653417453827 0.04124725431771137
0.001011186579160106 -0.06423749704772437 0.041079561569911605
-0.0008181410371744247 -0.06406396824419347 0.04089302592668548
-0.0026247748899428935 -0.06389353061839528 0.04069802290442204
-0.004400582016765908 -0.06372757236153585 0.04048829686447181
-0.006135555300331275 -0.0635678093473615 0.040256061143902455
-0.007850333307815316 -0.06341079211788184 0.040016348483724595
-0.009534824047278734 -0.06325824721852619 0.039761350769852655
-0.01119367185575837 -0.06310941452851906 0.039494265684860086
-0.0128385769317782 -0.06296232744520082 0.03922374263553552
-0.014459527985210885 -0.06281870335011926 0.0389419826096552
-0.016058927992763317 -0.06267815374407361 0.03865058509370112
-0.017625036063663113 -0.06254270775559113 0.03834023085251925
-0.019122415115951807 -0.06241847624838706 0.03798294797740781
-0.02006450612093097 -0.06238916582809204 0.03719693816615127
-0.020474320096002308 -0.062451419037828915 0.035993349836349775
-0.020620702498349297 -0.06255941269425216 0.03457822149616285
-0.02069563378266026 -0.06268022881957587 0.0331009353547031
-0.020830925784711685 -0.06279109836196446 0.03166598464905618
-0.0209235884500667 -0.06290985039771323 0.030191280202182147
-0.02101158074505588 -0.06302992675943085 0.028706927271211158
-0.021082806874306192 -0.06315344656617713 0.02720299573066237
-0.021137178187300376 -0.06328044764910448 0.025679156609892062
-0.021174600529013765 -0.06341096913178984 0.024135072650355416
-0.021193962122494137 -0.06354522919498419 0.022569562263799248
-0.0211921082584155 -0.06368380748391728 0.02097972587766095
-0.021168899498250793 -0.0638267568402 0.0193651226016181
-0.02113132077734653 -0.06397287116384452 0.017731284298976857
-0.021078247187096777 -0.06412237053810324 0.01607702317444082
-0.021017756244583463 -0.06427384308890842 0.014408933022474923
-0.020931309027663214 -0.06443060065989424 0.012711059814401515
-0.020837231605222217 -0.06458941006582496 0.010998707586712009
-0.02074062430397522 -0.06474937334174517 0.009276114206662855
-0.020606261586567365 -0.06491680783429231 0.007512683493772931
-0.02046081573146874 -0.0650869750776764 0.005731066156814069
0.05703471186983017 -0.07147712786258055 0.04016743971477582
0.054014806239411184 -0.0711267280189898 0.040518043926316694
0.051070804789706215 -0.070787319846088 0.040835212854213154
0.048228241251048465 -0.07046314071135981 0.04110161425234238
0.04547259788835434 -0.0701519045291714 0.04132571453533629
0.042842665016212145 -0.06986005182072726 0.04148114684172005
0.0402612300026875 -0.06957500708491787 0.041617639499289316
0.0377158831291195 -0.06929476726078113 0.0417429810012242
0.035253291728518765 -0.06902706260348447 0.0418256545097242
0.0328220027162382 -0.06876346031492739 0.041899392250243306
0.030450799586206057 -0.06850875429202352 0.04194446188420753
0.028138304054503682 -0.06826276944514778 0.0419611943873654
0.02582914500359479 -0.06801634704572024 0.04198683509612028
0.023569917040563215 -0.06777725157099669 0.04198939476160363
0.021337131544855392 -0.06754160416031355 0.04198460193026998
0.01909059792635981 -0.06730269900472532 0.04200014491312254
0.016937511595122634 -0.06707849430179284 0.041961355547663726
0.01481480337618879 -0.06685848085106864 0.04191152704093937
0.012719640890617057 -0.06664220736504878 0.04185237065399672
0.01066283514212829 -0.06643152108463277 0.041775948970034615
0.008627953707000924 -0.06622367784356951 0.04169360989502513
0.006684648693725592 -0.0660304967654502 0.0415551404498426
0.004749340772335853 -0.06583787789122411 0.04141986459673741
0.0028515452343734204 -0.065650846301524 0.04126631629559763
0.0009460479200611438 -0.06546172821273269 0.04112710768049915
-0.0009054177957772969 -0.06528105722115103 0.04095707861817549
-0.0027178237601320765 -0.06510632283234641 0.040766683793125424
-0.004485525284913805 -0.06493853045579563 0.04055131765000103
-0.0062304375112976484 -0.06477395609888005 0.04032683831512657
-0.007941410764429335 -0.0646145406674056 0.04008465622538282
-0.009627353314509812 -0.06445877873872799 0.03983112352830792
-0.011287638155903224 -0.06430680177496977 0.03956550566392952
-0.012921655529766818 -0.064158739354013 0.03928706875686361
-0.014542054161200635 -0.06401241888032762 0.039005227399266706
-0.016135852545771323 -0.06387011129733487 0.038709855046085595
-0.017737659723897348 -0.06372580434816924 0.03842747435762206
-0.019156404003838723 -0.06361288944901461 0.03800941905591454
-0.020101380645370204 -0.06358249718729866 0.037225811019402144
-0.02050919697275555 -0.06364628454441973 0.03602080517941858
-0.02063068120666317 -0.06376072262621588 0.03458611894979963
-0.0207226214785991 -0.0638808593503137 0.03312240869110106
-0.02084193659262179 -0.06399667389224584 0.03167479252924488
-0.02094965546117228 -0.06411503932217837 0.03021224349543633
-0.02103066180361851 -0.06423865463027154 0.028722354375021963
-0.021100915576596435 -0.0643647154400392 0.027217714807483695
-0.021155320578430947 -0.06449414588605203 0.025693981679844324
-0.02119984716019846 -0.06462590148871095 0.024155812822515943
-0.021225332019317034 -0.06476163762226338 0.022595469820446246
-0.021219490452417167 -0.06490358401329567 0.021002460295552694
-0.02120244332745086 -0.06504816394315283 0.019393120683758702
-0.021160869564488705 -0.0651977947803616 0.01775607867652801
-0.021104805226926704 -0.06535069751675882 0.016099426132416494
-0.02102492495857544 -0.06550858125172843 0.014415012192940002
-0.02093130902768514 -0.06566965067258053 0.012711059814420222
-0.02083723160525147 -0.06583151410554704 0.0109987075867371
-0.020739591812004465 -0.06599474168086876 0.009275224680317828
-0.02063111291159908 -0.06616067095214168 0.0075342067239956845
-0.020464970380075942 -0.06633788749024162 0.005734683386335149
0.05676456904163957 -0.07278104653093892 0.04034007939791984
0.053818903596437206 -0.07243625750964168 0.04064394700374935
0.050926210486691936 -0.07209890585275122 0.04092866557908814
0.048112792548895 -0.07177341455246329 0.04117665039512819
0.04541289251130254 -0.07146556615157908 0.041364738511918075
0.0427874262530501 -0.07116893351468129 0.04151745420189923
0.04022562285929715 -0.07088177990032703 0.041641174628096966
0.03771588312948243 -0.07060221569972468 0.04174298100098295
0.03526077294056601 -0.07033071791310236 0.041820654196158547
0.032856581812361396 -0.07006670993480366 0.041876151180393395
0.030509525158639195 -0.06981128618637523 0.04190477169246881
0.028178306137157938 -0.06955751286581326 0.04193400820029891
0.02588679673099792 -0.06930944622716931 0.041947436193208454
0.023608002981032272 -0.06906253619752292 0.041963222636577924
0.02137015811408499 -0.06882159468318484 0.04196178082375751
0.019152549774721028 -0.0685831259392546 0.041957099892617866
0.016980384108545576 -0.06835145221845844 0.04193140260223405
0.014848117405376171 -0.06812566584307585 0.04188812378617718
0.012750394066687543 -0.06790488399557533 0.041830647434364376
0.010678647611774672 -0.06768766459543164 0.0417647180406015
0.008677242711265909 -0.06748167266968139 0.041658409745257974
0.0067168777534224455 -0.06728191900165253 0.04153199757456277
0.004730598993957669 -0.0670768598863091 0.04143339630025866
0.002797946760328518 -0.06688025045201494 0.0413052264470648
0.000901549210602981 -0.06668912555268379 0.04115958824718824
-0.0009075722730405023 -0.0665124002650174 0.040958659795910235
-0.0027466917404646574 -0.06632970870901522 0.040787985515335246
-0.004563002766601709 -0.06615024358998414 0.04060879944771445
-0.00630946953426631 -0.06598226353999066 0.040385792074370375
-0.008033490113784292 -0.06581752129962087 0.04015371538273771
-0.009725031085189684 -0.06565780194497735 0.03990477857501956
-0.01139600181190692 -0.0655010380040932 0.03964766091079669
-0.01303339381992591 -0.0653495457490824 0.03937224054226818
-0.01465101358192783 -0.0652009147844141 0.039088729579725645
-0.016247133612291687 -0.0650554696403622 0.03879559650646519
-0.017824091495204752 -0.06491281504043764 0.03849442841208467
-0.01925833258290427 -0.06479497674845797 0.03808880263055525
-0.02014920670289705 -0.06477362988921082 0.03726325895294269
-0.020504214972528467 -0.06484804902929689 0.036016883310887426
-0.02064764374974798 -0.06496071435534359 0.03459954362294976
-0.020717624060361317 -0.06508705635622648 0.03311843238859696
-0.02084994403241791 -0.06520271670730318 0.03168119792391877
-0.020963689989586032 -0.06532222495015204 0.030223530172440893
-0.02104371610579958 -0.06544834440491377 0.02873290882483215
-0.021108963307069628 -0.06557768580663598 0.02722425614662405
-0.021163383279472592 -0.06570955246603297 0.025700570122684396
-0.02120489606365966 -0.06584433930963868 0.024159960509636702
-0.02122330831912872 -0.06598392439031493 0.02259379850072335
-0.021223546721269915 -0.06612743855705294 0.021005828064810883
-0.02120244332744342 -0.0662754877911382 0.01939312068375254
-0.021156794156598102 -0.06642868998618558 0.017752659003110294
-0.021091526694222207 -0.06658617246245371 0.016088225064413597
-0.02102492495859032 -0.06674459221873943 0.014415012192952603
-0.020935416441789034 -0.0669079416997968 0.012714561387860757
-0.020850616738105843 -0.06707113933107363 0.01101017874079091
-0.02074888402825087 -0.06723820084391038 0.009283230235217044
-0.02063214830955612 -0.0674087929022749 0.007535103461234982
-0.020447312466141565 -0.06759283761215917 0.005719309588547994
0.05634034147618516 -0.07405733745056173 0.04061118973229938
0.05364327736575519 -0.07374800834351698 0.040756818798560634
0.050850635303043235 -0.073421281713913 0.04097751056604593
0.04813771374120046 -0.07310677745585527 0.04116045281031916
0.04546351121478892 -0.07279760242870273 0.04133165366768804
0.04285551329517967 -0.0724984673931002 0.04147270191888952
0.04031719619264856 -0.07221002533842558 0.041580647722803066
0.037829228261182846 -0.0719290363093536 0.04166764420415975
0.035417940228928135 -0.07166005433104351 0.041715606281580164
0.033008550983608664 -0.07139031930519286 0.04177401068165376
0.03064294311699789 -0.07112702813067108 0.04181459999844794
0.028326260227880595 -0.07087110592177134 0.041833455746007664
0.026029795115629306 -0.07061764134778843 0.04184971181049835
0.023747315456370266 -0.07036557120765094 0.041867489054125184
0.021476351492648094 -0.0701144758760893 0.04188840201210253
0.019257794768707426 -0.06987146368563639 0.04188397418218326
0.017080069252099372 -0.06963456924561715 0.04186175742805087
0.014913612966767076 -0.06939867445381921 0.04184211286085804
0.012783430580087296 -0.06916815507136216 0.04180731132641813
0.01069220216825395 -0.06894351341033832 0.041755090811539886
0.008659318001977723 -0.06872818803377387 0.04167121082454295
0.0066590915058935 -0.06851771990057456 0.04157349242213293
0.004693120871425427 -0.06831242060523238 0.04146045578375085
0.0027793548503957655 -0.0681154910996961 0.04131872336175196
0.0008700807409226519 -0.06791854193163367 0.041182557761147154
-0.0009215757841525285 -0.06774162873499069 0.04096893701737664
-0.0027124773564526916 -0.06756411502136522 0.040762738674530785
-0.004567247191371582 -0.06737449248667264 0.040611948455151425
-0.006374777645622387 -0.06719250658440426 0.04043450851270686
-0.00808055867659152 -0.06702794988621638 0.04018901662354951
-0.009785274857942672 -0.06686289489840085 0.039950206084936324
-0.011474397052666563 -0.06669994674288109 0.039707095785876945
-0.013129701113224146 -0.06654239716997712 0.03944565015061302
-0.014750751670501161 -0.06639035878876687 0.03916516489679234
-0.01634925043388813 -0.0662417525206252 0.038874276965655485
-0.017921529422016524 -0.06609726419627258 0.03856990834451918
-0.01931426909248185 -0.0659847355946284 0.03813236686076332
-0.020167138224808034 -0.06596988146339915 0.037277299383526474
-0.02052812732434034 -0.06604458211710412 0.036035707296395714
-0.020651634705520616 -0.06616296186363967 0.03460270218688305
-0.02073861229017182 -0.06628853191134368 0.03313513212169533
-0.020865957849904526 -0.06640723803033298 0.03169400786365595
-0.020966697246933064 -0.06653134316878188 0.030225948632209898
-0.021033674418368564 -0.06666220001526833 0.028724790084777685
-0.021105945450020758 -0.06679264434947196 0.027221803178486048
-0.021158344133366314 -0.06692732802870746 0.025696452380266244
-0.021190758778759977 -0.06706629930498827 0.024148346693894096
-0.021210153716176905 -0.06720829244541598 0.022582934466867377
-0.02120427863405533 -0.06735560767729848 0.020989830488185535
-0.021189229834116086 -0.06750527681104286 0.01938209175591793
-0.02115068087263733 -0.06765999392729664 0.017747529348553892
-0.021096633937503884 -0.067818292725483 0.016092533264768116
-0.021019804477593107 -0.06798156477688261 0.014410669952924615
-0.02093438959702748 -0.06814717091574105 0.012713686001972258
-0.020841350213093968 -0.06831494532875693 0.011002237262950465
-0.020743721744798882 -0.06848432857807529 0.009278782755467896
-0.02065285502545211 -0.06865318086291405 0.007553037129271523
-0.02040887458946483 -0.06885185528756671 0.0056858437926680105
0.05081219487372057 -0.07474959082970986 0.04100235499484206
0.04834769075110096 -0.07447224228578403 0.041023977781992904
0.04578827437967875 -0.07417737404634583 0.041119385514179985
0.0432117190217402 -0.07387836184361565 0.04123857485173954
0.04068516045742032 -0.07358684061606174 0.04133743567197701
0.038178462931783785 -0.07329761100940126 0.041435519356554984
0.035743877052974715 -0.07301979766628176 0.041497755709700934
0.03333262821240629 -0.0727449474393547 0.04155619407116706
0.03094804678872759 -0.07247366124034908 0.041608393013493894
0.028613983767782958 -0.07221014459174896 0.041637913277710714
0.02630525849115789 -0.07195001836174349 0.04166146151381034
0.023991640256371627 -0.07168797853331962 0.04169959247250571
0.021711354963225515 -0.07143075990271541 0.04172601641293344
0.019456741230882202 -0.07117703694050773 0.04174574336631309
0.017236651997677988 -0.07092839977422845 0.041752360659373655
0.015037768972536003 -0.07068251460563522 0.04175489271054478
0.012887132696699888 -0.07044420962382238 0.041734058929646156
0.010779199451215582 -0.07021254295448259 0.04169330031532614
0.008713097053050511 -0.06998739961344924 0.041632804070737994
0.006680203725221379 -0.06976727628444851 0.04155833226966865
0.0046909165018156895 -0.06955406916180837 0.04146204735502057
0.0027651387165248953 -0.06935139899859903 0.04132904365411194
0.0008635706672789345 -0.06915225180338747 0.041187309604149125
-0.0010044986192711547 -0.06895832624426507 0.041029794350535664
-0.00279479530307869 -0.0687776633456343 0.040823481200045475
-0.004643630563926415 -0.0685856378606876 0.04066861851558984
-0.006395839948052762 -0.0684103627686369 0.04045021988969
-0.008128660996155168 -0.06823788433087424 0.040225093177946925
-0.00985484260223346 -0.06806589470918548 0.04000266444285844
-0.011550697486201078 -0.06789872661539599 0.03976494249559742
-0.013220839481748625 -0.06773556535668897 0.03951511977964567
-0.014846368082504613 -0.06757990550992929 0.03923844152433553
-0.016442218261575936 -0.067429047437085 0.03894590817448118
-0.018012893002641805 -0.06728219158174849 0.03864068280697153
-0.019413114773644158 -0.06716619919728187 0.038209349426206574
-0.020223909688054542 -0.06715882469565986 0.037321751594153796
-0.020518164227670943 -0.06724724093075657 0.03602786427079968
-0.020651634705436073 -0.06736592480663066 0.0346027021868161
-0.020733615313066667 -0.06749470888764764 0.03313115617018786
-0.020863956200086686 -0.06761501606655632 0.03169240668307782
-0.020961685123436324 -0.0677419417277318 0.030221917843476054
-0.021040703657977944 -0.06787292200616805 0.028730473250038635
-0.021106951407902474 -0.06800686703712491 0.027222620839028655
-0.021162375461410254 -0.06814342938108632 0.025699746583319305
-0.021182679834201523 -0.06828721124255076 0.02414170982025371
-0.021184853714048935 -0.06843504644050136 0.02256203987349331
-0.02118805128451684 -0.06858333087897223 0.0209763575230294
-0.02116889949822076 -0.06873650736637493 0.019365122601593066
-0.021129282752074485 -0.06889424923613333 0.017729574192642872
-0.02105985856846082 -0.06905836892220972 0.01606151150817442
-0.020988054261796174 -0.06922366410821111 0.014383745322600727
