# .PCD v0.7 - Point Cloud Data file format
VERSION 0.7
FIELDS x y z
SIZE 4 4 4
TYPE F F F
COUNT 1 1 1
WIDTH 782
HEIGHT 1
VIEWPOINT 0 0 0 1 0 0 0
POINTS 782
DATA ascii
-0.004113364462718837 -0.10432049147039452 0.03920872869330805
-0.004103002413343373 -0.10568191369422164 0.03913381540406341
-0.004094178561559722 -0.10693627912957027 0.03895675841497731
-0.0040866631589704374 -0.10809978521200114 0.038692567177913306
-0.004080070486100569 -0.10919894929013402 0.038367246550892464
-0.004074220776442709 -0.11024625187614812 0.03799277087329106
-0.004068927730004702 -0.11125449430853934 0.03758170791115972
-0.0040642815906899435 -0.11221793197074287 0.037127425951651694
-0.004060296841460068 -0.1131359140538607 0.03662853757571538
-0.004057007295419571 -0.11400651729775957 0.036082284865806835
-0.0040543437521307875 -0.11483465433868456 0.03549314821946309
-0.004052191005468521 -0.11562822913275395 0.03486891404362724
-0.004050707036592318 -0.11637708853299428 0.034198087983273284
-0.004049805915335924 -0.11708719765173364 0.03348639472009629
-0.004049477481289344 -0.11775950303633353 0.03273422365477813
-0.0040495994649054285 -0.11840227044432083 0.03194998493456924
-0.004050228266116198 -0.11901204064287146 0.03112937781191899
-0.004051251658562156 -0.11959635529616369 0.030280175430069556
-0.0040522567763152575 -0.12018218420618876 0.029431897743152635
-0.004053629050204355 -0.12074458044007752 0.02855671145329214
-0.004054616534226108 -0.12133225253105584 0.02770887073732492
-0.004058307395910211 -0.12174619705949169 0.026664322413533448
-0.004062042748407824 -0.12215847061444379 0.025615120798127833
-0.00407045352360419 -0.12227244106735558 0.024223151015639488
-0.004079641889711095 -0.12233942783174223 0.022771041411986048
-0.004089091873852661 -0.12239269273217318 0.021296212370162104
-0.004100076145164707 -0.12235144932641728 0.01970486894597251
-0.004113742075679147 -0.122143675115094 0.017911484792281607
-0.00413104101547635 -0.12171048461497547 0.015844153252626503
-0.004151531172089395 -0.12108150414931823 0.013533548525786587
-0.004181019330400034 -0.11989282637441129 0.010546118177162167
-0.0041498494836965496 0.07101114620273336 0.03611921565601084
-0.00411372020750034 0.06617684034677535 0.03755243211601522
-0.004087103508281767 0.06239470770669048 0.03834531524806567
-0.004064052319099146 0.05901179016908792 0.03890395499830007
-0.004043828086521787 0.05594562400635633 0.039277145015087445
-0.004025262282158804 0.05306779571490622 0.03954454018425563
-0.004007944364337685 0.05033284985747205 0.03973372107096479
-0.003992099684692044 0.04776430195065645 0.0398278375112075
-0.003977067509430643 0.04529004695572436 0.03987253172845995
-0.003962866865056655 0.04291160759721002 0.039865829637261596
-0.0039493383713021055 0.040611353137348705 0.03981845755558516
-0.0039364929607539475 0.03839002188926027 0.039729118335756375
-0.0039241537357758375 0.036228275305347724 0.03960999128705822
-0.0037656438734095478 0.018486490145365464 0.050030641911158746
-0.0037428583347115627 0.01525504626535662 0.050716901286009586
-0.0037270326226021373 0.012772469991799984 0.05090969769450959
-0.0037102265934420577 0.0101927800529239 0.051181971665674286
-0.003698021135406006 0.00810688118144881 0.051126599052110644
-0.0037007880464076373 0.007606589332478153 0.049979391958182184
-0.003851090458512136 0.0226462975706056 0.037972902220021865
-0.0038423412842323807 0.02090140197243945 0.037635662573658524
-0.0038337214767375145 0.01917382749570301 0.037293304287727314
-0.003825564498145425 0.017498403078375635 0.03692093168281124
-0.0038178424505615396 0.015871916404050612 0.036520271850572494
-0.0038102733509921493 0.014264686297589924 0.03611210416140487
-0.003803120384436381 0.01270399964591501 0.03567653913748331
-0.003796214107011202 0.011171994117765371 0.035226031088823495
-0.0037896725015642363 0.009680737060147437 0.03475146708376253
-0.00378356838000049 0.008237523564154914 0.034247041846482806
-0.0037780391874778696 0.0068562562101402436 0.03370195401000714
-0.0037748076928051607 0.005713979153793736 0.032984137083755916
-0.003774981639206733 0.004923055429795431 0.03200691228608177
-0.0037776254217131602 0.004385346774597398 0.03083963247489746
-0.003782334634356367 0.00405787912913802 0.02951161358819926
-0.003786388270077258 0.003661442884662691 0.028231947888015196
-0.0038004408090758623 0.004282261966557066 0.02617349187887802
-0.0038109158899542156 0.004533245447425727 0.02438667163917313
-0.003820936436859542 0.004733613126215674 0.022630042384058247
-0.0038308082791017515 0.004914627781179348 0.020879961044241946
-0.0038403711638847447 0.0050601909130750244 0.01914915373769438
-0.0038496539948759457 0.005173415735863385 0.017435574984804136
-0.0038585614856130462 0.005244894079337481 0.015746987209718122
-0.0038674874698238553 0.005314412280666203 0.014052380773000639
-0.003876019244529944 0.005340607133707209 0.012384643558584263
-0.003884197353964822 0.005327785727204493 0.01074083487477595
-0.0038867312815531407 0.004748352231545072 0.009545705027207474
-0.0039059580318792655 0.005829662317840767 0.007005686453049498
-0.003153728904558383 -0.09473498545460007 0.036950771577093255
-0.0031320105330480768 -0.09739136799199655 0.03810985467101585
-0.0031172917024697507 -0.09940160422130068 0.03864514787352802
-0.0031056143993552837 -0.10112945736432777 0.038911304735777086
-0.0030956245570963542 -0.10269949930842026 0.03902950512414216
-0.0030869051199382937 -0.10415049165036316 0.03903660418043542
-0.003079261551136651 -0.10550078380543482 0.03894947253877973
-0.003072469366674598 -0.10677125107188584 0.03878793408270742
-0.0030666753983049863 -0.10794927027440154 0.03853779353170805
-0.0030616325113074954 -0.10905759745757082 0.03822114387758008
-0.003057126611271783 -0.11011582738604708 0.03785726617466634
-0.0030531885914823528 -0.11112155403716834 0.03744287594765766
-0.003049764442345206 -0.11207994067147048 0.03698257493533824
-0.003046694933642081 -0.11300542955860016 0.036490859445012735
-0.003044182967507555 -0.11388030969783919 0.03594843218712629
-0.003042155192725443 -0.11471140887309472 0.035361762747103564
-0.003040510936257407 -0.11550789586818822 0.03473997148197416
-0.003039375814236797 -0.1162589919898866 0.034070889665462345
-0.003038699374571693 -0.1169694418277844 0.03335890957418719
-0.003038410570226718 -0.11764574550555729 0.03261043244624989
-0.003038544399597817 -0.11828510290943378 0.03182182600415473
-0.0030390586957386246 -0.11889145051852162 0.030996795750187767
-0.003039841041374487 -0.11947477922024563 0.030145820957321823
-0.003040644950872797 -0.12005657825796934 0.029292375078017185
-0.0030412516903504695 -0.12065573150178616 0.02845751024851012
-0.003043101622608603 -0.12114816180339671 0.027502272604451483
-0.0030476371046250306 -0.12141085529588741 0.026286044006087694
-0.003049863791035288 -0.12187318636749128 0.0252916531768268
-0.0030558935538563176 -0.12201164248841456 0.023925924825100364
-0.003061832764464186 -0.1221603973757579 0.02256595478241369
-0.003068879704237452 -0.12221755846264376 0.02109455694298895
-0.0030771217739487774 -0.12217642887097818 0.019502307988277345
-0.0030877413930056846 -0.1219377971592806 0.017671985207565577
-0.0031013450726930123 -0.12145203788361947 0.015541953706072864
-0.0031168543507391453 -0.12081179655722535 0.013216559903254932
-0.0031398433405048602 -0.11955056102711992 0.010141783403573468
-0.0024306949013344838 0.015889806669593443 0.07075260405190792
-0.0027726233286915936 0.07111408436246952 0.03443267091892549
-0.0027421789180180566 0.06524618337372001 0.03653329229839086
-0.002722469068674549 0.06114919778978828 0.037538006214549224
-0.0027060121140304308 0.05759454649951962 0.038217412725280564
-0.0026915176049250723 0.054369385533884707 0.038703310082507714
-0.002678753298386785 0.05143415617041608 0.03901792476941246
-0.0026667197178502906 0.048625410253815615 0.03926500946637079
-0.002655866932121426 0.04601514881306329 0.039395936575480905
-0.0026456146616999124 0.04350867960498306 0.03947118515675424
-0.0026359420881479478 0.041102073927518246 0.03949229161090778
-0.0026267978968925964 0.03878653280104677 0.039464097331630366
-0.002618054175404711 0.036541047803682725 0.03939977279556556
-0.0025162558434217953 0.019418374046702325 0.04940082020403164
-0.002500401116602964 0.016079014556586113 0.05015691669752215
-0.0024897006254290333 0.013570882532393747 0.050364066700456345
-0.002478507699358871 0.01099134523678813 0.05063320900636603
-0.0024657509131571845 0.008170895087301955 0.05108236594557858
-0.002463102817405443 0.006959146931964311 0.050429243970099236
-0.0025665415280136795 0.022511657278929953 0.03806696883436417
-0.0025603074545725454 0.020703757422339708 0.03777450871703153
-0.0025543574419601748 0.018944566022238485 0.03745524840526382
-0.0025485911083982277 0.017218044862035542 0.0371200582293123
-0.0025431245718946136 0.015542215129117853 0.03675573067600363
-0.0025378435800883408 0.013898918586055353 0.03637475266173268
-0.002532797357795523 0.012295659321976793 0.03597136381035593
-0.0025279247304843006 0.010722682543346795 0.03555221158049876
-0.002523238383773799 0.009181792684883061 0.03511565723246113
-0.002518932389315688 0.007702913636901065 0.03463939366982344
-0.00251604573300629 0.006446507442563365 0.03400430810404581
-0.0025152418400650254 0.005513686618171532 0.033132737317377314
-0.0025164225083324095 0.004887305021384236 0.03203358021533331
-0.002519440777850949 0.004542842353399357 0.03072151142948859
-0.0025216655730719816 0.004074634598300375 0.02949897893733877
-0.0025317626459260495 0.004810927527539921 0.0273604733315142
-0.0025388316339616545 0.005077840100869924 0.0255670677808289
-0.002545532295478157 0.0052840227305962495 0.02381130584829716
-0.0025520746130429897 0.005461794692848465 0.02206898257316836
-0.0025585682367427988 0.005627964666553853 0.02032737739224716
-0.0025649142874787927 0.0057675915025205415 0.01859821922119914
-0.002571027105981461 0.005867860781692658 0.016891822764755204
-0.0025770171225144574 0.0059456654240988005 0.015195334816286987
-0.0025829358577730893 0.006008883667466547 0.013502755115868736
-0.0025886287544063837 0.006034355123689938 0.011832648307685045
-0.0025940849418633004 0.006020667252090828 0.010186578013646752
-0.002598451026303829 0.005840336453577288 0.008667523048676518
-0.002606698557089101 0.006236816719599636 0.006676500756456649
-0.002107424732482144 -0.09405779090607164 0.036282607338361805
-0.002090794776552547 -0.09701001449528396 0.0377316346871176
-0.002080490335897932 -0.09908827673724652 0.03833278376195964
-0.0020721967685464722 -0.10088612867637259 0.03866746705407992
-0.0020654375092723975 -0.10247024185123027 0.03879857805611353
-0.0020595665082552847 -0.1039296420591011 0.03881299436539509
-0.0020545110356087813 -0.10527501802038797 0.03871970200241326
-0.002049908223632058 -0.10655609513957709 0.03856782874355724
-0.002045910222084275 -0.10775283869435259 0.03833580406568632
-0.0020424718844893235 -0.10887189160782246 0.03802919644678987
-0.002039468640377768 -0.10993047390625837 0.03766469292865743
-0.002036792252053589 -0.11094346370668928 0.03725689294938217
-0.0020344591283191337 -0.11190898951037731 0.03680312558197396
-0.0020323723908689576 -0.11284026121236018 0.03631658533592291
-0.002030672102617842 -0.11371894153527096 0.03577728907984007
-0.002029290355468506 -0.11455438708476884 0.03519437012351945
-0.002028164656509633 -0.11535515249621536 0.0345763000173232
-0.002027411748165344 -0.11610611508156266 0.03390623043785729
-0.0020268944478642383 -0.11682565077360163 0.03320323809308212
-0.002026753411787983 -0.11749555925512034 0.032446999420593925
-0.0020268615377205656 -0.11813281423267957 0.031655251244807836
-0.0020272424208820678 -0.11873457988047054 0.030824325303457245
-0.002027769310008623 -0.11931760276567077 0.02997212428613627
-0.002028828620813371 -0.1198318957794271 0.029042798535983627
-0.0020280658055419967 -0.12058265989328515 0.028375924674860553
-0.0020295825821232006 -0.12103867828975806 0.027379403355218823
-0.0020307759277048473 -0.12153731698088233 0.026428697650801136
-0.0020340471200496362 -0.12176984472256325 0.025174479948990802
-0.002038740613817499 -0.12182225229506721 0.023710081142505612
-0.002042944627544217 -0.12194023082527272 0.022313745092529702
-0.0020476697234412897 -0.12199448642251381 0.020837704371167
-0.0020533041153436957 -0.12193615851356826 0.0192242296711993
-0.0020606398730558663 -0.12166566344718449 0.0173554097355742
-0.002070218300517779 -0.12111616056243929 0.015149215234877111
-0.0020823048828351354 -0.12025631064869607 0.012563694659032232
-0.0012164268548615052 0.016244098230842274 0.07052999848117897
-0.0012134133867597674 0.01447502418362867 0.07022193748624433
-0.0013721013338785833 0.06469503941348487 0.035271972348873026
-0.0013605012288111613 0.060035406656363255 0.03664871660169988
-0.0013514868213675365 0.056231076904919186 0.037500080924870616
-0.0013438423259650848 0.05288269708451365 0.03807644262518817
-0.0013371017240154238 0.04983676163483747 0.038473259431108686
-0.0013308985172549629 0.04697311687435557 0.03876628305839269
-0.0013251945933637945 0.044278437431762185 0.038962401168037675
-0.0013200815640580035 0.04178124124514493 0.03904087146693713
-0.0013151740909152325 0.0393566342791829 0.039083051409063874
-0.0013104247997203073 0.036989035983138074 0.039098674074312945
-0.0012609965399234977 0.020335966351990586 0.04878065759436073
-0.001252821112180242 0.016915573424375885 0.04958837531272475
-0.0012473558656797244 0.014369119144381437 0.049818555935101094
-0.0012418074887959295 0.011803260024288942 0.05007527268892642
-0.0012354622369208888 0.008991684185752191 0.05051520712050378
-0.0012295170283221123 0.006314942804908463 0.05087684598444264
-0.0012304380777061188 0.005815690814013064 0.049731627451641
-0.0012798274853584046 0.020600869505228547 0.03784678791968782
-0.0012766562518317546 0.0187801291615865 0.03757140216579902
-0.0012736454787880545 0.0170138643071151 0.03726507901484427
-0.0012707560479138038 0.015289504087646066 0.03693620630507288
-0.0012679569670944282 0.013597120118660322 0.03659146647315675
-0.0012652984282410726 0.01195220603574143 0.036219339571810893
-0.0012627385964623186 0.010341458570720607 0.03582896346028408
-0.001260265436440833 0.008760945918704077 0.035422842269416166
-0.0012582873497527073 0.007337199678927209 0.034907792236548885
-0.0012573892838139374 0.006250357858578859 0.03414904711110234
-0.001257646260420562 0.005521515409197819 0.03312692901218084
-0.0012587985159860163 0.005068359251914123 0.03189852325724418
-0.001260014656045264 0.004633376462469196 0.03065361121482968
-0.0012648954819476934 0.005321950458608671 0.02855842631807054
-0.0012684686561314155 0.00560361924560987 0.026759499088206407
-0.0012718547075086539 0.005823485158914066 0.02499870483533434
-0.001275154670691232 0.006012733533859005 0.02325285092825946
-0.0012783895056369284 0.0061779115482604174 0.021517218554572892
-0.001281584403441862 0.006326797920796656 0.019786028921864762
-0.0012846895319354216 0.006444362538761406 0.018071139474316822
-0.00128774521728209 0.00654297787297059 0.01636320438180311
-0.0012907468322515766 0.006621342424775578 0.014663436876400981
-0.0012936935179413817 0.0066793017327718696 0.012972165984768247
-0.0012965651865607945 0.006710923552541825 0.011294322337697171
-0.001299310514747972 0.00670095829859535 0.009642392656486642
-0.0013019704912333513 0.006661917666581085 0.008006801217168014
-0.0013029722496100435 0.006124213035295423 0.006767541212108041
-0.0010572540570723313 -0.09308653650717086 0.035324304502837856
-0.001047422372208632 -0.09645599533921112 0.0371821678064006
-0.001041666272059586 -0.09870038766340405 0.03794608731142757
-0.0010373012626729477 -0.10055857730696571 0.03833923051434396
-0.0010337547848418786 -0.10218879024390631 0.03851507672417037
-0.0010308036719533552 -0.10365308767763742 0.03853298355018686
-0.0010282104324373612 -0.10501683016908026 0.038456934280253874
-0.001025909568434919 -0.10629837490282107 0.03830417995865815
-0.0010238828478198758 -0.10750319181079576 0.0380790936085843
-0.0010220864351161898 -0.10864357715586581 0.03779320833696603
-0.0010205560896045791 -0.1097103984770047 0.03743604526676031
-0.0010191990962358794 -0.11072893897183772 0.03703286083441765
-0.0010179998590493504 -0.11170368958054921 0.036587619940375626
-0.0010169667458276815 -0.1126327297013513 0.03609761257260308
-0.001016070397689607 -0.11352416670313409 0.03557071567984271
-0.0010153502087298602 -0.11436784092267355 0.03499550312661659
-0.0010148455049875122 -0.11515371194817148 0.03436044731541815
-0.0010144543512498865 -0.11590903559656018 0.03369396191324431
-0.0010141953190546517 -0.11662915274995073 0.032990504842395685
-0.0010141058659503912 -0.11730450349593624 0.03223909210083853
-0.001014174131381805 -0.11793851494355784 0.03144272489014688
-0.0010143719175946613 -0.11853884340456772 0.030609124053179726
-0.0010146899499608188 -0.11910815091099825 0.029740657747279298
-0.0010149728128618892 -0.11968699200903543 0.02888183991483695
-0.0010150176139574361 -0.1203278089922935 0.02809137972807413
-0.0010163847673888796 -0.12062729851015846 0.026917727227105837
-0.0010171537828935074 -0.12108257939495148 0.025915736163502956
-0.001019275182839056 -0.12119144920028357 0.024518670083000793
-0.001020458360862342 -0.12154345303351372 0.02339233998466206
-0.0010225576823208477 -0.12166281732412265 0.02199595670487281
-0.0010248940042791813 -0.12172445692618405 0.02052678342132641
-0.0010278935427465454 -0.12162043861429828 0.018858829381278253
-0.001031801746860986 -0.12128977934072843 0.01691814054353319
-0.0010369910517667913 -0.12063999680506537 0.01459244103692664
-0.0010422626535918713 -0.11997611542284659 0.012234379870402157
0.0 0.017013707056361904 0.07004644417003769
0.0 0.014434182183835909 0.07024774485686647
0.0 0.013344998708735456 0.0695148599882991
0.0 0.065401583403494 0.03319997307656558
0.0 0.05919256483551333 0.03558604260277143
0.0 0.05505068945622543 0.03666735152743844
0.0 0.051481643771735086 0.037398149838389017
0.0 0.04833308091076832 0.03787240551357601
0.0 0.04538292352264656 0.038232373074457315
0.0 0.04262360065775167 0.03848098291304913
0.0 0.040062183016011 0.03861147489216166
0.0 0.03761732365469478 0.03867639370362441
0.0 0.02131974474968007 0.04811576254790845
0.0 0.017751040245253313 0.049020576103867064
0.0 0.015170575513355433 0.049270844804501335
0.0 0.012606133093233218 0.049523549712138404
0.0 0.009814811664738687 0.04994643249283115
0.0 0.006904191300962648 0.050467427909168805
0.0 0.005173955243255202 0.05017997684017045
0.0 0.004672118519576163 0.04903680374350505
0.0 0.018703829199507693 0.03762529839982476
0.0 0.016879801905808123 0.03736029785071926
0.0 0.015107704181514692 0.03706604017474752
0.0 0.013377395812176063 0.03674924491494852
0.0 0.011673303802344326 0.03642070900535527
0.0 0.01001317438956667 0.0360672833739355
0.0 0.008431236005540854 0.03566350457218026
0.0 0.007145052605145974 0.03504880954824546
0.0 0.006231313855783238 0.034163099703001965
0.0 0.005674799569097 0.0330132050438825
0.0 0.005346976078849319 0.03169068972025263
0.0 0.005757949406979601 0.02981018606693331
0.0 0.006084589682074482 0.02798334959371135
0.0 0.006342920685657227 0.026199002348577805
0.0 0.006544731662520009 0.02444893952435323
0.0 0.006719112776027214 0.02271151002671784
0.0 0.006872671907821093 0.020981909596188508
0.0 0.006997204183463446 0.01926670131026914
0.0 0.007110853222072611 0.01755206622524519
0.0 0.00720892144281271 0.015841768889241437
0.0 0.007283199992132006 0.014142417696789644
0.0 0.0073392980388681806 0.01244982494907182
0.0 0.007368959600102254 0.010770742048573867
0.0 0.007352232986178209 0.009121418361304201
0.0 0.007321453416311963 0.007476397574034177
0.0 0.006696031283284609 0.006305224244697982
0.0 0.0087909495224337 0.002921073335506452
0.0 -0.09044074086889786 0.032713790238765195
0.0 -0.09574387682070568 0.03647590063716116
0.0 -0.09820672118305229 0.03745393868293545
0.0 -0.10016975565112846 0.03794959552329652
0.0 -0.10184950271605453 0.03817331827065784
0.0 -0.10333701425912739 0.03821295978084999
0.0 -0.104712271687536 0.03814697338141859
0.0 -0.10600045778676004 0.03799940961295761
0.0 -0.10721880490695557 0.037786660188072474
0.0 -0.10836601017376579 0.03750631231748969
0.0 -0.10944328067562803 0.03715852286935778
0.0 -0.11045998864082035 0.03675199107121796
0.0 -0.11143728450163881 0.036307971537652195
0.0 -0.11236561471832335 0.035815771488936166
0.0 -0.1132738657470313 0.035305252637428564
0.0 -0.11413100984640373 0.03474303004230295
0.0 -0.11491582123668198 0.03410553660686533
0.0 -0.11567439239299976 0.03344123461070653
0.0 -0.11638962666587271 0.03273118843023337
0.0 -0.11707610897886517 0.031990552658249294
0.0 -0.11771126641144636 0.031194158349579393
0.0 -0.11830591409879715 0.030353031377571393
0.0 -0.11875463680596765 0.029349987125352917
0.0 -0.1195933617551112 0.028777835743458102
0.0 -0.120129317081135 0.02786976045940226
0.0 -0.12050027207442371 0.026775170213061306
0.0 -0.12088301946006869 0.02569062488137075
0.0 -0.1210398760887183 0.024346809931678204
0.0 -0.12121263810289173 0.023015317755470888
0.0 -0.12134618932673247 0.021633246525445682
0.0 -0.12137215200591278 0.020121127809872408
0.0 -0.12120898279160963 0.018382628555014935
0.0 -0.1207757463180944 0.016320161537161315
0.0 -0.11998009043665164 0.013820818179650973
0.0 -0.1191300382457286 0.011239981318811765
0.0012211219639279283 0.017785168323229517 0.06956172594812743
0.0012156314966583356 0.015201645997231006 0.06976279742109265
0.0012103041628071646 0.012678517447500426 0.06993838783209239
0.0013623635880427682 0.058890477600630486 0.03417167333127674
0.0013499793360329426 0.054005622009363374 0.03574845521637332
0.0013409593033435095 0.050223621203930646 0.03662979065731364
0.001333184909254172 0.04685486468238992 0.03725946956070686
0.0013264176328931787 0.04382019416084654 0.03768564662783297
0.0013203648076128658 0.041023675270931315 0.03796883017474323
0.001314782277562142 0.03838567458988135 0.0381599749794983
0.0012671626431467245 0.02230833369121843 0.047447616254240876
0.0012580590903527146 0.01858769210317407 0.048451971521200565
0.0012523973519802515 0.015975271159444193 0.048720919968702536
0.0012468895321927794 0.01341906632909251 0.048964913531443055
0.0012406367932244259 0.010633578293965884 0.04938067117811612
0.0012339304736669653 0.007712498410924695 0.049905804853010105
0.0012273962529354154 0.004854425962274367 0.05040321638660206
0.0012272962669518676 0.004033938085724997 0.0494851282329567
0.0012764548422369757 0.01871673946369462 0.037616178937625866
0.0012730925085547406 0.01684018327385073 0.03738843728412611
0.00126986224631485 0.015009346710352145 0.03713628295629884
0.0012667621816337751 0.013223388937216918 0.03685983333889248
0.0012637576298389914 0.011471231749197064 0.03656660649201854
0.001260927394465008 0.009777239551554073 0.036238561715843054
0.0012585519442341298 0.008228266507397386 0.03581165634094402
0.0012575702422980503 0.007114730883929277 0.03507106275006555
0.0012578019451998845 0.0063781128628724315 0.03405477654426081
0.0012592048447654192 0.006003032547331699 0.03276968375090761
0.001259803932270815 0.005378331509032497 0.03166730021420394
0.00126613077519615 0.0065150593317157 0.029242356693693072
0.0012697441518962382 0.0068105737284701595 0.02743591311982918
0.0012731333155763947 0.007032749809398664 0.02567601273458059
0.001276469759441061 0.007234450770840395 0.023923205759018407
0.0012796663009201998 0.007389179879166763 0.022197997301466266
0.001282803559610525 0.007521751204712213 0.020481797640251154
0.001285914605829028 0.00764232592409092 0.018766960255620135
0.0012890179601780104 0.007756569292159843 0.01704917256615801
0.0012920790110794694 0.007854025539957732 0.01533665075629198
0.0012950586598556163 0.007922973348953088 0.013638783371296426
0.0012979672460274514 0.007966684283866265 0.01195329250189453
0.001300861813531846 0.008002442156437584 0.010266698263692697
0.001303570933405213 0.007978854539410607 0.008620164852968126
0.0013062327793441264 0.007937634897222656 0.006980859762111158
0.0013069712876770418 0.007318568106758183 0.005801901139250665
0.0010537326968167978 -0.09472954178168108 0.03546990020597479
0.0010458678486452424 -0.09755357115762564 0.036802796865519904
0.0010405127234202353 -0.09968407630518311 0.037462900235705476
0.0010364867391896666 -0.10144661792295911 0.03776749939277624
0.0010334344687748958 -0.10294008720919745 0.03781107185471827
0.0010306553429121803 -0.10435578031149279 0.03778415837529847
0.0010283217531194915 -0.1056477238991893 0.0376385615009841
0.0010262348778218664 -0.10687027849516673 0.03742827247977143
0.0010243389419936464 -0.10803889263648697 0.03716820034669199
0.0010227779058038533 -0.1091153810129335 0.03681785107575403
0.0010214054500180916 -0.1101394806647143 0.03641727871369094
0.0010201438484529978 -0.1111322709200353 0.035987795356127394
0.0010190921188746622 -0.11206763885809706 0.0355013681619466
0.0010181374497688761 -0.11297591082233072 0.0349892489671077
0.0010173432574365317 -0.11384049448058081 0.0344333269762821
0.0010167963416953208 -0.114638788472744 0.03380868341026255
0.001016406047480239 -0.11539513977607618 0.033140459819317514
0.0010162003766076113 -0.11610249533086603 0.03242033348556256
0.0010161058432209202 -0.11678046604706871 0.03166883333496412
0.0010161105694813917 -0.11743237085465824 0.0308890998170277
0.0010162240127301826 -0.11805593529171443 0.030078193733851954
0.001016436787102586 -0.11865381020490362 0.029238563025482833
0.0010165597640272204 -0.11927525665292127 0.028424485665059007
0.0010169075713378042 -0.11983867334738929 0.02754525226488269
0.001017485409829105 -0.12034315117974226 0.02659883931421947
0.0010189162494496945 -0.12062870514827184 0.025403748556086403
0.0010211643363094909 -0.12070616458632011 0.02396843339306931
0.001023177902211614 -0.12084660696495475 0.022598160418228153
0.001025370250795875 -0.12094394218370325 0.021172456151174357
0.0010281088130751148 -0.12090483808170871 0.01958304700328589
0.0010316604384480441 -0.120662485952864 0.017750137211325956
0.001036740064296656 -0.12003709875448976 0.015460886516502181
0.0010428572289295352 -0.11915572095560967 0.012856890015203182
0.0010528794882342044 -0.11729663986919248 0.009085179440895708
0.002446976550848172 0.018561859945172787 0.06907372143237306
0.002435939531693442 0.015967630315434522 0.06927878485336975
0.0024244162800400545 0.01330100992922112 0.0695428134717988
0.0024184778786528233 0.011552966133974385 0.06923337009964914
0.0027010102243423774 0.05330774332426791 0.034602658001575415
0.0026803555721745037 0.04910967396405147 0.03576911659486676
0.00266313556768433 0.04547751758439306 0.036584078341129034
0.002649440936732828 0.04242253123731943 0.03703385915170254
0.002636355630713373 0.03947399662998152 0.03742849948614135
0.002540802662721396 0.02334430124218656 0.04674744872205905
0.002521418179177794 0.019433650806268354 0.047877041828793654
0.0025098812348997397 0.016785522485216864 0.048167198410189016
0.0024989066611934194 0.014234211203275116 0.048404757544284416
0.0024864842579792722 0.011460255054617507 0.04880944402466936
0.002472980385486191 0.008523055575486438 0.04934261842752652
0.0024598508878340393 0.005653690409512191 0.04984480924428136
0.0024505518175152 0.0033967715271991383 0.049932740470647774
0.0024523812251328212 0.00289706445227611 0.04879077042359936
0.002546407612468667 0.01687514048280525 0.03736360866171118
0.002539599011723429 0.014989681047613002 0.03715032734800111
0.0025330249610852197 0.013145281957443411 0.03691591997654725
0.0025265798243912334 0.011325229417209592 0.03667202123370189
0.0025206399342582383 0.009588016010403544 0.036375929705459
0.0025168428907465174 0.00818769786278195 0.035841268260523584
0.002516023999391377 0.007251777619806554 0.03497048374102896
0.0025173866971359895 0.006654080629662051 0.033851139606912606
0.0025196078645198347 0.006188117747753796 0.032632366082342656
0.002529468750449348 0.0068983989220118835 0.030533409665021105
0.0025369004857446905 0.007228665866250761 0.028707154686684
0.0025439167656202354 0.007490379881132214 0.026923297608532126
0.002550651776879255 0.0077044972175728255 0.02516673165958161
0.0025572204701987808 0.00788886107679182 0.02342438589152246
0.002563537266453382 0.008030577217386647 0.021706455941541025
0.002569719082925819 0.008147685994523646 0.01999951839714298
0.0025759155985992112 0.008263054007068948 0.018286115653272594
0.002582126810201656 0.008376666586373038 0.016566231205824733
0.002588199383548745 0.008465316439949466 0.014858008441882065
0.0025940849417954107 0.008521835371564757 0.013167354751136118
0.0025999354411100754 0.008569290708247301 0.01147637155412401
0.0026056181351954573 0.0085877652178864 0.00980097359879012
0.00261114625294758 0.00857940467346191 0.008139766660355596
0.0026164784932396178 0.008538177331188057 0.00649789899014136
0.002617952208932412 0.007917327873325997 0.005317801863894911
0.0021203059150034192 -0.09297301060650304 0.03372780213025345
0.0020981494334413975 -0.0966782594345591 0.03593017642002527
0.0020858040717458316 -0.09903345146562814 0.03681091442233986
0.0020769398235710476 -0.10090786228471144 0.03722482016458739
0.002070409599605524 -0.10246029080613533 0.037325278857173405
0.0020646322872055075 -0.10390673644207832 0.037327149131377746
0.002059712148258228 -0.10523386358775089 0.03721518082431641
0.0020554534191954813 -0.10646883795451456 0.037015473476548044
0.0020516842453998413 -0.10763536441110844 0.03675110952150967
0.0020484521617748553 -0.10872754989259098 0.036414913413980676
0.002045637219391555 -0.10976193526922073 0.0360230011330378
0.002043083148889883 -0.11075974729061655 0.03559675311935867
0.0020408499883601255 -0.1117132560680491 0.0351274481801927
0.0020388500223320993 -0.11263440365133309 0.034627054854744654
0.002037376369435171 -0.11348463633513611 0.034053965428914146
0.0020362037248361736 -0.11429419619338071 0.03343943712256886
0.0020354732852302065 -0.11504478439395838 0.03276310232799151
0.002035046647523716 -0.11575500409161826 0.03204413152924368
0.0020348097038539945 -0.11644009757467638 0.031298443574788726
0.002034918691113585 -0.11707982922786475 0.03050348653379159
0.0020353594977482715 -0.11767637228730587 0.029660885550841953
0.00203433598201908 -0.1184636289387504 0.029028392533076652
0.002035862155471964 -0.11891946855398289 0.028029277440519862
0.002037918045843943 -0.11930774174859521 0.026952458976971017
0.0020391735605603182 -0.11980065092529057 0.025990011585206307
0.002043030604227793 -0.11995939141525136 0.024648736921724868
0.0020461018467954886 -0.12022153922307699 0.023418944190125357
0.002050038072532511 -0.12037484100779777 0.022060499519763133
0.0020547719172292343 -0.12042873970806273 0.020582270874063113
0.00206093147728658 -0.12030393745796225 0.018891150024494763
0.0020695318752079576 -0.11987273189083197 0.016836110683697836
0.00208104031546461 -0.11907821959722814 0.014345414201607287
0.002098749115787877 -0.11750668893416666 0.01092869101451227
0.0036775913270579957 0.019341567584825248 0.06858382191708468
0.003661094302080342 0.016752199350704267 0.0687830289164762
0.0036436301223658064 0.014064498936166792 0.06905764026186884
0.0036255995229669672 0.011322674692733126 0.06938054198723165
0.0036245367906042017 0.010430482340084757 0.0685288930498602
0.0040602000746473915 0.05337310194533035 0.0329511343432316
0.004019657937567565 0.048154320677508244 0.034804895500149924
0.0039916498622484175 0.04429471810786623 0.03578252197636905
0.003968397962926896 0.04095526019642631 0.03643292284785404
0.0038210701023242916 0.02439626707093967 0.04603646861696847
0.003790297149359684 0.02030300723179962 0.04728621059732285
0.003772450126741802 0.017595612179413522 0.047613587309857264
0.0037560615545712958 0.015050433650749873 0.047843861064054805
0.0037375433175760166 0.01228702947128607 0.04823814939168142
0.003717171119908764 0.00933586993045632 0.048777863674658806
0.0036974160991850363 0.0064584529521006795 0.04928256085051563
0.003677828666347808 0.0036071190627708916 0.04978497042554697
0.003672850978722881 0.0022968886056539684 0.04921471844408082
0.0038209252979319198 0.017012698159702133 0.03726590727987633
0.0038099964614996557 0.015052155165304892 0.03710571095282772
0.003799559469861805 0.013147578782042146 0.036914270685159956
0.0037894752869392367 0.011284185731117502 0.03670165507247852
0.003780839932465086 0.009575558583833577 0.03638497325063994
0.0037763629072252052 0.008301536763912154 0.035758174816874044
0.0037764717114599613 0.007503655258246256 0.03478562998941942
0.0037802402021308024 0.007083392102513686 0.03353435016980921
0.0037822036642614987 0.006475629091898805 0.03241905682058688
0.003801113104607676 0.00760851995979811 0.03000369662292418
0.0038119244475229917 0.007902821810972016 0.028201540462051145
0.0038221954979908703 0.008137197773412708 0.026435557267746546
0.0038322419153490597 0.008344231749317088 0.024681720945619656
0.0038419696215710696 0.008514480599057683 0.02294751160583125
0.003851350720820211 0.008645312286834461 0.02123534748189454
0.003860595801876052 0.0087583205552354 0.019529027894698625
0.0038696797237107953 0.008851046862749068 0.017830629267806986
0.0038789786788970848 0.008961610326913005 0.01611066797661692
0.0038880456174588116 0.009044792607366625 0.014404277143212851
0.003896946482779962 0.009107378384145548 0.012706410954330227
0.0039057368904385275 0.00915505879951406 0.011012776972390781
0.003914333238242386 0.009179528222471256 0.009330124857020283
0.003922697479192208 0.009177107375080096 0.00766164621495663
0.003930614212448195 0.00912645538638579 0.006024801324427453
0.0039333625244337665 0.00855787629621707 0.004799916320032571
0.003189606956420832 -0.09213873012166013 0.03290037677749286
0.0031633648216978397 -0.0952097322317999 0.03446616442507183
0.00313803171569231 -0.09818697751454009 0.035962669821241466
0.0031230033572192894 -0.10022022561576882 0.03653217565140909
0.003112273241409067 -0.10185872940504825 0.03671619901752421
0.0031030117245594313 -0.10336027615079119 0.036770995442252596
0.003095134791480271 -0.10473336380011522 0.03670316763313908
0.003088410736600136 -0.10599966574624808 0.036533026388374246
0.003082745044464935 -0.10716838058947542 0.036268430354943315
0.00307772147859416 -0.10827734561738611 0.03594717307944728
0.0030734203419177535 -0.10931982223000558 0.035561294377883024
0.00306938994552789 -0.11033640302128689 0.03515236388622417
0.003065850496481149 -0.11130774591774201 0.03469958217692731
0.003062891677690631 -0.11222623745924887 0.03419416382289109
0.00306062449428536 -0.11308246047978526 0.033625227020778914
0.0030589316622339673 -0.11388717859650305 0.0330032992701747
0.003057732813771911 -0.11464781480103725 0.03233553803937722
0.0030569768808704372 -0.1153691578724449 0.031626405595187035
0.0030571622638087374 -0.11600796194813573 0.03082819258487579
0.0030555872253890345 -0.11680022447305605 0.030197652273903308
0.0030563781051604773 -0.11738618527247058 0.029341841243342215
0.0030568770687154833 -0.11799779347152917 0.028513594879729987
0.003058410618726146 -0.11852014081322126 0.02758570552817502
0.0030596028569468653 -0.11907259003325127 0.02668990847364172
0.0030649543674228447 -0.11926762401495072 0.02539181543568908
0.0030704900578845565 -0.11944914110833593 0.024073154949995124
0.00307589419129973 -0.11964429514869301 0.022764439885574028
0.003082310083374423 -0.11975534845748742 0.021354477993327736
0.003090172789838288 -0.11974588552757987 0.019800033787112425
0.0031011029329614374 -0.1194791099090392 0.017941416130784593
0.003116017051829193 -0.11887929882762477 0.015686355061222235
0.0031366499745777224 -0.11780232447154387 0.012861154502528283
0.005752258839568176 0.10285757975934634 0.04134593794779867
0.005708592123670742 0.09825180162460567 0.042378586276833496
0.004912994073359819 0.020124308843880057 0.06809201634291062
0.004890926256856575 0.01752752893361348 0.06829311123365012
0.004867848766914871 0.014855315005132153 0.0685551015649738
0.004843443875029548 0.012082235073679226 0.0688951312642182
0.004824564220970009 0.009766832736416597 0.06895540849679033
0.005363705516026618 0.047627191579928896 0.03355515460882269
0.0053200936107181546 0.043270689390139894 0.034876692569131784
0.005284988926193899 0.03960851045721253 0.035755143781298904
0.005064537776598709 0.021165585610399273 0.04669998585600721
0.005040174906961828 0.018411306784046677 0.047056145842769515
0.005018364286710047 0.01586772626455024 0.047282229180716506
0.00499368621194442 0.013103693688753193 0.04767384082699183
0.004966538265892874 0.010152065970814028 0.048210759279607995
0.0049400888299351515 0.007264348499203377 0.04871952088167708
0.00491390579942197 0.004406135986704807 0.049223657612610716
0.004892062597396895 0.001897807394159512 0.049496618641459045
0.004897326759912775 0.0015250201005314046 0.048266147920234315
0.005082166865519303 0.015222323003498295 0.03698418421831523
0.0050673572604236225 0.013247516435096252 0.036842507995690166
0.005053203481463465 0.01132865011008577 0.036669551468657635
0.005042210737903494 0.009660511266771254 0.036323301329711566
0.005038155244398449 0.008535057316767125 0.03558772318121145
0.005039637141235532 0.00784037398900217 0.034538511106604
0.005044845214884221 0.007433609275531883 0.033275924508907595
0.005062014653071016 0.007949022232700498 0.03132592289894953
0.005076689768925637 0.00826666564706885 0.029512754465747748
0.00509085696823425 0.008540526218419331 0.027723264742551657
0.005104402659503429 0.00876213018355082 0.025964319922078816
0.005117855762031537 0.008972288951363872 0.024205563325765733
0.005130762309290019 0.009136349219076356 0.022473496420225947
0.005143143755810229 0.009256210858381575 0.02076717916135229
0.00515625439048673 0.009427592723780576 0.019013357444464363
0.005167169977122354 0.009428045427914866 0.017383659566853393
0.005179467010143604 0.009529689787893925 0.015668238909075816
0.005191653058289856 0.009618988246588356 0.01395468051142118
0.005203493732784572 0.009678305308427004 0.012256973050499553
0.005215295158989255 0.009730861143701475 0.010557069584271883
0.00522682193915998 0.009758985183281721 0.00886906767907325
0.005237897381477728 0.00974956032304003 0.007203723810210061
0.005248326276966774 0.009688197472255189 0.00557304408614534
0.005262724098304492 0.009919823274186945 0.0036987776298237907
0.004236756688882502 -0.09391752800962794 0.0331779332791764
0.004202150984329391 -0.09695419945138206 0.034727313039048524
0.004176732629084238 -0.09935578193403721 0.03566143649489523
0.004160217979389523 -0.10114592292706087 0.03599448373704095
0.004147098024554181 -0.10270129356402108 0.03610032347844322
0.004135635602893543 -0.10414067378848985 0.03609684349129527
0.004126174090527351 -0.10544176270866235 0.03595933789782829
0.004118298242417505 -0.10663339303292763 0.03571546184521024
0.00411145809700195 -0.10775315005530389 0.03540255939834075
0.00410557597234227 -0.10880672153275911 0.035025453909540594
0.0041001338594520344 -0.10982908441422407 0.03461982584784579
0.004095157115083332 -0.11081876537191149 0.03418364403910118
0.004091216973100676 -0.11173811086074237 0.03367646874916719
0.0040880110260441485 -0.1126076243301175 0.03311902931590671
0.004085373481073509 -0.1134385999862681 0.03252262690318458
0.004083989177588247 -0.11418623105110576 0.031838379740115164
0.004081795309015921 -0.11498657820957309 0.031212216109628266
0.0040816237144309375 -0.11565375035423348 0.030442738707803507
0.004080603977497563 -0.11637628898110358 0.02973394772241822
0.004080384848265624 -0.11704631303301694 0.02896817082484876
0.0040835025077775285 -0.1174992975261071 0.027962703930105914
0.004086166298154225 -0.11798272316494207 0.026988743810663518
0.004093152543006454 -0.11818733373422102 0.02570150621365458
0.004097307737785837 -0.11857690913332436 0.024616651978482562
0.004104149032224684 -0.11879488741963606 0.02333513162487494
0.004111961129087524 -0.11895271966872362 0.02198030168710896
0.004121522729473378 -0.11900099096200017 0.020494753965694057
0.0041339921094977845 -0.11886653266244318 0.018792699508013655
0.004151087430840415 -0.11844123480680735 0.016746372193037318
0.004175505197044122 -0.11755589174244946 0.01415470205574243
0.004217921559968727 -0.11553699079629792 0.01022587248643736
0.007209568443163195 0.10415803662859069 0.040596390240701996
0.007154670154970106 0.09952854625933433 0.04163840275082242
0.007100693929666352 0.094975241581358 0.042661042147210615
0.00615319545551393 0.020908963712671313 0.06759900842514693
0.006125537796610874 0.01830587173602477 0.06780128954825676
0.006096715097086175 0.015633710527075517 0.06806045573439767
0.006066477248515299 0.012876607311470889 0.06838747339795614
0.006034570186278436 0.010018560255052045 0.06879362783042364
0.006025415720485084 0.008647703458942113 0.06825367587606912
0.006730763540586525 0.04844037963114739 0.03140207606757173
0.006651048366168951 0.042475349791536665 0.0338175658909492
0.0063442957118841434 0.022035390456790482 0.046108849869155144
0.0063130178956206815 0.01922684248507195 0.046498812969584136
0.006285643974565176 0.016674580689749863 0.0467277702724222
0.006255388169345146 0.013946471947757055 0.047091487664556175
0.006221131911557153 0.01097278685244435 0.0476405109617179
0.00618791478597477 0.008073586005305555 0.0481541460488506
0.006155050495652262 0.005205180727195946 0.04866232525842379
0.006122550607855387 0.0023681630530101305 0.04916437209802643
0.006118726455039034 0.0013408395191072953 0.04839696357311696
0.006357126876534929 0.015499301214037753 0.0367863779946756
0.006337375528059371 0.013446392923613493 0.03669969984228488
0.006318788149195208 0.011471231749212718 0.036566606492007214
0.006306056518442145 0.009865681914034308 0.03617435644065947
0.0063027816068860695 0.008851374352555785 0.035356836625493215
0.006306529842655473 0.008273668094956999 0.03422051526730602
0.006309043291313967 0.007618543060575411 0.03313946165298576
0.006337908728682305 0.008591035817938908 0.03084960275822035
0.006356257521923092 0.008907645505922768 0.029034617116071637
0.006373503969584974 0.009151708000307957 0.027264880884663834
0.006390414277773164 0.009370696079155527 0.025505423931638294
0.006407283007946933 0.009582788579136747 0.023742716870483183
0.006423466546959831 0.00974864700495165 0.022006776538768258
0.006438764041223125 0.009856279993343486 0.020307310089449138
0.00645360070194195 0.009931920010176731 0.018624776100335527
0.006468237760079203 0.009991617330624203 0.016947090777904184
0.006483557068724151 0.010088917470652325 0.015232703743275677
0.0064987557789027905 0.010174982161666901 0.013519335875480043
0.0065138705266290986 0.010252069811068965 0.011805301383964628
0.0065286069634696645 0.010302479382668372 0.01010467362355666
0.006543037858929978 0.010330731522471603 0.008414145620185998
0.0065569225385076054 0.010322506190548808 0.0067454071042270525
0.006566165724631058 0.010032867964945125 0.005295857466499521
0.0065980953086915255 0.011095959779381881 0.0027478673287725797
0.00529559923655608 -0.09461723919789494 0.03238546434370021
0.005233711634336833 -0.09866054892601622 0.034961140320860895
0.005213639036397343 -0.10042139984692089 0.03526090541789284
0.005199579336940675 -0.10185193878066212 0.03523590239666896
0.005181093961767043 -0.10351761481752164 0.03545945178824561
0.005170853791921533 -0.10473479362679405 0.035232365649756625
0.005159191491209847 -0.10602569362073605 0.035087337631455384
0.005150263697820462 -0.10716713113656151 0.03479371425805261
0.005142698121015003 -0.1082334861357932 0.0344268136714177
0.005135770434716269 -0.10926389364113137 0.03402653874695494
0.005129451486834748 -0.11026014985175175 0.03359423193735295
0.005124421937803555 -0.11118638246023138 0.033091319167374234
0.005120110167754856 -0.11207333805851544 0.032549454980382975
0.005116632416820537 -0.11291515715615741 0.03196173412231501
0.0051131474192823035 -0.1137564636885528 0.0313754899371772
0.005111592081209796 -0.1144955035719874 0.030680567485167343
0.005109356445961815 -0.11526979407945204 0.0300249166000901
0.005113183323001263 -0.11572658719510692 0.029023297916035806
0.00511513484308104 -0.1162821589204372 0.028128026341438905
0.0051135663261030655 -0.11702134004970227 0.02743451016950532
0.00511923428905935 -0.11738461614676948 0.026324368545044108
0.005127645489835387 -0.11760735531256294 0.025053951394402085
0.005135359954923502 -0.11786823167489102 0.02382132979369045
0.005144684356398619 -0.11804817267325851 0.022492808670406095
0.005155952505375796 -0.11813064937594325 0.021048202824348494
0.00517035202452012 -0.11805554895070286 0.019417255274809253
0.0051892413862054156 -0.117754635650333 0.01751897650154799
0.005216714227239489 -0.11702090569174056 0.015110957975164097
0.005269502270975873 -0.11500666642305113 0.011204341077748592
0.008674728663016051 0.10546708998399074 0.03984188775452768
0.008608412762447398 0.10081049409626247 0.040895202705731604
0.008543270152974765 0.09623392592743579 0.04192707070728141
0.008479106048715258 0.09172610225390349 0.04294343905003317
0.007398171289323103 0.021693252394591744 0.06710623058691745
0.007365018914078716 0.019090634541996443 0.06730541117092576
0.007330378587623034 0.01641404073502495 0.06756458047181763
0.00729403251308889 0.013652104655804354 0.06789187787184531
0.007255855358740087 0.010798571980996818 0.06829232857843398
0.007218532908927041 0.007999517854149485 0.06867260450805485
0.007629684585391723 0.02291485422662498 0.045511149493445924
0.0075910651035905165 0.0200468657253019 0.04593841333535409
0.0075583441250509495 0.017499717763692857 0.04616074778742013
0.007521973794094415 0.014766589891624493 0.04652479260203052
0.00748097424727624 0.011796941283691131 0.04706787696565512
0.007440947209509458 0.008887298721081738 0.04758564460498327
0.007401325325781505 0.006007528230468628 0.04809867269923013
0.007362164519575927 0.0031604330667991953 0.048604733942104184
0.007342903647954622 0.0013634486835472637 0.04838090524283872
0.007636285451758759 0.015903289640053886 0.0364978664009703
0.007611143393644614 0.013774457486504632 0.0364641250150467
0.0075878351702027185 0.011746420372209743 0.03636791831208197
0.007573892375097532 0.010209624664298422 0.03592466909277736
0.00757126740316745 0.009262218359451901 0.03505695281603216
0.007577745628305952 0.008786056454349489 0.033844471919030006
0.00758085736194933 0.00813480229237562 0.032758513363029595
0.007617955709925243 0.0092328815787035 0.030373407129150765
0.007639267361222163 0.009511832658464059 0.028583925195203808
0.00765982560147711 0.009747585091773314 0.026817975482528233
0.007680314772821374 0.009975398445359884 0.02504944127920039
0.007700257854525538 0.010170937122792989 0.023296815749128008
0.007719645472532068 0.010333898976814582 0.021560672147682924
0.0077376461573646 0.010422183905491322 0.019873623882805114
0.007755180328927011 0.010482940637495997 0.018200217799045737
0.007773209012841595 0.010564979500991556 0.016502937996079492
0.007791437501217605 0.010653250950357906 0.01479319210387009
0.007809774950150379 0.010743110460655125 0.013074489986373616
0.007827567803981906 0.010801641044974386 0.011372674837786312
0.007845512356556563 0.010863975367258027 0.00966028872106428
0.007862737461724872 0.01088642185427141 0.00797199886292943
0.007879185725716728 0.010866342558373543 0.00631037596633105
0.007883901264390205 0.01025746496223262 0.00511523486090637
0.006333011486644268 -0.09628088857586697 0.03256414964365717
0.006291049552143736 -0.09885477770027645 0.03367470330428518
0.006261731807960674 -0.10084989093368457 0.03421607970202489
0.006230952760958414 -0.10290441659687788 0.03483214767037729
0.0062220349158300155 -0.10397190037891485 0.03444788690284484
