# .PCD v0.7 - Point Cloud Data file format
VERSION 0.7
FIELDS x y z
SIZE 4 4 4
TYPE F F F
COUNT 1 1 1
WIDTH 777
HEIGHT 1
VIEWPOINT 0 0 0 1 0 0 0
POINTS 777
DATA ascii
0.054229354035846326 0.03326115876406316 0.027342393669280263
0.053999510295704885 0.03065020765304738 0.02757976287599423
0.05380503919906746 0.028316887008719593 0.027632595690698314
0.05363106444515434 0.026146037156207336 0.027580407987918665
0.053457253951045405 0.023981892981687014 0.027533818425152956
0.053318030657015854 0.02208599086690094 0.02730294824729479
0.05319753445251833 0.020336448236550564 0.026973636066491835
0.05309504434358967 0.01872692881922905 0.026548835981269447
0.05299451612224791 0.017135437097943962 0.0261169344303972
0.05290764699329933 0.01565002214446759 0.02561242797287827
0.05285238717900009 0.01440501949496098 0.02493386450584617
0.052820906439302914 0.01334018517711566 0.02412353998761113
0.05280595843869792 0.012400138663536286 0.02322103851786045
0.05281452136286496 0.011636247120814514 0.022185900184857388
0.052858625442259506 0.011137112496493018 0.020948428028338795
0.05292671812268679 0.010815098515708 0.019572509783428838
0.05303907850292022 0.010819659453175035 0.017940777841067235
0.05324940289894448 0.011546593646720726 0.015742534404707742
0.0534484813678499 0.012183778956840752 0.013601193228247155
0.053888397450917856 0.014591735444525245 0.010061006930106364
0.047202913374943964 -0.04435737341670687 0.03722024761411247
0.04679097666386676 -0.04804645641117855 0.038825967921431226
0.04662109679745313 -0.04999353707135479 0.03898079270669541
0.046460879685275853 -0.05186641855529989 0.0390832517186136
0.04630463247465666 -0.05370604261414169 0.03916750121843171
0.0461527618962636 -0.05550970969384755 0.0392308320665013
0.04599739562744071 -0.0573333663619543 0.03932127484212394
0.045845418394919825 -0.05912820818720238 0.03939667724456841
0.045694325573058414 -0.06091205027040092 0.03947230216470321
0.04553936252341786 -0.06271837624651089 0.039577523680311366
0.04538268740450708 -0.06453185838229958 0.03969916283335373
0.04522708664977359 -0.06633290497468752 0.039819967873413464
0.04509081548766401 -0.06799402589875436 0.039825884504027464
0.04497714785357386 -0.06949330817594945 0.03969532412750382
0.04489519778573182 -0.07076842521958387 0.03936976693317096
0.0448459688423315 -0.07181390462299975 0.038841112154603785
0.04482442305109139 -0.07266616736223974 0.03813936164960935
0.04481298526819475 -0.07344792699815772 0.03737435290582691
0.04482274065874622 -0.07408325487441647 0.036475055766931774
0.04485820978908043 -0.0745420608194059 0.03541146257252731
0.04492142985361167 -0.0748115768275271 0.03416910632878145
0.04502089403303205 -0.07483496865962097 0.032691968016964945
0.04511148212234517 -0.07492210071666527 0.03126819774039491
0.04512864299762835 -0.07551241155433736 0.03031464686137747
0.045128642998014175 -0.07621992687849416 0.029471462749538935
0.04511943587291984 -0.07698989152764635 0.028688008519335284
0.04510580259094874 -0.0777895194594923 0.027933695085772814
0.04511318626306952 -0.07844682686167598 0.027042761319290176
0.045134555727510337 -0.07901016191053556 0.02606003692268971
0.045164370365219086 -0.0795174153955771 0.025021096004578747
0.045204830961080314 -0.0799542297366328 0.023910982327878083
0.04524742125386463 -0.08037806794133556 0.022785301873259334
0.04539418782951462 -0.08010807610192122 0.020968576469233946
0.045512866568678555 -0.08002967521020465 0.019332780772432667
0.04564821460229481 -0.07984428447669079 0.01758160762912009
0.04584365849948407 -0.07926494609726636 0.015424285342231614
0.046166916542164115 -0.07784685101299116 0.012404215212908798
0.05625485398701492 0.04197169277179191 0.027726280030788364
0.056150195963351954 0.04032167406930037 0.027248494696562153
0.056021801045658993 0.03849625800755152 0.026899306811046075
0.05580220776901961 0.03598997421267103 0.027035875918754892
0.055615832154277414 0.033739331075409384 0.027004625653480885
0.05540174542616269 0.03128716140865162 0.027127361646987702
0.05517950923585361 0.02878072552262373 0.02730134167387399
0.0550076494993217 0.02665627898342665 0.027214016295876164
0.054848658242491355 0.024632736063202265 0.027063905004042488
0.05472254973581341 0.022857952885901867 0.026742537687566237
0.05460091865986537 0.021120170583595 0.026401580398047186
0.05450620417372547 0.019584929237247972 0.025919146910275248
0.05438488714094643 0.017856495841877484 0.025584864341303415
0.05432756714417665 0.016602527652766152 0.024905748911578263
0.05428401403423988 0.015451370260229469 0.024153341725252686
0.05426202297406432 0.014459492932932971 0.023284063709882674
0.05426186252134083 0.013627868820429101 0.022295254719573276
0.054293490130501505 0.013028131451907676 0.021130651828425273
0.05435363597693631 0.01263501924440058 0.01980665865411385
0.0544460434778308 0.012474415052802779 0.0183008757142048
0.054638961766353404 0.013039555579038242 0.016230360333066685
0.054816708220410564 0.013489047102750507 0.014237820367665854
0.05515678679987506 0.015104827138673282 0.01132623574061109
0.04804730628923267 -0.04724217232240585 0.038147516574175366
0.047795514343655504 -0.049733312833391996 0.038760118944573874
0.04762890803211508 -0.05162403128246024 0.03887661645059931
0.04746873870834047 -0.05346496054785649 0.038960892227157484
0.04731330244457886 -0.05526819981418807 0.03902276328691151
0.047156093489790996 -0.05707893419816851 0.039100916346236525
0.04700040732086817 -0.058874354381074856 0.039175660420182945
0.0468451478204351 -0.06066207310070626 0.0392535139116324
0.04668532769181914 -0.062476353199662715 0.039364582065951614
0.0465274201451204 -0.06427263867746819 0.03946989126963801
0.046367062158389274 -0.06608084072305948 0.039595853333100506
0.04624262235559369 -0.0676391658445713 0.03950871548988949
0.04612974666352612 -0.06911498964406765 0.03935541375825763
0.04604259142882295 -0.07041272752464656 0.03904850494691969
0.04599735000045964 -0.07142386231042075 0.038486984479317254
0.0459800617404789 -0.07224467785249034 0.03775467849423225
0.045980292165529034 -0.07294682417631654 0.03691461540377372
0.046013728204765666 -0.07342555839866005 0.035868495798484334
0.046087458936044025 -0.07363481576529601 0.03457038417171504
0.046195591595564404 -0.07361591457687444 0.033054856548286715
0.04625008156523767 -0.07395878734668404 0.03187118426049118
0.046223519121732115 -0.07484371553652036 0.031194385558038884
0.04619501013215289 -0.0757407787768441 0.030530812070143243
0.04617222824804837 -0.07659896129144561 0.02983211385268819
0.04615631751400613 -0.07741095105618073 0.029090732420889165
0.04615666580721045 -0.07811504799156738 0.028246668153064147
0.04615852345803936 -0.07880920799336899 0.02739297752076103
0.04618838247215965 -0.07931930720672692 0.026360357319969108
0.04622223837456876 -0.07980410076251576 0.02530104444702652
0.046276907965718136 -0.08015371123647114 0.024106787581342326
0.04637327244183029 -0.08023275264015384 0.02264192433455775
0.04656543788625967 -0.07969068730505635 0.02055461728073721
0.04669863409256362 -0.07953773251720825 0.01884235063125228
0.04686752143143763 -0.07915745185732814 0.01689333829669265
0.04707624968514329 -0.07852464249226881 0.014678590336064834
0.04742727099707302 -0.07698002283378191 0.011526553236189396
0.05745915001931053 0.04011580639417989 0.027391534429159425
0.05735845521951186 0.03851684877749617 0.026884921042928
0.05719065812526659 0.036428756146227204 0.026727629730204316
0.05699166486665237 0.03411734579984149 0.026737606254020274
0.056794910050553975 0.0318282351641363 0.026743059914231204
0.0565841668567743 0.02944303988152197 0.02682834453109939
0.05638970307473102 0.027182569188980488 0.026836100671104368
0.05624654034124361 0.02530033311032115 0.026581895098360675
0.0561322641401735 0.02363164757401859 0.026180869286072106
0.056030814472999534 0.022059109498260676 0.02571622884403907
0.055893955447186006 0.02023413767141785 0.02544269090022122
0.05581806374080227 0.01885220518703218 0.02485012925287239
0.05576554207855694 0.01764045008016829 0.02413569767270518
0.05573692050525252 0.016601624633817202 0.02329531230351084
0.055723860307615405 0.015674994583791846 0.02237244240096864
0.055744858806727006 0.014991931578449746 0.021266667782832593
0.05579949589510775 0.01454791497728991 0.01997843750179895
0.05587168136451528 0.01422703438659828 0.01859315578739479
0.05600208695948859 0.014317072143734288 0.016888736750756417
0.05623829018434226 0.015152272343286866 0.01460252392175182
0.056503161619641314 0.016182956920525127 0.012150993574083058
0.0490019132608304 -0.049267365068992264 0.03836498877942418
0.04880207003049029 -0.051358028977447845 0.03864984935616944
0.04863442470158718 -0.05322437899681087 0.03875471218089088
0.04847668157264859 -0.055018716518170474 0.03880782514440739
0.04831610611077467 -0.05682745980585113 0.03888311951575435
0.04815659092575841 -0.05862425999447507 0.03895791671971949
0.04799579574561632 -0.06042489445955329 0.03904592735232004
0.04783290417782464 -0.062234780868713147 0.039152037009573926
0.04767220321963478 -0.06402513889531342 0.039250985603840605
0.047526881643944696 -0.06570801165561785 0.03926436477601514
0.04740707346645925 -0.0672165803651032 0.039131014426239286
0.04730858722118835 -0.06857984828772207 0.038874601742177994
0.047235079727899656 -0.0697745207765838 0.0384720840973054
0.04719497315062014 -0.07074599085885841 0.03787153063355969
0.047162747458954116 -0.07166423400939681 0.03722492161080915
0.047198411577041806 -0.07213433506932748 0.03616919610814867
0.04726764222376182 -0.07238490713553275 0.034908756130423546
0.047396429164933945 -0.0722470423695783 0.033283823034707616
0.04737981447360312 -0.07306424316560306 0.03254074836382337
0.04733170959775355 -0.07408648479296476 0.031990807891014716
0.04728501138482849 -0.07509812791261161 0.031433955495404065
0.04724826569938008 -0.07604371193971587 0.030817559045805687
0.04722605574561162 -0.07689397400047476 0.030112818335761182
0.04721964606124505 -0.07764138788808866 0.029311134558161034
0.04722320678281338 -0.07832427816349802 0.028447828426978128
0.04725076117174429 -0.07885281939058658 0.02743512490796912
0.04728727269605484 -0.07932465814347106 0.026365555508227556
0.04734769392703108 -0.07964438829595344 0.025145085122241062
0.04743651969565121 -0.07978434889207697 0.023744232218951056
0.04755142147927231 -0.07976066402193022 0.022176130962631435
0.047796761521620705 -0.0789104876809526 0.019780828416049445
0.047984762909584054 -0.07843161219048378 0.01773963123787381
0.048194145447869985 -0.0778229568838038 0.01555605183320502
0.048443556783347955 -0.07696766932636656 0.01311027821829136
0.048822107859387495 -0.0753058955026979 0.009831502316156315
0.05879576896688792 0.04011839468132883 0.027389736051140867
0.05868395198638178 0.03845636911487832 0.02692717523762872
0.05856667089016514 0.036758446143722756 0.0264960210942069
0.0583705273748662 0.03449985004790579 0.026467415576229225
0.05818326442804738 0.0323103774220993 0.026400614723918248
0.057983204808775925 0.030035215963677753 0.026405437204516435
0.05779076981263149 0.027820104241070842 0.02637830294851312
0.05764606967512603 0.02594927118899909 0.026113357103103196
0.05755304865738671 0.024448549800207164 0.02558783410745763
0.05744126971207308 0.022818015727223362 0.025162286989843796
0.05731522456478784 0.02109016086913168 0.024814452917118035
0.057258207022446266 0.019851673219495047 0.02411262062468783
0.05721952028585452 0.01874356090196777 0.023317282122068017
0.05720028161344174 0.017772849030633253 0.022421640344502725
0.05720589864992723 0.016976496945923736 0.02139632090735899
0.05725769540483084 0.01650220689680798 0.02012782761275178
0.05733060800352033 0.016173434069820525 0.01874606041957777
0.05743526316762987 0.016063092145020774 0.017193633072911163
0.057681873857599895 0.016933987755355928 0.01488323691173904
0.0578873503128599 0.01751306117165019 0.012783549377096248
0.05840883456462312 0.020268042013297294 0.008986498248584496
0.04998504361212746 -0.05103895255855889 0.038377836553839806
0.049801813873194586 -0.05298344593318455 0.038548230885921575
0.04964260230078176 -0.05476376720672593 0.03858817784813817
0.04947752805053246 -0.0565781176273914 0.038667169352106956
0.04931228303270947 -0.058388769172322885 0.03875288755557976
0.04914637905012804 -0.060198921133610306 0.03884814805397829
0.048981837248328754 -0.0619952980437517 0.038941330384635375
0.048829925597250544 -0.06370427394132117 0.03896719078279792
0.048701274346280465 -0.0652570422989805 0.03886340038140057
0.04858987337996603 -0.06669374943035056 0.038663715359518236
0.04851091007044608 -0.06791650079754308 0.038278599507754696
0.04845637454739528 -0.06897862964209961 0.03775324455928353
0.04842146781605449 -0.0699122385115647 0.03711454922156987
0.048442576715219524 -0.07048342931025686 0.03614723007390874
0.04854545556545215 -0.0705288731106738 0.034696262733315775
0.048560661361414535 -0.07114040477561051 0.033761014976270376
0.0485106652450291 -0.07217018881534076 0.03321257451789067
0.04845173369356435 -0.07325563903085824 0.03271911211222456
0.04838795104814206 -0.0743703110514159 0.032256688912622566
0.04834608988284331 -0.07534360932605833 0.031665115503212216
0.048315348650314054 -0.07624507876571113 0.031008166530986536
0.04829811180072335 -0.07706010154093812 0.030270888628812
0.048310006340017544 -0.0776905027776128 0.029358110671021842
0.0483386743883351 -0.07821548366616332 0.02834323007635664
0.04838234913834975 -0.07864689438724448 0.027236112690855574
0.048440013386926745 -0.07899177703765176 0.02604217686660476
0.048557840216621184 -0.07896161702722754 0.024478358545754197
0.04868043252914474 -0.078905128640673 0.02288121512555369
0.048924495164200436 -0.07809514544504115 0.020532821880420882
0.04909090765789965 -0.07777512154024363 0.018654791373884372
0.049313548000338804 -0.07711115662633367 0.01642323561300113
0.049612111184991696 -0.07598382699483164 0.01371307486145773
0.049907184650312825 -0.07488676679052436 0.01101422111574285
0.05999679931787228 0.038309745834591624 0.02702961378250024
0.05990813475705643 0.036831354543596484 0.02644480263087534
0.05977917226942082 0.03507365230166809 0.02606209714997232
0.05957268353516654 0.03277852265208414 0.026068111028735852
0.059374608522851764 0.03054789729897911 0.026039301692741046
0.05920350672308992 0.02851042556501432 0.025882600745283202
0.05907045705071618 0.026741804567251837 0.02554114226100651
0.05897530694501447 0.025239347562279302 0.025013749624585746
0.05883729264320773 0.0234434900603403 0.024705739924323067
0.05876800045690156 0.022125346831226356 0.024054726845792074
0.058717628854477115 0.02093935172703265 0.023310021383946555
0.05869343909250782 0.01993454573784048 0.022433671435825975
0.05868940940351389 0.019068550786583094 0.021455114805512654
0.05872183780670168 0.01845193057104888 0.02028975167184871
0.05878926317608915 0.018073154098244948 0.018943237123636658
0.058886987976937165 0.017898739378402972 0.017438031044898772
0.05910455176086713 0.01853572221284594 0.015308887384186343
0.059309233727326785 0.019079154191749825 0.013239266841115593
0.05967013478929797 0.020673632714757362 0.010348346738722036
0.0513185506693879 -0.049756483839082655 0.03728453134658105
0.05097461018917995 -0.052718183920384076 0.0383208995139428
0.050809417768418776 -0.05451436404467541 0.038373308743707146
0.05064059648775469 -0.05632923542617102 0.03845161756534371
0.050471986368696035 -0.05813792463377826 0.038534490738256655
0.05030217866280396 -0.05994948859968363 0.0386298364840717
0.05013875151988235 -0.06171531252750678 0.038694987862288976
0.050004473417844454 -0.06329008657197382 0.03860085526095425
0.04988938840406929 -0.06473857669959016 0.03840242394890386
0.049798029037507546 -0.0660327533653094 0.038072926208057356
0.04973831505836876 -0.06712333327053449 0.037565957000821326
0.04969356066967813 -0.06811740930191307 0.03697540044888786
0.04970863741794683 -0.06873191541645562 0.036042908888514136
0.04976916198851415 -0.06906015074370525 0.0348482385751947
0.04975417441756856 -0.06986539476831788 0.03408755357725807
0.04966770023564661 -0.07111913208819337 0.03374139625991085
0.0495919062620003 -0.07230348199376724 0.03333614643800448
0.049516467969865086 -0.07348344314502164 0.032931405077118114
0.04945829782411483 -0.07455354866483604 0.03242834112027604
0.049425971064876034 -0.07546117772269972 0.03177582495002551
0.04941156198594358 -0.07625664354451306 0.031019113385778674
0.04941814440253683 -0.07692167445085785 0.030139175304012722
0.04944312385135189 -0.07747320326664142 0.029150273771643864
0.049491912710330606 -0.07787864820188539 0.028019386179308492
0.04958290155629187 -0.07802590469142684 0.026635969268912707
0.04969871086913186 -0.07802343846338017 0.02510148060206846
0.04989673190542877 -0.07752092529699778 0.023071522158421287
0.049981464790942114 -0.07771607722387464 0.021714076748125755
0.05005960223446845 -0.07795384313534165 0.02039340382043131
0.05018687378302353 -0.07789511481347283 0.01877379868405693
0.050332311785248204 -0.0777298331610961 0.017040009933685596
0.05117322561952512 -0.07336020748975236 0.011083967282117246
0.0613615192939373 0.038525857872126534 0.02687862682728409
0.06122935190464068 0.03676228279677729 0.026493325828995606
0.061126927358448574 0.03520590086044695 0.025968680337180916
0.06097948150858655 0.03334497644849438 0.025665782929691572
0.060775718549378584 0.031104427102954357 0.025641851443304997
0.06062867982940665 0.029255299568214765 0.025347725649138286
0.06051458464449602 0.027633838435765445 0.024897087343923152
0.060398921369268194 0.026004946698168607 0.024457958238855826
0.06029581683549418 0.024464160925857847 0.023960730474946568
0.06023329251013251 0.023199935539564565 0.023266082981239333
0.060199734727912804 0.022132407397795928 0.022429664211417233
0.06018729538010421 0.021207652729942794 0.021489133009249928
0.06020424300829175 0.020480203867439872 0.020402095660808472
0.0602647191645549 0.02004341115241942 0.0190961476897602
0.06034451655226955 0.019733883580127842 0.01769094529140197
0.060507661508489165 0.019977246134711857 0.01586222421279987
0.06074247172351 0.02069236030489796 0.013665004460078012
0.06104708836247625 0.021863893358601172 0.011105153717244243
0.05221988780122986 -0.05200500251892376 0.03770969814080971
0.05198688135785947 -0.0542084557898716 0.03810975862586846
0.05180557327017486 -0.056079130692003654 0.03823500696778631
0.051633085346642744 -0.05788919803527809 0.038317937897157595
0.05146530026575303 -0.05966489676981723 0.0383807523402247
0.051321264103515674 -0.0612870233684899 0.03831816182806819
0.05119602261882223 -0.0627875625310278 0.03815638876969207
0.05110177727053668 -0.06409115167174273 0.03782678753252999
0.05102730413291239 -0.06526898293616973 0.03739027874976386
0.05098303474250727 -0.06625707250582402 0.03678764192613643
0.050990666376606056 -0.06692218132946404 0.035895884562455904
0.0510131865395993 -0.06749541488647481 0.03492026387270186
0.05096571036403357 -0.06850124116980594 0.03433813549199849
0.05085712005543494 -0.0698820358714708 0.03410282098119488
0.05075386150288908 -0.0712270412960439 0.03384091542737139
0.050670815103472766 -0.07244527443587895 0.03346759775859126
0.05060052185481532 -0.07358319688806009 0.033024366602183775
0.05055724392962086 -0.07455432463253875 0.03242906802654133
0.050538428421052786 -0.07537533070582014 0.031694986255097146
0.050542876770625036 -0.07605451993487433 0.030827789553074247
0.05057098301161507 -0.07659047994168572 0.029824043851541637
0.0506297125948262 -0.07694209309787986 0.02864229153914788
0.05071940710797817 -0.07710858287890965 0.0272790218720384
0.050921289704259076 -0.07660248559965943 0.025260333553303427
0.05097075132467211 -0.07701709643769106 0.024123865737222527
0.050998688528322386 -0.07756201160396248 0.023111642963202894
0.05104661515014689 -0.0779882588359963 0.021981242322843153
0.051088787232018346 -0.07845015188553445 0.020883094351710596
0.051169432151953013 -0.07868440057366022 0.019556599025688903
0.051274782771887184 -0.07877430745226754 0.018081272831521167
0.05144501281868952 -0.07848309170667495 0.016217567522822773
0.06258959920328055 0.0369580451330615 0.026355801948893476
0.06248618145206076 0.03540952362773092 0.025824846709751825
0.06235772024800864 0.0336964726757874 0.025416130072134113
0.06223261504441505 0.0320093167682271 0.024995617188453167
0.06208341260489564 0.03016520704270298 0.024694344210386576
0.061961274093946916 0.028504928451020484 0.024268154040659573
0.06184576131475174 0.02689190607068559 0.02381406464542235
0.061763170529439644 0.025499800234480174 0.023204795239469722
0.06171936064530996 0.024365932809628066 0.022410354100053875
0.061697849747746836 0.02338014664153698 0.021508955966536236
0.06170656356364961 0.022593625021274932 0.020460858013154726
0.0617496125266866 0.022032090765304713 0.019244469445112822
0.0618295605925755 0.02171091866127589 0.017845523820369635
0.061969127433055216 0.02177700587329129 0.01615030583874144
0.06220584515347415 0.022472562958125497 0.01397041544833405
0.0624576732361708 0.023259936885666466 0.011707886428535763
0.053205110733009264 -0.0536632098271157 0.03764001112648324
0.05298832794255506 -0.055729860226466754 0.037932510957461085
0.05280288721780415 -0.057597419511759396 0.038063902065764155
0.05264585493395052 -0.0592852134600636 0.038048441000902766
0.052512304274896004 -0.060824636906394114 0.03791133561470128
0.05240549589278962 -0.062196691620951594 0.03763378228961983
0.05233217511405437 -0.06336127228970406 0.037177839571313764
0.05227515645504899 -0.06442449204592232 0.036635484458462486
0.05228221043604994 -0.06509652941033861 0.03574492104711835
0.05231697575284001 -0.06560062734965932 0.03470227250780045
0.05223659288139858 -0.06680273744526799 0.03429136735540844
0.0520862085620364 -0.06842545235505282 0.03426896489646253
0.05196034290987143 -0.06989629826657118 0.03411590603601983
0.0518577301497931 -0.07122389172048033 0.03383801073421139
0.051765959461781655 -0.07248363797890817 0.03350316339466092
0.05171902344971802 -0.07347252867737525 0.03292123377399925
0.051693635297087294 -0.0743314615730622 0.03222029573656493
0.0517014443817595 -0.07499191530798166 0.03133393934277212
0.05172710080751185 -0.07554649464239521 0.030346908837349973
0.05179951871210853 -0.07582445612376565 0.02909517247329335
0.051969811055123556 -0.07552529122232038 0.027287186285883114
0.052047131643122635 -0.07577961157833907 0.026001308297653958
0.05203196554134705 -0.07658074586990044 0.025239323614012044
0.052028274263481326 -0.07731404145349946 0.024412334124794266
0.052043570113262 -0.0779359310076781 0.023476775497831337
0.05205227693948044 -0.07859677456131331 0.022578543706325893
0.05209387240971633 -0.07906595826391888 0.021490689024339538
0.0521551319581174 -0.0794218130735988 0.020287952340283855
0.05227648725843649 -0.07943034177572389 0.018735290078758127
0.05241619732424029 -0.07933584692511864 0.017072106530400644
0.052736034190074076 -0.07820402714111718 0.014355640042914508
0.06387126057073642 0.035773993724188935 0.025567394869949023
0.06376735868667875 0.034238786826105705 0.025030947339552745
0.06363983858873094 0.03255213346166841 0.02460796026753842
0.06351359689781276 0.030877226447706352 0.024183061166446362
0.06339954434383085 0.029284970340632765 0.023704958143879407
0.06331608933004698 0.02789434458532425 0.023086338260892292
0.06325135281396331 0.026627184946260596 0.022381893076064585
0.06322027292140286 0.02557928663526282 0.021519870101205374
0.06322408476173988 0.024757263669872576 0.02049277970333485
0.06325707637130909 0.02412295005807441 0.019326227323870293
0.06332851708208403 0.023734710136367965 0.017974404711654568
0.06344749630739173 0.023649258521560246 0.016391776785716017
0.0636643740985727 0.024186797541828953 0.014333175200176795
0.06388974585553846 0.024772743185997093 0.012226548267177673
0.06445605801359208 0.027524238910669963 0.00845745080469218
0.05421450564374876 -0.05513251989938178 0.03741516671115669
0.05400634259571346 -0.05711471243820271 0.037643635038322576
0.05384825892567969 -0.05878979060516054 0.037614830599248916
0.05372300724713165 -0.06026338572038992 0.03741752423943978
0.053642481916073896 -0.06146551675957446 0.036987081438206615
0.053589845257277564 -0.06249868755166804 0.0364109010594173
0.053576154743219306 -0.06329803127812222 0.03562866938593834
0.05361930357027027 -0.06375857169214971 0.03454279727125337
0.05356206082517175 -0.06481668164492171 0.033994221941823166
0.05337516496177165 -0.06664177535031213 0.034145226460798594
0.053203872313451445 -0.06836958458912168 0.03421797575441954
0.053076760658965445 -0.06983210725547578 0.034057013900895106
0.05297714044717407 -0.07112937485558035 0.03375084264269085
0.05291458351082282 -0.07220626766581484 0.03324602208723526
0.05288122684500705 -0.07311035603210303 0.032583721411895694
0.05287656026789128 -0.07384579615523967 0.03176533706517576
0.0529105784904779 -0.07435543404333278 0.030734590446901744
0.05301664876623448 -0.07444661461946273 0.029305797104393405
0.053196179874369795 -0.0741140517912719 0.027467723386172815
0.05316462366943297 -0.07500924656832286 0.026793613519207393
0.053118704891294256 -0.07598661442862786 0.02620032715655385
0.05309826224609946 -0.07681583700182831 0.02546652286922324
0.05307702932624711 -0.07764905882685735 0.024737788051804932
0.05307864135765656 -0.07835058184004118 0.023881682298339757
0.053092078758391816 -0.07898442870720673 0.022959053770440274
0.053130278101181164 -0.07947716498897994 0.02189641235600065
0.053208866851584075 -0.07974071156781792 0.02060423050316551
0.05330543177852885 -0.07990414253636591 0.019207634067684387
0.05347615279518247 -0.07964946873119222 0.017386384369011854
0.05377921558725089 -0.07865035831739448 0.01480522171048948
0.06520548643654406 0.03494158073106418 0.024531782645814626
0.06508159729542244 0.03329370995815012 0.024078357429743846
0.06497493554599254 0.03175906428559977 0.02354983582054776
0.06488199121460721 0.030314605122145344 0.022961554370502235
0.0648173629779417 0.029052603369567942 0.02224549319648289
0.0647734343963891 0.027923623245361184 0.021435595091088055
0.06475501781244868 0.02695731822422448 0.020508528599697262
0.06478186249777394 0.026277462606318247 0.019371023133069265
0.06484308097944452 0.025813629605157373 0.01807188514434227
0.06494930991490751 0.02563139109654694 0.01655958021295245
0.06510673344782437 0.025767804525191118 0.014802875874343369
0.065357969765082 0.026487885785542953 0.012598013607460767
0.0657598850814021 0.028143500733464888 0.009671029620665572
0.05559851859670375 -0.05362445345004513 0.03610906118766655
0.05526054700683052 -0.056351706787931555 0.03697932715031543
0.05508182843368874 -0.058130764204944785 0.03703802898569808
0.05497503815459652 -0.059481818577585055 0.03672987002102229
0.054901446137280034 -0.06063512745819477 0.03625262857805872
0.054878928632362475 -0.06148726060324766 0.035511624449817536
0.05491764201226229 -0.06198085518396251 0.03445139558939203
0.0549605015064414 -0.0624512822019202 0.03336822818227608
0.05477979030921334 -0.06422393322842362 0.03345885852411812
0.05452794862523084 -0.06640486335761675 0.033930129045684876
0.05434923825834556 -0.06815550732153225 0.03402259267397284
0.054212848980612086 -0.06965683488045121 0.03389621000923737
0.054136079616811966 -0.0708107464403146 0.03345698788045004
0.05407960136880794 -0.07184588790562257 0.032911925328025005
0.05406744594205471 -0.07262509359980707 0.03213150042860974
0.0541192468887841 -0.07303765062134293 0.031008287448509253
0.05432951511410459 -0.0725459755171054 0.029030695878353996
0.05439024751191751 -0.07291240615288086 0.027853563767978262
0.05430099017056392 -0.07413363970015929 0.027486361274204174
0.054248565963870725 -0.0751434911120904 0.02692201219626994
0.05419267595886979 -0.0761715912106794 0.02637816948111854
0.05416073176604098 -0.07706295272043828 0.02570534305252309
0.05413320499957392 -0.0779285796078465 0.025009329598866037
0.054147718115460174 -0.0785570998380336 0.024083347254220677
0.054178001632098155 -0.07909753292770033 0.023070073592226126
0.05422040057921448 -0.07957095501152062 0.02198895169960241
0.05431573121141257 -0.0797499450121622 0.020613388077965034
0.054426752172960655 -0.07984403488142294 0.01914771122276898
0.05465113780216989 -0.07931103928719963 0.017047246999987775
0.0548918739517267 -0.07869328093243244 0.014848456917598174
0.06657980960031139 0.034359525021896764 0.023317197003270618
0.06646596429340035 0.03279137100854318 0.022808562591366766
0.06639223392348194 0.03147658900438821 0.022122593587345862
0.06633377014003464 0.030258818541857357 0.021369833898204793
0.06631383538190261 0.029282104371239792 0.020444010722638406
0.06631685503024291 0.028448326015252157 0.01941427352585351
0.06637024752309262 0.027926366561665417 0.018154294979073615
0.06645706757272811 0.027609579965288122 0.016739440865982558
0.06660782416719004 0.027684796903969633 0.015027847199802657
0.06685119903914943 0.028326035738118593 0.012884212839056053
0.06716649923076286 0.02940266270960329 0.010400093130581822
0.056622454162025486 -0.054995274454525345 0.035798354639417884
0.05637987257892861 -0.05712541124348264 0.036158110957877576
0.05626501069442843 -0.05851268500422496 0.03587718731030931
0.056225621370380036 -0.059462686262488185 0.03521564172368663
0.05623604258862792 -0.060125672176514544 0.03430101341559988
0.056314325029143644 -0.060400152312795496 0.033038585200104165
0.056363144192988705 -0.06084506014982288 0.03192507516488591
0.05600263925656 -0.06362569721527217 0.03291853877347717
0.05570745090441557 -0.06602538862628032 0.03358559590119192
0.05552197544719933 -0.06779459209806232 0.03369319418652156
0.055398635136194314 -0.06920705138230115 0.03348355549425286
0.05533829167384885 -0.07026029267532324 0.03294933240314052
0.05531279053023579 -0.07111550792539828 0.03223481298338404
0.05535848507241214 -0.07156951298827346 0.03114779414863489
0.055504200913698 -0.07146324828866413 0.02953342848754198
0.0555781952611249 -0.07176239886152536 0.02829283314863046
0.055487988054636124 -0.0729809345764233 0.02791843061190985
0.05539652791974399 -0.07420413560803307 0.027553438104363726
0.05532049444432212 -0.07533918463876327 0.027109183974200812
0.05526675190599882 -0.0763485869477376 0.02654833858541017
0.05523838330681609 -0.07721613437725683 0.02585338248751068
0.05522455893662033 -0.07800262084128817 0.02508125724232757
0.05523349511312478 -0.07866333203417919 0.024187083061061265
0.05527234521651244 -0.07915981970920627 0.02313121249006944
0.0553628341953217 -0.07937408288457448 0.021794704839354806
0.05547248896617839 -0.07948580056676269 0.020351414059771866
0.055632545517588054 -0.07932519523490406 0.018630466826796033
0.05579523838634236 -0.07915434748061095 0.016890227426255622
0.05595071627866218 -0.07902688372130334 0.015184489231941989
0.06793521650169082 0.03279339801050157 0.021171847942833333
0.06789836874201952 0.031712092354972854 0.02031482086517905
0.0678795462796075 0.03074158981264069 0.019378701148508704
0.0679114057952029 0.03007985798697327 0.018216887335829934
0.06799512761702876 0.029732145548560907 0.016821808556123086
0.0681167249946009 0.029611763308595718 0.015253989041009386
0.06839543194185879 0.030438066076347525 0.012974052830382776
0.057819044925842715 -0.05535970544942076 0.03461270708522929
0.05768089793998425 -0.05686958063028802 0.03443151797218552
0.057632411650459736 -0.05787012330821306 0.03380707056942256
0.05768702046877245 -0.0582890983371136 0.03266808490983325
0.05781754466500694 -0.05828306206810019 0.031146359186395856
0.05793464881090226 -0.05835552215189638 0.029688283390719994
0.05728584947737171 -0.06271341664077218 0.03209457765831175
0.05693411858215972 -0.06539766850111117 0.03301567550669188
0.05674505191107816 -0.0671676316658884 0.03312098275120351
0.0566424922119682 -0.06845240368749084 0.0327912028851266
0.0566022046937025 -0.06938954041511641 0.03214628193389618
0.05667159240980991 -0.06971933364759914 0.03094046365239911
0.0568778761999365 -0.06929578586329616 0.02902888477558413
0.056896320750417895 -0.06991115242110219 0.028079465640155177
0.05672078490228605 -0.07159204947121572 0.028132421955615106
0.056585099849515756 -0.07305021987871191 0.027984013893386117
0.05648726944957663 -0.07429808011277156 0.02764282626573128
0.05641147616969307 -0.07542331090229082 0.02718964684174091
0.05634557304218828 -0.07649282704659405 0.02668701541928936
0.056334604155719246 -0.07726252278335677 0.025898213660979108
0.05632677185127656 -0.07801495755315102 0.025093241788925635
0.05633688305438698 -0.07867025764599511 0.024193845925387314
0.05638449717702437 -0.07912368110601625 0.0230957398855261
0.056509187298466115 -0.07916385556231442 0.021587280873754888
0.05663212709493732 -0.07921656282649975 0.02008438859739936
0.0567499656268216 -0.07929967075461009 0.018605020825356533
0.05685422079688578 -0.07945827525738258 0.01719479095764248
0.05693761015468127 -0.07973065442188426 0.01589338527589873
0.05704080426772836 -0.07989989052953489 0.014482914041108685
0.059454294374253015 -0.05330703668626591 0.03129704847208242
0.05932249481882568 -0.054771259503787306 0.03106622434152939
0.05931908728556365 -0.05552337545211067 0.03020903445344364
0.059453516456742225 -0.05551611875303414 0.028673303475925893
0.05966586339629078 -0.05508393019692259 0.02674883439279041
0.059920161947448494 -0.05442693356843753 0.024610323335761464
0.058243939327388486 -0.06433911742551679 0.03205459456884768
0.058038610252083726 -0.06618001303822363 0.032219607411577256
0.0579604319635949 -0.06732326725651311 0.03175527504830539
0.057963241544719324 -0.06802446495084596 0.030887342345412128
0.058138861763619445 -0.06778873915106043 0.029150670118215816
0.058298490558467475 -0.06764386423114854 0.027489442249059415
0.05807480939386481 -0.06957179626729221 0.02776156566375304
0.057874501832968925 -0.07136833157937139 0.027921755783787805
0.05771674345733081 -0.07293131357127458 0.02787146093377746
0.057601141916653754 -0.07426442323709431 0.027610801761024595
0.057535499718810564 -0.07532749679607376 0.02709800509499327
0.05748149378728631 -0.07632686162810798 0.026527451199966467
0.057461285858795196 -0.07714497814366006 0.02578461492854639
0.0574361548215918 -0.07798874084765323 0.025067773468665067
0.05740799933013341 -0.07884790721565599 0.024367320842712648
0.057451695702569354 -0.07932656102004276 0.023294880923772576
0.05754176573268786 -0.07956173233371333 0.021979852005120815
0.05763811324346352 -0.07976610218705321 0.02062941249226774
0.05774153368667915 -0.07993572803041499 0.019239122447380408
0.05784473682387169 -0.08010904865338364 0.017846925638203892
0.0579193544971414 -0.0804342597183515 0.01660211471115508
0.058018008790262025 -0.08063603817600451 0.015228262212815868
0.05812725945896849 -0.08078515896624028 0.013795429047397834
0.05968826079655882 -0.06259847304777283 0.030474226677694283
0.0594321207294602 -0.06469430340735799 0.03086363660908853
0.0593713209609221 -0.06574001601402685 0.030302718926851546
0.05944753090357982 -0.06605373125006075 0.02906983500664817
0.059685337714730564 -0.06550963594067283 0.02703778509911864
0.059774543615981175 -0.0657600301815694 0.025733878188149872
0.05931034163908512 -0.06894317049327586 0.027172685466703594
0.05903890761481466 -0.07109658248609502 0.02766586055472897
0.05887065033923 -0.07269953871035734 0.027652070161989506
0.058739981574558106 -0.07410073059437516 0.027455048272273075
0.05868044028287656 -0.07512554658508397 0.02690484908882823
0.05868505041827812 -0.07581309335690656 0.026033498701579005
0.05868177863551326 -0.07654191725057674 0.025201798449541235
0.05859847124940817 -0.07768769715205787 0.024775323402713934
0.0584738789002699 -0.07904607601640551 0.02456083280219623
0.05844288730370411 -0.07991598489506985 0.02387344230084798
0.058513773570561825 -0.08025800162699676 0.022666836629125497
0.058623987756132 -0.08039872270786913 0.021256834884508302
0.058717639440125126 -0.08062741375741439 0.019928681482556998
0.05881293516039103 -0.08084992961504017 0.01858935637097947
0.05891273710084668 -0.08105165932517128 0.017224010647507282
0.05901618714175879 -0.08123715492291433 0.01583689184090814
0.05909390030765215 -0.08155645572893544 0.014580407474600321
0.06107436623562023 -0.06195602702420866 0.028364478800889104
0.06099289559637555 -0.06311034313638769 0.027890121776548538
0.061107110427786264 -0.06323866535158351 0.026473643076937947
0.06130335953934311 -0.06294138425307888 0.024656839606498504
0.06155944416290033 -0.06233707064796712 0.02254398747538644
0.06059469436445778 -0.06808408493356327 0.02636791656508236
0.06023285859281708 -0.07068169005327074 0.02727517298020099
0.06005409139649728 -0.07232354869087454 0.027296169870506426
0.05996601960349501 -0.07349300497090355 0.026876797567250255
0.05991576527515115 -0.07446561061726237 0.026273650957148564
0.05998385729723349 -0.07482896375870374 0.025087326465927706
0.059886717145530184 -0.07604092364007337 0.024717622912001747
0.05973872132539084 -0.07751065341798508 0.024603333580427766
0.05957400049287752 -0.07906219467170122 0.02457657267930463
0.05948823015457807 -0.08020793089356115 0.024160008023878854
0.059497381226362625 -0.08086957442452763 0.023270254175204563
0.05958934803440533 -0.08111184854096548 0.0219641010914165
0.059697908939582794 -0.08127243537072792 0.02057171987988521
0.059795497862915395 -0.08149093521895251 0.019231702827233077
0.0598903656291168 -0.08172544797448544 0.01790270629023233
0.059985534896089 -0.08196070603878886 0.016569486047980753
0.06008422024700496 -0.0821806247642079 0.015215648345966781
0.06017816511318437 -0.08242657205993331 0.013883234626229535
0.061534755724997565 -0.0697323017925302 0.026381172107856288
0.061310403100202665 -0.07159107867110165 0.026602836856246148
0.061252111183410785 -0.0726030334219267 0.026029989968935796
0.06129023061574179 -0.07312614990476257 0.024992518937660246
0.06119268336292255 -0.07433453070783408 0.024611963438562756
0.06103151615343203 -0.0758608200500468 0.02454356529792101
0.060869499578753795 -0.07738760704172931 0.024483799700869557
0.06070358681321536 -0.07893012485118744 0.02444760641589888
0.06054788081190435 -0.08041775352138436 0.0243659638285863
0.060502756552200346 -0.08135037276211227 0.02374464112340674
0.06056817816446697 -0.08173203812483737 0.022579194689477
0.06066833767253723 -0.08194283853014511 0.021240061783935338
0.06076268257223312 -0.08218476833672766 0.01992698730168091
0.06086163713385623 -0.08240613469759372 0.018588350243279872
0.060973288958859 -0.08256724636674667 0.01718360704215649
0.061060981794417074 -0.08284874929060138 0.015895624413895637
0.0611615337933234 -0.08306923707507435 0.014540683387226638
0.061291012254938125 -0.08315054989373188 0.013037411737367721
0.06273147925401845 -0.07006277915120146 0.025156196742356585
0.06266095054061552 -0.07113388227172612 0.02463209319516535
0.06252196543502711 -0.07254331509432538 0.024435064485465174
0.062348939798306635 -0.07411820902432509 0.024403985168953424
0.06217560516269017 -0.07569065822668763 0.02437911571100737
0.062000560597157625 -0.07726756072802199 0.024367180243712483
0.06183696815381919 -0.0787841002939974 0.024305013343287607
0.06166739713194668 -0.08032623032562464 0.024276127314633356
0.061547794310435076 -0.08161977091149109 0.02401044688009296
0.061521485139988064 -0.08245477321949729 0.023295991200381894
0.06162437352415465 -0.08265945093143956 0.021954470852596886
0.06174162568703912 -0.08279664513026003 0.020540144016053585
0.06184806633273339 -0.08298897917221965 0.019175439393145477
0.061944522207745586 -0.08323207959365836 0.017856749491969748
0.06204206601408542 -0.08347214159784161 0.016530074779222748
0.06214402108303916 -0.08369319516074941 0.015178994888049746
0.06224377813259626 -0.08392715124381678 0.013835986447077397
0.06387756100005164 -0.07065629368379006 0.024177667831121463
0.06369669997569345 -0.07225902337761658 0.024163152649789743
0.06349920733399532 -0.07393862866044726 0.02423133112554321
0.06331886954658189 -0.07553047157426629 0.024224306434168785
0.06313891286657625 -0.07711640070680592 0.024220335254693914
0.06297271236269067 -0.07863177803649041 0.024156270562326887
0.06281023585911885 -0.08012544822690709 0.02407904543103845
0.06263016189833519 -0.08170011766377766 0.02408972221787109
0.06255417843320024 -0.08277110617558525 0.023609724905695795
0.06258341730820878 -0.08333651531125891 0.022629453496124885
0.06268123570357069 -0.08357495871275222 0.02132008567103527
0.06280389994974331 -0.08369719231990452 0.019888810237168375
0.06291067213050787 -0.08389775528180565 0.01853074493227297
0.06302259221337904 -0.08407630744516781 0.01714495763565571
0.06310707380523642 -0.08438722815626765 0.01588899328884097
0.06322258329231153 -0.08455357409056696 0.01448013346400484
0.06333094609280783 -0.08475618355302206 0.013102958479179971
0.0648456985095624 -0.07210793071851657 0.02401863953217731
0.06465031823894435 -0.07376120638458578 0.02406075193382623
0.06446447424730019 -0.07536463940456856 0.024064041156884985
0.06428230458910128 -0.07694645808929657 0.02405524383964125
0.0641084590900513 -0.07848469630691929 0.024012645160215673
0.06394490875616618 -0.07997028969336945 0.023926746315525993
0.06376100680468405 -0.08154848416273697 0.023940110731763886
0.06361886134489853 -0.08292563282656867 0.023762981839093866
0.06357752155979611 -0.0838252374243692 0.023116672959576534
0.06363995095991043 -0.08423673601290116 0.021983247273656636
0.06375539220317954 -0.08440131863643358 0.02059806448691376
0.06387833722038944 -0.08453339660665599 0.019174330633607295
0.06397590454251839 -0.08478650257622172 0.017867750578586694
0.06408170979964752 -0.08500345974338053 0.01651940055217349
0.06418640235794544 -0.08522792448566124 0.015173564103735493
0.06428100009873601 -0.08550143301472168 0.013873255805111506
0.06604806530712115 -0.07171041315564303 0.023638432428412515
0.065805439139835 -0.07357094134230135 0.023877825314452872
0.06561448840182914 -0.0751837411650913 0.023889215569287525
0.06543078704884142 -0.07675844787573383 0.023872600588311366
0.06524860691180412 -0.07832204801591552 0.02385381900100314
0.06507614440647161 -0.07983640469704212 0.02379532868701323
0.06490263020633705 -0.08135189184732966 0.023746139951801137
0.0647189878396976 -0.08291056405806413 0.02374803688793886
0.06461937443428549 -0.08407649534429501 0.023367158349229034
0.06460253216649794 -0.08485823742799925 0.022606048742330687
0.06470664119185189 -0.0850826963686876 0.02128440448151203
0.06482249479535684 -0.08525547422207758 0.01990543292411412
0.06492682395598039 -0.0854835892555681 0.01857720254525247
0.0650419910120621 -0.08566442906161204 0.017195574685027193
0.06515410891492122 -0.08586168513450082 0.015825256540424104
0.06526496157619266 -0.08606714103021035 0.014457977289639823
0.0653619360798597 -0.08633800665899816 0.013153267492551801
0.06696677185747224 -0.07335829413682105 0.02367337980018147
0.06676670597267062 -0.07499870755945509 0.023710393437440802
0.06657831394763303 -0.0765811028460337 0.02370031807121914
0.06639333614145021 -0.07814378349123213 0.023679743579708645
0.06621239349575325 -0.07968401451168411 0.023645746901766684
0.06602827643463338 -0.08123487752217373 0.02363068599893281
0.06585609789456379 -0.08272735755455246 0.023566335759181545
0.06567576414894666 -0.08425324771194143 0.02354336726513101
0.06561954035681956 -0.08521200861762818 0.02296055994877849
0.06562874000071772 -0.0858733455150198 0.022080811679950463
0.06575252843800093 -0.08601728055720553 0.020676760472066846
0.06587993027270231 -0.0861475848722974 0.01925297646276275
0.06600599855754935 -0.0862866140189118 0.01783207226876138
0.06611770530689244 -0.0864927539954014 0.016474181027029022
0.06622276386509336 -0.08673103249707242 0.015144182175271415
0.06630869506284781 -0.08705693595974368 0.013900200052184841
0.06792152117581901 -0.07480795309288651 0.023526042490736865
0.06773078506663097 -0.07638718862351346 0.023511939347483524
0.0675433424130543 -0.0779475287564182 0.02348810070682389
0.0673526788420517 -0.07951843259393165 0.023483216494681824
0.06716427346141376 -0.08107516616250643 0.023473104371495357
0.06698701972268095 -0.08257791271631992 0.023418118882196748
0.06679897739396694 -0.08412519800516305 0.023415711266439543
0.06665446924983763 -0.08547418205858337 0.023223281802836504
0.06663863650924629 -0.08624706466147997 0.022457252506853043
0.06672956878386214 -0.08654526060425399 0.02121133932272634
0.06683030029606991 -0.08680193855667973 0.01991893741429801
0.06694142317246748 -0.08701478997981715 0.018576999053332155
0.06707907474976164 -0.0871129559264438 0.017111931112049394
0.06717002879208803 -0.0874195299871644 0.015855820093558404
0.06729961494693254 -0.08755841529715824 0.014421212681256623
0.06908833842721074 -0.0745697675325398 0.023295852685323692
0.06888261368150286 -0.07620239156760211 0.023332417530619154
0.06869186881389268 -0.07776418117996436 0.02330906168225516
0.06849784693807902 -0.0793365443217986 0.023304680243169562
0.06830526248433812 -0.0808985264855609 0.02329882016390311
0.06812180862163193 -0.08241622417657773 0.02325775890798648
0.06793439645040132 -0.08394754401281862 0.023238603498020316
0.06774394639646371 -0.08548832033613796 0.02323744965476987
0.0676552882188433 -0.08657912929246064 0.022791735461380525
0.06767607835487259 -0.08718966827576446 0.02186380093433088
0.0677646215455886 -0.08750517170950578 0.020634644883797904
0.06787532924834909 -0.08772608289937917 0.019304654422232836
0.0680415579796918 -0.08770831728560957 0.01772413777962234
0.06826687547569733 -0.08743815402028121 0.01587507008117356
0.06858178256884914 -0.08678568366023959 0.013618382112416838
0.07003868276985489 -0.07600487279926194 0.023140537156863317
0.06983929565426711 -0.07759146291011293 0.023140402182318
0.06964474087222867 -0.07915290021724664 0.02312442051749003
0.06944723681475858 -0.0807232054416741 0.023125837005552596
0.06925433450948337 -0.08226949624850444 0.02311223661680073
0.06906163448383382 -0.08381097431838896 0.02310245370766134
0.0688672469052019 -0.08535581430844391 0.023104666451624623
0.06871887012569676 -0.08669828358045051 0.02291175751303287
0.06872024264125691 -0.08739351614813179 0.022070196539484277
0.06885002095569713 -0.08753769584423554 0.02066774594860349
0.06910550133274121 -0.08714632910766201 0.01871156408268143
0.06942831853331444 -0.0864725594203598 0.016453415061453758
0.06982299697519234 -0.08549916887390041 0.013870915566426611
0.07098694039345249 -0.07742320403099567 0.022976097280258012
0.07079463583603626 -0.07896210568803202 0.0229371421423889
0.07059000266886571 -0.08054997156739147 0.022954913184644488
0.07039310522819613 -0.08210065770880276 0.022944785392889466
0.0701920167926119 -0.08366526262856017 0.022957190030343355
0.07004835717033737 -0.08498148095326946 0.02272955006779548
0.06989602323469307 -0.08633163379729675 0.022542437533413395
0.06991996748548021 -0.08693224165646352 0.021603156944005164
0.07029383085032184 -0.08605504284246801 0.019158792874111652
0.07073321088738982 -0.08490922652592992 0.016422999611406475
0.07120294914525854 -0.0836445928746426 0.013545433298264742
0.07213072021516825 -0.07727650485568549 0.022832845442624983
0.07194032589230727 -0.07879496382543982 0.022773080538701973
0.07173063648102801 -0.08039106304014298 0.0227981236839499
0.07153946212812078 -0.08190508316168832 0.022750817846510063
0.07137709955589847 -0.08329433530945324 0.022587403183080224
0.07125817944558507 -0.08449838152730682 0.02224544009685092
0.07123369251534777 -0.08530539804735537 0.021508728027320068
0.0716958673684212 -0.08408276979296747 0.018718071792985125
0.07213493415030575 -0.0829654042022342 0.016014348611231854
0.07260576091597382 -0.08172492583035884 0.013165447857969248
