# .PCD v0.7 - Point Cloud Data file format
VERSION 0.7
FIELDS x y z
SIZE 4 4 4
TYPE F F F
COUNT 1 1 1
WIDTH 768
HEIGHT 1
VIEWPOINT 0 0 0 1 0 0 0
POINTS 768
DATA ascii
-0.08816116202792884 -0.05240943974373364 0.04660973648983857
-0.08820472620203668 -0.05252170956738367 0.04521642360398609
-0.08824776719374483 -0.052634588242528965 0.04381645969055048
-0.08829170524174895 -0.052747825792022404 0.042411138891516376
-0.08833511967363528 -0.052861679542289014 0.04099907977292111
-0.08837943644337226 -0.052975897383947146 0.039581595141401416
-0.08842322918234924 -0.05309073889855212 0.03815728340725527
-0.08846792960589384 -0.05320594981721363 0.03672747631271772
-0.08851210560375161 -0.05332179200650918 0.035290751809362364
-0.07762556595098885 -0.05542182517674732 0.023173715702306086
-0.07927433858595295 -0.055251515919200925 0.023243632970402384
-0.08070795913523171 -0.05511963601289822 0.023110806220213054
-0.08205141763446577 -0.055003613892861195 0.022895962246612667
-0.08331920148802219 -0.05490090772705099 0.02261220533683811
-0.08452535338561934 -0.05480903334019876 0.022272480887707946
-0.08566938135870833 -0.054728158167498965 0.021875374695809413
-0.08675890119383123 -0.05465695545102555 0.02142766266867141
-0.08780059146485308 -0.05459425913141138 0.020935317620700333
-0.08879949990231245 -0.05453919433885776 0.02040277680885022
-0.08901472529675614 -0.05462948249019633 0.019067522156960615
-0.08906130830210401 -0.05475161346614015 0.017552790935750462
-0.08910810005834907 -0.05487429174348889 0.016031271800771463
-0.08915584179849734 -0.05499738255012074 0.01450369163662707
-0.08920305683426777 -0.055121165901007 0.012968464684665226
-0.08925048488455978 -0.055245507710529704 0.011426311431612268
-0.08929812739418114 -0.055370411766530646 0.009877184898639202
-0.08934673186670583 -0.055495740911228844 0.00832183300113376
-0.08939480925391902 -0.055621780320331604 0.006758623050181434
-0.0894431055206551 -0.055748393542618874 0.005188296353008104
-0.08949162216504697 -0.05587558450558586 0.0036108041986611106
-0.08954111306840734 -0.05600321360256329 0.0020269161610497743
0.1206608743854749 -0.07631901471673311 0.027683072422853894
0.11751656736892346 -0.07598769960725432 0.027816754075046968
0.115109825438591 -0.0757672999451847 0.027530202979677953
0.11312914093358822 -0.07561098264134318 0.027000766806983933
0.1114898519650081 -0.07550619078546732 0.026274637135499046
0.1100920489990389 -0.07543793799569838 0.025408292172564073
0.10892140884452717 -0.07540424060498624 0.02440789825430356
0.10765555025417883 -0.075355789602535 0.023466846580178613
0.10628548063027982 -0.07529111543490666 0.02259163407524084
0.10520950826197212 -0.07527153141003728 0.021538741312474075
0.10390223044479358 -0.07521614093803214 0.02062961488451498
0.1036178773143896 -0.07531885571407951 0.01908756759065472
0.10763583544592953 -0.0760891560677941 0.014852928186659453
0.10440652271256573 -0.07573639669425458 0.01513649531534006
0.10379116704227576 -0.07578920505148443 0.013784562614161389
0.07910382270416122 -0.07338574434094479 0.012516713188981787
0.06941577279994149 -0.07199136771032925 0.017304233268743474
-0.03725174063466996 -0.0551291267538335 0.08770181581419467
-0.04253595651731956 -0.05439592854627859 0.08999278527480342
-0.045372887950625995 -0.05405153758758143 0.09064594922590985
-0.04817412308005481 -0.05371148000267847 0.0912908946001488
-0.050256410096578774 -0.05348560150466429 0.09145519114122475
-0.05217970165645042 -0.0532844132698389 0.09151975712912933
-0.05408779472316577 -0.05308485938525411 0.09158329171194718
-0.0559381750460024 -0.05289382496203082 0.09161581137959901
-0.057727581835263886 -0.052711890589061824 0.09161440135468946
-0.059505483775598444 -0.05253107965148694 0.09161354270640187
-0.06127047444680905 -0.05235162789687859 0.09161215006831974
-0.06302344738014765 -0.05217339802077122 0.09161076691259112
-0.06476526755761303 -0.05199625625209448 0.09160992934596085
-0.06649456380528185 -0.05182043380871183 0.09160856305672255
-0.06819761055919832 -0.051648190606136 0.09159655359718036
-0.0698285959662982 -0.05148708007575081 0.09154001889389171
-0.07144943767642131 -0.05132697155090153 0.09148383580062691
-0.07306094180016875 -0.05116773821487336 0.09142852912320087
-0.07459116524508047 -0.0510212865131264 0.09132036895207565
-0.07586719871017772 -0.05091635932376367 0.09102873555546168
-0.07713869204742879 -0.05081174695341095 0.09073882518166812
-0.07840427808579226 -0.05070767896725954 0.09044957810741996
-0.07966469060423675 -0.05060403639493816 0.09016151343041842
-0.08089531068346623 -0.050504937338248866 0.08985573268998442
-0.08193654210161466 -0.050437145749695385 0.0894089307551647
-0.08297498202584491 -0.05036953590730028 0.08896332667590909
-0.08401064166693267 -0.05030210708116193 0.08851891564157316
-0.08504420395434537 -0.050234745293205346 0.08807621887174755
-0.08607433320588737 -0.050167676627669106 0.08763417989099553
-0.0871017154632569 -0.05010078681079286 0.0871933196734605
-0.0873029748299306 -0.05017377665154559 0.0860984881700547
-0.08734213229277749 -0.05027464160072805 0.08487032196131467
-0.08738077912780046 -0.05037602679634552 0.08363667029261246
-0.08742025179545077 -0.05047770738025387 0.08239857434981263
-0.08691881448511268 -0.05067239291064397 0.08071567919637632
-0.08750169362356935 -0.05068195911721914 0.079908975414341
-0.08754097859402082 -0.05078499546611961 0.07865522215732393
-0.08758042362247859 -0.05088845161395876 0.07739636075840672
-0.08762002968912141 -0.050992330131541266 0.07613235993586381
-0.08766047508564812 -0.051096516439643073 0.07486375347803287
-0.08770040749784686 -0.051201247012663244 0.07358938302368204
-0.08774050394216304 -0.051306407791944425 0.07230977778318268
-0.08778076543137986 -0.05141200143370711 0.07102490543541884
-0.08782187550273335 -0.05151791150442056 0.06973531523810383
-0.087862471470044 -0.05162437843486112 0.0684398148470804
-0.08790323557614188 -0.05173128632576121 0.06713894880448462
-0.08794485534521285 -0.05183851732354682 0.065833278250507
-0.08798596020955168 -0.051946314891751395 0.06452158470906721
-0.08802723638430027 -0.05205456172165549 0.06320442449815877
-0.08806937542740928 -0.052163138513730126 0.061882370888178884
-0.08811099879871626 -0.05227229182222233 0.06055417870060781
-0.08815279673224713 -0.052381902903333735 0.05922041627398167
-0.08819477032844136 -0.05249197464286025 0.05788104849354592
-0.08823761659895224 -0.05260238577175081 0.05653666520058781
-0.08827994622731888 -0.0527133870583422 0.055185984696762724
-0.08832315352173836 -0.0528247325731083 0.05383022605119592
-0.0883658437180434 -0.05293667523160732 0.05246808890599258
-0.08840941663205176 -0.053048967043901336 0.051100809901564515
-0.08845247200937817 -0.053161863100570965 0.04972706974547769
-0.08849641521704682 -0.053275113325377085 0.048348122900748136
-0.08853984046744895 -0.053388975012207567 0.04696263086033453
-0.08858415872291936 -0.05350319597219905 0.04557186616563519
-0.08862795861911943 -0.0536180357313258 0.044174470809740796
-0.08867265675832575 -0.05373323996133462 0.04277173567276643
-0.08871683615545456 -0.053849070449570595 0.04136228295736183
-0.08876191909789072 -0.05396527070117311 0.039947422147349365
-0.08880648293527332 -0.05408210479465891 0.038525755358931435
-0.08885195568580595 -0.054199314040880985 0.03709861094938488
-0.08889690898879415 -0.0543171648398564 0.03566457064690065
-0.07774406229350633 -0.05650832748688149 0.023289427485658598
-0.07929892013500589 -0.056351985444587256 0.023267761512078322
-0.08074990646887964 -0.0562142276979052 0.023152194201747522
-0.08211733148456712 -0.056091399231439534 0.02296133451133725
-0.08340052450777491 -0.05598373083352649 0.022693278337595102
-0.08461818918296743 -0.05588782687260663 0.022365510902450536
-0.08577959125662538 -0.055802031377225794 0.021986387246730132
-0.08688263698139775 -0.05572681026717541 0.021552944963872778
-0.08793407087494559 -0.05566096677621194 0.021071164793163955
-0.08894119994525174 -0.05560318637785037 0.020547736530358185
-0.08940828036038623 -0.055647483212436816 0.01947221267348298
-0.08945567953176015 -0.055771723153739836 0.017960417103016713
-0.08950329082588881 -0.05589651909868535 0.016441855883412126
-0.08955185350394163 -0.05602173393992543 0.014917254029755744
-0.08959989487520187 -0.05614765251415105 0.013385030139321574
-0.08964815269566706 -0.05627413841124183 0.011845902853886758
-0.08969662843144938 -0.05640119547394208 0.010299825413513375
-0.08974606758005493 -0.0565286841710323 0.008747543793578338
-0.08979498516114287 -0.056656894581455175 0.007187429831477077
-0.08984412514265405 -0.05678568789155812 0.00562022292009845
-0.08989348904473632 -0.05691506808556719 0.00404587457783534
-0.08994382870750639 -0.057044893144230696 0.0024651523652592378
0.11903693263751403 -0.07771298958086736 0.026925026234286997
0.11608737097740063 -0.07740453617297494 0.026953518406194643
0.11385751874140143 -0.07720672855155486 0.026568581424943283
0.11197124600883429 -0.07706164879189967 0.025987346644360698
0.1103425941663621 -0.07695619386988198 0.025257905643861822
0.10903297210088447 -0.07690019064168965 0.024340547618193986
0.1079245196134847 -0.07687547098720078 0.023303535275769394
0.10677204639356785 -0.07684374904582553 0.0222945062911154
0.10556105716097253 -0.07680270541714973 0.02132283211182806
0.10459848867931659 -0.07680062842686615 0.02019954908457855
0.10991957651798412 -0.0777901545145934 0.015172881830117724
0.10754537636505335 -0.07756679723741569 0.014909442915939819
0.10547579940783824 -0.07739082539406189 0.014464655947741212
0.07967069375606023 -0.0749164648696292 0.012137826319726652
0.06930616730734679 -0.07338518090020163 0.01737790057630556
-0.03660894385545549 -0.05631458611873923 0.08726737598910664
-0.04202650421774551 -0.055545501125082136 0.08964655166398353
-0.045172101223426686 -0.055144144214928276 0.0905087325781658
-0.047976255618256025 -0.05479700764255562 0.09115492285086449
-0.05023564122852098 -0.05453774243348491 0.09144084001238675
-0.05215913050276938 -0.05433258377278486 0.09150546400058793
-0.054068202547470134 -0.05412896284850663 0.09156960360918373
-0.055938175045791294 -0.05393095878485055 0.09161581137945071
-0.057727581835060215 -0.053745457071233946 0.09161440135454554
-0.059505483775401935 -0.05356110082115647 0.09161354270626232
-0.061270474446619816 -0.05337813040469192 0.09161215006818457
-0.06302419664110004 -0.05319628126840412 0.09161130493799233
-0.06476526755743794 -0.05301579068843922 0.09160992934583448
-0.06649456380511387 -0.0528365207461656 0.09160856305660059
-0.06821220442775072 -0.05265845910075741 0.09160720597623895
-0.06984523977494489 -0.05249384087726599 0.09155223383813957
-0.07146594386352767 -0.05233061029285675 0.09149601573869087
-0.07307731167451026 -0.05216827190963284 0.09144067419793736
-0.07467800710270472 -0.0520070566630767 0.0913851484398625
-0.07595420494915428 -0.05190001369224234 0.09109398989957285
-0.07722446301708691 -0.05179352853027021 0.09080350176808791
-0.07848951928754411 -0.051687479432642305 0.09051420320619788
-0.07974940564783412 -0.05158186372625987 0.09022608692177533
-0.08100483802443847 -0.05147656212622969 0.08993967010200457
-0.08206801765553773 -0.05140365307213908 0.08951023195895497
-0.08310582856704507 -0.051334777697466104 0.08906468646887919
-0.08414086208959226 -0.05126608664703403 0.08862033334735014
-0.08517312935755245 -0.05119757918189869 0.08817716781424143
-0.08538209977719874 -0.05127059862601301 0.08708924846256466
-0.08705313624276217 -0.05109154114758569 0.08715487259899946
-0.08766211102595489 -0.051095447882242025 0.08638424255114
-0.08770127643098313 -0.05119815605703113 0.08515761228239008
-0.08774126636427632 -0.05130116213565778 0.08392657693446107
-0.08778074952449827 -0.05140469983541062 0.08269003804776806
-0.08782039237948935 -0.05150865630674691 0.08144849781998836
-0.08786086643669466 -0.0516129168431668 0.08020247377633802
-0.08790083287214207 -0.05171771803913214 0.07895084336818273
-0.08794096194336215 -0.05182294570344666 0.0776941196903039
-0.08798192900475893 -0.05192848375408127 0.07643283148594973
-0.08802238762492542 -0.05203457171631528 0.07516583160220808
-0.08806301189445637 -0.05214109403344163 0.0738936442533556
-0.08810380283276376 -0.05224805337849477 0.07261623751555929
-0.08814544099369126 -0.0523553317967298 0.07133415545016475
-0.08818656966611227 -0.052463172807340586 0.07004621727137939
-0.08822786812117661 -0.05257145899467568 0.06875296237587125
-0.08827002086439423 -0.052680070969941345 0.06745494659053047
-0.08831166337371266 -0.052789255313636194 0.06615096326870523
-0.0883534788575166 -0.0528988931867081 0.0648415634674761
-0.0883954683958002 -0.05300898742084018 0.06352671336818827
-0.08843832183601141 -0.053119416674302464 0.06220698486761267
-0.08848066409961253 -0.0532304317006761 0.0608811359576959
-0.08852387515818966 -0.05334178648357008 0.05955034839234863
-0.08856657459726741 -0.053453733902491536 0.05821336209910727
-0.08861014778253079 -0.05356602589933731 0.05687137585949498
-0.0886532089223655 -0.05367891750679139 0.055523111272669734
-0.08869714881878932 -0.053792158599624544 0.05416978438940112
-0.0887405762613741 -0.05390600639141806 0.052810098211670875
-0.08878488753120156 -0.05402020866398095 0.051445286305380755
-0.08882868595687476 -0.054135024839991774 0.05007403280160183
-0.08887337334177603 -0.05425020058203168 0.0486975890315966
-0.08891754751089298 -0.054365997550567174 0.047314619976738914
-0.08896261583366033 -0.054482159262245776 0.04592639498831802
-0.08900717058831609 -0.05459894964451203 0.04453155961406796
-0.08905262475460946 -0.05471611004092744 0.04313140148449274
-0.0890975650203919 -0.054833906675616446 0.041724546424463715
-0.0891434100205295 -0.0549520786914424 0.04031230060752683
-0.089188740808332 -0.055070894639435965 0.0388932698410594
-0.08923426804702911 -0.05519022550222976 0.037468089395506
-0.08925782286206096 -0.05531424915466355 0.03601518191956682
-0.07774406229368014 -0.05761633390816009 0.02328942748582835
-0.0793081371902995 -0.05745518269705919 0.023276808708506125
-0.08079107980010714 -0.057308660225254285 0.02319281850189625
-0.08217261623654099 -0.057180722939724676 0.023016165012600898
-0.08347879386307011 -0.05706653981470043 0.02277130706206193
-0.08471096725237204 -0.05696594958041868 0.022458483068479695
-0.08588228096306394 -0.05687653268080353 0.02208982483700561
-0.0869996092583103 -0.05679704967011867 0.02167137921490675
-0.08806595671982265 -0.056726993546480926 0.021205390132503554
-0.08908349670147087 -0.056666012720732566 0.02069330669198366
-0.0898007832158948 -0.05666276220973139 0.01987582121015674
-0.08984899402029117 -0.05678909939684686 0.018366951011765442
-0.08989742028998532 -0.056916001214094784 0.016851337323135984
-0.08994679932209704 -0.057043328231600014 0.015329703296954267
-0.08999566240719226 -0.05717137008049557 0.013800471868430253
-0.09004474534609463 -0.05729998803875748 0.012264359841373917
-0.09009404962596018 -0.057429186003357995 0.010721320673403645
-0.0901443187462167 -0.05755882208266087 0.009172098407331297
-0.09019407177767724 -0.057689191230837406 0.007615069387994888
-0.09024405069931912 -0.05782015228472037 0.006050971101249802
-0.09029425705303229 -0.05795170928456219 0.00447975529342215
-0.09034544064593852 -0.058083717811884206 0.002902187519536914
0.1178432983220673 -0.0791706402719749 0.025917642151202236
0.11502195326517467 -0.07887588630162293 0.02587766034783201
0.11286269949606514 -0.07868505588687552 0.025455337340427542
0.1109667215815226 -0.07853534569467498 0.02488328115424715
0.10944636332097363 -0.07844488918714088 0.024090983715667258
0.10841673218058201 -0.07843240129769341 0.023004676414720315
0.10720646876338086 -0.07839098061235643 0.022029220556161966
0.10595446702996436 -0.07834271173906243 0.021081213348174366
0.11078648030867455 -0.07927091949174382 0.016377341406269674
0.10948450552861017 -0.07921614100565381 0.01544315277639735
0.1074315123655119 -0.07904011641952306 0.014980579976437647
0.10582382524893857 -0.07893530718180279 0.014245987139165639
0.07591319606156732 -0.07588896407136783 0.012937228783437615
0.06424979493388261 -0.07410894333417661 0.019101115274817726
-0.04129965316849421 -0.0567343590080192 0.08915256966896482
-0.04497107555425234 -0.05623805107552676 0.09037135263866802
-0.04777815417165876 -0.055883818954641555 0.09101879031050278
-0.050215668718080586 -0.05558988125321429 0.0914270391605661
-0.05213855679077539 -0.0553808846303029 0.09149116909449453
-0.05404782420877563 -0.055173322156510975 0.09155536625246893
-0.055937398615855005 -0.05496822309053017 0.09161526593394179
-0.05772758183485277 -0.054779023553407996 0.09161440135439902
-0.05950548377520193 -0.05459112199082784 0.09161354270612024
-0.06127047444642714 -0.05440463291250704 0.09161215006804699
-0.06302419664091463 -0.05421928667744331 0.09161130493785918
-0.06476526755725981 -0.05403532512478561 0.09160992934570586
-0.06649456380494284 -0.053852607683620955 0.09160856305647644
-0.06821220442758674 -0.053671121775799926 0.09160720597611927
-0.06986260534153566 -0.0535003710736866 0.09156497848284442
-0.07148316584644204 -0.05333401986067165 0.09150872386346157
-0.07309367981986792 -0.0531686999283157 0.0914528179899127
-0.07469424039708938 -0.05300440171624368 0.09139725762918782
-0.07604046084162724 -0.052883231720950184 0.09115868148669642
-0.07731018589917787 -0.05277475967047868 0.09086814209352445
-0.07857471279656925 -0.05266673169653583 0.09057879214702505
-0.07983407338991644 -0.05255914507766775 0.09029062435785978
-0.08108829927556521 -0.05245199711461253 0.09000363149613097
-0.08219869810603952 -0.05236943510707085 0.08961092053985603
-0.08228156092162142 -0.052465782768306456 0.08842617056218588
-0.08409162107196344 -0.05226058149615812 0.088581983671193
-0.08512479540723095 -0.0521906159561138 0.08813932219925685
-0.0861545388517963 -0.0521209548182059 0.08769731838645389
-0.08718153707169929 -0.05205147939206694 0.08725649292515392
-0.0880170626927737 -0.05201546738093046 0.08666666742223306
-0.08805755747656185 -0.05211978169297038 0.08544261232857983
-0.08809754986169088 -0.052224633022141045 0.08421310289663184
-0.08813770347958638 -0.05232990706844335 0.08297863659185517
-0.08817868695747055 -0.05243548765729295 0.08173972605564225
-0.0882191672392671 -0.052541614361959595 0.08049525957418885
-0.08825981171339059 -0.052648171527732004 0.0792457454054091
-0.08830062138084344 -0.05275516177892583 0.07799115277596513
-0.08834226996421446 -0.05286246708355545 0.07673200919082132
-0.0883834143325617 -0.052970330971280385 0.0754671703478556
-0.08842472695134285 -0.05307863594347592 0.07419715923836073
-0.08846688541517816 -0.05318726254609463 0.0729225147817886
-0.08850853893888877 -0.053296457340702146 0.07164206762337105
-0.08855036384596388 -0.053406101417037596 0.07035635206805874
-0.08859236119631747 -0.05351619755367032 0.06906533553361083
-0.08863521381812345 -0.053626624360299614 0.06776957252715898
-0.08867756058289433 -0.05373763253061639 0.06646785944470479
-0.08872076741596746 -0.053848976008604665 0.06516134189929634
-0.08876346796129769 -0.05396090759262601 0.06384879879376665
-0.08880703342825186 -0.054073179203696246 0.06253139224610976
-0.08885009219327927 -0.05418604577156059 0.06120788341249822
-0.08889402079071451 -0.05429925716931976 0.05987945114827681
-0.08893744228910311 -0.05441307048527052 0.05854483860487547
-0.0889817385891607 -0.054527233519241776 0.057205241611446744
-0.08902552741067027 -0.054642005545714994 0.05585938505190019
-0.08907019606262634 -0.0547571322654721 0.05450848196979363
-0.08911435687472291 -0.05487287516728776 0.05315123871393734
-0.0891594026066227 -0.05498897782669466 0.05178888578711993
-0.08920394015612887 -0.05510570397535493 0.050420110730564904
-0.08924656540777853 -0.055223321820211745 0.04904356376675573
-0.0892640990093575 -0.05534620463545586 0.04763757491721571
-0.0892408940510474 -0.05547734334069753 0.04618707881744555
-0.08915124099243349 -0.05562166089636425 0.044667224974141384
-0.08872659256994786 -0.05583019379471459 0.04282278962377789
-0.08805532640844477 -0.05608658170191401 0.04073285651628328
-0.08737786651875556 -0.05634533528328167 0.03862363973494948
-0.08669412677988964 -0.05660648743244803 0.036494871149002905
-0.07456505589274204 -0.05906028989577605 0.02329131076546942
-0.07615870251887685 -0.05889191089680563 0.02328998736619403
-0.077744062293857 -0.058724340329436846 0.02328942748600099
-0.07931735368619702 -0.05855831299436707 0.023285855355846763
-0.08082004690264383 -0.05840515151322764 0.02322139933888001
-0.08222712376752717 -0.05826979307030449 0.023070224678962914
-0.08354724601228197 -0.058150681547189706 0.022839548762403905
-0.0847999500372712 -0.05804412955441171 0.022547652010067643
-0.08598489974068924 -0.05795029181548143 0.02219319098189687
-0.0871127918488141 -0.05786716697473092 0.02178597641426211
-0.08818963064789953 -0.05779365446583492 0.021331257885627952
-0.08922052875690306 -0.05772881843459619 0.02083349104324478
-0.09019223807741805 -0.05767533038270719 0.020278352100354946
-0.09024125600941219 -0.057803753167402 0.0187723970462772
-0.0902904927201737 -0.05793274913359464 0.01725972055578323
-0.09034068355051883 -0.05806217654150678 0.015741043926239484
-0.09039036375610326 -0.05819232978960544 0.01421479441290091
-0.09044026719026549 -0.058323067856487776 0.012681686988557928
-0.09049039536094627 -0.05845439469268662 0.011141675327060285
-0.0905407497896984 -0.058586314284397006 0.009594712684063145
-0.09059207354509685 -0.05871868175727653 0.00804154647908506
-0.09064288666180687 -0.05885179828739604 0.006480545712214736
-0.09069393069093629 -0.05898551974503361 0.0049124512183096325
-0.09074595341476965 -0.05911969932575887 0.003338026554600526
-0.09079746558738372 -0.05925464238500895 0.001755604672961042
0.11820092112715352 -0.08087706692959408 0.023991409249588036
0.11437030411771487 -0.08041341391507766 0.02455561604609313
0.11212544579197631 -0.08020483673190122 0.02418777178324183
0.11034387339828455 -0.0800706424564771 0.023549157700585188
0.10923037621345122 -0.08004456353922469 0.022510652602210357
0.1077747000298756 -0.0799626342720024 0.02168222265819353
0.10658889122006515 -0.07992443993393103 0.020691571906700235
0.10962281472292335 -0.08057626985073861 0.017096116059380106
0.1087392537794632 -0.08058865516020665 0.01590611146676718
0.10741309815616251 -0.08052841579758188 0.014992084338920852
0.07527486534433214 -0.07721328620358957 0.013366259338017328
0.06419970011182485 -0.07549876841446232 0.019134972298431308
-0.04056885602995819 -0.05792843818017338 0.08865590583554273
-0.044769810516330666 -0.05733326049173058 0.09023380911576237
-0.04757981832497393 -0.05697191621726069 0.0908824966936829
-0.05019569381015282 -0.05664214637079538 0.09141323665210008
-0.05211877196233283 -0.05642918090153233 0.09147742231585082
-0.054028227271148754 -0.05621767691100836 0.09154167482277512
-0.055922645750524524 -0.056007885446396205 0.09160490197994933
-0.05772758183464155 -0.055812590035584 0.09161440135424981
-0.059504721080014256 -0.05562127428808212 0.09161300099593686
-0.061270474446231016 -0.055431135420323976 0.0916121500679069
-0.06302344737959142 -0.05524242143385379 0.0916107669121917
-0.06476526755707845 -0.05505485956113369 0.09160992934557491
-0.06649456380476887 -0.05486869462107793 0.09160856305635012
-0.0682129340853389 -0.05468365770628529 0.09160773856903193
-0.06987924553580077 -0.05450691557872296 0.09157719077448612
-0.07149966846019751 -0.05433744364728534 0.09152090116474501
-0.07311004623651562 -0.05416902228766327 0.0914649604993302
-0.07471047198230407 -0.05400164176115786 0.0914093655435616
-0.07612666828887199 -0.053865897529768475 0.09122333674008543
-0.07739586073413096 -0.05375544083681079 0.09093274618846389
-0.07866055070044248 -0.05364531424193949 0.09064386963188792
-0.07915609603254165 -0.053670575304872126 0.08977384052387319
-0.08095350697249626 -0.053465515386625924 0.08990033201876385
-0.08214970623853529 -0.0533662274203057 0.08957317257070113
-0.08318712640810078 -0.05329474178951945 0.08912766354311238
-0.0842217709859826 -0.05322344741675124 0.08868334646373596
-0.08525365109633953 -0.053152343535467314 0.08824021655542139
-0.0862827778039637 -0.05308142938322474 0.087798269066512
-0.08730916211467837 -0.053010704201643805 0.08735749927067651
-0.08833347622020404 -0.05294004844557082 0.08691842860002247
-0.08841231760491208 -0.05303930550965615 0.08572639574681318
-0.08845297461795004 -0.05314587808997233 0.0844989382524804
-0.08849379534532431 -0.05325287980795422 0.08326653813363202
-0.08853544681336001 -0.053360192577058825 0.08202970684175467
-0.08857659920307398 -0.053468059894716556 0.08078733539972216
-0.08861791830846621 -0.05357636420204578 0.07953993089017114
-0.08866007495062522 -0.0536849860024922 0.07828801584101339
-0.08870173180836871 -0.053794171796034185 0.07703045699893482
-0.08874355845687465 -0.05390380262398715 0.07576777242625396
-0.08878555593634763 -0.0540138812128058 0.07449993072074199
-0.08882840019628035 -0.054124286146441374 0.07322746953373838
-0.08887074377899634 -0.05423526801612819 0.07194922243087812
-0.08891393884525312 -0.05434658077088366 0.0706663000131531
-0.08895663281493238 -0.054458477085419635 0.06937751890153265
-0.08900018302606966 -0.05457070890455038 0.0680840056993165
-0.08904323173736717 -0.05468353101265034 0.06678455983929094
-0.08908714150383074 -0.05479669332584301 0.06548032415066463
-0.08913054938380993 -0.0549104527647926 0.06417008063015128
-0.08917482318943021 -0.05502455719204542 0.06285498856033717
-0.08921859473907368 -0.055139265691634076 0.06153381224950516
-0.08925979724338162 -0.05525497107189682 0.060204669192334914
-0.08926877059423083 -0.05537727145345252 0.05884097534383542
-0.08923908277526282 -0.055507426599712584 0.057436459415198815
-0.08913787123313655 -0.05565171267859005 0.05596085270107859
-0.08865533086312039 -0.05586902456727707 0.05413181697204039
-0.08799576993172309 -0.05612099407301666 0.052130331534870844
-0.08733023280329599 -0.056375246642155506 0.05011071089461577
-0.08665863788385242 -0.05663181344572874 0.04807270744840242
-0.08598090208725523 -0.05689072622481104 0.04601606906532962
-0.0852969408009609 -0.057152017303605175 0.04394053898249445
-0.08460666785079418 -0.057415719602896986 0.04184585569812094
-0.08390999546476502 -0.0576818666538804 0.039731752861736414
-0.08320757065179785 -0.05795035027255651 0.03759865622954217
-0.08249783469670002 -0.05822148859853197 0.035444903851550136
-0.07134946736260833 -0.0605208620765269 0.02329321571659959
-0.07296227028564722 -0.06034717476009133 0.023292641754076027
-0.07456505589291157 -0.060174634988116114 0.02329131076563329
-0.07615870251905166 -0.06000307902689985 0.02328998736636384
-0.07774406229403696 -0.059832346750711696 0.02328942748617674
-0.07931965772290983 -0.059662734193660256 0.023288116932028535
-0.0808459601302347 -0.05950203288702635 0.02324696702320611
-0.08227480165757484 -0.059359812737779835 0.02311751082056923
-0.08361641858708302 -0.059234179176769895 0.022908508673463
-0.08488066158385954 -0.0591232962163049 0.022628532409477098
-0.08608299053002139 -0.05902419551803661 0.02229199616138977
-0.08722662682860283 -0.058936319060781846 0.021901234156768257
-0.08831246567671325 -0.05885956810779425 0.021456271858436626
-0.08935304243356063 -0.058791512662579155 0.020969053074602118
-0.09034896466662612 -0.05873209311529957 0.02043951319368298
-0.09063246971817135 -0.05881569537870246 0.019176759567403667
-0.09068251236312219 -0.058946773841902805 0.01766700999343679
-0.09073277855948392 -0.05907843786105028 0.01615051604035156
-0.09078400322452723 -0.0592105427708373 0.014628002289214181
-0.090834722559124 -0.059343389067102355 0.01309788886515012
-0.09088566999595388 -0.05947683281855539 0.011560893998111998
-0.09093684707726563 -0.05961087806472014 0.010016971161175614
-0.0909889948808657 -0.05974537758719409 0.008466865838262283
-0.09104063747694752 -0.059880637401941425 0.006908951542544728
-0.09109251443490585 -0.06001651104594629 0.005343967198814359
-0.09114537152030178 -0.06015284934202247 0.003772674374219742
-0.09119772357602546 -0.06028996254669268 0.0021934106656278374
0.11486570855377898 -0.08214220363255188 0.022542964146829048
0.11191946402166814 -0.08181387731614877 0.02259797507829492
0.11068259317187013 -0.08176738643069718 0.02162890366851533
0.10930481236199235 -0.08169733245370582 0.020747839433955695
0.10764604432850688 -0.08158028827185611 0.020042304953359957
0.10818679483125043 -0.08182920027012912 0.017983118916674867
0.1080280747453482 -0.08196233313603485 0.016347903806911646
0.07485977887280248 -0.07857193359505316 0.013645244469502549
0.06409811364895424 -0.07687942662537388 0.019203630397830518
-0.039835770905399526 -0.059127490051279166 0.08815768704268132
-0.04456830568186754 -0.05842977479142809 0.09009610171709653
-0.04738124766193358 -0.05806130171413144 0.0907460417143513
-0.0501589337141764 -0.057697446883611864 0.09138783570718645
-0.052098984767720236 -0.05747760254372802 0.09146367389315868
-0.054007843979143544 -0.057262292549168925 0.0915274340054224
-0.055903232057981145 -0.057048454193086615 0.09159126377395779
-0.05772681230840121 -0.056846290994608216 0.09161385778153089
-0.05950472107980703 -0.056651297886045844 0.0916130009957897
-0.061270474446031564 -0.056457637928142755 0.09161215006776446
-0.06302344737939952 -0.05626542923821815 0.09161076691205391
-0.0647652675568941 -0.056074393997483464 0.09160992934544179
-0.06649456380459184 -0.055884781558536545 0.09160856305622164
-0.06821293408516926 -0.05569631803420948 0.09160773856890811
-0.0698958839617535 -0.055513353121013714 0.09158940176835764
-0.07151616932571331 -0.055340761134301614 0.09153307717600004
-0.07312641092472577 -0.05516923900441363 0.09147710172639187
-0.0747267018586173 -0.05499877681440277 0.09142147218318425
-0.07600610454557083 -0.054884967211873956 0.09113291439698396
-0.07726070944997682 -0.05477512340939393 0.09083083380780435
-0.07852484921064878 -0.0546631070023756 0.09054098837256738
-0.07978382913258308 -0.05455154781268326 0.09025232599928174
-0.08103836489015609 -0.05444031971161023 0.08996536376275177
-0.0822809957335085 -0.05433077262714533 0.08967433041707604
-0.0833177880284009 -0.054258026674619646 0.08922888008778593
-0.08435180761866706 -0.05418547526736917 0.08878462103100027
-0.0853830656120646 -0.054113117626024256 0.08834154847435141
-0.08641157305709996 -0.054040952975372404 0.08789965767093058
-0.08743734094341732 -0.05396898054433163 0.08745894389911368
-0.08846038020219832 -0.05389719956592145 0.0870194024623997
-0.08876622540361767 -0.053956620122589324 0.08600949736063657
-0.08880754373402111 -0.05406490537671713 0.08478408549582883
-0.08884902824103014 -0.054173626139060176 0.0835537451950785
-0.0888913443557735 -0.05428266242048491 0.08231898672406446
-0.08893316548454244 -0.054392261622733806 0.08107870383221497
-0.08897515583258603 -0.05450230429205864 0.0798334024309178
-0.08901798460716293 -0.054612669008264364 0.07858360382951116
-0.08906031775043888 -0.05472360621998965 0.07732817757810484
-0.08910349393191686 -0.054834869923501596 0.07606820035102826
-0.08914617407331232 -0.054946712629801456 0.07480252528060227
-0.0891897019178377 -0.0550588863497195 0.073532244559923
-0.08923273332917925 -0.05517164568228854 0.0722561946694959
-0.08926985896469347 -0.05528601256357585 0.07096972216773989
-0.08927259995944065 -0.05540736933889684 0.06964830499159452
-0.0892352985772622 -0.0555368318624109 0.06828656560567425
-0.08911748282798054 -0.05568212165297154 0.06684886720783245
-0.0885865666449272 -0.055906494449795195 0.06504450049183913
-0.08793830996209845 -0.05615419506085119 0.06312659314392516
-0.08728428335278604 -0.0564041003762522 0.06119161511275084
-0.0866244094382107 -0.056656239962637384 0.05923933746842053
-0.08595860944976974 -0.05691064391770012 0.05726952716917111
-0.08528680319770177 -0.05716734288216305 0.05528194696864608
-0.08460890903888668 -0.057426368052081095 0.053276355320637125
-0.0839255618685642 -0.057687612704020105 0.051253154792968825
-0.08323524593506648 -0.057951384888538945 0.04921080581063453
-0.08253858817080051 -0.058217580309268345 0.047149694068948145
-0.08183550078028368 -0.05848623251317558 0.04506955981870836
-0.08112589433995249 -0.058757375669324305 0.042970138493911125
-0.08040967776024321 -0.059031044583362814 0.040851160599571834
-0.07968675824660815 -0.059307274712419034 0.038712351596397854
-0.0789570412594468 -0.05958610218041293 0.03655343178222137
-0.06645650931592606 -0.06217817129996705 0.023296500268225495
-0.06809666160075561 -0.06199833892422165 0.023295142715453854
-0.06972815988984132 -0.06181938473912461 0.02329455987892637
-0.07134946736276992 -0.06164161878161581 0.023293215716754134
-0.07296147720594115 -0.06146487224953357 0.023291879262841653
-0.0745650558930841 -0.06128898008045435 0.02329131076579999
-0.07615870251922952 -0.061114247156992214 0.02328998736653659
-0.0777440622942201 -0.06094035317198461 0.023289427486355596
-0.07931965772309818 -0.06076759964165332 0.023288116932213332
-0.0808672970987282 -0.06059964308123385 0.023268019471150037
-0.08231565639224497 -0.060450855527009045 0.023158029869691676
-0.0836787968665405 -0.06031853902254075 0.022970695177518707
-0.08496058272986162 -0.06020202972231759 0.022708620754740505
-0.0861750774267821 -0.06009859259759251 0.022384753722271278
-0.08733225234338171 -0.06000629710080085 0.022008179828538532
-0.08843593301409641 -0.05992444450882365 0.021581929356199625
-0.08948470549685583 -0.05985339778709416 0.02110374492502265
-0.09048951129230975 -0.05979099803015816 0.02058403651913271
-0.09102263934309712 -0.05982493688579386 0.019580042912719864
-0.09107348344278154 -0.059958086264973856 0.01807321002457707
-0.09112455436970873 -0.06009182965407085 0.016559654809279456
-0.09117658509193721 -0.06022602009374466 0.015040099989582112
-0.09122811576029055 -0.060360962812938866 0.013512970016252124
-0.09127987786699832 -0.060496511596725144 0.011978981285231227
-0.09133187297474915 -0.06063267053729535 0.010438087485692304
-0.09138484017849674 -0.060769290085058394 0.008891032173376667
-0.09143730756740687 -0.06090668106820685 0.00733619335576452
-0.09149001273701723 -0.061044694703200356 0.005774308054857014
-0.09154295730742185 -0.061183335232411436 0.004205328260184826
-0.09159688660387999 -0.06132245044763533 0.0026300189797773266
0.07481337193021437 -0.07999240604855777 0.01367643519208156
0.06399371370341161 -0.0782589571122761 0.01927419001410019
-0.03909784431445262 -0.06033198406020432 0.08765617789586394
-0.044366560622048634 -0.059527596308058144 0.0899582301496209
-0.04718244176527747 -0.05915197773438399 0.09060942508577263
-0.04996300936933756 -0.05878106973638934 0.09125245348474395
-0.05207919520651305 -0.05852614957938193 0.09144992382612319
-0.05398824227784943 -0.05830689868623629 0.09151373924758538
-0.055883039373034016 -0.058089284379246854 0.09157707832231243
-0.05772681230818283 -0.057879859921821764 0.09161385778137665
-0.05950472107959648 -0.05768132148401149 0.09161300099564015
-0.06126971850307089 -0.05748427549263488 0.09161161020485131
-0.06302344737920434 -0.057288437042584336 0.09161076691191375
-0.06476526755670658 -0.057093928433834984 0.09160992934530643
-0.06649456380441188 -0.05690086849599684 0.09160856305609097
-0.06821293408499673 -0.05670897836213527 0.09160773856878218
-0.06991252061967868 -0.056519683717607405 0.09160161146466816
-0.07153266844327011 -0.05634397233861067 0.09154525189743373
-0.07225597875648831 -0.056330092302691065 0.09083131401197617
-0.07446187093847628 -0.0560468584259338 0.09122392215574138
-0.07605378060147872 -0.055874197741598464 0.09116867125528139
-0.0773464120145208 -0.05575540255838226 0.09089545881256084
-0.07861002295637382 -0.055641413351488 0.09060556232996872
-0.0798691656634482 -0.0555277632641826 0.09031737321526892
-0.08112249138106903 -0.05541470200834803 0.09002983497027756
-0.08237072362345971 -0.05530210022980877 0.08974346527138469
-0.08344765969899931 -0.055220596997463726 0.08932948470082189
-0.08448105823041868 -0.055146790438077825 0.08888528343284477
-0.08551169801643532 -0.0550731809115919 0.08844226799795696
-0.08653959008938006 -0.05499976763006392 0.08800043365396285
-0.08756474542284082 -0.05492654980974695 0.08755977568392168
-0.08858783503552059 -0.05485340369316199 0.08712081462139545
-0.08911928394064256 -0.05487173348380757 0.08629191962420754
-0.089161260295958 -0.05498172288128886 0.0850685471085057
-0.08920406685852483 -0.0550920300577199 0.08384079518189924
-0.08924638270734503 -0.055202905281292965 0.08260756824070425
-0.08927824383822597 -0.055316228601324596 0.08136068489499493
-0.08927563094861057 -0.05543654890660079 0.08008024350807794
-0.08922897688506665 -0.05556572122233337 0.07875785669437504
-0.08909311652760293 -0.05571236408203605 0.07735540918366351
-0.08852017088325975 -0.055942673752245244 0.07558131715908803
-0.08788283771243988 -0.05618624752367214 0.07374246015661448
-0.08723993038900302 -0.056431951605346246 0.07188752040473992
-0.08659137546396228 -0.056679814067745325 0.0700162859857601
-0.08593709819222184 -0.0569298634766905 0.0681285412423796
-0.08527702250385011 -0.05718212890432304 0.06622406669484887
-0.08461107097460718 -0.057436639940370064 0.06430263895590749
-0.08393987003422715 -0.057693290662476616 0.062364641436292556
-0.08326193375395541 -0.057952382588419324 0.0604086284595739
-0.08257788098496754 -0.0582138120981405 0.058434967907770585
-0.08188762857572107 -0.05847761097028133 0.05644341986821477
-0.08119109186058487 -0.05874381156213243 0.054433740059731395
-0.08048818462523111 -0.05901244682286239 0.05240567973276267
-0.07977881907104978 -0.05928355030711559 0.05035898556671842
-0.0790629057786017 -0.05955715618898176 0.04829339956450568
-0.07834109875779494 -0.05983315295633063 0.04620933189880694
-0.0776118203207189 -0.06011186733933473 0.044105177286198005
-0.07687571584709768 -0.06039319048530088 0.041981327814018254
-0.07613268904888837 -0.060677159193429045 0.039837505666655226
-0.07538264181850213 -0.06096381095830916 0.03767342777865185
-0.07462547418563131 -0.061253183986422814 0.03548880571012125
-0.06314666112292328 -0.06367825857465517 0.023298463312180107
-0.06480681450102238 -0.06349285086232659 0.023297865719433763
-0.06645650931607322 -0.06330868350539157 0.02329650026836405
-0.0680966616009086 -0.06312558145008593 0.023295142715598627
-0.06972815989000003 -0.06294337355253135 0.023294559879077414
-0.07134946736293424 -0.062762375486703 0.023293215716911286
-0.07296147720611101 -0.06258241538130899 0.023291879263005022
-0.07456505589325946 -0.06240332517279077 0.023291310765969464
-0.07615870251941032 -0.062225415287082676 0.023289987366712284
-0.07774328810705211 -0.06204851694829164 0.02328867149190078
-0.07931965772328964 -0.06187246508964437 0.023288116932401348
-0.08087644059151416 -0.06169958762943056 0.02327704103885586
-0.08235725628768092 -0.061541447138779404 0.023199287956918835
-0.08373363821146163 -0.061403988125701865 0.023025367918543593
-0.0850352366643849 -0.06128125944001209 0.022783430869240284
-0.08626710722521302 -0.06117232349895129 0.02247745376897875
-0.08743411315775707 -0.06107627356231691 0.022111313746922157
-0.08854902056173974 -0.060990557451542575 0.02169702293937875
-0.08961332861136218 -0.060914937798983354 0.021235326895441053
-0.09063065016785155 -0.060848735095883164 0.02072916885186793
-0.09141176905834364 -0.060831488485859356 0.019982251396674477
-0.09146341016053211 -0.06096669727039243 0.01847832501423491
-0.09151528133718961 -0.06110250844489702 0.01696769825221256
-0.09156811361483674 -0.06123877276848009 0.01545109198210537
-0.09162045107821398 -0.06137580017640959 0.013926934962516346
-0.09167302328671822 -0.06151344218250115 0.012395941762297635
-0.09172583182322475 -0.06165170293096117 0.01085806628540581
-0.0917788782848723 -0.061790586603338825 0.009313262020432977
-0.09183290133184524 -0.06192994066396173 0.0077622758895430355
-0.09188643002512764 -0.06207008217006077 0.006203478580138311
-0.09194020152849869 -0.062210859368188445 0.004637610453094687
-0.09199495915793071 -0.06235211769402069 0.0030654345233146474
-0.09204922281533029 -0.062494178596275936 0.0014852855459661085
0.07437372167094791 -0.08134265508295004 0.013971929971607733
0.0636736672900049 -0.0795994075076506 0.019490496181704786
0.060636193599407695 -0.07921733007895877 0.019875001724059482
-0.043737552159056614 -0.06070312817070111 0.08952836890381896
-0.04698340021676212 -0.06024394657257431 0.09047264652053577
-0.04976765534808697 -0.05986582507785062 0.09111746535153498
-0.052059403278286676 -0.05957482203099146 0.09143617211444927
-0.05396863824078968 -0.05935162929979538 0.09150004285786223
-0.05586362097870151 -0.05913010267727877 0.0915634368132929
-0.057726812307960784 -0.05891342884903737 0.0916138577812198
-0.059503958380802247 -0.05871148349507835 0.09161245928289519
-0.06126971850286478 -0.0585107804121837 0.09161161020470407
-0.06302344737900589 -0.05831144484695236 0.09161076691177128
-0.0647645249003766 -0.058113598478600884 0.09160939314190711
-0.0664945638042288 -0.05791695543345885 0.09160856305595808
-0.06821293408482137 -0.0577216386900627 0.09160773856865417
-0.06962003666781003 -0.057582703092499424 0.09138695655957405
-0.07126487994629815 -0.05739941876671194 0.09134765039889581
-0.0728764833357578 -0.057221504480961735 0.09129167640281283
-0.07447812699792417 -0.05704468970752748 0.09123604832661422
-0.07606920203766582 -0.0568690941478027 0.0911802372730231
-0.07743137036422376 -0.05673526158415968 0.09095952263355467
-0.07869514906596581 -0.05661917255160615 0.09067010017232552
-0.07995376655882036 -0.056503557620848084 0.09038185969788307
-0.08120657101321366 -0.05638854157054487 0.09009427026710096
-0.08245496470055158 -0.05627386565299608 0.08980837256603652
-0.08357809439784142 -0.056182206710684975 0.0894305254616207
-0.0846108693287198 -0.056107147537513384 0.08898638235039713
-0.08564088837617678 -0.05603228865419026 0.08854342440214022
-0.08666816255632237 -0.05595762926009556 0.08810164687939243
-0.0876887265454957 -0.055883920963140606 0.08765789811993302
-0.08857595272008179 -0.05583518197581305 0.08711136020345689
-0.08845602328405094 -0.05597762802321476 0.08576135724905393
-0.08782925179420248 -0.0562172100447565 0.08399733550214533
-0.08719709212915389 -0.05645885168441484 0.08221814896476168
-0.0865594745080584 -0.05670257961576457 0.08042360124167475
-0.08591632793989867 -0.056948420974966406 0.07861349253167291
-0.08526758019712843 -0.05719640337084062 0.07678761955339594
-0.08461315778864231 -0.05744655489520114 0.07494577546924033
-0.0839536788317618 -0.05769877045352898 0.0730883250961486
-0.08328768603175818 -0.057953345313374975 0.07121391056998988
-0.08261579028473565 -0.05821017656686277 0.0693228823961492
-0.08193791276125861 -0.05846929434643981 0.06741501871180083
-0.08125397322199929 -0.05873072932348193 0.06549009368603492
-0.08056388998608655 -0.058994512720393986 0.06354787743075546
-0.07986757989857601 -0.05926067632304232 0.06158813590914736
-0.07916495829705822 -0.05952925249352089 0.05961063084167395
-0.0784559389773315 -0.0598002741832706 0.05761511960948701
-0.07774117056340585 -0.06007363003570311 0.055601996303726475
-0.0770190959835444 -0.06034964270878835 0.0535697349000584
-0.07629035552831254 -0.060628203409656536 0.051518712551559376
-0.07555485646502297 -0.06090934758533412 0.049448668264331364
-0.07481250433290654 -0.06119311134340713 0.04735933618082011
-0.07406320290265772 -0.06147953146748263 0.04525044546598078
-0.07330685413486354 -0.0617686454330816 0.043121720190252844
-0.07254335813722901 -0.06206049142398722 0.04097287920919562
-0.0717733924335156 -0.0623549522231028 0.03880434359459256
-0.07099530034140528 -0.06265237824059139 0.03661441517193459
-0.0581092185781259 -0.0653878541103555 0.023301842567027053
-0.059798788593696584 -0.06519579203746857 0.023301229785865185
-0.06147762291232539 -0.06500502461599501 0.02329984250166217
-0.06314666112306083 -0.064815370334889 0.023298463312308282
-0.06480681450116593 -0.06462665177055327 0.023297865719568267
-0.06645650931622282 -0.06443919571081452 0.023296500268504994
-0.06809666160106409 -0.0642528239759486 0.023295142715745842
-0.06972815989016135 -0.06406736236593642 0.023294559879230847
-0.07134946736310133 -0.06388313219178846 0.023293215717071103
-0.07296147720628371 -0.06369995851308259 0.023291879263171056
-0.07456505589343781 -0.06351767026512531 0.023291310766141826
-0.07615870251959411 -0.06333658341717122 0.023289987366890808
-0.07774328810724135 -0.06315652617947198 0.023288671492085578
-0.07931965772348426 -0.06297733053763338 0.023288116932592362
-0.08088558353093878 -0.06279946560892305 0.023286062060579316
-0.08238296683039825 -0.06263504502919748 0.023224787247312972
-0.08378770862519347 -0.062489196379477745 0.02307927209852534
-0.0851038852633117 -0.06236119790474327 0.02285222308466417
-0.08635240645544329 -0.062246789069507716 0.022563374229104427
-0.0875359038172181 -0.06214551309560368 0.022214376633562682
-0.08866202131725665 -0.06205585217672037 0.021812028190844712
-0.0897360001128148 -0.06197678179693131 0.021360820341446263
-0.09076438805936526 -0.06190699086215593 0.020866690793260534
-0.09174996109980993 -0.06184595661266955 0.020331810176058673
-0.091852296695343 -0.061972617667760785 0.018882359304156937
-0.09190496366816187 -0.06211048511363682 0.017374650761800836
-0.09195786549476542 -0.06224896734107942 0.015860219012073296
-0.09201173277433539 -0.06238791218040201 0.014339788200319115
-0.09206511054454108 -0.06252763567113823 0.012811779978573856
-0.09211872794035225 -0.06266798641397402 0.011276912163146136
-0.09217258657900418 -0.0628089686422381 0.009735138458590642
-0.09222742314508892 -0.06295042750531328 0.008187203855878455
-0.0922817707030475 -0.0630926848375809 0.006631483542325178
-0.0923363644500041 -0.06323558658117827 0.0050687159730031794
-0.09239194570068304 -0.06337897582870418 0.003499662177370577
-0.09244703841307672 -0.06352317886594004 0.001922661541753412
0.07380671567323288 -0.08266711460788702 0.014353022234727009
0.06319018198594467 -0.08090822171398061 0.019817263952982722
0.06034848723277364 -0.0805548352010522 0.020070532521071993
-0.043015699466766366 -0.061899511426327325 0.08903505837486778
-0.04678412259714765 -0.06133721052870194 0.09033570573054495
-0.04957126998135758 -0.06095200028723528 0.09098176456649529
-0.05203960898261656 -0.06062361992105934 0.09142241875784193
-0.053949031867546904 -0.06039648441209667 0.09148634483596133
-0.055843423403007186 -0.060171187419482124 0.09154924792587571
-0.057725273244761455 -0.05994728140216177 0.09161277062821063
-0.0595039583805847 -0.05974150952134796 0.09161245928274067
-0.061269718502655224 -0.05953728533173447 0.09161161020455444
-0.063022698114161 -0.059334591580629016 0.09161022888357495
-0.06476452490018286 -0.05913313529405093 0.09160939314176722
-0.06619320346998109 -0.05898915146928367 0.09138978861394809
-0.06791275942726904 -0.058790302919184814 0.09138863461931021
-0.06962076131242056 -0.058592790475939946 0.09138748837856484
-0.0712814056932865 -0.05840333008431048 0.09135984477022346
-0.07289216015385297 -0.05822244742790091 0.09130330728790231
-0.07449367466948542 -0.05804254880070893 0.09124764607714111
-0.0760853227915892 -0.05786375846859723 0.09119232777637346
-0.07751697729901069 -0.0577144446383442 0.09102407552759273
-0.07878022757937675 -0.05759638506161753 0.09073460192992702
-0.0800383202482357 -0.05747880749977423 0.0904463101980634
-0.08129060382572867 -0.05736183885153246 0.09015866968321634
-0.08253847978872686 -0.05724521597812609 0.08987272049015144
-0.08370841556363551 -0.05714297941901228 0.08953147827446048
