# .PCD v0.7 - Point Cloud Data file format
VERSION 0.7
FIELDS x y z
SIZE 4 4 4
TYPE F F F
COUNT 1 1 1
WIDTH 766
HEIGHT 1
VIEWPOINT 0 0 0 1 0 0 0
POINTS 766
DATA ascii
0.02083821204457514 -0.0365251786511499 0.042738191035905815
0.020851472024897035 -0.03704930693070474 0.04167347660904125
0.020862756283698887 -0.0376070933706395 0.04063422172201753
0.020893573518237434 -0.037842984688075676 0.03933031099971557
0.020951629811870858 -0.03763203773709728 0.03765489043089332
0.022173613071775566 -0.018279321414057748 0.020162434027551135
0.02223184513097696 -0.018115346675288413 0.01842520070001974
0.022288551825166775 -0.01798051333559969 0.016703862998036834
0.022342882211863126 -0.017888564322831313 0.015010284475184599
0.02239543711591438 -0.017829447666715403 0.013336503963483903
0.02244740687797217 -0.017783605289950433 0.01166632392575001
0.022497558740655916 -0.017770988507594565 0.010016881015936674
0.022546513060007455 -0.017781353145054635 0.008379794909874727
0.022594447459532693 -0.017811699849616613 0.006752744990680959
0.02264232535223174 -0.017846381412231993 0.005122404380223378
0.022679675157910483 -0.01805390368548654 0.003635494525670191
0.022686741052766506 -0.018750350118517944 0.0025709934012143054
0.02555973367470177 0.050744900479651245 0.03468828696232745
0.025582182423666548 0.050260403153022326 0.03340505185391429
0.025606013292070604 0.04979774895146083 0.03210439177476926
0.025624508820417478 0.049243479231878606 0.030862302310343093
0.0256450907698095 0.048723083801280376 0.029594981410148713
0.025668245335595218 0.04824451974721533 0.028296625009856025
0.025691680287901045 0.04776909045997263 0.026993188567094428
0.02571691067621998 0.047322120178329874 0.025667216155066896
0.025746501993964468 0.04694627061142537 0.024288885786521608
0.025774880963432938 0.046548213548883166 0.02292220820382035
0.022697437006714772 -0.005509094396500158 0.05764370332171426
0.022623640955227838 -0.007501879460495131 0.05758908949138458
0.022547444481452492 -0.009529433746295113 0.05756851338418423
0.022471698713417466 -0.011544381857376329 0.057548789644403076
0.0224160547853597 -0.0132225830135837 0.05729834333597805
0.022371050363270622 -0.014721858259353127 0.056926605325613
0.022347322345949414 -0.015868529266511444 0.05630611205966285
0.0223121843644039 -0.017200667966320415 0.055823339049788034
0.022282059938876067 -0.01844839853523078 0.05528352352756316
0.022258938007765475 -0.019579754555893003 0.054662225393179664
0.022188376473203802 -0.02148253194273303 0.05461317887783701
0.022132236731874887 -0.02314603270787191 0.05439584117766594
0.02209924204028264 -0.024430173140758793 0.05390288096481177
0.022075147524119577 -0.025567964010146382 0.05330449409363952
0.022056437126502418 -0.026617123810666332 0.05264244618577568
0.02203828497082875 -0.027656016008021977 0.05197508249042948
0.022022908326394468 -0.02864901891652072 0.05127513990791682
0.022012104904686167 -0.029567547859970122 0.05052016069194637
0.022003878060549244 -0.03044406014468848 0.04973424223930134
0.021996939621060786 -0.03129941467770908 0.04893302860000043
0.021992452373884756 -0.03211518902128907 0.048101914415657476
0.0219938508002366 -0.0328369482674738 0.04719778573972777
0.021996881333958496 -0.03353287099468494 0.04627313111516024
0.021995890490921863 -0.034292754895574984 0.04539869064283153
0.022006911359361274 -0.03486254081842044 0.0443731279379429
0.0220288693458422 -0.035260412085065806 0.0432085603232375
0.02205098834304641 -0.035657232698333485 0.0420401823296227
0.02209241972424991 -0.03575197897564675 0.040624582615140514
0.022132295742358463 -0.03587392467622841 0.039225471609392826
0.02219846321439924 -0.03558707259194094 0.037486891048531534
0.02336450556432016 -0.018127417350511765 0.02163179908198709
0.023427939129181348 -0.01792933333939495 0.01987338833748875
0.023488328142564126 -0.017782883599435473 0.018149169038533308
0.023547893678742323 -0.01765329695795792 0.016430744847165835
0.02360487554988627 -0.017567741351122934 0.014741082096245195
0.02366044781353292 -0.01750781732607748 0.01306519368771164
0.023714791824654326 -0.017470586321611692 0.011400879500205852
0.023768092986556667 -0.017453072052051266 0.009745857082923581
0.023819788733383335 -0.01746380228298916 0.008107651633933177
0.023870954756387862 -0.01748614200828752 0.006472266101673507
0.02392206531649515 -0.01751279114844423 0.0048334886720944326
0.023953127127381346 -0.017848548633106864 0.003456702951729118
0.023970003282475 -0.01840219312779745 0.0022662749347752698
0.02676414956597873 0.05019472669934061 0.03823929028154288
0.02668095794012563 0.04799063900702383 0.03809748582450018
0.02660791991830082 0.04595559706579555 0.03785385515703005
0.026585657722807705 0.04474223535304156 0.037072796219803805
0.026629651341873506 0.04459423438068966 0.03558233050366
0.026657760135517804 0.044188839021467696 0.034259592179903986
0.026685683843306694 0.04377867666958368 0.032936701270261326
0.02671293113368624 0.0433559227871983 0.03161900887592828
0.026741543450884964 0.042953161473218815 0.030284369487647345
0.02677177545805663 0.04257430954815661 0.028929844228455293
0.02405872892553146 -0.0013287956566243597 0.05764657769141235
0.02388557347010218 -0.00484358675040214 0.05862994798472665
0.023788879898366814 -0.007139089255071396 0.058782501342967086
0.023730413700820286 -0.008825582207133753 0.058518996343105645
0.023656340834045567 -0.010753911592764565 0.05843345148866769
0.02360547217428251 -0.012313072108755485 0.0580947577172648
0.02356041066099856 -0.013777951885438233 0.05769496449637407
0.023518875330303335 -0.015184785330778272 0.05725902149368006
0.0234884669516695 -0.01641527995393427 0.05670087001794549
0.023483732605471954 -0.017243925932197646 0.05585474243528277
0.023434859698396423 -0.018758343156070112 0.05550975872160058
0.02343529965321289 -0.019504700544439812 0.05460714302986863
0.023384124547064813 -0.021050056331846534 0.05429405461958314
0.023317855426862245 -0.02282528380007154 0.05415787243617043
0.023275186131431008 -0.024232457437015353 0.053755395421746066
0.023246950275478826 -0.025414859022541647 0.05318966597382341
0.023228226146467846 -0.026449432630558545 0.052515996756487104
0.023212923218841983 -0.027430394310272888 0.05180402881850682
0.023202876222999512 -0.028330027206298403 0.051031990615831524
0.023195300503339875 -0.0291913164009992 0.05023183189485081
0.023190129683357433 -0.0300155105722123 0.04940404719852021
0.02318809892061397 -0.03079167444623576 0.04853970959866366
0.02318951426348813 -0.031515471698604025 0.04763484529225415
0.023190252771935663 -0.03224959763414603 0.04673788871441631
0.023197948364261527 -0.032878762719375676 0.04575821223564991
0.023199426502650142 -0.033602067191318585 0.044852059506487796
0.023210826810129506 -0.034176341955085454 0.04382713930921506
0.02325041414862599 -0.03432861992248515 0.04246319162641515
0.02327965069861269 -0.03463834381301606 0.041220784174266556
0.023318975506237783 -0.034799298743196816 0.03985433745852551
0.023432157486469003 -0.03386224380632624 0.03759034188360322
0.0245497181942189 -0.017998607072612527 0.02311446567584302
0.024618398548683 -0.017768635962584156 0.021337059331142993
0.02468411682588952 -0.01758693152993046 0.019590607938783366
0.024746822443342312 -0.017453955398167853 0.017876072251250374
0.024809002194637685 -0.017332761274023112 0.016163202880240535
0.024868663867846832 -0.01725260001490625 0.014476647174518964
0.024926693176187918 -0.0172002301809554 0.01280572950593839
0.02498435099809326 -0.017157030362347003 0.011134979698910363
0.02504048212896473 -0.017139844169891505 0.009478830161000873
0.02509506416643261 -0.017148851018166766 0.007837736230733805
0.025149522754187748 -0.017163162198724102 0.00619400827262423
0.025203636644351775 -0.01718597726988258 0.004550441852685161
0.025226265027609558 -0.01766827777539015 0.003299750833856252
0.028088075982554625 0.04997457440549419 0.03838318377862954
0.02798731827718613 0.04756466389795494 0.03837747086414278
0.027898898064973938 0.045350357147032505 0.03825389835150744
0.02781659962585407 0.043235272451411066 0.038074424820528696
0.02773327631061626 0.041109552208017375 0.03791143152209259
0.027680147392778312 0.03944977895117491 0.0374447765051672
0.027723890732518214 0.03926881903038304 0.035984727138233474
0.02775492086064676 0.038891922384120925 0.03465282881212378
0.02778240266356693 0.03845929517335356 0.03335545443643129
0.025197700507952298 -0.0015240040059529836 0.05923357935983492
0.025048356556184058 -0.004551804797603642 0.059873651712076925
0.02497682796426651 -0.006397086590556322 0.05970934134551298
0.02491077821052769 -0.008155541950346235 0.0594926473363665
0.02484675891044466 -0.009879461009676793 0.05925935071787514
0.02480450774706442 -0.01127321848117091 0.05880027585956055
0.024751110868813545 -0.01283109083742684 0.05846268444261554
0.024711912675577253 -0.01417376565510936 0.057977638093299755
0.024664017352147207 -0.015643587461873054 0.057588475646901116
0.024630514985026525 -0.016896529948083383 0.05704833600104159
0.024623706479429453 -0.017751441773435517 0.05622317667124077
0.024595916629592367 -0.01891653417962952 0.055625225726038396
0.02458800701641433 -0.019786236729387674 0.054813763277397565
0.024572268849338 -0.020770865839858432 0.054088039629548
0.02451809700351179 -0.022319955313571005 0.05378296115494724
0.024465598633582067 -0.023841160091394586 0.05346350812889894
0.02443139666435162 -0.02509110038318485 0.052946848307245886
0.024409167914355608 -0.026163900246707283 0.052300687835897586
0.02439638198536218 -0.027097575731442614 0.05155170450501667
0.0243897022877214 -0.0279415701192125 0.05073589180603921
0.02438490553923801 -0.02875780006306139 0.049899602249353414
0.024383544643625698 -0.029523925381277405 0.04902528356744179
0.024386525851816953 -0.030227151022282628 0.048102403717472875
0.024391582610216882 -0.030900596118099255 0.04715597068329225
0.024400080091324588 -0.03152478514935636 0.046170358713172044
0.024415338510437354 -0.03205230604624565 0.045107619420735934
0.024438294500235262 -0.032470344239574345 0.04395637973786615
0.024464620108140038 -0.03284155584564885 0.0427650885299492
0.024518817726595334 -0.03281627892064559 0.041253424376849535
0.024589852141439703 -0.03255435271312007 0.03954482275429139
0.025634891975791583 -0.01844453536753876 0.02663145652890886
0.025720191001513158 -0.01801868585853139 0.024712418277375525
0.025802938916358015 -0.017634183727380404 0.02281667691606415
0.025873811164012817 -0.01742255168384743 0.021052750285249777
0.02594162604499742 -0.017258365620292537 0.019319254235735717
0.026008175320043986 -0.0171161367070512 0.017595594022650596
0.026072473553821 -0.017009582544026514 0.015893454838367904
0.026134559222648845 -0.01693795746171478 0.014212630781354596
0.02619559499181171 -0.016884807643252175 0.012539655803067817
0.02625563919004137 -0.01684922320083576 0.010873954957824061
0.02631475167269156 -0.016830280143950438 0.009214926678286994
0.02637299378330437 -0.016827041146669663 0.007561942954375178
0.026431113568369188 -0.016829062381378712 0.00590617018768036
0.026488495910584015 -0.016844836007238073 0.004254986378805725
0.026500966710088922 -0.017483605684362857 0.0031389667993990678
0.02943407349755995 0.050099211471597904 0.03830171988381864
0.029318885093685222 0.047547589873004836 0.038388693284069964
0.02921009724193924 0.04509650923948538 0.03842168326571821
0.02910819469577704 0.04275249918618118 0.038395308307173526
0.029023729816890918 0.04066900060556328 0.03820588855866103
0.028933394529047887 0.03850491246414095 0.03807983364293871
0.028843187066718512 0.03634796162578724 0.03795881360350917
0.028778419775304716 0.034565430283496235 0.0375931954795683
0.02636942023523808 -0.0011606767424541253 0.06043153799181655
0.02624822961818601 -0.003682576284540884 0.06071691959034059
0.026167340460915223 -0.005616134444777654 0.06060909514489454
0.026090701243066054 -0.007483794008481981 0.06046440081942306
0.026044043644376305 -0.008916308461308198 0.060024157845594894
0.02599706042485009 -0.010350764286750247 0.059590443289604056
0.025950736840699498 -0.011773037944934395 0.05915333483961316
0.02590772002232021 -0.013145394957288892 0.058685921324188706
0.025869788065574377 -0.01444279177439256 0.0581697652668135
0.02582578990949753 -0.015824222882299954 0.05771818535277473
0.025783393469232745 -0.017180356120062246 0.05725326055392266
0.025774682064115338 -0.01805703741675302 0.05644502570177179
0.025752929283238427 -0.01911749233438992 0.05577190937233789
0.02573183313991747 -0.020167416615479883 0.055093512334990435
0.025747479581962208 -0.020699059832725075 0.05403505389303992
0.025726116941331135 -0.021751334540507594 0.053361092314669456
0.025674922367396744 -0.023220418041967394 0.053000467123404116
0.02562885030971335 -0.024614874004845355 0.052589680454734555
0.025604750774744993 -0.02570000436206671 0.05195088190201119
0.02559125301883251 -0.026636085098785345 0.05120182828273179
0.025582739033913518 -0.027502118247746732 0.050400922563804074
0.025583828508064177 -0.028234476398460495 0.04949854784757979
0.025586961262783075 -0.028938622397448155 0.048574310902836926
0.025594592048219282 -0.029580837153531103 0.04760173918539545
0.02560522823006676 -0.03018208343964046 0.04659638190006454
0.025626732104821963 -0.030634511922205843 0.04547327253389749
0.025653269113028242 -0.03101913449831717 0.04429429912517818
0.02568850855419509 -0.03128615099648746 0.043019173393913646
0.025749410861042914 -0.031204591540676063 0.041462603282735655
0.025844330114973942 -0.030662806704702616 0.03953079690293421
0.026907474095440698 -0.016954162517055893 0.026999031693003772
0.026859953754154592 -0.018385446229551128 0.02658368276307088
0.026978843546319686 -0.017559717516195228 0.024339360705979085
0.0270561510067024 -0.017303006453537273 0.022546055203885196
0.027129843780784355 -0.01709956713911953 0.020787417724969948
0.027201398572899153 -0.016929208346311786 0.019047412140862974
0.02727085569644568 -0.016791201290425883 0.017325812295170773
0.027337480309138205 -0.016695209120595578 0.015631056334022786
0.02740232186958491 -0.016626951292117664 0.013951665675662361
0.027466058984579315 -0.01657721771966464 0.012280189277528664
0.027528910599093823 -0.016542996885500594 0.010614270796215353
0.027591258498176553 -0.01651913980565567 0.008949679388524756
0.02765309387059001 -0.01650571911295401 0.0072865677583552335
0.02771488737616151 -0.016496465467934096 0.005619626904344255
0.027778322325550508 -0.01646916281848876 0.0039296235096374366
0.027784986994814947 -0.01719302919638549 0.002885977515552751
0.030980793980087747 0.053904052888769094 0.0374126103210759
0.03077914909262444 0.050200034336270405 0.03823582116284446
0.030658762428033275 0.04764874038332367 0.0383222090481638
0.030544326428633303 0.04518759950707707 0.038361475667865685
0.03043240035761132 0.04276797225599177 0.03838502386735981
0.030323029984684273 0.04039028729380273 0.03839217569364367
0.030215714829326046 0.038047355924350656 0.03838736338445803
0.027689647058068208 0.0020716125953839093 0.06112477733508909
0.02753698157431766 -0.0008211669701249646 0.061642602855998596
0.02744635258303047 -0.0028461081359262286 0.061583353074711966
0.02736510873456191 -0.004736246595354654 0.06144098687185967
0.027274643300094766 -0.006749062330838607 0.06139193942239052
0.02722705231450035 -0.008166536117308498 0.06093877956111865
0.027187568880653323 -0.009469953526827002 0.06041096268842844
0.027145706347645338 -0.01080378593114173 0.059908692936035124
0.027101560294698412 -0.012166525963256403 0.05943128415628374
0.02706214820626251 -0.013462151556239199 0.058910900097608576
0.027024376688395902 -0.014733216481706668 0.058377174414607325
0.02699359719761773 -0.01590707803364283 0.05777768153179319
0.026961151558005145 -0.01710183237789814 0.05719656584306726
0.026930660182691517 -0.018268304262666568 0.05659839616360324
0.026917531149904354 -0.01919839823133379 0.05583096431332801
0.026905855631677647 -0.020108152926421097 0.055050018536475454
0.02690765674848671 -0.020835854840948187 0.054135995089336586
0.026921425242176136 -0.021402906839586455 0.05310258823414432
0.026888433279744106 -0.02259752672703408 0.0525358228785896
0.026851575280429 -0.02384201660489721 0.052010040538946034
0.026815533741590576 -0.025073547751026715 0.05147849521542969
0.026796941825529108 -0.02607062474299604 0.05077312806839318
0.026789083773600626 -0.026923980907198664 0.049960241252730686
0.02679265504432609 -0.027625291130955132 0.04903169253497891
0.026799514553731453 -0.02828327531474939 0.04806936965310654
0.026814460430972683 -0.028834831519797155 0.04702384881417071
0.026839526780625282 -0.02925382644590574 0.04587344100114976
0.026872326902684075 -0.029572500702609472 0.04464171507396514
0.026913277785173186 -0.029786029744430176 0.04332358992892138
0.026984608898809517 -0.029603956852235436 0.04168783407665566
0.02710879830493227 -0.02873506146820748 0.03949766948596972
0.028211172479494145 -0.015116465392526646 0.02709480889020177
0.02813093484145363 -0.016949038681690565 0.026994911065811533
0.028124872441813914 -0.017813943622026762 0.02612162099203308
0.028228924289035937 -0.01725172683965187 0.024089020446737774
0.028310520251515748 -0.016985665950098927 0.022286740217118073
0.028388658994729362 -0.016768768804393208 0.020515666117897846
0.028463440525471232 -0.01659945811001312 0.018775080334440697
0.02853626686353915 -0.016459442737405572 0.017050365572650994
0.028604336304156666 -0.01638446977692365 0.015371691092104844
0.028671749551364402 -0.016321693987501273 0.013695524439410578
0.02873791971157186 -0.016278550091949007 0.012028249126984913
0.02880381805585614 -0.016242565976016865 0.010359501219129152
0.028869272858485184 -0.01621590075785112 0.008691167952749324
0.02893385944936592 -0.016203901142354427 0.007027907678761214
0.029000911596925288 -0.01616432258091738 0.0053334747798496895
0.029057852462966754 -0.01625611574148378 0.003745107791406299
0.0290756765928942 -0.016843727022725796 0.002581858942934445
0.032366501796463415 0.0544273295920647 0.03707250555230701
0.03212248917516753 0.050269045451366345 0.03819071488429743
0.03199780474966979 0.04773022079494427 0.038268653580269096
0.03187902658194652 0.0452774264287385 0.0383021030991082
0.03176314736571172 0.04286986471107729 0.03831729930884459
0.03164724788213861 0.04046823892702012 0.03834007417639801
0.031532380769963175 0.038086608492102714 0.03836098121970899
0.028721019415959663 -0.00022780930075472217 0.0626788612954986
0.028644757627016196 -0.002011415456457999 0.06245151846101832
0.02855209698090048 -0.004008622550489338 0.062377809403200424
0.028484850930818602 -0.005664181893234532 0.06207865083720626
0.028419461294215454 -0.0072915957154666144 0.06176682573310105
0.028365646425230803 -0.008762788143077349 0.061353063786539874
0.028334450518830052 -0.0099332666613976 0.06073465701058839
0.02830049678468923 -0.011138313509382325 0.06014369999323549
0.02825542765773685 -0.012487306215874128 0.05965787466950112
0.028221738891983424 -0.013684950220621883 0.059069144536393836
0.028189570170594914 -0.014860937588216105 0.05846838747323929
0.028156869828713925 -0.016042130647625885 0.05787465938251485
0.028132696223433718 -0.017110667981607763 0.05720294521297181
0.02811105080173172 -0.01814509500386785 0.056508951646920325
0.02809598656687236 -0.019093116036368873 0.05575411659213808
0.028089288172183816 -0.019932190935157634 0.05492087950520924
0.028082292137678884 -0.020774746434783997 0.05409090312507475
0.028089890144934893 -0.021429062228293327 0.053121993335089435
0.028100504142837292 -0.02204504179860417 0.052123698104672656
0.028085375982219853 -0.022991582522890908 0.051372218426211036
0.02805449293064052 -0.02413885525843895 0.050773679779268666
0.028024651376771882 -0.025271178396388205 0.05016703284591806
0.028009978854193488 -0.026208667763241766 0.049414998605355254
0.028017313194865265 -0.026865619514378325 0.04844951048142515
0.028029520659968218 -0.02746114739767852 0.0474359247063853
0.028055018352027852 -0.027889095457751756 0.046291238041192395
0.02809109416906346 -0.02818478992346307 0.045040858828622354
0.02814666652846796 -0.02823666507684719 0.043595752414297306
0.028227664724655304 -0.02797170814489186 0.04189534252651084
0.028419538324774254 -0.026319456976274247 0.03908838154774419
0.029539331935385632 -0.013055712608556147 0.027022064175840577
0.02944344865115899 -0.01504518499634272 0.02703778954817876
0.029370709635003055 -0.01674088976841198 0.026827516133903218
0.02938807819490323 -0.01731138231723639 0.025715298495006533
0.029479207535451222 -0.01696688748167341 0.023857497987945397
0.029566234578659412 -0.01667810407698478 0.022035415844110062
0.029649500724950133 -0.01644048146881255 0.020245977302507434
0.02972809516098325 -0.016264954233809137 0.018498822625319933
0.029802786792755602 -0.016141681561371468 0.01678654034889787
0.029873343361847035 -0.016073202812270537 0.015111885460045826
0.029942781184821254 -0.016022215618492375 0.013444232304845538
0.03001091052163536 -0.01599095059774236 0.011785645466116323
0.030079782025771218 -0.015954278191443405 0.01011502918034618
0.030147670151812397 -0.015933268899201214 0.00845022415575336
0.0302169102787844 -0.015899469833036972 0.006767007949886383
0.030288831243864365 -0.015836880400077857 0.00505137246979287
0.030327990045519566 -0.016174435069342852 0.0036743658310022242
0.03035696425759003 -0.016637007477807997 0.002401879378896632
0.03371625082171292 0.054442183027776814 0.037062851531238505
0.03346359155306481 0.050303559254560426 0.03816815635559628
0.033337862596665276 0.047818306875657024 0.03821075633633336
0.03321448882032773 0.04536989637870903 0.03824098357768774
0.03309332820756014 0.04295631805644179 0.038259836617990206
0.03297235158199379 0.04055133373612929 0.03828453504974816
0.029898647474330173 0.0002967891733149375 0.06376001359392763
0.029823787335809142 -0.0014297781444356228 0.0634912222215267
0.0297517320869445 -0.003116679755594043 0.06320267718922373
0.02967188092667052 -0.00489922311189378 0.06298644121309427
0.02962584691388258 -0.006247581623725296 0.062479554851070984
0.029564263181275727 -0.007790930861055645 0.06211186239967664
0.029512819672223925 -0.009202673701512287 0.06165870240909249
0.029484617898605573 -0.010317980887746603 0.06100343810361469
0.029455278449518722 -0.01144618954216986 0.060359984225550334
0.029416249892511365 -0.012694867699497625 0.05980449049985426
0.029394480177929234 -0.013724707430581684 0.059097382395876474
0.02935695374061602 -0.014950982149071423 0.05853269352282847
0.029333302161055376 -0.01600172386188753 0.05784564429632061
0.029315195076479898 -0.01698201875057065 0.05711005953592174
0.02929962513460075 -0.017929768062235618 0.056352633733713964
0.02928619167040036 -0.01885014974443311 0.05557677030991587
0.029282344585642432 -0.019650881044059376 0.05471442533541271
0.029278027633012627 -0.02045723313282599 0.053856609688815116
0.029280303686138362 -0.02118188813403138 0.05293861092376595
0.029297346078275065 -0.021724560264402448 0.051884635692232284
0.029320782270889127 -0.022189424197747665 0.050770602935350406
0.029324009648286714 -0.02290367114464792 0.04984227524055185
0.0292982105074146 -0.02397380292085416 0.04918343578425888
0.029278106113219765 -0.024972965546219583 0.04847309287655832
0.029269632845015187 -0.0258291534478875 0.04765520419188979
0.029292789028109854 -0.026299727638353643 0.0465410572991482
0.029326607810681832 -0.026641919447437545 0.04532511798124644
0.02939392646456269 -0.026579617341886352 0.043790725603803315
0.02949385322426063 -0.02612619629771129 0.04194325004439592
0.031050129339703806 -0.008092522793903267 0.02624630056679872
0.030924507430962905 -0.010404520466215261 0.026492819507592802
0.03080623919524432 -0.012621640967874936 0.026676685900637154
0.030699049948778832 -0.014699755748001198 0.026761470258298115
0.030617730076437654 -0.016462646892609234 0.026603751106666962
0.030644358912504378 -0.016931755324419706 0.02540836880067937
0.030732304244538773 -0.01667129679373225 0.023617236658352525
0.030825017775589433 -0.016358642945683732 0.021774367984986
0.030913304669795392 -0.016103297738243205 0.019968980077788634
0.030995324750644114 -0.015926713998354602 0.01821947915809463
0.031070797350597777 -0.015831725229877802 0.01652919519575291
0.031144329359568665 -0.015763501237946953 0.01485338641451911
0.03121589057680582 -0.015722247691461244 0.01319252938241361
0.031285451399460415 -0.015708160133485027 0.011547098447538262
0.03135640308428623 -0.015681355623464788 0.009883587058293342
0.03142930506617257 -0.015635402037786517 0.008196292511488734
0.03150227425596361 -0.015592413404900696 0.006503858476103241
0.031572571146681945 -0.015584276977716693 0.004833746234853775
0.03159284417429441 -0.016160641236199758 0.003662419274094053
0.03496129959566537 0.05314966929586534 0.037902923487726836
0.03480458768593863 0.050334095279528424 0.03814819773811834
0.03467688071592408 0.04788669702660536 0.0381658048386595
0.03455010749906792 0.0454571933791702 0.03818328320160519
0.034423631929994127 0.04303764203247484 0.038205783249966874
0.034297871837416956 0.04063318202981403 0.03822982907234995
0.03098484399003062 -0.0010561478952996195 0.0646693403127494
0.030934470742643647 -0.0024419052603546487 0.0641752769917221
0.030883673259836198 -0.0038303807021585756 0.0636877219841741
0.030820159670929086 -0.005372159304203095 0.06330964335686518
0.030773237510213113 -0.006707907132512458 0.06279588400672881
0.030718149150989305 -0.008140994364495668 0.062353753533084144
0.030668804228868973 -0.009501407396152961 0.061866266747564735
0.030633406978617675 -0.010689854195776394 0.06126324787240883
0.030609469262638706 -0.011737549676869519 0.06056466596868609
0.030582439926036084 -0.012821485653746134 0.05989393000556442
0.03055200675481224 -0.013945204462782024 0.05925399208297233
0.030534022125854394 -0.014917344280801326 0.05850867076782251
0.030513763482652882 -0.015915953153539886 0.05778405452989466
0.030500163459786223 -0.016833616136764706 0.05700291177337208
0.030486657373218765 -0.017749481176062842 0.056221753363559834
0.030474225983291605 -0.01865182860569614 0.055432011477894894
0.030461804727402644 -0.019553440443984382 0.05464291338780786
0.030474144231922216 -0.020159606043108735 0.053636990311788035
0.03047855946218074 -0.0208605420185477 0.05270019910434448
0.03049304057906601 -0.021442337188965266 0.05167411208303763
0.030519174093172303 -0.02188696484046293 0.05054375964395186
0.03057371504187388 -0.0219974400350037 0.04915892143181605
0.030662595533621242 -0.02170596799550223 0.04746409099088977
0.030636959556030213 -0.022765477734853046 0.046790450094880476
0.030633737420258784 -0.023560712028485753 0.045916761086874536
0.030638033752539068 -0.02426774988351149 0.044975429841512926
0.030695903569167703 -0.024349008655393134 0.043548923527905015
0.03379523916634246 0.01103037428029674 0.014499482623642257
0.03264233234020983 -0.0032195271174075835 0.024007270379016843
0.03241191287934823 -0.006701829034038653 0.025151536137724806
0.03224575209435649 -0.009428247323725658 0.025720167418997353
0.03211529799939843 -0.011733640661891476 0.025970129688903665
0.0319804022340307 -0.014083824518569654 0.026268768262885267
0.03188516176064862 -0.015970839856587316 0.026208236164935117
0.03190074193382928 -0.01658015525064377 0.025124098964204533
0.03198733627481142 -0.016376260767628714 0.02337742616769345
0.032085998268615835 -0.016038624172130478 0.021512864448153923
0.03217870642115137 -0.015773815806712554 0.019698309899026212
0.03226361095569161 -0.015602459447980332 0.0179516860901191
0.03233984740286439 -0.015533799572011897 0.01628183866110866
0.03241514996935207 -0.015479498131014346 0.0146163371446566
0.032488480958387876 -0.015451226245723149 0.012965115436498864
0.03256121112927063 -0.015433362960663832 0.011315294145146704
0.032635861529654114 -0.01539746551833221 0.00964284431265544
0.032712550563315616 -0.015342345512623923 0.007946461681219263
0.032790168750271416 -0.015280596959411807 0.006236629634663982
0.03282835715063191 -0.015663916393309607 0.004902358235460258
0.03286672969768706 -0.01604706796055655 0.0035640557817535057
0.03655289704307391 0.05698647006031454 0.03701186301496745
0.03630283658274789 0.05311208559934122 0.037927351088526406
0.036145440571339234 0.0503606518432102 0.03813084013192669
0.0360148945578632 0.04793800389004971 0.03813208184900685
0.0358840873790205 0.04551845280952438 0.03814279278210203
0.035753468398213244 0.04310737301597939 0.03815943536219918
0.03562401203874012 0.0407163415862159 0.038174246669734624
0.032142989742225576 -0.0014547623702359513 0.06493725432070835
0.03207028619007449 -0.003081317381156412 0.06460742914383394
0.03202927389877529 -0.004329714597292866 0.06402707883656872
0.031971980607962955 -0.005768267016227346 0.06358034131522039
0.03192888571131657 -0.00703689528221535 0.06302195999346072
0.031873242405898505 -0.008450939337404206 0.06256792307676418
0.03183187324460386 -0.009694925439738988 0.06200072578389032
0.031798752295157114 -0.010840402324679976 0.06136842851785512
0.031770491059713885 -0.011927538381034497 0.06069813384748385
0.03174894355711054 -0.012935068994931131 0.05997416221238522
0.031729644054688116 -0.013915422954444479 0.05923283954111974
0.031718809053008494 -0.014796593066355668 0.058422435313839005
0.03169903507285137 -0.015780807637090832 0.05768700996827264
0.03168541220392797 -0.016692964931608156 0.05690136058403694
0.031682518852810926 -0.017480680250243075 0.05602661568374345
0.03167562799739175 -0.018314284411390547 0.05518563076611438
0.03166737992836954 -0.019163154894910772 0.0543564816569399
0.03168192322922849 -0.01975030176209408 0.053334964204902635
0.031691711326605296 -0.020392552101596295 0.052352989904683456
0.03171582433157771 -0.020871697992655036 0.05124844517763294
0.03173672920104516 -0.02138854806203533 0.050169949081363296
0.031781190164512356 -0.02163853729836135 0.04888828676761159
0.03185843693513641 -0.02151861681914602 0.04732205187419808
0.03191351048923877 -0.021653450110283634 0.04594281449486792
0.03209829748355172 -0.020325199205292077 0.04343719299639548
0.034614049039147686 0.007277663907904963 0.02066986553274197
0.034666842149314904 0.007047635050000611 0.019227635235072815
0.034720818449384835 0.006828377542790975 0.017772062651751852
0.034774963093848546 0.0066084362026294086 0.01631195034480415
0.03483606516619289 0.006463704612712562 0.014787530529730142
0.03370497423870717 -0.00698491305176846 0.023786438786915498
0.03347210123708138 -0.010379882997101575 0.02489298379064875
0.033305775905011076 -0.013024479089053242 0.025421365854931488
0.03317763309237907 -0.015237890708684032 0.025618792911194344
0.03317026314153424 -0.016109271533982505 0.02474338790320718
0.033243735585112046 -0.016087987640113655 0.023143112680401035
0.03334748488589306 -0.015736736096357673 0.02126617642211881
0.03344496042312335 -0.015459373639582108 0.019439994921958303
0.03353004111427793 -0.015322577670172033 0.01772053929553069
0.03360942629003023 -0.015252155722097371 0.016048000302849252
0.03368562883263082 -0.01522026370572993 0.014399961584893761
0.03376072834653081 -0.015204017326329977 0.012757682568330708
0.03383781343381802 -0.015169761463734888 0.01109293392041194
0.033917884217999704 -0.015106789348686811 0.00939634689021357
0.03399559149408421 -0.015073210988848229 0.007717024368769809
0.03404268172353373 -0.015373985257134126 0.006316664049029697
0.03408330348025788 -0.015746704772323206 0.00497368317260094
0.03788898024369718 0.056780691521493454 0.03714485967691572
0.03764645926051058 0.05310134858999771 0.03793432962981641
0.037488295777293096 0.05040846186087622 0.03809959107920263
0.03735174443832039 0.04797221525394746 0.038109595394110296
0.03721709002721572 0.04556408291443109 0.038112632820134384
0.03708295335906408 0.043168083379162 0.03811908318361651
0.036950338140183156 0.04079569343642109 0.03812120927178286
0.03681711675592405 0.03842245354712304 0.038135255360762066
0.033208780845585345 -0.003644449879124989 0.06498802706027024
0.0331826585681953 -0.00470463555613726 0.06428188228117765
0.03313322902908781 -0.006028814394903659 0.0637583980440381
0.03308466231893116 -0.007340926203098674 0.0632308857267973
0.03304694685717737 -0.00852783969800952 0.06262106062239081
0.03301172229933073 -0.009684851324966104 0.06199372614840881
0.03296884101032459 -0.010926661688415107 0.06142869373416521
0.03294948313417604 -0.011901551410623601 0.060679877889413314
0.03293537864649544 -0.012816502332160973 0.059890409921686705
0.03291978020599431 -0.013747563950700536 0.05911361641239904
0.032890749775691064 -0.014828273179850193 0.05844505992247745
0.032887212981940826 -0.015622847439032861 0.057573582763456366
0.03288084866939265 -0.016448782019298336 0.05672505875190703
0.0328791696089891 -0.017222298227904054 0.055839041670775635
0.03288906970480552 -0.01786717829366885 0.054859278468003314
0.032892872218685636 -0.018580072103404177 0.053928555453658766
0.03289579102345284 -0.019302911417953483 0.05300483434756531
0.032912517797316486 -0.01987353097152117 0.05196791983233129
0.03295622917314738 -0.020147796449338284 0.0507084526013189
0.03297595052814758 -0.020687667457499115 0.04964429147024585
0.03301519682995533 -0.021014355109834737 0.048417615135027514
0.03310650867212114 -0.020773147193325736 0.04675687876329804
0.033267932790183766 -0.01977057764232093 0.0445076075819581
0.03548271511814059 0.0035980056016688966 0.025103402187066304
0.03553486712108721 0.0033504915143013347 0.02369572982463264
0.03558158330244596 0.0030416037260165285 0.022330891865143643
0.0356254136069532 0.0026993252276939494 0.020987832435863385
0.035682565103455514 0.002498959018688962 0.019529681330759663
0.035737916521735975 0.002276561727495463 0.018083680424464788
0.035795744058160814 0.0020782618283586296 0.016613568105890153
0.03585670150908159 0.0019109075036879974 0.015113556557422136
0.034762705369623254 -0.010631527765762427 0.023507171809275973
0.0345411760674353 -0.013797581394724534 0.024460485256642683
0.0344597387442118 -0.01545917981885836 0.024217786575632394
0.03450824349925292 -0.015734001582291157 0.02285538656324171
0.03460918824999823 -0.015454109487019974 0.021035227915179533
0.03471121774682559 -0.015167356424945877 0.01920010209590839
0.034792760942024936 -0.015101922797310763 0.01753830640072912
0.03486922096963018 -0.015093868982142766 0.015916580740815645
0.034946616759256206 -0.015079473339889737 0.014282447893629757
0.03502455743844297 -0.015062906726004965 0.012639276741282957
0.03510314872858665 -0.015043098411243183 0.010986087695539215
0.03517238296678259 -0.01512477174994914 0.009411596215832152
0.03523316197360361 -0.015297870125568214 0.007908546392117521
0.035288450121259474 -0.01553094047271164 0.006451175749818572
0.03922515006051851 0.056590075349250535 0.03726805675454542
0.038990975662677625 0.05310134859006432 0.03793432962977311
0.03882990025641163 0.050439012672917394 0.038079622796762136
0.03868868844977996 0.0480051159188743 0.03808797043580242
0.03854920369779051 0.045596681796281346 0.03809108605755723
0.03841188557116275 0.04321847319768418 0.03808559073110651
0.03827577351952963 0.04085970851543547 0.03807842270522116
0.0381377526188676 0.03848588061973046 0.03809262519476503
0.03438584780808742 -0.0037432896769589163 0.06505482878322577
0.034337297439166185 -0.005039893741981216 0.06450973014769773
0.034293338623549316 -0.006283903863826323 0.06393272486560492
0.03425060321291127 -0.007512552368668823 0.06334882479167037
0.03420806653702678 -0.008737131963226341 0.06276567993502757
0.034187206765542676 -0.009723130068751085 0.06202032275359198
0.03415808262299167 -0.010798261121744868 0.06133898651178782
0.03413811153745743 -0.011772562211740223 0.06058926242446522
0.034120185081349695 -0.012723788090764243 0.05982491908374016
0.034108152748724446 -0.013610382374560692 0.059016182158975306
0.0340862224809168 -0.014603424482268423 0.05828448241108286
0.03407897976419646 -0.015437070482113735 0.05744018105086246
0.03407989639396008 -0.016182567325262742 0.056532849813720476
0.034082279861664434 -0.016912348113517994 0.055614031485279936
0.034096495915545096 -0.017515391867775454 0.05460250204740852
0.034119909438804545 -0.01802067485764902 0.05351801214319091
0.034135720257625 -0.018608158045440693 0.052492175022758436
0.03415292656098141 -0.01918147563866124 0.05145447291918254
0.03420501905826119 -0.01938467676838529 0.050139205351664384
0.034255788819707096 -0.019604220008892115 0.04883171027750066
0.03432018380028258 -0.019681766586418903 0.04741276170055286
0.034412370752642 -0.019468556125260716 0.04576781124551771
0.03471454894626668 -0.01704560869319699 0.04243051827304767
0.03638345451045358 -0.00025768594872405126 0.028058250539559404
0.03643314842554998 -0.0005424353524221548 0.026695208130231407
0.03648339847254227 -0.0008235616795325695 0.02532502725776492
0.036531891281085756 -0.00112528541339052 0.02396649833714576
0.036586322691477206 -0.0013672095352879055 0.022556901046609124
0.03663053541602053 -0.0017179176790057538 0.021228164201635036
0.03669174175124927 -0.0018940680242947594 0.019757390079130077
0.036751127489968116 -0.0020918023880602266 0.018298397281829026
0.03681295173778011 -0.0022669479025304584 0.01681609171384374
0.0368788481962267 -0.0024028056000919285 0.015296720295254917
0.03587486627077276 -0.0135598779525688 0.022682194659657373
0.03580177943955926 -0.01510612254260868 0.02234503539504923
0.03587710107458394 -0.015127300629778184 0.020768175857302174
0.03596866202388546 -0.014985654706742235 0.019050833708658288
0.03604068963366032 -0.015047502716305339 0.017493362326898576
0.036086059112179096 -0.015384131848480198 0.016157575146156344
0.03615907409052981 -0.015441737727247551 0.014584819615713618
0.03624015757603181 -0.01542073758777196 0.012939532420396804
0.03632264676526874 -0.0153891043154461 0.011277959902315282
0.0364072906662627 -0.015339367034585771 0.00959357599283156
0.03650694505424076 -0.015142121502439931 0.00777577061513085
0.04056267254757673 0.05642682152026729 0.037373569284809394
0.040334747326594755 0.05309329618000336 0.0379395633102419
0.040173048235148674 0.05048418263272558 0.03805009930933212
0.04002534769107768 0.048032756359487117 0.03806980291921297
0.03988224812408627 0.04563711129751985 0.038064363519394795
0.03974028862649232 0.04325982759009078 0.03805810382870484
0.039599695055365446 0.040903249816279186 0.03804932045626014
0.03945961758544701 0.03855821077423416 0.038044011150850876
0.03622253023572545 0.0031975565069491396 0.0603637985098362
0.03548210979660347 -0.005457365244251333 0.06479345175433276
0.035451495774764905 -0.006542721469612822 0.06410959947659078
0.03542093453504215 -0.007626206415286441 0.06342692623927071
0.03539950607608047 -0.00861178692260367 0.06267906749572649
0.03536922525013603 -0.009689888450204187 0.06199722601329383
0.0353477639654821 -0.010673788539668438 0.061252023580939674
0.035324519811507214 -0.011675511258219251 0.06052108371374304
0.035308343174925524 -0.012602092516012187 0.05973895661406087
0.035293891899485064 -0.01350991675272789 0.05894482569017334
0.0352842009639176 -0.014367384938789307 0.05811591286680612
0.035271477819962115 -0.015256053863817842 0.05731019761648448
0.035284960845586834 -0.015871494401633768 0.05630825290870767
0.03529531748731816 -0.01651997670986416 0.05532918705960771
0.03531367031456952 -0.017086042739176632 0.05428911095465355
0.035342426539984505 -0.01754531342697968 0.053169142968563066
0.035369416137288716 -0.0180240472851535 0.052061159010704794
0.0353993148712582 -0.018473978922319223 0.05092956979681584
0.035449482289658545 -0.018716895657491905 0.049641075673928114
0.03551498988818371 -0.018804643727811376 0.048232031309215884
0.03562890514415871 -0.0183998001137885 0.046446080395507516
0.03589350754002872 -0.016460950454470713 0.04348761391158806
0.03723030989334893 -0.0036066051057691006 0.03218672790514998
0.037274989809379475 -0.003949933486809387 0.030887841914366332
0.03732158357696882 -0.004275754386131314 0.029571709496134135
0.03737202307143562 -0.004564627180170144 0.02822302914029562
0.037424308682405004 -0.004837005803713101 0.026857243565688527
0.0374771694213431 -0.005105825457482338 0.025484246730494042
0.03752964240748213 -0.0053808120825724615 0.024111621808340145
0.03758452560271162 -0.005633846257028063 0.022717163667735185
0.03762984420388388 -0.005985066024213892 0.0213961547797773
0.03770030442105964 -0.006086856762758441 0.019871752196372827
0.037761670760517896 -0.006282394508583755 0.018416715066979394
0.037821927510323684 -0.006491608312244768 0.01696747499752288
0.03788697585909886 -0.006655804875055016 0.01547646801077307
0.03795807343939646 -0.0067628259116747635 0.013933140217861628
0.03803572867305831 -0.0068080314209560955 0.012332897018374811
0.03811791420946464 -0.006811852157706189 0.010691761154868917
0.038205020865815946 -0.006770730469668029 0.009006190026040473
0.038297225662274434 -0.006683243139351591 0.007274354707142494
0.03839797394937763 -0.006515934934552714 0.005467517416397671
0.03849880139107578 -0.006352169601797242 0.0036548816677404172
0.04188689215223204 0.05613462810883546 0.037562416715578195
0.04167846936971337 0.05308524406729476 0.03794479679744589
0.04151711247695823 0.050536006827599955 0.03801622655468634
0.0413624310048321 0.04806303329079381 0.038049902489277754
0.04121403906612149 0.04566189443935381 0.03804798269763954
0.04106745517302408 0.04328567816056328 0.038040921806040406
0.0409226521297985 0.040933990238243734 0.038028774092328854
0.04077874386785882 0.038597558649117014 0.03801756492893121
0.037318360727662675 0.002046147479325522 0.061141988151635074
0.036655122544731474 -0.005557502945259085 0.06486150724856449
0.03662815980958041 -0.006594645920337927 0.06414508437722088
0.03660163235288163 -0.007626206415237813 0.06342692623923729
0.036576822429962956 -0.00863908694373744 0.06269793159606601
0.03655638694968332 -0.009606254566439876 0.061939116024133434
0.03653390471541012 -0.01059343945905622 0.061195887591596165
0.03652434828816182 -0.011448193577688115 0.06036139206908947
0.03650908808130383 -0.012360459523473033 0.0595682735893332
0.03649020278712339 -0.013308821483495381 0.058801996252168254
0.03648931801862661 -0.01407439480155187 0.05790667159653534
0.03648273275506913 -0.014897451614496182 0.05705269445251371
0.036492857351939634 -0.015551972900966826 0.05607755606985182
0.03650948173436617 -0.016141598268557822 0.055054500910726833
0.03653784696921299 -0.016614173680575273 0.05394468365746785
0.036585714552996126 -0.016892756737350967 0.05269022966382125
0.03661994011156462 -0.017309563806383932 0.051533940817453106
0.036670207257415495 -0.017567920174659468 0.050257350329631245
0.036759879391467784 -0.01743646911117741 0.04868594464000697
0.03681963794107663 -0.017605614246382628 0.047332764060574795
0.03803186870334715 -0.006363419396989534 0.03736991150361468
0.038081806267931534 -0.006658478655404143 0.03605593153406372
0.03812210835804596 -0.007050636758122009 0.03481191793784788
0.0381658294801939 -0.0074108175744819205 0.03354012556075564
0.038208357527665424 -0.007784528494466425 0.03227520025707309
0.03825865188021155 -0.008083892545516558 0.030949214408145242
0.03830485343771454 -0.008425367220190105 0.029651914918092326
0.038354967854087825 -0.008730573766031258 0.028322433786085344
0.038409243274079144 -0.008997339177615471 0.026958578726318183
0.038470555318070115 -0.009197979448172078 0.025537926458717275
0.038525158595294 -0.009466213344969332 0.024166003221119003
0.038578268779121516 -0.009751158346585964 0.022802937718192418
0.038623043089562596 -0.010118788257611366 0.02150197196444159
0.03869565030883999 -0.01022012680543588 0.01998199467884826
0.03875466479315278 -0.01045514983849688 0.018564642671674958
0.03881864300395121 -0.010645004462078222 0.017105464798298164
0.0388916531683053 -0.010751058346535669 0.015572102876655003
0.03897200186474822 -0.010790047656254464 0.013977245279403139
0.0390563994707877 -0.01079378075594184 0.01234637826172491
0.03914229457560968 -0.010786772920967025 0.01069945364038083
0.0392326590274126 -0.010740917236830905 0.009012697740280573
0.039325268467309896 -0.010677552688675929 0.007303545148287904
0.039420610699939976 -0.010592210344956388 0.005567921294860501
0.03951826112472053 -0.010489062850716546 0.003809035850880771
0.04323968689706948 0.05615092633959573 0.03755188301124146
0.043023333298982176 0.053089270086590534 0.037942180077930154
0.04285532325578032 0.05052537521346884 0.03802317547223005
0.042699832572067185 0.04809463114540646 0.03802913384250006
0.04254559560238518 0.045682766676353126 0.038034186852213214
0.04239516835536596 0.0433154101928277 0.03802115990357985
0.04224554578288983 0.04096217287505344 0.03800993730755392
0.042097609378455705 0.03863183536388892 0.03799452710012269
0.03849428423569405 0.00176731275351516 0.061330440986547496
0.03842614990833065 0.00031437048777421817 0.060870869910881364
0.037803579340932425 -0.006655715175068411 0.06418681878953347
0.03779427988886281 -0.007507476922408662 0.06334533701704259
0.037773857601226264 -0.008469155434549624 0.0625805102569228
0.037757229753314026 -0.009392465305739117 0.061790572263366206
0.03774000528750047 -0.010320999063468006 0.061005546755995566
0.03773226449569121 -0.011155375362049802 0.060155686017846266
0.03771842047460641 -0.012049467900693556 0.0593485975000575
0.03772045572327297 -0.012787145516667098 0.058431471945717794
0.03771374023743903 -0.013610619627858977 0.05757546281463383
0.03772188052844896 -0.014288607841452805 0.05661549920842601
0.03773267182824487 -0.014941062566370178 0.055636474381384526
0.03775947315072088 -0.015438095083151082 0.054543788460890474
0.03778294279649407 -0.0159685708901513 0.05347344440134799
0.037835395564735794 -0.016219006562925575 0.05219576239724849
0.03789487457521273 -0.01640357323067143 0.05086540931375372
0.03793909193941849 -0.01673787355321127 0.049641525473848536
0.038102247361043444 -0.01592804749356158 0.047560741243241056
0.03924426739058171 -0.005713616407984123 0.03841381390745613
0.039127957579597326 -0.007617828736023902 0.03831581304067333
0.039024204301905924 -0.009397149787984171 0.03813223783833364
0.03899057567266977 -0.010502324612071068 0.03744294385887309
0.039045019956513584 -0.010766459996596256 0.03611175618860751
0.03908693650323781 -0.0111519706198151 0.03486979551820729
0.03912905265536281 -0.011537270185790982 0.03362436000527497
0.03917861408509522 -0.011853727012540394 0.03232197453176999
0.03922984221900008 -0.012156418466296226 0.031004878815392933
0.03927954910837358 -0.012475518750845904 0.029696627450341462
0.03933535730127113 -0.01273918139959268 0.028340540773115097
0.03939310011878271 -0.01298691338683311 0.026967322620974787
0.0394495656068159 -0.013248937961701845 0.025600917287230462
0.039503849075204586 -0.013533639926344376 0.02424822152952849
0.03956208799749859 -0.013783605868229909 0.022863079428300404
0.03961353884353256 -0.014099129250104647 0.021526533469182485
0.03968786811219944 -0.014204111151776888 0.020013791009866555
0.03975422337273667 -0.014386021211324651 0.018558233387169998
0.03981875949155506 -0.014587429187135181 0.01711340003576467
0.03989078835983864 -0.014722251483909155 0.01560804062636334
0.03997164727096131 -0.014778619647939695 0.014031333922439493
0.0400500810255038 -0.014860529589211025 0.012469462197212844
0.04013711773195632 -0.014866680428545498 0.010837270853689185
0.040222681992881974 -0.014889804250422856 0.009212340518120532
0.040311168680906576 -0.01488967714950551 0.007560561681443201
0.040400862753024305 -0.014882103024719706 0.0058951175879808915
0.04049306776420093 -0.014855302584954766 0.004205710593131795
0.04473522949579295 0.058443522361249556 0.037671791486155015
