# .PCD v0.7 - Point Cloud Data file format
VERSION 0.7
FIELDS x y z
SIZE 4 4 4
TYPE F F F
COUNT 1 1 1
WIDTH 761
HEIGHT 1
VIEWPOINT 0 0 0 1 0 0 0
POINTS 761
DATA ascii
-0.026203832175258512 -0.07766610902358945 0.02269090681292052
-0.02612320149933045 -0.0778116961553611 0.02112068871524636
-0.026017527368581483 -0.07795311516421755 0.019562828854423064
-0.025889169691189762 -0.07809079071105526 0.018015839802930478
-0.025736788695904178 -0.07822444298856734 0.016480958041244553
-0.025708130014681196 -0.07838238001755903 0.01484763024872604
-0.02585750411120452 -0.07857519127452325 0.013073358552164072
-0.026015114265033612 -0.07877039764573095 0.011284650744622815
-0.03950712505727194 -0.07379635911545517 0.06484482450696705
-0.03772253374675416 -0.07362718687050995 0.06446049953536642
-0.0358234753830578 -0.07343728737655605 0.06415324796427302
-0.03393418793401226 -0.07324836494144094 0.06384757724441198
-0.032042629411343004 -0.07305830569314545 0.0635509090991066
-0.030458108992062027 -0.07292165292855152 0.06307006984639729
-0.02955141093497482 -0.07290424022096717 0.062168859511193275
-0.028600156343699945 -0.07287887032256353 0.06129650754677102
-0.027649563575060376 -0.07285351807493108 0.06042476250949419
-0.026699631938618962 -0.07282818345965651 0.059553623766188224
-0.0257057391188098 -0.07279491929543878 0.05871176819477164
-0.02467061159360756 -0.07275416508427064 0.05789791823035806
-0.02363664245151692 -0.07271345648003882 0.05708497902329357
-0.022603829749147653 -0.07267279340622905 0.05627294904563024
-0.021529268953387748 -0.07262447397740934 0.05549002581000201
-0.021055607012443467 -0.07268404940028354 0.05431191283517228
-0.02119034447312429 -0.07285351809098738 0.05272696531042409
-0.02132571170452713 -0.07302377888823432 0.051134609648485485
-0.021566889003446388 -0.07321386983467969 0.04946410368849585
-0.02214968767906944 -0.07346666830640634 0.047554840967593215
-0.0226539118534258 -0.07370620883633326 0.04568849312861961
-0.02310810391328061 -0.07393760742867721 0.043846381003335766
-0.023508042603467005 -0.07416004465216836 0.042031914008434146
-0.02383993264816947 -0.07437094438590912 0.04025518552733681
-0.024143756539189654 -0.07457755966508069 0.0384891388357233
-0.024385549648655247 -0.07477363064367877 0.03675777265587993
-0.024596057218576883 -0.07496474718066412 0.03504015239336439
-0.02476894146583597 -0.07514971096293448 0.03334106755438371
-0.024892960750558968 -0.07532640831217988 0.0316688916850798
-0.02500419159435341 -0.07550146399423431 0.029998384258929367
-0.025057443985364636 -0.07566648871693862 0.028362099325606238
-0.025101159231529502 -0.07583042103930628 0.026725700150279585
-0.025096107797929756 -0.07598595020590079 0.025117735312813805
-0.025078773310716063 -0.0761398308800194 0.023512111515794853
-0.025020827777073484 -0.07628675668069695 0.021929724305806142
-0.024949122209734997 -0.07643171471167762 0.020351206483861684
-0.024841400571580907 -0.07657051444050043 0.01879319667194157
-0.02472217834889573 -0.07670772937319054 0.017237804340719642
-0.02456915579055763 -0.07683914562633289 0.01570185652984052
-0.024457689521158954 -0.07697896275607766 0.014128904847905244
-0.02460632774889565 -0.07716860723975694 0.012352713675357452
-0.024760679584934553 -0.07736013308683214 0.010563953740829024
-0.04052965266485564 -0.0726995173278164 0.0642239719391508
-0.03876665730644968 -0.07253731619453041 0.06382289174819089
-0.03701273203942945 -0.07237604756881853 0.06342284757112637
-0.035122298424613785 -0.07219058349947324 0.06311370342688588
-0.03323310375296745 -0.07200461017083355 0.06281137317349728
-0.03135242274415151 -0.07181938545074967 0.06251134319229551
-0.03030650502640142 -0.07177839971506304 0.06169442484044391
-0.029353246806247346 -0.07175337589802633 0.06082064225046235
-0.028399468037808295 -0.07172816293116525 0.05994822171114894
-0.02744399570405054 -0.0717025547874113 0.05907792457599054
-0.026405539685014745 -0.07166232088125533 0.05826201905644074
-0.0253682484142137 -0.07162213210207169 0.0574470286690153
-0.024332119933143936 -0.07158198837397983 0.05663295187493922
-0.023293650598825544 -0.07154127306824229 0.05582207587452365
-0.022174927852035398 -0.07148623717882237 0.055065646826038706
-0.02105792502359327 -0.07143128590128826 0.054310380707464356
-0.0199426381502551 -0.07137641904066698 0.05355627483903741
-0.02001563052633404 -0.07153223151920189 0.0520102453938861
-0.020148131379131906 -0.07169925186022039 0.0504176695344421
-0.02028125243149509 -0.07186705397694304 0.04881763927087107
-0.020856591288064052 -0.07211449195480002 0.046909986857603225
-0.021379502021222574 -0.07235354822497753 0.045027698913242986
-0.021852782214869804 -0.07258467349333536 0.04316938577116147
-0.02224733224979425 -0.07280259210668412 0.041355660210930734
-0.02259668524316688 -0.07301325975478119 0.039564065854383434
-0.0229122588028578 -0.07321869159353388 0.037787089502103244
-0.02315416775017315 -0.07341164682726581 0.036053086205066365
-0.023376935598751647 -0.07360192362713408 0.034324343204055974
-0.02354905840273752 -0.0737837882720484 0.032623408770070916
-0.023684587469868623 -0.07395974424322142 0.03094079045089676
-0.02379412134262493 -0.07413168642325832 0.029269259467233022
-0.023858034251003968 -0.07429600636717631 0.027623245641262062
-0.02390884746877281 -0.0744586075031382 0.025979634463145884
-0.023906233645752173 -0.07461208497589865 0.0243679734777969
-0.023897500784344827 -0.07476507417224787 0.02275413756839123
-0.023838549574173806 -0.0749094526756813 0.021170699552098493
-0.023778144245230448 -0.07505416368038244 0.019582043750309863
-0.02366838367215024 -0.07519035314176382 0.018023880102565615
-0.02355822404304414 -0.07532703774651668 0.01646005144667756
-0.023403327158508624 -0.0754559888812135 0.014923958917336111
-0.023246665975645897 -0.07558515286483918 0.01338353298098649
-0.023362517621471457 -0.07576566679267246 0.011629693609798208
-0.02350991796825258 -0.07595283564397076 0.009843704491318606
-0.041555898909316435 -0.07159714439995972 0.06360086151028832
-0.03978634623886795 -0.07143701660894726 0.06320020528759973
-0.03802591775530145 -0.07127781112204233 0.06280058387284171
-0.03627331845233467 -0.07111931367214733 0.062402739700469445
-0.03441953291987576 -0.07094300155354086 0.06207435015549406
-0.03253164649710638 -0.07076019354870673 0.06177461769703568
-0.031064368138839504 -0.07064843061639477 0.06121825036059414
-0.030107905482580133 -0.07062355173734651 0.0603437860260318
-0.029153305544213526 -0.07059889408488479 0.059469181586746134
-0.02814955951463527 -0.07056570478445132 0.058627021201975105
-0.02710892287511263 -0.0705260407656472 0.05780996743067757
-0.026069455433713917 -0.07048642131100612 0.056993831652897065
-0.0250311552210864 -0.07044684634546648 0.05617861232239396
-0.023942491932047116 -0.07039840221336173 0.05539798728747786
-0.02282265097152575 -0.0703443613502206 0.05463991107003102
-0.021703365247816686 -0.07029020145751416 0.053883766343929884
-0.020585801730623632 -0.07023612489877984 0.053128785071709705
-0.019415701138633834 -0.0701726710413577 0.05241122788667418
-0.018843053852584613 -0.07021334889444493 0.05129482947656322
-0.018972698539790778 -0.07037714029651918 0.04970203686310071
-0.019102949503031208 -0.07054169765984014 0.04810179564485206
-0.0195665542163862 -0.07076551469894553 0.046266658399183536
-0.020107969521881708 -0.07100394161921429 0.04436839662358938
-0.020587231766840075 -0.0712323652566593 0.04250277693624166
-0.02098934620594123 -0.07144807292429668 0.04068086775207408
-0.021354816907534768 -0.07165816460461512 0.038875198604554184
-0.021667761339029035 -0.07185978573688931 0.037097293368494266
-0.02192403018697181 -0.07205214613382839 0.03535063666047106
-0.022161335670048077 -0.07224191281159993 0.03360904962390965
-0.02233029363479494 -0.07242024684438902 0.031907970586390055
-0.022478429928884935 -0.0725955861646121 0.030214024303108378
-0.022583855376631323 -0.0727639854484471 0.028543212274797725
-0.022660748088486116 -0.07292795047568024 0.02688570010770669
-0.022708898219398144 -0.07308741593943598 0.025241934400223764
-0.022718389729458777 -0.07324056391853641 0.023619490932105525
-0.022707230787719468 -0.07339061248095805 0.022005501233482383
-0.022659444931102113 -0.07353464635614393 0.020412024878709856
-0.02259681351222126 -0.07367658428540223 0.018823215445992247
-0.022496011871705968 -0.07381216759216802 0.017256706483866846
-0.022385036238750544 -0.07394646288786119 0.015691812900271496
-0.02223807167772035 -0.07407474353086994 0.014148192614951316
-0.02208076757230476 -0.07420166971598557 0.012606699253741416
-0.022118618837611015 -0.07436495215924405 0.010909940988391209
-0.022260337630801874 -0.07454802957564978 0.009125798011999198
-0.04409628003397209 -0.07060270265668879 0.06354276939228581
-0.042446099560369654 -0.0704660589878664 0.06306035448047415
-0.04080105380788612 -0.07032973737753734 0.06258056076209872
-0.03904400319420298 -0.0701742636505296 0.06217531093377798
-0.03728368158579476 -0.0700176396292474 0.06177865712927305
-0.035533634005787074 -0.06986211941295371 0.061382258147305524
-0.033717601053944 -0.06969495596369997 0.061033687100910505
-0.03183101597011323 -0.06951531564289386 0.0607365563365766
-0.030866528187748765 -0.06948978572396719 0.05986442499792849
-0.02990036128748469 -0.06946387294921012 0.058994451060403685
-0.028856363184586065 -0.06942473914067249 0.058175325473302175
-0.027813540732211817 -0.06938564940088125 0.057357122306813946
-0.02677189194561924 -0.06934660365543888 0.05653984000370499
-0.02571962591836152 -0.06930560291895349 0.055731139249237394
-0.02459458353737426 -0.06925207502078741 0.054971774293070486
-0.023471277658981715 -0.06919862974292154 0.05421358141644672
-0.022350870703814474 -0.06914546585635489 0.05345578693138564
-0.02121474980982646 -0.06908940386486827 0.05271074388242841
-0.020009842326242477 -0.06902133739949831 0.05201411412735546
-0.018808459677809197 -0.06895360277900028 0.0513180806809756
-0.017672608624348662 -0.06889686366207155 0.05058071400294828
-0.017799407317480476 -0.06905743759573238 0.04898770806125807
-0.017926798436065816 -0.06921876175865574 0.047387259319537745
-0.01827956561985744 -0.06941972519920982 0.04562485018445511
-0.018839304621823594 -0.06965737868781104 0.04371058121270649
-0.019313947958008282 -0.06988121685604838 0.04184495815201156
-0.019735250505329482 -0.07009668208099218 0.04000671108637166
-0.020116693221609416 -0.07030607419972876 0.038186925670286864
-0.02042465070359384 -0.07050347986794964 0.03640975815592262
-0.020697519553389554 -0.07069554914062846 0.03464873639497673
-0.020931362733819125 -0.07088155835719591 0.032907028651420644
-0.02111384984456277 -0.0710593021025525 0.03119389486085461
-0.02127448203883625 -0.0712339271899825 0.02948858957294659
-0.021377020472106156 -0.07139901613738893 0.02781763029575679
-0.021465579863073014 -0.07156231460403088 0.026149459253867302
-0.02151107625529808 -0.07171865524150556 0.024505542141271264
-0.02153257085731408 -0.071871381039273 0.022872284404324983
-0.021518994124887503 -0.07201849877739441 0.021258143791157924
-0.021481065947991096 -0.07216188576731501 0.01965550482449685
-0.021416213704226472 -0.07230105872011786 0.018066550950426197
-0.021326731951995692 -0.07243640222231455 0.01648983942292309
-0.021212498338528563 -0.07256787020611823 0.01492572480580684
-0.02107584353115749 -0.07269585750623483 0.013372696072367185
-0.020916671056845137 -0.07282032473068242 0.011831066117562405
-0.02087465431481661 -0.07296648245161315 0.010193459518590575
-0.02101317640444511 -0.07314594312589813 0.008409281355644838
-0.02115978157087617 -0.07332763126838404 0.006610541958456229
0.018084984445064456 -0.068084419538724 0.01679106623915394
0.019084856483830792 -0.06804624609387204 0.01601409678484228
0.019950027964489803 -0.06803314589624612 0.01512531710000009
0.01787741679277538 -0.0685716835811044 0.011745880923169472
-0.04497401008270124 -0.06946146798294256 0.06301288456241783
-0.043318742825962375 -0.06932675731824184 0.06253050784531972
-0.04166988345423139 -0.06919256814664429 0.06204999850910231
-0.04002615653854036 -0.06905869530627383 0.06157210624705972
-0.03830015635268175 -0.06891084469755632 0.061150799515444054
-0.03654239992030123 -0.06875721312571499 0.060755601521262304
-0.03479246362645605 -0.06860426505026881 0.06036216173595249
-0.03301408345913642 -0.06844603835369249 0.059993220848983786
-0.03162794210622022 -0.06835184822620449 0.059383300248716575
-0.03061179834405353 -0.06831839886508129 0.058542355093848975
-0.029565601027783106 -0.06827984410582022 0.05772207414198466
-0.02852058386611739 -0.06824133283795453 0.05690271850151085
-0.027477931531051547 -0.06820306214833917 0.05608351965253772
-0.026374941403064234 -0.06815459501755275 0.05530521548082201
-0.02524876822789085 -0.0681020683444678 0.05454419323917753
-0.024123155271521146 -0.06804942629925885 0.05378511499329769
-0.022999281140511474 -0.06799686557447873 0.05302720935691946
-0.02181418537752211 -0.06793382153920895 0.05231231869296832
-0.020606901486479257 -0.06786679439822992 0.05161505004527833
-0.0194019975889394 -0.06779989939200984 0.05091915596640245
-0.018199466654087004 -0.06773313613020485 0.05022463239568592
-0.01692932969878258 -0.06765466796261747 0.049579029595908486
-0.01662825186454664 -0.06774013718049547 0.04827467956871834
-0.016752793341259342 -0.06789823964905513 0.04667402671703191
-0.01699446047530112 -0.06807691573660245 0.04498535439529239
-0.017559579067710773 -0.06831147560433962 0.043063918471245466
-0.018044706682841527 -0.06853332101887899 0.04118781204870314
-0.018482681739529827 -0.06874799702158606 0.039334826057367156
-0.01886702169945037 -0.06895434744047797 0.03751002555221278
-0.019185291198656973 -0.06915018318976698 0.035722808334310796
-0.01947343133091539 -0.06934163148462365 0.033948222412539475
-0.019702638691765972 -0.06952369285250591 0.032207250013312094
-0.019898530067014364 -0.06970074072041041 0.030482037140539486
-0.020061993588880445 -0.069872898007399 0.02877228238467222
-0.020172399550622166 -0.07003655091270876 0.02709337942348533
-0.020272523959951105 -0.07019909233656837 0.025414519620935494
-0.020315375924558565 -0.07035231895086574 0.023770454211635372
-0.02034877185526207 -0.07050453036398767 0.02212635063419094
-0.02033278558998719 -0.0706487270501027 0.020512061967125683
-0.02030584180020989 -0.0707916030212014 0.018899325601627714
-0.020238778281435943 -0.07092802075429294 0.017310223404533087
-0.02015809720215067 -0.07106261074420375 0.01572511261580445
-0.020041835622764848 -0.07119148224246058 0.014160861879763342
-0.019915407147753084 -0.07131909725796333 0.012598395083392555
-0.019753152635888116 -0.07144089663018453 0.011057570501494474
-0.019633089805287385 -0.07157071084809055 0.009478360375146544
-0.0197721019460797 -0.07174722295160839 0.007691288595780943
-0.01990811642507523 -0.07192395007044697 0.005898265644296796
0.017206361426288508 -0.06686167611556904 0.017670508431948007
0.01903685443854003 -0.06667216445073512 0.017585565105266654
0.019681603679916115 -0.06669949499858492 0.016514827160377943
0.02073059064544569 -0.06665257564545664 0.015783758500449663
0.01941201020384037 -0.06704197935223032 0.013047237756604768
0.01910147648878463 -0.06724682493610658 0.011151126275514456
-0.04576301006916822 -0.0683008236186509 0.06253656599020968
-0.044194973062952336 -0.06818277258664986 0.061998483293025264
-0.04254103195893222 -0.0680505270037603 0.06151802021474645
-0.040893494319734935 -0.06791879342818807 0.061039417316557265
-0.0392510868690672 -0.06778737045188511 0.06056342736968634
-0.037557268705282254 -0.06764716569783265 0.06012515372408522
-0.03579962521780289 -0.0674961269703986 0.05973293287219156
-0.03405223894454179 -0.06734615292929835 0.05934093531066836
-0.03237528334610401 -0.06720698528050587 0.05891106779027061
-0.03132569114543243 -0.0671689708232591 0.058088698578383724
-0.030278483815817436 -0.06713119396215071 0.057266493442436284
-0.02923125928410769 -0.06709326517244624 0.05644598029307035
-0.028164975446814622 -0.06705207836698301 0.0556394763901244
-0.027033547977906247 -0.06700008433857642 0.05487715266099236
-0.025903873829508983 -0.06694817088290127 0.05411601026942647
-0.024777127023270784 -0.06689653107061502 0.053355272133345566
-0.023626292005960836 -0.0668407259977098 0.05261277618208171
-0.022414232229319098 -0.06677461438518884 0.0519134872029865
-0.021204567760258808 -0.06670863342435296 0.051215580178942566
-0.019997291505274517 -0.06664278272828797 0.05051905101740456
-0.01876120667696296 -0.06657189405567114 0.049844975488286036
-0.0174713911975638 -0.06649179929524887 0.04921063414423149
-0.016183530708182903 -0.06641170656451063 0.048578599788487165
-0.015459226354605227 -0.06642523249736802 0.04756294783823517
-0.015580928350743206 -0.06658012473085471 0.04596209427248299
-0.01571239238191191 -0.06673727969602386 0.04434736990763305
-0.016273583513927214 -0.0669671448518085 0.042425209891566396
-0.01677832320673739 -0.06718846007780391 0.04053214556275164
-0.017233975999489837 -0.06740241316326172 0.03866356528185233
-0.017614157900785243 -0.06760450679901646 0.036838717967215384
-0.017947312322249664 -0.0677994774875978 0.035038112915880604
-0.018249401960795275 -0.06798998597801138 0.03325078267399939
-0.01847753457768131 -0.06816872223702332 0.03150800646312363
-0.018686713094220986 -0.06834497134405677 0.029770675964163662
-0.01884703060690368 -0.06851361912278525 0.028060794768519692
-0.018969986525311566 -0.06867658288996306 0.026370455998393993
-0.019068426237755287 -0.0688360263110242 0.02469058009269398
-0.01912179159527999 -0.06898840063189601 0.023036667148953416
-0.019160983376683816 -0.06913897376364561 0.021386165184651862
-0.019148599994915194 -0.06928129130813274 0.019767252498259447
-0.019131342787203354 -0.069423363416978 0.018145297879411604
-0.01906328102524818 -0.06955724293473409 0.01655514084302212
-0.018992536424641937 -0.06969122032192936 0.01496068337336709
-0.01887425533351883 -0.06981750421532631 0.013396292558407852
-0.018755544801971946 -0.06994424660469391 0.011826221946351523
-0.018592651839462626 -0.0700638174619628 0.010284331827253301
-0.01842920098672024 -0.07018379783605523 0.008737160906762464
-0.01853218294660347 -0.07035096620094596 0.006975625312279021
-0.018666238677437608 -0.07052430208705829 0.005181603800913315
0.016911604627390275 -0.06553379476416935 0.019032878033898137
0.01828136081863213 -0.06543065340363466 0.01856304047000923
0.019450904082711606 -0.06536305665942559 0.01793116059106148
0.0202129087167755 -0.06536859212281124 0.016960645041678157
0.02094948760653892 -0.06537874290624361 0.01596840840126207
0.021766884421256127 -0.06537431308852873 0.015044204270743433
0.020700116844475425 -0.06571158022533616 0.012513968314048052
0.020173945388850423 -0.065952074419855 0.010430266581864078
-0.04806505553838425 -0.06724199818942343 0.06263920080290802
-0.046507961650723795 -0.06712855259983905 0.06208683939987136
-0.04495611293483748 -0.06701548915908809 0.06153633866199287
-0.043408227202560046 -0.06690260892823645 0.060988456031269955
-0.04176314737470016 -0.06677401161776178 0.06050530642481278
-0.040116932099022395 -0.06664473473756764 0.06002861082752092
-0.03847584474192095 -0.06651576271998845 0.0595545240550987
-0.0368128808569122 -0.0663828275059149 0.05909989672389737
-0.0350578008443691 -0.0662347780270186 0.05870912871294831
-0.03331174295777234 -0.06608757968890522 0.05831933458855104
-0.03204325848231798 -0.0660157601375354 0.057632707010694006
-0.03099263202580327 -0.06597837599177121 0.05681010405199566
-0.02994319481695018 -0.06594103416267626 0.055988432231657004
-0.028826848055723442 -0.06589283959120304 0.055211701591717954
-0.027694276998103617 -0.06584185309878411 0.0544477103530458
-0.02656227122664545 -0.06579075493252548 0.05368567575223432
-0.025433203021511308 -0.06573992623873016 0.052924046193272234
-0.024230517970932786 -0.06567702281666885 0.052213403063079644
-0.023016060495477164 -0.06561196578613195 0.05151347166522274
-0.02180400662509807 -0.06554703751384099 0.050814925543204936
-0.020594349231172593 -0.06548223761792417 0.050117760588569094
-0.01930598949105622 -0.06540438306278876 0.04947677925874849
-0.0180137709096706 -0.06532558640366304 0.04884202242863972
-0.01672351419531609 -0.06524679199840354 0.04820957776708634
-0.015434080432765451 -0.06516781359027779 0.04758022776363996
-0.014292324982445204 -0.06511271701672502 0.04685250933545321
-0.014411197618022509 -0.06526441042791202 0.045251458434024505
-0.014530625423248289 -0.06541681229132199 0.043642930160523785
-0.014990626551246944 -0.06562599052658553 0.04178801047271419
-0.015513632828737856 -0.06584643295438795 0.03987876960597164
-0.015976348344426294 -0.06605779598669645 0.03800198493080137
-0.01636282585026827 -0.06625737814112534 0.036169687025552955
-0.016713059013427123 -0.06645175531433992 0.03435399181358978
-0.017011372234017275 -0.0666382840841616 0.032566586590801194
-0.01725485165517382 -0.06681642947017298 0.030810144838344267
-0.017476016353500656 -0.06699157895521729 0.02906152760844999
-0.017634380453010523 -0.0671569277888713 0.027350661554497946
-0.017770962909973043 -0.06731930468175401 0.025647980058587927
-0.01786534078400942 -0.06747525360343111 0.023968848342726612
-0.01793031765546882 -0.06762689387173197 0.022304177503113587
-0.017968072720641937 -0.06777456680402424 0.02065264340693662
-0.017966432169248925 -0.06791618558095076 0.01902371213255305
-0.017945566454690143 -0.06805513557115245 0.017402529348150342
-0.017888513881916868 -0.06818851502804792 0.01580221738070664
-0.01781677225097933 -0.06831995287841401 0.01420670567001564
-0.017707325033844923 -0.06844550554944018 0.012633869613005833
-0.017587801854619445 -0.06856986487217338 0.01106273518049078
-0.017433940435289064 -0.06868886163114324 0.009512285420375577
-0.017267420824817248 -0.0688061882486752 0.007965937504636977
-0.017295857438761053 -0.06895759709557153 0.006260378351430951
-0.01742186779422361 -0.06912649574134808 0.004470172873061451
0.015665601195849588 -0.06437637824017038 0.01960941559274565
0.01774687702150274 -0.06415061533790778 0.019722707107558357
0.01883704543368342 -0.06409830965804302 0.01902440475125755
0.020078908529343353 -0.0640190186899387 0.018455338077674854
0.021101767164032836 -0.06397809547179624 0.017706485871786748
0.021789878807609186 -0.06399629713995877 0.01667731797746752
0.02244079081554523 -0.06402118349448685 0.01561568638775268
0.022784508879002463 -0.06410084154058177 0.014290914003756039
0.022760670693161178 -0.06424639806827966 0.01264710856493928
0.02170240894967601 -0.06457747680043467 0.01010472382768235
-0.048782013989455475 -0.0660585650587262 0.062208855672597596
-0.04725423268278511 -0.06595200598687305 0.061636316258466106
-0.045699700000819965 -0.06584092606188506 0.061084851645030025
-0.044149134872724316 -0.06573002578677989 0.06053601101584233
-0.04260378440238888 -0.06561949847697517 0.059989016175582
-0.04098508901505188 -0.06549721106472013 0.05949236639973571
-0.03934019673420064 -0.0653703919798091 0.05901757896664711
-0.03770043009953944 -0.06524387201616057 0.05854539622837768
-0.03606699851827566 -0.0651178408481232 0.05807503771478362
-0.03431570392411443 -0.06497296566304595 0.0576849484072221
-0.03276210525403456 -0.06485835947802822 0.057175902402242296
-0.03171045897383323 -0.06482175575612464 0.056351363697161316
-0.030629932202734356 -0.06478048467288582 0.05554707856258101
-0.029492053224152215 -0.06473005087093138 0.05478177292720854
-0.0283571387399969 -0.06467988328416249 0.054016881877851586
-0.02722279216742285 -0.06462960594298195 0.053253953267636045
-0.026055825432229285 -0.06457397937285501 0.05251480864290825
-0.02483654220782594 -0.06450985627114637 0.051812841346586536
-0.023619678120760657 -0.06444586039385282 0.05111226679905251
-0.02240522597857647 -0.06438199136271686 0.050413080859459114
-0.021151179397126907 -0.06431156593756288 0.04974350763715096
-0.019852251665730347 -0.0642337016877142 0.04910758319042402
-0.018557621679899383 -0.06415621047536604 0.04847241095356952
-0.017264960472549717 -0.06407872173304792 0.04783955608222795
-0.015922707580920736 -0.06399296489335218 0.0472444500289963
-0.014547554450369649 -0.06390157253155507 0.0466761477269515
-0.013176323602863804 -0.06381044084379447 0.04610946636613977
-0.013243595317878998 -0.06395109018801642 0.044542115662715764
-0.013360190180348064 -0.06410028907678833 0.04293339932817242
-0.013710697422858242 -0.06428800138391011 0.0411523148721612
-0.014251790912067297 -0.06450742847775028 0.03922686524736868
-0.014711092934883152 -0.06471444740177633 0.03734928573857077
-0.015114191376331743 -0.06491315357464175 0.035502098356637646
-0.01548018019433206 -0.0651066151813055 0.033672118643150895
-0.015775896284402735 -0.06528937044756468 0.03188380185032558
-0.016033410311715235 -0.06546661427774356 0.030114516837054517
-0.01625468528877022 -0.06563863512033694 0.028363224235789297
-0.016422856919632633 -0.06580262230099186 0.0266427493145171
-0.01657294287256389 -0.0659643063165347 0.02492769927195876
-0.01666446147864642 -0.0661169762019205 0.023248440062548947
-0.016740948512966092 -0.06626779228016769 0.021572981836188665
-0.01677607529977715 -0.06641236932778755 0.019921314424396597
-0.01678627696016788 -0.066553403918352 0.01828143762907547
-0.016764213144527085 -0.06668964924112067 0.016659208310126572
-0.016716883131955573 -0.06682224505672532 0.015049617086840383
-0.016642944027889572 -0.06695094329068275 0.013453969426069967
-0.016543459281091855 -0.06707589772671714 0.0118717313226257
-0.016420713696482903 -0.06719746891907012 0.010301402282254124
-0.01627580799602696 -0.06731582086729218 0.008742373055270536
-0.01610864857026012 -0.06743091719218094 0.00719495821675703
-0.016055843134362646 -0.0675658654060692 0.005551286387819987
-0.01618476396794316 -0.06773222371236307 0.0037562595741213456
0.014537796160296768 -0.06319531420236552 0.020286466115686186
0.01636066017611687 -0.06301890968641055 0.020180408324686094
0.01786544888477326 -0.06289652621580555 0.01982063243009813
0.019659222321674996 -0.06272372567076917 0.01970702766129112
0.02050589732573399 -0.06271401619332856 0.018811733506567896
0.021618767632031133 -0.06265811282700542 0.01814030079407075
0.02254026775790341 -0.06263521596347406 0.01731030641435838
0.023011941383306533 -0.06269054933142651 0.016100030116141806
0.023697946086761568 -0.0627087213878793 0.015069619872066786
0.023906173912224826 -0.06281053825742962 0.013628812970712945
0.02378543957082163 -0.06297046865788793 0.011899324335472583
0.022924416417748783 -0.06326115953721519 0.009520390529908385
-0.050884230776063466 -0.06495335642780194 0.062443382678605
-0.049414039990244685 -0.06485809223989826 0.06182949015809286
-0.04794815541513048 -0.06476310708222464 0.06121739573785423
-0.046445875441147366 -0.064662274393059 0.06063179303347488
-0.044891357145427135 -0.06455317015691234 0.06008276322108086
-0.0433420758706522 -0.06444443348233084 0.05953558303666512
-0.041798005196808874 -0.06433606251501992 0.058990243149117216
-0.040206856821746406 -0.06422012524906642 0.05847920006369889
-0.03856328816735988 -0.06409576505989757 0.05800632165855063
-0.036924842884328346 -0.06397169824593514 0.057536043814575055
-0.03529272825281998 -0.06384811080335069 0.05706758303771847
-0.03357211934499582 -0.06371050381679759 0.05666116381785896
-0.03242956872266933 -0.06366093229626256 0.05589180354516193
-0.03129965276477181 -0.06361310495499452 0.05511666129765608
-0.030159410704275913 -0.06356349987719456 0.054350453202412
-0.029020945564599943 -0.06351397210254263 0.05358543914403152
-0.027885446942101655 -0.06346470582471768 0.05282083608982402
-0.026666079971286782 -0.06340226427318149 0.05211370025303452
-0.02544437275651401 -0.06333921087682041 0.05141108571851527
-0.024225093097246964 -0.06327628276876351 0.050709867292403565
-0.02300588395527131 -0.06321311374214914 0.05001161139030802
-0.021701360015203786 -0.06313638234294094 0.04937372393519329
-0.02040116376550144 -0.06306001902949628 0.048736596147046674
-0.019102949501151822 -0.06298365862456291 0.048101795646129375
-0.01779402497985888 -0.06290530918699147 0.04747799603716957
-0.016411386066846223 -0.06281505060364341 0.04690863701575576
-0.015033852116436874 -0.06272523076380856 0.04634011976240765
-0.013660252038858012 -0.06263566742569833 0.04577322604399986
-0.012257748763367493 -0.06254116667565801 0.04523087882800958
-0.012078115646274146 -0.06264015748278032 0.04383406243248317
-0.012191887675717938 -0.06278616479837602 0.042225161385355814
-0.012432645825231625 -0.06295298481800772 0.04051892718049732
-0.012981336491290574 -0.06316960975308063 0.038584605599118804
-0.013448685845764363 -0.0633741229391952 0.03669805589105907
-0.01386940074295867 -0.06357200871710016 0.034835113399266315
-0.014239406010774613 -0.06376257197503235 0.032999226689184535
-0.01454180252467796 -0.06394304928466632 0.031203273495184758
-0.014815553020089467 -0.0641196575909279 0.029419407997591907
-0.015032240899124805 -0.06428778337206424 0.0276688867799062
-0.015214817338179587 -0.0644510881239501 0.025935314588515446
-0.015366507922424999 -0.06461006481251073 0.024216645589738017
-0.01546578225896389 -0.06476118724915778 0.0225293516151423
-0.015553678595353171 -0.06491108948955453 0.020843076722387055
-0.015586186328643836 -0.06505258135747559 0.019191279043917042
-0.015608129232389079 -0.06519294039037579 0.01754042575791609
-0.015583674421910776 -0.06532628688734972 0.01591806331730211
-0.01554598196404866 -0.06545802240575016 0.014299172768163504
-0.015469850634682647 -0.06558398909217243 0.012703398320719983
-0.015381441924631922 -0.06570846505002258 0.011110803424004778
-0.01525668957193943 -0.06582746310956585 0.009540345562073005
-0.015120667398357213 -0.06594510129906343 0.007972704521623852
-0.014951663334445475 -0.06605776703139668 0.00642516790657327
-0.014821848486230083 -0.06617743335790927 0.004840692372207189
-0.01495002695046016 -0.06634061918402362 0.0030437121235201703
0.014505396483581845 -0.06196163800749614 0.020259990692999497
0.016890829503086124 -0.06169391014254111 0.020615943784253632
0.018256704710532312 -0.06159719044187309 0.02014376012562591
0.01984528457716761 -0.06146236039369253 0.019861508236149017
0.02123394853274163 -0.061360848980682094 0.019419417184385668
0.022043067113008574 -0.061357402109486744 0.018496330348701517
0.023080560008253703 -0.06131503722678682 0.017766068385372702
0.0238506650337732 -0.061318135114329084 0.01681127958849632
0.02432784938607868 -0.061371364342638 0.015606612882073378
0.025046427388064896 -0.06138343558678693 0.014606018309206825
0.02497940206948429 -0.06153056809614479 0.012927962937628157
0.024371321147577396 -0.06177153982234925 0.010773525466203415
0.02446993296238359 -0.061891595080241675 0.00922158932065209
-0.051519906381235325 -0.06374754322275478 0.06206401870608269
-0.05004791887886367 -0.06365410003822379 0.06144901247139267
-0.0485789590356302 -0.06356074168883923 0.0608365801674946
-0.04711430178489606 -0.06346765678664448 0.06022594168155587
-0.045636163171738686 -0.0633722177691294 0.05962793762318902
-0.04408293307230571 -0.0632652848654232 0.059080574112852
-0.04253493591644203 -0.06315871222634153 0.0585350547093656
-0.04099214530338158 -0.06305249803431072 0.05799137010900707
-0.039428450736524345 -0.0629427540751902 0.05746580734084733
-0.03778620634055546 -0.0628208538827745 0.05699483882781825
-0.03614908303866715 -0.06269924131480374 0.05652646673870959
-0.03451828598302226 -0.06257809868764855 0.05605990455424481
-0.03311473295646683 -0.0624906036397193 0.055453936891374844
-0.03197033505992314 -0.062441756909492524 0.05468562594429266
-0.030828930958928635 -0.06239316832080921 0.05391773565509539
-0.029688099962702608 -0.0623444737360916 0.0531518206473105
-0.02850474152882676 -0.062289148781020716 0.05241605952458067
-0.027278157961851568 -0.06222704806778711 0.05171139334409813
-0.026054017704876087 -0.062165071056927375 0.05100813083304867
-0.02483349659215539 -0.06210339753171471 0.05030548141543778
-0.023560016234883185 -0.06203339699023402 0.04964123889753036
-0.022253040540625046 -0.06195799495226479 0.04900293212558482
-0.020950405969288932 -0.06188295487105177 0.0483653859999828
-0.019649760398917304 -0.06180791789536867 0.0477301724112803
-0.0182863050400196 -0.061722917721063954 0.04714157429979332
-0.01690241457216629 -0.06163442449829403 0.04657120910209134
-0.015522486638970212 -0.061546184660800404 0.04600247704793481
-0.014146504245692304 -0.061458197121849745 0.04543537113301227
-0.012687105649693498 -0.061356917500030854 0.04493090799916882
-0.011225740845798138 -0.061254919532845724 0.04443285954874249
-0.010914752820251006 -0.06133160580753064 0.04312729523006342
-0.01102571208532832 -0.0614744329051296 0.041518212801483934
-0.011157610723266875 -0.061621119198137564 0.03988703442936142
-0.011702409422606863 -0.06183308859884171 0.03795201296723061
-0.012189117469755373 -0.062036812398659213 0.036048290432197705
-0.012626130462479901 -0.062233560141961734 0.03417039428417534
-0.012992013770669997 -0.06241991002161191 0.032334497694525455
-0.013311415276360261 -0.06259969046344267 0.03052329948485427
-0.01360009547698604 -0.06277535503878094 0.02872566884761557
-0.013813385450491544 -0.06293979337873222 0.026975059589544048
-0.014007900601716028 -0.06310193342812331 0.02523009565571671
-0.014157645815915498 -0.06325762061931323 0.023510448908889592
-0.014269297084452737 -0.06340787991291127 0.02181157937680306
-0.01435552550864777 -0.0635547037005274 0.020124297061259067
-0.014398400217929319 -0.06369519650570081 0.0184625338362715
-0.014427243520165611 -0.06383402774388 0.01680430611486261
-0.014405146226943666 -0.06396524642069717 0.015178180538409192
-0.014377008876136077 -0.06409604617011881 0.013549964178551366
-0.01429988448874886 -0.06421948277354847 0.011953137303538086
-0.014220074661668691 -0.0643430089602722 0.01035201786529738
-0.014093320289212674 -0.06445944120386644 0.008781439992173179
-0.013966106346968432 -0.06457629559255555 0.007205167719193384
-0.01379526199304626 -0.06468653741199362 0.0056575178307317064
-0.013623833325599966 -0.06479715627509605 0.004104574745969702
-0.01371644629068608 -0.06495147745223535 0.00233349460237825
0.012518186910590534 -0.0609181709517569 0.020241519575671107
0.014724766798858258 -0.06068625847636691 0.02043924932798402
0.016693230881810794 -0.06049266180781449 0.020453616010938203
0.01861838385447201 -0.060305392151528775 0.020442461232695552
0.020037280784019396 -0.060201270499336525 0.0200209155502572
0.02147970392774029 -0.06009278445101277 0.019624542237182574
0.022773606166830773 -0.060008564217094405 0.01910932542796384
0.02346102799175387 -0.060025221076815224 0.018087011056594493
0.02453791818967399 -0.05997679042144666 0.017394079947394447
0.025192374768373327 -0.05999897810301401 0.0163436213844399
0.025701055252440153 -0.060045760438503466 0.015167039044813979
0.02609331018813099 -0.06011235735170422 0.013887632015491036
0.026448348057592164 -0.06018553098957952 0.012572396484389015
0.025728178897043874 -0.06044091458186184 0.010317076513411128
0.023709095698867866 -0.060917650953947425 0.006911054458243526
-0.0534739258798233 -0.06260689562896155 0.06239738602322897
-0.05208349001813367 -0.06252756364320776 0.06172767840042548
-0.050682367392833994 -0.06244638701073324 0.06106819287436882
-0.04921161195485296 -0.06235485137469521 0.060454648177182546
-0.04774388303959859 -0.062263398841181164 0.05984367607255714
-0.04628045309870782 -0.0621722141719169 0.059234493503650065
-0.0448225697943046 -0.06208147996766525 0.05862631476551994
-0.04327442776921381 -0.061977270167916106 0.058078284305168315
-0.04172771499791239 -0.06187286199940869 0.05753442601884484
-0.040186204709986184 -0.061768805015542036 0.05699239704022807
-0.038648630823733876 -0.06166491612844535 0.05645296718510684
-0.03700895119582598 -0.061545658353340256 0.05598313039899727
-0.03537315050491702 -0.06142650112821696 0.055516664925762016
-0.03379119289353871 -0.061314794957521235 0.0550216328765768
-0.03264440652999473 -0.06126678946726203 0.0542524124296449
-0.03150062451886293 -0.061219037793855124 0.05348361347912939
-0.030352595300768836 -0.06117046837338507 0.05271993041262146
-0.029121101839800767 -0.061109330663302895 0.05201320082861216
-0.027892067588915215 -0.061048315041143345 0.05130788253626406
-0.026666676596257877 -0.060987598498240425 0.05060318383222445
-0.025427107886002664 -0.06092452464031339 0.04991092743005121
-0.024115663100423512 -0.060850455769277084 0.04926985408154666
-0.022806227115349686 -0.06077639064632449 0.04863112808023329
-0.021501145747474804 -0.06070268130675439 0.047993163704164066
-0.02017125101999434 -0.06062494414675255 0.04737575732493143
-0.018779795817902734 -0.060537618271631385 0.04680432516396521
-0.017393497621854548 -0.06045071785579908 0.04623374370630079
-0.01601117372181271 -0.06036406656961497 0.0456647980146907
-0.014585951474466619 -0.06027056084356686 0.0451300369828026
-0.0131162597306001 -0.060169920207493094 0.044631078860636775
-0.011652598501279976 -0.06006978717216621 0.044132990133301075
-0.010193800743462378 -0.05996998686012298 0.04363655646124753
-0.009752376875757862 -0.06002525687650877 0.042422609028208325
-0.00986165760633595 -0.060165086869924174 0.04081255005880974
-0.009970318593347571 -0.06030539644575593 0.039195783726039934
-0.01042536532015087 -0.060499546816428704 0.03732173261531496
-0.010931237947583772 -0.06070232992329051 0.035400812232638634
-0.011378660149411468 -0.06089692665436793 0.033512119259878625
-0.011748459740774542 -0.061080319735529055 0.03167035753714742
-0.012082404091094123 -0.06125891519464791 0.029845575399097157
-0.012368498743585477 -0.061430819538784306 0.028047044424309442
-0.012596935632124329 -0.061594463885850936 0.02628260179176506
-0.012804445338811032 -0.06175552704368828 0.024525344054606102
-0.012949912938273689 -0.061907564759416854 0.022806476171037537
-0.013074999936696974 -0.062057047385937834 0.021095119737080614
-0.013158386420905388 -0.06220061156716084 0.019407726293293404
-0.013212711398052135 -0.06234020840763112 0.017735075384349097
-0.013238947117436839 -0.06247596606649345 0.016076730650024185
-0.013228623427919639 -0.06260652191474095 0.014439556751755456
-0.013198106296211431 -0.06273443412376084 0.012811219425221732
-0.013130652631269613 -0.0628570292388267 0.011205038287670499
-0.013049850951730502 -0.06297802402176315 0.009602867003687454
-0.012932997243045197 -0.06309379043912113 0.008022801724852646
-0.012803782721714507 -0.0632080781174591 0.00644640947873254
-0.01264184282102826 -0.0633176186341031 0.004890098822071587
-0.012468575448152497 -0.063425813037868 0.0033370420482083385
0.01048515468208111 -0.05987325249486322 0.020196274306279238
0.0126204226066709 -0.05965847646049129 0.020324618576381903
0.015110641605808994 -0.05938547843957525 0.02075456724637126
0.016727386198110317 -0.05925259265627375 0.02048167469073059
0.018811259720553974 -0.059043402139893286 0.020601752238801563
0.020312665162219745 -0.05892793257251177 0.02024955696352304
0.02170080121363005 -0.058830402004937894 0.019809085866190845
0.02318613294245586 -0.058716585204155854 0.019455476509414038
0.02429081760644969 -0.05866451835768549 0.018786977695160634
0.02517651881722066 -0.05864811264007298 0.01793562227678397
0.02608767018203162 -0.058627454495373245 0.017106861360395964
0.0266177099299586 -0.0586694418685171 0.01595261862286912
0.0270159538136574 -0.058733358242615184 0.014682520339297067
0.027289400177940182 -0.05881819214983994 0.01330081472335487
0.027867881669550787 -0.05885285499844696 0.012180000858344642
0.027558715444522264 -0.05903509184634409 0.010280369344302875
-0.054007533729256374 -0.061377526493782024 0.06208076804037266
-0.05261472326007599 -0.06129965733962585 0.06141064444260247
-0.05122414775593098 -0.06122180299389494 0.06074299614838252
-0.049838388883429396 -0.06114432821932662 0.060076263517064354
-0.048375310003986094 -0.06105561043714673 0.05946028979592177
-0.046908812002109834 -0.06096606369685565 0.05885077787322501
-0.045446609356520395 -0.060876779237973 0.058243051204084795
-0.04398994727676836 -0.06078793585602734 0.057636321174064586
-0.04246584122390684 -0.060689126044885564 0.05707589378285188
-0.040920413102879694 -0.06058688278212521 0.05653369695000093
-0.03938018340449906 -0.06048498343940438 0.055993323927754024
-0.03784512594356487 -0.06038342628434812 0.055454765529320604
-0.03623152267517704 -0.06027017837645173 0.05497119629660596
-0.03459704522540408 -0.06015347759158191 0.05450663830068553
-0.03332067134826405 -0.06008799882107509 0.05381778928987019
-0.03217328800670305 -0.06004091421703963 0.05304886442918677
-0.030973273175363136 -0.059986016946312636 0.05231651943654908
-0.029739311214947883 -0.05992597312332917 0.05160913356751018
-0.02850901684136342 -0.059866223914118784 0.0509023738420305
-0.027279978371102687 -0.05980641954908707 0.05019781190697026
-0.025987941417620564 -0.05973717514956915 0.04953815974969916
-0.02467283077001481 -0.059664276841232364 0.04889745278627078
-0.023362105232528796 -0.05959172916795938 0.04825751501344394
-0.02205456332893002 -0.05951935770643325 0.04761913159158587
-0.020668387143118305 -0.0594351175200568 0.04703789402522285
-0.019275664500247258 -0.0593495716287684 0.04646545098009042
-0.017886945230138507 -0.059264271638628456 0.04589465341895088
-0.016495303888132695 -0.05917819321847396 0.04533026777587951
-0.015018355874358735 -0.059079103707847296 0.044829596289715945
-0.0135474847052795 -0.058980514883160015 0.04432980288908245
-0.012081514418783246 -0.05888225455240887 0.0438316747795679
-0.010585490776997941 -0.05877910486403514 0.04335987711577788
-0.009028604772263638 -0.05866642554425822 0.04293667378860189
-0.008590995092280507 -0.05872111588738275 0.0417200041951889
-0.008699718456987526 -0.05885812018935719 0.04010816965237124
-0.008805573221143836 -0.058995256812033645 0.03849123457012088
-0.009152468572088346 -0.05916932635472529 0.03669212111892545
-0.009675052491386227 -0.05937067754589229 0.034755619191050746
-0.01012022671113777 -0.0595611355424876 0.03286532295051392
-0.010506430849547832 -0.05974343189794219 0.031008488211658303
-0.010855924814186846 -0.05992090208139261 0.029169247505026363
-0.01113828576362802 -0.060088878012795215 0.02737067837057816
-0.011382884329132315 -0.060251787024722135 0.025591509336449603
-0.011590500050168595 -0.06040971662865781 0.023831557098630496
-0.011745645193194765 -0.060560259552588834 0.022102961952396027
-0.011882884819272466 -0.060708682885868524 0.020379969098717254
-0.011963439611173077 -0.060848999134260395 0.018692467755692943
-0.012029114319090983 -0.06098761072089297 0.017008900283088713
-0.012052751616951851 -0.0611203054354847 0.015350441534997539
-0.012054100910584842 -0.061250107463211155 0.013702188746601396
-0.012021212135573445 -0.06137514176682533 0.0120737332229931
-0.011964529525259948 -0.06149700399309118 0.010457240298478554
-0.011881551427583015 -0.06161528351271927 0.008854947962423532
-0.01177332909704476 -0.06173012171549507 0.0072663119029779955
-0.011642118758252995 -0.06184185001575445 0.0056898085108234575
-0.011490198301830457 -0.06195080607707451 0.0041238605656251925
0.010346838614409382 -0.058647659769165306 0.020084445272912588
0.012883656754808959 -0.058374077214841676 0.020538579995943496
0.014958474113759723 -0.05817233098471634 0.020630223454097485
0.017065490404802874 -0.05796461064802277 0.020759428162221205
0.018696379543107655 -0.057831566863039086 0.02050687578059668
0.020487877437908253 -0.05767239433332771 0.020395029203439996
0.021948959598344475 -0.057565205222758646 0.02001621662629821
0.02337644367649666 -0.05746291584388719 0.019615166183617527
0.02479486105154377 -0.05736163026749009 0.01921216209094645
0.025875659024212294 -0.05731408050459764 0.0185285030224836
0.026704258267140735 -0.057306882872645605 0.017632503140834144
0.027668494151630307 -0.05727779087691127 0.016853148174218402
0.0280439060132201 -0.057343689786270705 0.015568135519694548
0.028676761830333075 -0.057368200583023284 0.014502380603988507
0.028794352814540736 -0.057476426180924876 0.012986629551384132
0.02919021507379438 -0.05753988091882399 0.011708311933622761
0.028446096715192992 -0.05778941450091237 0.00942339766496253
-0.05586491867180299 -0.060211277175063485 0.06248061954182127
-0.05454113837021568 -0.060144967930757416 0.06176415196127488
-0.05314595166201952 -0.06006856946427993 0.06109361337323577
-0.05175430489763688 -0.05999236484016344 0.060424776112212364
-0.05036489259777649 -0.059916174698105694 0.059758413704920355
-0.04898029118004471 -0.05984035600380094 0.05909296072446124
-0.047539013026215216 -0.05975637722550854 0.058465937327559336
-0.04607374592311608 -0.05966873625579315 0.057857885569447376
-0.04461403830942029 -0.059581528617452306 0.05725083171644335
-0.04315732968874214 -0.059494399402700314 0.0566463334437417
-0.04165717342413805 -0.0594008524768222 0.05607340253072152
-0.040113030219157186 -0.059300774555080024 0.05553286748772912
-0.03857408137479362 -0.05920103328658435 0.054994150756556004
-0.037040300725000475 -0.059101626975479375 0.054457243177651715
-0.03545392072058884 -0.05899441385692348 0.05395903644512867
-0.033999140237514824 -0.05890536628014786 0.053381749633629794
-0.03283474144406956 -0.058857064780965494 0.05262136054548444
-0.0315958177351906 -0.058798003288220296 0.05191189520422451
-0.0303605861588363 -0.05873923188386328 0.05120306262284263
-0.029126618096725565 -0.05868040652056001 0.05049643659901559
-0.02786875235408648 -0.05861793736539487 0.04980865203036278
-0.026549124096412913 -0.058546389974690395 0.04916516000265525
-0.025231525495872875 -0.05847484689549092 0.048524030832829024
-0.023918325696789033 -0.05840364817065853 0.047883671850633636
-0.02256711819475621 -0.058326697512287064 0.04727271690274809
-0.021167922029006858 -0.05824252194991893 0.04669840048006413
-0.019771593019959788 -0.05815842070066513 0.046126535903656785
-0.018380450634995327 -0.05807472979457818 0.04555552341460534
-0.0169309880688176 -0.05798224498058729 0.04502921334227822
-0.015452849458907791 -0.057885219016789356 0.04452770400157968
-0.013978508025366487 -0.05778835107019579 0.04402866780380976
-0.012510228208557128 -0.05769197239604666 0.04353050142147019
-0.010954256135754348 -0.05758238321602924 0.04309939114637079
-0.009395206723051053 -0.05747189478722045 0.04267629190446803
-0.007842128825261807 -0.057361829554303974 0.04225481322912511
-0.007436192352017534 -0.05742000821820167 0.04101547589509641
-0.007538770443624276 -0.05755336157052618 0.039405875606813745
-0.00764294743526972 -0.05768750135090974 0.03778796754222513
-0.007882568506278609 -0.0578422375280052 0.03606399186806264
-0.008413783562944976 -0.058040851524850556 0.03411768701932372
-0.008864622550501133 -0.0582283476278734 0.03221998080328209
-0.009268213182424767 -0.058409588950904257 0.03034719646330425
-0.009623957651729742 -0.05858444717638839 0.028500288009451535
-0.00991176026480467 -0.05874987767033163 0.026694846718378185
-0.010171224454647854 -0.058911754957645945 0.024901778189438728
-0.010375462341529973 -0.05906601963937666 0.02314175774964944
-0.010543662486663163 -0.05921551079077736 0.021400782617160052
-0.010683642710345553 -0.05936137697926103 0.019673253364229537
-0.010770679062995725 -0.05949985959657616 0.01797851784719645
-0.01084760345068042 -0.05963739712546963 0.016284005139439506
-0.010868651452055456 -0.059767039488920155 0.014625435361404093
-0.010881573578060633 -0.05989599717990412 0.012966073323115834
-0.010846321266167525 -0.06001816317650168 0.011337502358438278
-0.01079914017627509 -0.06013902894408641 0.009711601188899521
-0.010713990901565995 -0.0602546012549044 0.008109196952605868
