# .PCD v0.7 - Point Cloud Data file format
VERSION 0.7
FIELDS x y z
SIZE 4 4 4
TYPE F F F
COUNT 1 1 1
WIDTH 786
HEIGHT 1
VIEWPOINT 0 0 0 1 0 0 0
POINTS 786
DATA ascii
0.0457096968650233 0.049892658805709804 0.026775248058881818
0.04524739442053527 0.04993982277254493 0.025462793321151922
0.0448490465378118 0.04999465099203545 0.024102810483610793
0.04445776397050999 0.05005052948320607 0.022734290190469908
0.04410664697491351 0.05011134803574027 0.021333875675552894
0.0438182637803336 0.050179790060958844 0.019885136643807644
0.04370815852050275 0.050269513645497116 0.01830525127027477
0.043798433760779076 0.050383258773652836 0.016576320882240814
0.04468406493076055 0.05059155063746419 0.014268717608114323
0.07840069434622965 0.04907110115189656 0.05699140011665077
0.07169533062289002 0.04845000302879318 0.05930700136375722
0.06754922159422105 0.04809974466511481 0.060178183863654866
0.06428018334358337 0.04784195703506258 0.06056012349411494
0.06134714962309712 0.047619189584834055 0.06076135932090537
0.05889141813982174 0.04744681439158062 0.060695193200469344
0.05690429780564049 0.04732418690033546 0.06036196349195799
0.055070726872608555 0.04721763697929247 0.059944929415316484
0.05340225758581185 0.047128505129246864 0.05943561361154254
0.051863632684078176 0.04705307759026293 0.05885362568177349
0.050534522768960866 0.047000070697157746 0.058149271120578716
0.049303893904885376 0.04695755482768089 0.05738818960198799
0.048193820858555614 0.04692799347109744 0.056555808714927325
0.04722369366776763 0.04691357656137186 0.055638895995475
0.04638091880089451 0.046913016861299756 0.05464380396915697
0.04560847752506508 0.046920154055442614 0.05360480701321835
0.045004368991813926 0.046945781870527246 0.052459580692774954
0.04460903629957935 0.046994453639603986 0.051180763446114774
0.04440336256639976 0.047064200303162176 0.04977824799564068
0.04443917971166972 0.047160864909462495 0.04821684341495697
0.04473218601004608 0.047286342225812454 0.04648381567790322
0.045155824527936816 0.047426785228831245 0.044658122965613334
0.04565977389660031 0.04757669803832977 0.04277099536753881
0.04624246794389514 0.04773596289858774 0.04082252047640955
0.04675578730603841 0.04788813138748516 0.03890912798631674
0.04718960662769728 0.048032030595861565 0.03703821467685614
0.04741904784254153 0.048153640810375486 0.035293605208977674
0.04740921205692267 0.0482489162313601 0.033700846265037054
0.0473305544314499 0.04833684379022457 0.032148001912196134
0.04711123645679449 0.04840929413771937 0.030684359914198156
0.046700522805418976 0.048460452285127124 0.029345952433740385
0.04619891972299839 0.048501546455922015 0.028066232667439128
0.04565016083025136 0.04853746745612156 0.02681616038837653
0.04514025584714981 0.04857794223356306 0.025536825255193463
0.04467577098744108 0.048623745013295014 0.024223204786863406
0.04422759591501929 0.04867159210603367 0.02289509744563939
0.04380762401058913 0.04872285364755904 0.02154394064771392
0.04347802290583125 0.04878466151997687 0.02012547368176998
0.04324951785231029 0.048858309777516984 0.018631004368608983
0.04320861398775144 0.048953806621853786 0.01699754554798144
0.04355066243625361 0.049093769475597675 0.015082585366557544
0.04565518332518553 0.049437567299291794 0.011885541730322746
0.08346833193648417 0.04814056261805831 0.055647831238208934
0.07489911112323117 0.04734597493633802 0.05899786109363653
0.0700735414395397 0.04693616854596352 0.060241756497310506
0.0664482378599871 0.04664937240175427 0.060816471464835764
0.06331221017419708 0.046412358502247585 0.061124573889053846
0.06068488772650443 0.04622743684359108 0.06114979056388792
0.058338890913378016 0.04607117215531174 0.061021146227995426
0.05634511249383917 0.04595114386988887 0.06069375794673132
0.054532178617453575 0.04584960359955093 0.06026632888984146
0.05289547188910293 0.045766173515412026 0.05973980523710154
0.05135165336866787 0.04569219207630533 0.05916270712752658
0.05003760777901822 0.04564214105121307 0.058450985172311065
0.048842320783108295 0.04560443667330795 0.0576700553007965
0.047773524520655974 0.04557996900836708 0.05681394021984287
0.04678269951438163 0.045563671812917234 0.05591128990615263
0.04587050853053981 0.04555566329864457 0.054960876516232826
0.04511931854351364 0.04556475793261784 0.05391041135000452
0.04451563292916311 0.04558961701213011 0.05276665942057829
0.04414829246139729 0.04563982527718166 0.05147189978893507
0.04396895941442969 0.04571035757997257 0.05005429759279195
0.04401919830178613 0.0458057923702063 0.048485240166461774
0.04436599507687755 0.04593347641059473 0.046719159952558875
0.044933874188694045 0.04608547327602825 0.04480157166004162
0.04560920920274736 0.04624966712271366 0.04280386000366809
0.04634150303136131 0.04642067111050313 0.04075779024397669
0.0469835884621459 0.04658258324352637 0.038759398735504824
0.047522246222260256 0.046733914248019925 0.03681835104952863
0.04778834670495219 0.04685620569132853 0.03504814435020848
0.04781362521823662 0.046952741740609934 0.033430543457965645
0.04768131200659309 0.047032456111257455 0.031912253086511355
0.04737219172125684 0.047093144877034684 0.030507991016414715
0.04683296125597869 0.047128849016546605 0.02925594470782178
0.046241277580493234 0.047158934715451746 0.028037285518929145
0.0456276737421592 0.04718672904279487 0.026831613200457904
0.04507414767861029 0.0472212628733816 0.025582505493582652
0.04452905952102271 0.0472568695392941 0.024325141988856436
0.04403862028418121 0.04729867363938149 0.023027125551903782
0.043564480706265285 0.04734245707918385 0.021714749908364972
0.043139644758248774 0.0473919022370871 0.02036449493934267
0.042826218173595 0.04745396455952278 0.018931656254558893
0.042697165778361135 0.04753686910051946 0.017362800513813115
0.042794411842413116 0.047645435334856795 0.015625629853060097
0.04362757118238875 0.047836960979231784 0.013349492792957718
0.07875966554191832 0.04629307981582068 0.058330220395742594
0.07303946057725547 0.045806451060396415 0.06006346942384072
0.06905505490638048 0.04549264461455795 0.06082878440765743
0.06557240997233726 0.04522823042657006 0.06132422654247488
0.06258458678646134 0.04501279053541932 0.061548870059199345
0.06007140870362909 0.044844564026140454 0.061509609572991786
0.057811620243346296 0.0447013867057167 0.06133219962590436
0.05585188553494508 0.044588143832650674 0.06098641579458963
0.05405123407645934 0.0444906585331683 0.06055335112280125
0.05243281908750863 0.04441138331682861 0.06001750665744621
0.05098724659921816 0.04434946379495648 0.05938269916187944
0.04967470102280097 0.04430092429899323 0.058671332857600234
0.04846914270813857 0.04426317148026314 0.05789794140143506
0.04737967937209209 0.044237204320207085 0.05705582631718675
0.046368170469206715 0.044219163894342335 0.05616733681026165
0.04546968467267187 0.0442127150520248 0.05520987276282996
0.04465164073971978 0.04421455738802068 0.054202595221605365
0.044026739999589726 0.04423641392515703 0.053073836709749855
0.04365165034354235 0.04428428401301568 0.05178571965563866
0.043460299318236195 0.044351449971731724 0.050377535152198116
0.04354515189095792 0.04444766054223902 0.04878818813924002
0.04393636093257425 0.04457623579454169 0.04699527802895004
0.04468381082098899 0.044742586188160974 0.04496319008218058
0.04554699210643853 0.04492172659641119 0.04284429814489671
0.04644971198848091 0.045105730978575634 0.040687063887037134
0.04722081043117715 0.045276616342740855 0.0386034773683524
0.04782509254223499 0.04543059311398155 0.03661817977851711
0.04822572887289833 0.045563668739430706 0.034757430748077245
0.04821217241802589 0.045653427771412874 0.033164161358769206
0.04801273991990912 0.04572382924779619 0.03168949598331405
0.04757110105406176 0.04576876898921567 0.030373556404191315
0.04698801791054602 0.0457988249930535 0.02915056521412357
0.046312775425746355 0.04581916692008438 0.027988424248149957
0.045651483673172844 0.04584108294720043 0.02681525134924284
0.0450384577550107 0.04586825962891879 0.025607166957576255
0.04444847714774741 0.0458980210445011 0.024381131761586405
0.043847172254966926 0.04592668515690608 0.023160881002980305
0.04328336161777091 0.04595950832670394 0.02191223732754005
0.042850598669262996 0.04600662252214149 0.020568669352434787
0.04246179687303636 0.04605868835751205 0.019190489314923564
0.0422120294526524 0.04612604908769471 0.01770926463044714
0.04217176013424717 0.04621645805720769 0.01607274034776246
0.04267275410190263 0.046366193118117946 0.014038877833664531
0.08357540194235469 0.045314209265433905 0.0571415556498136
0.07641871860542038 0.04470374379162175 0.05966378921430887
0.0718486286011708 0.04434311416713126 0.060745834439319246
0.06813763584328153 0.04406502085178386 0.061357559779731285
0.06482655162069229 0.043825001121014485 0.061756632692801405
0.061995305653543775 0.043631109701621 0.06189249525329049
0.05959305704973927 0.04347861721717182 0.061790173392923364
0.057410041427307434 0.04334711685708014 0.061569103482607856
0.05546493838678018 0.04323857155027344 0.06121601216513428
0.053696773244564844 0.043147089628725876 0.060764889316491544
0.052097197012644536 0.04307194333825231 0.060218959510574044
0.050623450736614894 0.04300898651978303 0.05960232239232638
0.049311113756432434 0.04296182554543582 0.058892093731219675
0.048135117145328254 0.04292805633632269 0.05810191850547208
0.047014701676763304 0.04289970056484217 0.057279983021065295
0.046002922885501674 0.04288209287755741 0.05639294346950435
0.0450696092992236 0.042872274579843696 0.055458404042565745
0.04425739482996094 0.042874569365095344 0.05444890217768
0.043592260130966454 0.04289166048354534 0.05334682562034787
0.04322089096118642 0.04293841170444262 0.05205790932117921
0.043046871913395124 0.04300526628257742 0.0506402553190296
0.04313838935887809 0.04309923897070853 0.04904813712668288
0.043489689653112895 0.04321990731071766 0.04728234556326816
0.04431440720261731 0.043389120809734866 0.045201939285958725
0.04532419575642099 0.04357783315136612 0.042989105132071326
0.04640537883297735 0.04377457264207602 0.04071604044003113
0.047470109713533604 0.04397041454324876 0.03843961781902877
0.04824583314475284 0.04413745924262486 0.036340084336646816
0.04872630414691265 0.04427489376617659 0.03442471475800857
0.04868184026822697 0.044358939733552365 0.032850243439065396
0.04836195307578295 0.04441496544459088 0.031454785182336076
0.04778745774626092 0.044444949398565636 0.030227329841527928
0.0471232868061896 0.04446578399099219 0.029058633863122796
0.04640019403213547 0.04448059939169715 0.02792868280863109
0.04570175777075619 0.044498033840845816 0.026780703693302044
0.04502127583992627 0.044517406214641536 0.025619039529368504
0.04433756095795288 0.04453652032057222 0.024458197899083434
0.04368490602176178 0.04455895562357223 0.023274248548762366
0.04305267233834603 0.04458361921982511 0.02207429757990137
0.0425303348531354 0.04461990636180177 0.02079489513158972
0.042058492956391635 0.044661647412248366 0.01947693905549086
0.041764887592655175 0.04472232471311283 0.018028594685370825
0.04158126573358467 0.0447948544389262 0.01649675949062618
0.04186378534683244 0.044916961162617425 0.01462295929758295
0.04337595331658134 0.045169832702181605 0.011847365762173823
0.08043788926777179 0.04364558139457409 0.05891845031074572
0.0750779021796994 0.043222576429740395 0.0604276130109464
0.07096898407938884 0.04291622978297683 0.06124988426311967
0.06735992774765431 0.04265605982264719 0.06180580955365794
0.06433838604914155 0.0424506480978853 0.062039643260492494
0.061587633549036735 0.042270196431970476 0.06213021948746572
0.05922764150655546 0.04212627589834769 0.062004497687246085
0.05710305615777839 0.04200427008438543 0.06175020365870765
0.055209979369203466 0.04190393252632153 0.06136729294172316
0.053455128157393283 0.04181645140104911 0.060909100356626
0.05184257390635105 0.041742291884343065 0.06037179376992918
0.05036747664769442 0.041681065701169216 0.05975685371634176
0.04904461387034936 0.04163427192264744 0.05905390563475188
0.04782468078069252 0.041597234258266315 0.05829149055532795
0.04670399870236769 0.04156965372273789 0.057470806064547575
0.04571601417695753 0.04155482730992736 0.056570161658289264
0.04472365058089278 0.041539517790014545 0.055673317453159954
0.04388797320972476 0.04153939437313209 0.054679700044027446
0.043223266673085015 0.04155593892753866 0.05357866863393562
0.04278086603423564 0.04159426419892601 0.05233595372973321
0.0425898562256784 0.04165734537968944 0.05093067447440147
0.04268409124816963 0.041748648804246245 0.04933846458942159
0.043017160808628885 0.04186378118811675 0.04758603128589578
0.043794207590582335 0.04202308165340338 0.04553814942847578
0.04496975402964215 0.042222326316100026 0.043219475327003876
0.04629067668604292 0.042436732359974326 0.040791010804793526
0.04771575495297792 0.042662307594642575 0.03827816000074552
0.048696499994086984 0.04284468561615017 0.0360422086482729
0.049204124104862246 0.04298074490929069 0.03410712348125844
0.04903010686367876 0.04304943050998121 0.03261746803172216
0.048579999952274244 0.04309082702995068 0.031308232980131856
0.04795485184775722 0.043114878829885794 0.030114195074014527
0.047245367063318555 0.04313057347247659 0.028975665765283376
0.046479696390149816 0.04314068793780852 0.027874351293761368
0.04570572728050992 0.04315000809058306 0.026777975901778772
0.04492878154115365 0.04315906581024728 0.02568295238175755
0.04419503897661825 0.043172526208122806 0.02455722418758316
0.043474012514614135 0.043187329005971685 0.023421589611991922
0.04277617455166993 0.043204545016079954 0.02226853851384414
0.04220397752255439 0.043234605811083404 0.021025425206096127
0.04171378751881799 0.04327314472300076 0.019721768770973314
0.041334463875247474 0.04332316019996366 0.0183359853405895
0.041143748606348396 0.04339267609205257 0.01681092950997065
0.04119902701145478 0.043487695535035925 0.015102919764839406
0.042131912051309894 0.04367325780320294 0.012750485392454769
0.08627962407886824 0.04273376266427475 0.05716787482499397
0.07881162124858476 0.04213329187332321 0.05983946872891743
0.07425514756178414 0.041796668414568056 0.06089631218847863
0.07029272228607708 0.04151316765763771 0.06163739265920587
0.06688361870457976 0.04127935607394039 0.06208034111900729
0.06396516230193322 0.0410897563833372 0.062256017111351536
0.06128941688027029 0.04092178657856836 0.06230411740301367
0.05900788292420284 0.04078955094516725 0.06213339095400128
0.05692329815467889 0.04067501717756507 0.06185624850596244
0.05504848362204623 0.04057947492041887 0.0614631169775936
0.053305051081246335 0.04049575856406537 0.06099866464905501
0.05167385554501591 0.04042215623247964 0.06047306480604858
0.05020215921257992 0.04036312991964318 0.05985665570113957
0.04884913224331722 0.0403149528228234 0.05917259707076172
0.047635047334309844 0.040279584178956766 0.05840729271398987
0.04650221859032566 0.04025169277968069 0.057594732445261976
0.045444760627132375 0.04023076969138809 0.05673770994584537
0.04446200960830282 0.0402167932412841 0.055835851740608455
0.043615442907425694 0.040215599124371004 0.05484996461123237
0.04289791624591943 0.04022658768679214 0.05378309020807198
0.04242646445511716 0.04026090584072961 0.05255989417360629
0.04219709983611253 0.040318313083413715 0.05118025885846167
0.04221046596137218 0.04039900700847911 0.049641143435235735
0.04247313671055575 0.04050375128737877 0.047935665711981656
0.04319850101356104 0.040653041705465146 0.04592316046755596
0.04443145418692579 0.04085143369798146 0.04356934451657629
0.04600549056892478 0.04108327532909449 0.040977411040507894
0.04779857558391759 0.04133705708375626 0.03822372361756704
0.04879177591511624 0.041514949095277184 0.03597923445657458
0.048201920905680984 0.04154105153772935 0.03477325512414098
0.04602858545928851 0.04141441197265142 0.034623633356449746
0.04597132685464278 0.04149192980530071 0.03306155682242112
0.048008020038890487 0.04177269158718836 0.03007826088703175
0.04722943962162862 0.041781196357671045 0.028986490361917916
0.04642139178261906 0.04178686812925124 0.02791419637169551
0.04557080516616063 0.041788415244171956 0.02687069248963231
0.044732033857981524 0.0417911229700732 0.02581890352468552
0.04393926586994107 0.04179834528630159 0.024734938959824537
0.04320937279654913 0.041811764783271685 0.023606480545619313
0.04248689484402318 0.04182596786187508 0.022471758804536113
0.04187286870897344 0.04185091113933119 0.021259311600891284
0.04136307841901382 0.0418862444452041 0.019970862634205
0.04094297125546659 0.0419305924218335 0.018615573030674293
0.040661155728929144 0.04198882795345777 0.01715746728917039
0.04066266160917342 0.042075439495219094 0.015490179578517282
0.04122016353151631 0.0422177374402439 0.013412375001016552
0.08347865922770603 0.04110843092573195 0.058744871782623775
0.0777351983309858 0.04067911874151485 0.06044908862007564
0.07354082289103786 0.040385203325551004 0.06130324200495069
0.06975288449385236 0.0401261912877075 0.0619467280069671
0.0666533755191574 0.03992732033043576 0.06221304702292424
0.0637875909775486 0.03974848351355459 0.062358962841752186
0.06124512152508582 0.03959778087878062 0.0623299471796217
0.05890540364317365 0.03946460747022985 0.06219349731783552
0.05684271909438049 0.03935571025859406 0.061903784604461165
0.05495269282437798 0.03926187251930658 0.06151995476430555
0.05321505436319812 0.03918136056999731 0.061052373666980186
0.05160899872210406 0.03911237925589538 0.060511994283573844
0.05009631899280437 0.03905155052953677 0.05992055134528457
0.04874760308070425 0.03900529851425866 0.05923424297728691
0.04750445115169316 0.038968422052543555 0.05848704299089774
0.04633761452945112 0.03893832325752367 0.05769582657841832
0.04523359901309032 0.038913815554190816 0.05686814055902306
0.04423745711413413 0.038899033381416565 0.05597534625201167
0.04335844277220441 0.03889487791936018 0.055010526634706125
0.042618537125803935 0.038903420669152894 0.05395862745882157
0.04209537969652016 0.03893184653000425 0.05276910110768446
0.041786116687349995 0.038980010913938774 0.05144142577711164
0.04172523833056779 0.039051201496712984 0.04995123696981468
0.04191653956589281 0.039145904221350517 0.048293380607194014
0.04256746178975329 0.03928340615058708 0.046331007344911856
0.04381093137169101 0.039476255601413025 0.04397265471147033
0.045464809279611273 0.03970790343462775 0.04133080524073335
0.04738479061054224 0.03996518187665471 0.03849569639909012
0.04852193662366716 0.04015065147683704 0.03615758918759038
0.04735975528408265 0.04012250643964694 0.03533301503066777
0.045771604253404596 0.040054458089228945 0.03479539517817021
0.04533619839655606 0.040094032900062235 0.03348843509608862
0.047865824506381216 0.04041184926427816 0.03017436498131043
0.04705431555986783 0.04041695833618622 0.029105508052672424
0.04618833156344332 0.04041695833733412 0.028073468562860027
0.045315743584581236 0.040416335211910744 0.02704596723721986
0.04446822721869065 0.04041808001588798 0.026001191892941478
0.04363511045626384 0.040421196111102384 0.024946270443301666
0.04287410808437925 0.04043117084287679 0.023840713736686114
0.04214027761510769 0.04044377097456896 0.02271525896081067
0.04151868099784656 0.040467120673484715 0.021509500310579466
0.040939585699711234 0.04049462544869438 0.020271651628731957
0.04054827004407069 0.04054021554865988 0.018897452162979778
0.040200628572860164 0.04059018169331452 0.017488160230141103
0.04015784880712403 0.040669652300346394 0.0158546581799191
0.04058900917399222 0.040795092793651073 0.013870565501548693
0.04280828882734039 0.04109360959488439 0.010570956185351366
0.09174343032775362 0.040365956625824456 0.05566166863943456
0.08192420931990602 0.039605736503322844 0.0596200569083391
0.07699850905286282 0.03926027567999331 0.06086630422390954
0.07298724585875727 0.038991695541253715 0.06161859860591157
0.06946614242882987 0.03876408676002427 0.06211103561506537
0.06641105267283476 0.038575610676870445 0.06235271531452635
0.0636751569496562 0.03841386526755563 0.06242414568117399
0.06116460713926081 0.03827091776973171 0.06237689721740636
0.05884287470517535 0.03814372278380771 0.062230171922299404
0.05681894730631393 0.03804179723155022 0.06191780832296617
0.05493826222608056 0.037951892937750205 0.061528517207547706
0.053182456018216695 0.03787248494004384 0.06107182798856997
0.051558423833690636 0.03780423376374859 0.06054235121278245
0.0500524491888617 0.037746008565403645 0.05994703550591246
0.04871291418493373 0.03770209262323792 0.05925530518612515
0.04739824014372357 0.03766018158453103 0.058551902140120404
0.046211376020091455 0.037629312288499736 0.057773357913956824
0.04510268165281772 0.03760518898635276 0.05694900578471013
0.044072681758021204 0.037587897335938154 0.0560777065392013
0.04316874002724164 0.037581653940494425 0.05512904430226889
0.04241145185650724 0.03758834337428377 0.05408874161634358
0.041851818434344934 0.037612556717648474 0.05292300340489625
0.04149070039979702 0.03765447366842521 0.05162915357512854
0.04132698991054673 0.03771410039133646 0.050205744859235735
0.0414272281857907 0.03779746728759674 0.048607852161239584
0.04179208771788545 0.037904775215555235 0.04683213925884566
0.04284384326937041 0.038073919347062155 0.04460121579166049
0.044629182630608 0.03830945036277962 0.041876978406234555
0.0464994725964073 0.03855354366899198 0.03907759863897242
0.048268278120862984 0.03878948284323954 0.036325248959429235
0.047888694334419946 0.038832756397707044 0.034981446567432184
0.04672239638776793 0.038805164302523024 0.03415990205518482
0.0471335868220204 0.03892019156393386 0.032280386458993116
0.04751406158196014 0.039032896405508014 0.03041210703027447
0.04671111487674051 0.039038548785542866 0.029338753857734767
0.0457573080350262 0.03903049163651782 0.028368027892020753
0.04487242211327663 0.03902868825366808 0.02735061154508439
0.04403365692945116 0.03903109280376281 0.026301476636081067
0.04322367717527975 0.03903614332228079 0.025232140106350054
0.04246199620885299 0.039045646648394626 0.02412863631301776
0.04174576978426403 0.03905936846751871 0.022992402479505736
0.041106207594874766 0.03908021036249506 0.02180086047138763
0.040514322949218806 0.039105539678212106 0.020573697801665125
0.040037954832579103 0.03914166050629735 0.01926189798899791
0.03973325499019065 0.03919384522723216 0.017823769417456614
0.03966340721162942 0.03926806293471193 0.016211648692974923
0.0400175771320625 0.039382060022117756 0.014285400209082033
0.04171237232133135 0.039621589461434334 0.011370889252905414
0.08798752224637907 0.038665700518885064 0.057763896396504144
0.08117838613055939 0.03817868041727894 0.0600399696751992
0.07655847876360972 0.037870213842667505 0.0611155103794595
0.07274319985142808 0.03762700640560096 0.0617576244593368
0.06935403785114458 0.037418121427751735 0.0621752732601939
0.06639873814915248 0.03724439667651014 0.062359813070725134
0.06366296870823623 0.037088237235086585 0.06243121172868826
0.061198151252741306 0.0369540214342052 0.06235733677017419
0.058893428646280666 0.036832635550900626 0.06220052091824463
0.05681234448762357 0.03672945973561202 0.06192170353145421
0.05491989738541425 0.036641670427849576 0.06153941404651553
0.05321244631573496 0.03656905123570576 0.061053930120048505
0.0515519407245989 0.03650009497654817 0.06054624261600494
0.050047288619471775 0.03644398778706901 0.05995015093694639
0.048633279293698595 0.03639530599765845 0.059303657451965586
0.04734451478011642 0.03635701596027596 0.05858471024016437
0.046147647405797465 0.036326355595300314 0.057812497829370035
0.0449705744372112 0.036297254570023224 0.057030605961972125
0.043963746353204936 0.0362825063187496 0.05614537842646139
0.043025942069768675 0.03627357707574956 0.05521825798684549
0.042256270093711135 0.036278955612993415 0.0541862441784407
0.04161357539156607 0.0362952084799124 0.05307354520801766
0.041162941594400926 0.036327973693267616 0.051837434030235885
0.04098370592055223 0.03638415680304682 0.05042512673088495
0.04093525258844055 0.036451806350989296 0.04892403595941508
0.04120195287647965 0.0365468739381457 0.04721354923021637
0.04189004524022011 0.03667869313241319 0.04522113895899904
0.04337476585490163 0.036879937788494244 0.04269687660127486
0.04501729789287989 0.03709565979091936 0.04005180312381196
0.04690602039880798 0.03733362028006099 0.03722565567294578
0.0479917313127306 0.03750266111257443 0.03491296126256005
0.0478030426497395 0.037561270756895145 0.03343761666488482
0.047535645134431315 0.0376132395310193 0.03201015772631649
0.04692730098661857 0.0376355724519887 0.030808674310403406
0.046034273234369816 0.03763302539247963 0.029798748495087846
0.04509790849613993 0.037626659250152704 0.028818658247482976
0.04424200939040368 0.037627353634926274 0.027783822341447162
0.04343461172539759 0.03763233080264123 0.026715412286267948
0.042633548244062014 0.037637888266166784 0.025642170034698986
0.04190416233786132 0.03764981919735346 0.024518367778765704
0.041223944638110355 0.03766616410096344 0.02335898698263028
0.040558793007500205 0.03768391612238127 0.022187539469492867
0.040020781576948605 0.03771307498931834 0.020924239396257538
0.03959667526158733 0.03775252858896013 0.0195770414417768
0.039276046609764304 0.03780140698836327 0.018152079229304063
0.03916227825185831 0.037869041608878155 0.01657346753282568
0.03955655455790741 0.03798261989091239 0.014620082464683326
0.0410387245953196 0.038194653124979 0.011862599240814786
0.08647097824204802 0.03716473414181951 0.05861272465098988
0.0807008101767474 0.03677728017874836 0.06030885410118053
0.07620734427900844 0.03648980549939176 0.06131437140590629
0.07262828019865986 0.03627403607040614 0.061823090815358306
0.06942461573653202 0.03608738927616551 0.06213483104767187
0.06643568374359887 0.03591719205791028 0.06233851863589629
0.0637835261101819 0.035773309710342586 0.062361319420110195
0.06127867780008006 0.035640694590440725 0.06231037964069375
0.059021195407612304 0.0355274530183296 0.06212558288818243
0.05694179587376014 0.03542811739379477 0.061845336125090855
0.05503404670994777 0.03534224887460213 0.06147168316715046
0.05325939593090129 0.03526680886204993 0.06102591112360917
0.0516012172030586 0.0352005110986507 0.06051666504074621
0.050045998496139055 0.03514231210466186 0.05995092978322564
0.04864612164357418 0.03509651777962532 0.05929585990612146
0.04734067776711737 0.035058238533654085 0.05858705336262815
0.04610814516743289 0.03502576156691354 0.05783675874082017
0.044976923879751385 0.03500144330223105 0.05702668402906019
0.04392702484900468 0.034983693606960936 0.056168190234031634
0.04296657640237528 0.034973218323246846 0.05525534696220086
0.04216926646611896 0.03497612173498051 0.05424090960077593
0.04149266534601098 0.034988985494742754 0.05314994624815317
0.04098163132595267 0.035015572888559644 0.051952651027022234
0.040690084156106365 0.03506042665459005 0.050612771054880656
0.0405515712725224 0.03511814543011094 0.04917062098600866
0.04067033534886605 0.03519746531004516 0.047557138884242345
0.04102042743183859 0.035296354778596564 0.04578634900312767
0.04204080473979599 0.035451540764806076 0.043568765698830225
0.04322458956978109 0.035621000038555055 0.04123011529188203
0.04462345655549399 0.035809144964489066 0.03873435389889501
0.04599004793985717 0.03599533350449179 0.03624341464246561
0.046552678702440786 0.03611467778405624 0.034273338439412604
0.046355415240214526 0.03617048776249806 0.03280340591628389
0.04581777179374341 0.036197791038416624 0.03155855931927326
0.04510183311366922 0.03621012431014265 0.03043245278915696
0.04428044084691113 0.03621357023960531 0.029377311561031128
0.04348377132691639 0.03621912957195376 0.028304872922119084
0.04268816442813739 0.036224801849636695 0.02723120165446724
0.04197062421977005 0.03623715353756255 0.0261027790233489
0.04124477219507838 0.03624884532177412 0.024979051685230014
0.04056011605240506 0.03626411166483803 0.02382532953826294
0.03998025640502517 0.03628843062171087 0.022596202225239226
0.03947635113196257 0.036319378407193 0.021310925350166987
0.039052222362624844 0.03635732503963285 0.019965866979448688
0.0388028997515486 0.03641051630365159 0.018491834060246126
0.03873796930339335 0.036479875508252706 0.01687982175258984
0.03909129911310738 0.03658577274636774 0.014957837599519852
0.04042660902080719 0.03677739488366263 0.012309395585730187
0.08573995364682596 0.03573253837659907 0.05902188807082892
0.0802804896130973 0.035383058237298634 0.06054550264385339
0.07615337120653048 0.03513420142719454 0.06134493844236705
0.07269133868508504 0.03493538736997089 0.06178716824490976
0.06959353849498667 0.03476379365444553 0.06203803571213967
0.06667392336356859 0.03460525882845912 0.06220120380480193
0.0639407548232418 0.03446049452405524 0.062270167176007696
0.06143175870046552 0.03433249382162717 0.06222111417609938
0.05920632201499182 0.03422594916120749 0.06201700204035843
0.05711495708842251 0.03412939227297292 0.06174318292888986
0.0551692659651381 0.03404378208957118 0.0613914503747221
0.05337681419433982 0.033969770720127954 0.060955837239221766
0.05165958538191162 0.033901340667681225 0.06048163028873654
0.05013761633849151 0.03384790417595198 0.059895620175359265
0.04869492954373705 0.03380046807190213 0.05926622499952228
0.04735986351479182 0.033761290279171685 0.058575337333422184
0.0461476474052972 0.0337316159098824 0.05781249782967729
0.04499470332161981 0.03370649368803399 0.05701570199752298
0.043904235367857425 0.03368620307002753 0.05618234731364702
0.04296278766593742 0.03367761441016297 0.05525771399281876
0.04213018946812497 0.033677614411094584 0.054265462147124355
0.04143978885006494 0.03368890041646793 0.05318335802358054
0.04085581258164683 0.03370869414421141 0.05203260489826417
0.040464788136334695 0.033743940483449184 0.0507567505701893
0.040240341180087846 0.03379262525006847 0.049370642924622066
0.04020436970114111 0.03385657993532319 0.04785829708045242
0.04036422208879442 0.03393648432668581 0.04621285113696705
0.0409298112351652 0.03404929238048848 0.04429492114157402
0.041712488347025456 0.0341800191976664 0.04222398989332682
0.04257704397815759 0.03431786943096549 0.04008696404998946
0.043606478482077826 0.03446959180492583 0.03782769519568302
0.04421664474814041 0.034587978812929604 0.035834703389084066
0.0444118111137482 0.03467317613939733 0.03410972806833862
0.0442170638119187 0.03472702276772538 0.03264041180847016
0.04389883907658543 0.03477102949469543 0.031250030744153945
0.04333023012467546 0.034794779851602266 0.030026680828483643
0.042653855254005 0.034809813644021 0.02887517962725944
0.04195735304890058 0.03482325909291612 0.027736186723008593
0.04129284372058911 0.03483938597821869 0.026573710500885528
0.040612120314791555 0.03485424446599618 0.025421054864732284
0.039984051999066794 0.03487350451599065 0.024230017116693203
0.03939810733394472 0.03489632309002147 0.023007416732022667
0.03894110501104625 0.0349299088429389 0.02169108806654152
0.038600014746844435 0.03497324716396857 0.020288814785733134
0.03841656747797978 0.03502986683886492 0.018769249526532417
0.038337943140821396 0.03509545048463984 0.017168643620154356
0.038768190089811305 0.035203776566843537 0.015192400639995829
0.0400572878665712 0.03538438086223544 0.012578971052657373
0.09396780833529644 0.03489551360948654 0.05598810040318569
0.08531862057511741 0.034327328112462384 0.059257713351726915
0.08021988770408695 0.03401772114139477 0.060579622681488365
0.07620308278505877 0.03378654341335541 0.06131678485459385
0.07278245398494487 0.03359843494811863 0.06173526253064815
0.06970991930901171 0.033435319661089924 0.06197134771789825
0.06690693025728739 0.03329152817304334 0.06206690497466233
0.06425554445146875 0.033158427459000966 0.06208767009596011
0.06176110557646036 0.033036475673072004 0.062029063424997366
0.05949964529432167 0.032931394902255516 0.06184496145253049
0.05735840620240468 0.03283487495815557 0.06159956471072214
0.055362393436777624 0.03274883313944664 0.06127685755047935
0.053571345647223156 0.03267780120953981 0.06083974308027351
0.05185815450986064 0.03261233394755788 0.060362441712166814
0.05029513474584252 0.032557897070457205 0.05980052645650896
0.048825994814798046 0.03251031690049337 0.059186645524614945
0.04744686036440765 0.0324693410966684 0.05852221156276061
0.04620372758610658 0.03243848429202466 0.05777805531813751
0.0450404286703458 0.032413552477357964 0.05698745829755342
0.043958680941922124 0.032394710618618906 0.05614852511639046
0.043000678060754194 0.032385201881882715 0.05523404179335961
0.04214657572148783 0.032383569630793495 0.05425516646767553
0.041430977381178624 0.032392501022748134 0.05318892584373103
0.040804248477333604 0.03240826301337839 0.05206537227151781
0.04032519974291904 0.032435401843126196 0.05084595706947437
0.03999621375460294 0.032474167784304314 0.04952753919558428
0.0397973323291993 0.032523094647636905 0.04812136935052769
0.039792021534290956 0.03258713429492856 0.0465847541701665
0.04003582510312603 0.03267066611465473 0.04487923859510706
0.04051457633721606 0.03277271024695717 0.04301135406141182
0.0410703608329378 0.03288113384005272 0.04108283112942257
0.0416516400587541 0.032991971207955224 0.039127012271863104
0.042126040956723065 0.03309493249172022 0.037232027035669024
0.04247538023189801 0.033188552019457786 0.03541122898739807
0.04255437964345021 0.03326141908928765 0.03376415144544964
0.04237018578937107 0.03331396801748299 0.03228893300795055
0.04209190762575332 0.03335934605573692 0.03087294424687903
0.04164013869831379 0.03339126597027997 0.029571791450662688
0.04109925438082668 0.03341629385945562 0.028329126333725918
0.04058479400492948 0.033443509510929434 0.027065673458167294
0.039946364810124924 0.0334610287090532 0.02588618594076797
0.039374588508599984 0.033483902976820835 0.024658167949347
0.03885509027110784 0.033511023287648274 0.023390989436613607
0.038426627441164096 0.03354550062690492 0.022056499758167203
0.038142298787968376 0.03359161535523851 0.02061569642076555
0.03804132017248135 0.03365257345597124 0.01903870515669731
0.037990654103237875 0.03371781200178246 0.017419388890850207
0.03847820620463843 0.0338265131940591 0.015402916276796352
0.03991500752918703 0.03401200115744286 0.012682824536122794
0.09253966615927017 0.03339939259378855 0.05678274405798195
0.08517883480909472 0.03294439913212389 0.05933595315712398
0.08034543782675335 0.0326658631576119 0.06050893555330367
0.07651437978782322 0.03245706858318812 0.06114048533342942
0.07311919556916546 0.032278326684137444 0.06154343072548002
0.07008995880455005 0.03212485100188144 0.06175357924890895
0.06721843972825808 0.031981994532845975 0.061887359396155806
0.06452998985162173 0.03185162222985446 0.06192856229929433
0.06207477432285219 0.03173738261394692 0.06184615500007368
0.059793357945422565 0.03163512218826714 0.06167269248955104
0.05770021811126819 0.03154594610711211 0.06139791921488724
0.05568728376382859 0.03146217941804376 0.061084082800052286
0.05381311946857453 0.031388061408511525 0.06069545521304448
0.052088098193444676 0.03132439465976246 0.06022442096029734
0.050541971640592764 0.0312733857609806 0.05965151124828039
0.04904332722657212 0.031225610955543166 0.05905468685189169
0.04765682106620922 0.031185770854236395 0.05839399629817199
0.04634654329395521 0.031151306400416915 0.057690342839421205
0.045189103549956866 0.03112781795000026 0.05689562458146935
0.04410055788234374 0.031109255723857508 0.05606038958016868
0.04312070879278912 0.0310985532670394 0.055159052038206424
0.042220959980645345 0.03109366580239831 0.05420842994582609
0.04145867180020585 0.031098829963700652 0.05317142620249016
0.040805505988944946 0.031112024803303714 0.05206457316227525
0.04023847495023597 0.031131607000472298 0.05090138012412221
0.03981518778612497 0.031161859997152683 0.049643881303993775
0.039550718985405686 0.031203960246982076 0.04828075798816833
0.0394353383412005 0.03125725825148129 0.04681658121115334
0.039400289358587415 0.03131672337961774 0.04529463052857147
0.039612974943767254 0.03139482771654709 0.043603959048492624
0.03992447359221274 0.0314805982677962 0.04184022420400568
0.040300123414165445 0.03157149587925797 0.04002532112138424
0.04064468712304509 0.03166043429696087 0.03822213848062833
0.040892363517526065 0.03174247457827428 0.036475195549774464
0.04110013562959952 0.03182185056775543 0.03474701498092769
0.040965831250209916 0.0318758285745726 0.03324335944467788
0.04074332411756909 0.03192337984882688 0.03179455948896737
0.040468503741014905 0.031967174529442643 0.030376922588538302
0.0401025086845338 0.0320042503901607 0.029017869979571176
0.03969432975177345 0.03203827959689872 0.027684380616220805
0.0392181250842642 0.03206728098413264 0.026394971711110382
0.03875654984852711 0.032097513896517806 0.02509234287706863
0.03836382237136976 0.032133120340332805 0.023738007918863158
0.03804514475596815 0.03217453080902566 0.02232745079954168
0.03779546083339497 0.03222139386645067 0.020863393612623682
0.03769911726039865 0.032280214698210435 0.019284432440993315
0.037800992733211414 0.03235451762135881 0.017556325812034812
0.03830597230303279 0.0324601833334144 0.015527950567765791
0.03993212879951169 0.03265284290427298 0.012670327352061694
0.09213405905016941 0.03198045179929105 0.05700843105259479
0.08552035340512043 0.03159474510406556 0.05914480101586661
0.08063865293688383 0.03132459492793442 0.060343849819930406
0.076743502151228 0.031120199349398747 0.061010724485757895
0.07334958862846402 0.030949020594985402 0.06141218255615832
0.07043865755389539 0.03081000757880704 0.06155376950893482
0.06759914844267834 0.030675327563042837 0.06166792925761111
0.06495046205306132 0.03055314883305761 0.061684796488342686
0.06248738962712269 0.03044318707906626 0.06160554825722253
0.060158371185429826 0.03034198241832059 0.06145860415493509
0.05801334826950322 0.030253010974315927 0.06121319397746616
0.0560456153175401 0.03017588238327307 0.06087146558714873
0.054157291650152484 0.03010392501130677 0.06049005716886474
0.05236122832784185 0.030038055393734126 0.06006047809428716
0.050768378096985534 0.02998597847342527 0.059514829877054254
0.0493214198646722 0.029943804325188988 0.058885836126322366
0.04788878387806983 0.029902460467038892 0.0582523451556381
0.046582652495798016 0.029869751602166365 0.057545332716562037
0.045381135817859575 0.029844203231848748 0.056777009810664136
0.044265354752335506 0.029824539505539878 0.055958015928317784
0.043272423271345895 0.02981339053525687 0.05506426771583106
0.04236854475880575 0.029808438112924635 0.054115700660258725
0.04154555501649693 0.029809145502037178 0.053116526147953924
0.04082059671259153 0.029816752047900064 0.052054983480053885
0.040183190734761454 0.0298305598798173 0.050936710506595484
0.03967700840763716 0.029853690063207285 0.049732686685714234
0.03933454006930437 0.02988849712017361 0.0484204765548687
0.039096857677584695 0.029930872103403096 0.0470365774773005
0.038985632866892994 0.029982399797889706 0.04556565377673438
0.03900898975091849 0.030043713174587865 0.04400094671954757
0.039085554573762615 0.030109066343492922 0.04239472156825602
0.039241066727085605 0.030180323178099627 0.040729241415638495
0.039496530629533066 0.03025902337489542 0.0389895465495082
0.03967038232642772 0.03033218278942061 0.03729650534099632
0.039781111715032846 0.03040109750974984 0.03563848882967896
0.03975133319120744 0.030460166384573047 0.034068755754899094
0.03961361814591435 0.03051168127038679 0.032566594914461455
0.03940220393202598 0.030558073072720404 0.031109668887357333
0.03914643081128333 0.030601437423221474 0.029678512471014606
0.03885133482717068 0.030642121670643886 0.028270105413376878
0.038510405201581055 0.030679635598690257 0.026889421262419888
0.0381943909412798 0.030719119512450724 0.02548726202807028
0.037907195819585515 0.030760870763812 0.024060556681034462
0.03767982849273854 0.03080717397546525 0.022586919514097525
0.03750858706606047 0.03085778551351684 0.021068266884563924
0.03747258460302022 0.0309185490398901 0.019447099831411352
0.037721801256761 0.03100057786266008 0.01761350264761108
0.03842077926002391 0.031116152168823547 0.015444605730704553
0.040389647892074665 0.031326157366171975 0.01233637430986212
0.09229440300475522 0.03060032012677258 0.05691921283032292
0.08594942875121836 0.030248735953321768 0.05890464228916231
0.08112913588464965 0.02999435196809878 0.06006769850868665
0.07725950702386425 0.029800555507821746 0.060718490987984264
0.07382938346559076 0.02963453379353108 0.06113885750802267
0.07087702767933535 0.029498931725368577 0.0613025766929553
0.06804527171158414 0.029370666398900007 0.06141079595071253
0.06541539627903886 0.029255082342602157 0.06141525413037807
0.06294133949585667 0.02914924149531972 0.06134083825203529
0.06061380870565353 0.02905259123229916 0.061191479980961694
0.05842534004580913 0.028964694683766595 0.06097014719103522
0.05643755088823055 0.028889652955899525 0.060638909319594814
0.05450200658953441 0.028817763537494403 0.060284335212999585
0.05272463207670258 0.02875603491625657 0.059842349647059756
0.05112593436337187 0.028705881904209744 0.05929897348515256
0.04964502383569486 0.028663337903990126 0.05868935208532938
0.04821985926083605 0.02862432910714315 0.058050169617854586
0.04684586902954313 0.028588572084812476 0.05738367420601259
0.045651034873976704 0.02856461388402345 0.056610298168753515
0.044492475575330426 0.028542984100033107 0.055816925942430706
0.04347740925630239 0.028530868786288143 0.05493620177337527
0.042538962232613664 0.02852384153733985 0.054008625318266223
0.0417043031331954 0.028523756893576696 0.053016215862074556
0.040947652903631115 0.0285289211317136 0.05197424325017064
0.04024224485415856 0.02853756059355623 0.05089897089851725
0.039658172761928345 0.028554431085211655 0.049744792013769856
0.03919640203379793 0.028579646790271016 0.048509756530343784
0.03888950767700666 0.028615466666394338 0.04717134507502818
0.03869497718964271 0.02865906481422918 0.04575562896661617
0.03860057461588329 0.02870965447324315 0.044269390011205945
0.038505838169431705 0.028760423052214604 0.042777894688836915
0.0385598780031749 0.028821565576228343 0.04118200525049992
0.03860274573073358 0.028882187537291416 0.03958693701592764
0.03870166815991771 0.028946900215304633 0.037947591000616676
0.038750113675494635 0.029008401304573793 0.036335297871738004
0.03870693267250941 0.029063835543708002 0.03477855049531592
0.038623987901451884 0.029116747589297984 0.033242903286759606
0.038521551565115386 0.029168524869621897 0.031714840863343974
0.03835342046191981 0.02921595700277438 0.030226476551767578
0.03812319782891771 0.029259267864538252 0.028776025298724306
0.03793207378889829 0.029305476835650345 0.027293473366233945
0.037724927329302826 0.02935075646884439 0.025817062318838513
0.03750170687512061 0.029395097464884137 0.024346983207482076
0.03738339495795906 0.02944696818364571 0.022797463735535928
0.037322715826399344 0.02950309676704093 0.02120100836658506
0.037423426887679634 0.029570806935810455 0.019482398747540763
0.0378217692030528 0.029659772080391684 0.017541325046128875
0.03875904036121308 0.029787164766250953 0.015199042943381924
0.04146680020645216 0.030040378794115318 0.011550137630025326
0.09308712086667775 0.029258110982015677 0.05647813054202222
0.08656270162300056 0.028911551586396564 0.05856138595120458
0.08173970721265061 0.028668635157213657 0.05972393513504992
0.07773519832820708 0.028475383118888666 0.06044908862164933
0.0742720817309056 0.02831492068806383 0.06088666528894554
0.07137906108879027 0.02818921531213222 0.06101490383726005
0.06848261226324875 0.02806281856036967 0.06115872476293027
0.06587445820765281 0.027953892780307427 0.061149116195640674
0.06336098355551267 0.027850458139274347 0.06109613285864435
0.06106346506279414 0.02776012725774772 0.06092774658694072
0.058936746743961765 0.027680147351958607 0.06066845244445612
0.056888414772115425 0.027604779017544927 0.06037138774244771
0.054989202801087156 0.0275384960192532 0.0599935820541419
0.05320488913348975 0.027479195187851867 0.059554081497940725
0.05149576918352061 0.027424411051834026 0.05907570454154343
0.049994957288401476 0.0273825875534348 0.058476881457576735
0.04854372671611862 0.027343743274198293 0.057852395695809244
0.04722592906715639 0.027313218688565847 0.05715025444804461
0.04599399104655372 0.027288036439244052 0.056398460500789005
0.04481135922191776 0.0272658982345711 0.055618831868081475
0.04375990399432883 0.02725204973444648 0.05475971187884987
0.04279168369815284 0.027243472344977423 0.05384983739149557
0.04189975143207669 0.027239751761789624 0.05289271534349732
0.041098709808484624 0.027241854576422055 0.051878251318384194
0.04039309611303016 0.027250107213892722 0.05080256666040406
0.039744830633254846 0.02726209052360665 0.04968909857075077
0.039198912827746624 0.02728073416467106 0.04850813377943858
0.038792814039944 0.027308503644558432 0.047234191321211705
0.038486354855583826 0.027342846924169415 0.045891986418503394
0.03824700226214517 0.027381688656452813 0.04450178621383116
0.03809380794293227 0.027426296535573186 0.0430502328639894
0.03799305685344745 0.02747450494707217 0.04155875270450626
0.0379702483996861 0.02752800287408591 0.04000968736235999
0.037949881948166564 0.027581875378046697 0.038452876500192856
0.037972549577168224 0.0276387896336221 0.03686082136811347
0.037902557274036075 0.02768983760968966 0.03532521953361639
0.03788448313048909 0.027744513817460965 0.03374827715821832
0.03783828416185592 0.027797553477157916 0.032184372656017535
0.037710172624599914 0.027845386801594433 0.030670955883161266
0.03760207931218379 0.02789474187860445 0.029138105814988435
0.037480795071130335 0.02794342116718876 0.027608759915298986
0.03733343764922664 0.02799056273424112 0.026092085573097112
0.03723823662934733 0.028041376933568785 0.02453309153016081
0.03723147374586111 0.028098312123294746 0.022905366956893547
0.03727111408229605 0.028158589727720916 0.021237860178622447
0.037533400838062114 0.028234062464911242 0.019403429226193536
0.03812716012285239 0.028332145303828375 0.01732083052840372
0.03942408175105239 0.028478034634795393 0.014716251937263503
0.0942788790666006 0.027934616673567083 0.05581501512710241
0.08729926526258924 0.027578000540422327 0.05814912226038904
0.08243489519701275 0.027344302402382555 0.05933253096021174
0.0784412581514019 0.02716096999683304 0.06004921966166166
0.07495472492569838 0.02700684652040533 0.060497783480225886
0.07189200069422808 0.02687717715057259 0.06072098156372918
0.06908551517914996 0.026762182258306164 0.060811227935686274
0.06641259070808586 0.02665467010077575 0.060837137651236606
0.06386560008319297 0.026554230337302386 0.06080187780349394
0.06160695116044401 0.026470572360937472 0.06060897997581599
0.059478743042487126 0.026394374186393413 0.06034871193945096
0.05745296552410245 0.02632400483196447 0.06003640968598911
0.05553414902909598 0.026259769220777777 0.05966836434217293
0.053708466399562005 0.02620087329755086 0.059251815691790555
0.05198986354306018 0.026148186285023217 0.05877742022733723
0.05044644432857126 0.026105845823497027 0.05820275009315562
0.04905751290808591 0.026072663276074794 0.05753864539882608
0.04770034569283116 0.026041272220643934 0.05685888413024848
0.04643464594355279 0.026015299777962596 0.05612627614249038
0.045219868438327426 0.025992316750787444 0.05536506139112585
0.04412910390518443 0.025976785608177944 0.05452905252646373
0.0431497978597567 0.025967985146639963 0.053624829970194965
0.04223432196771765 0.025963047149933475 0.052681305805072964
0.04137970995883827 0.02596181294472132 0.051699684524030176
0.040634681910355464 0.025967290629423878 0.050648176866746775
0.03993208266557696 0.02597539566858314 0.04956875508397096
0.039325746773594183 0.025989456394640172 0.04842615974865727
0.038841783199230207 0.026011118029489775 0.04720236370635106
0.03842858036619251 0.026037237285545998 0.04592974834937735
0.03809870377350144 0.026068618609607262 0.044599259914055445
