# .PCD v0.7 - Point Cloud Data file format
VERSION 0.7
FIELDS x y z
SIZE 4 4 4
TYPE F F F
COUNT 1 1 1
WIDTH 762
HEIGHT 1
VIEWPOINT 0 0 0 1 0 0 0
POINTS 762
DATA ascii
-0.03653617730649885 0.05030404519674375 0.05828921156052619
-0.036697727953056314 0.05137760921524348 0.05612184874187243
-0.036855272218070466 0.05239642336378503 0.05397471628019784
-0.037015966949000015 0.053445152296807186 0.051796017662962046
-0.03718801450580149 0.054620107457525546 0.049525529801875856
-0.037362467606440034 0.05581541744026125 0.04722797605448481
-0.037532921854237934 0.056955841305628085 0.044950329660987776
-0.03770284684232686 0.0580822469634254 0.04266726911076807
-0.038917613809898555 0.0714009944893575 0.03262210374384622
-0.03882855402985993 0.06946970866706936 0.03222063408443415
-0.03876985745873498 0.06789565515875023 0.031597078833143666
-0.03587962725447159 0.03345677657285556 0.05221933172587584
-0.03577376219728576 0.0314066820536168 0.05203482273299359
-0.035629771436169355 0.028920647887229645 0.05214421738489872
-0.035490435484204115 0.026494935756588678 0.052226187710095906
-0.03535862233878087 0.024162252505031956 0.0522585216473927
-0.03522900204185354 0.02186082341059231 0.0522813170146606
-0.0351069767165417 0.01965245944759142 0.05225297950969188
-0.034980391753597906 0.017397504012658882 0.05226639923809401
-0.03485561013373834 0.015168961951690152 0.05227282172281272
-0.03472629312930915 0.012894440828782328 0.05232121382819338
-0.03459891063167893 0.010647868114351255 0.052361639611025135
-0.03447488788910862 0.008445294487355148 0.052382818942065645
-0.03435618883835385 0.006308744273246625 0.05236909754302044
-0.03424127515432621 0.004220453545590475 0.05233212634064904
-0.03412160677585277 0.002083776080039512 0.05233893451901317
-0.034006836346201406 7.760179412952262e-06 0.052313535464742544
-0.03388673301611792 -0.0021229299797856926 0.05233675901057494
-0.03376719543096447 -0.004241759594396377 0.052362046874343426
-0.03364840568344058 -0.006346729199029455 0.05238789686184442
-0.033533941449356806 -0.008397922302731065 0.05238554759198405
-0.0334185187372368 -0.010454545595962927 0.05239717661774279
-0.033305791931998646 -0.012475875903305567 0.05239334728923262
-0.03319517411965226 -0.014468615179173638 0.05237859471367917
-0.03308672037835855 -0.01643229842224092 0.0523522979302416
-0.03297541720737594 -0.018422507513704944 0.05235518327861549
-0.03286697947123809 -0.020375989787548565 0.05234070205916208
-0.03275513008519004 -0.022362058312134447 0.052360175793463026
-0.03263776883282115 -0.024403554975907238 0.052431192039994134
-0.03253646854868708 -0.026263556488765827 0.05237583475134805
-0.03242582222233693 -0.0282211707017771 0.05240355096901822
-0.03231413331736783 -0.03018508865454228 0.05244599876545031
-0.032212369054768895 -0.03203573952218891 0.052411684422884075
-0.03211183375913197 -0.03386835541569583 0.05237264253013335
-0.031988653782829134 -0.035942052515740175 0.05252942999747101
-0.03188526898909459 -0.037795768662366 0.05252603767009606
-0.03179064430325836 -0.039550092193360586 0.05245419434272969
-0.03175038029436123 -0.04071399605135234 0.05192616595263355
-0.0317923792682915 -0.04099104334057413 0.05069991868219509
-0.0318567063510664 -0.04103031955714864 0.049280651450133606
-0.031914049404014114 -0.041147364711579204 0.047917711552118936
-0.03200221004454272 -0.04093762096332171 0.046286710548985754
-0.03205915440816973 -0.04106489181572526 0.04492009042898948
-0.03213410191167612 -0.04100316088435668 0.04339460535221895
-0.032213895876415384 -0.04089339902992439 0.04182295894764598
-0.032294598618014064 -0.04077766995215598 0.04023903466610296
-0.03237810599254825 -0.04063598827555548 0.03862620084789875
-0.03246359693269715 -0.040477210783732065 0.03699142038607267
-0.0325687780097974 -0.04011504673941979 0.035178924904205655
-0.032646827076470396 -0.04004275410959046 0.03359985292881723
-0.03275179776940335 -0.0396918310587514 0.03177844963119453
-0.032845888940881834 -0.03945952561582167 0.030047804925380228
-0.03293333938425554 -0.03930084871819245 0.028371097319484062
-0.03306347030746069 -0.038701715608559006 0.02630868963140509
-0.033135562394071595 -0.03871163702080738 0.024758734753267453
-0.03328766677318986 -0.03789529996797286 0.022486362896225465
-0.03340483085236376 -0.03744740589989204 0.020520371449629815
-0.03347823766124936 -0.037456558117574035 0.018943282817450946
-0.03358890867870352 -0.03708529129619775 0.017024504199631918
-0.033680922249207976 -0.03691083314862953 0.0152692467092167
-0.03376626341959681 -0.036809013303567006 0.013569782187080437
-0.03384351598735629 -0.03679386036973076 0.0119396075756113
-0.033956996322897524 -0.03641246609961141 0.009972959776984425
-0.034060805429932034 -0.03613477736024423 0.008089062388882406
-0.034160576476253084 -0.03590288720887841 0.006236738977880685
-0.03552210402230899 0.06149166384955429 0.06518811845791023
-0.03538433504180494 0.058925267515528956 0.06517786178648866
-0.0352028220998695 0.055820113727051646 0.06549341124863778
-0.03501068861378761 0.05259145841383417 0.06589676587807708
-0.034839974763524455 0.04963795105426039 0.06615410145455602
-0.034688657312599847 0.04693298444645583 0.0662784745731641
-0.034763690366855504 0.04703537879750097 0.06474033320906525
-0.03489583385987542 0.0478393475975617 0.06277467879608462
-0.03504584442304984 0.04885720528739418 0.06066860314615807
-0.035196730226699086 0.049878685379899534 0.05854747906765406
-0.035349980165341785 0.05092200252392559 0.05640007087912374
-0.03550157866577361 0.05193778966794327 0.05425639318411951
-0.035655237387792624 0.052971551097147906 0.05208855225540132
-0.035817734383903795 0.054105860626097235 0.04984498556973199
-0.03597886601523642 0.05521580231111006 0.047602588270920676
-0.036144665324249974 0.05637481508940512 0.04531539529228562
-0.036311329158369765 0.05753642264155462 0.043012166291135745
-0.036479311477851925 0.058706060231255464 0.04068933450659612
-0.036696281523559846 0.0604597260961765 0.03797862550129577
-0.037221490408395716 0.06592085158299005 0.03286624892690859
-0.034597806108129577 0.033451890669276174 0.05222248953266356
-0.03448916885662051 0.031323078433101725 0.05208916107797329
-0.0343542779215266 0.028884657849751527 0.05216774079345615
-0.03422103364760576 0.02647236417161175 0.05224102356782567
-0.034087439923310446 0.024062241509408777 0.05232462554591566
-0.03396387915449988 0.021778058079665708 0.05233632840380287
-0.03384567724411261 0.0195635001209456 0.05231243837796817
-0.03372781305351101 0.017358579266147423 0.05229256106989488
-0.033605500746996864 0.015106572965169485 0.05231498785309996
-0.03348625848425738 0.012896688556086333 0.052319686229786055
-0.0333611595013564 0.010623375256183898 0.0523783779034111
-0.03324045697914982 0.008407789859210923 0.05240859159017586
-0.03312369370764146 0.006244245277938376 0.05241366584255874
-0.03301199688951634 0.0041456801111475206 0.05238407996601463
-0.032896463389258425 0.0020075276206996673 0.05239220560398822
-0.032782282338711284 -0.00010932660323798027 0.0523957894312842
-0.032671786519422215 -0.002177786672773241 0.05237550829802645
-0.03255574264098772 -0.0043055254575316 0.05240733706157796
-0.032440341754773734 -0.0064202744045469 0.05244041976370689
-0.03233080601151628 -0.008461579482916426 0.052431258195691055
-0.03221980729751318 -0.010514583200403382 0.05244052420320411
-0.032107907624623525 -0.01257269677863776 0.052463634997180375
-0.03200346653130556 -0.014539605521246501 0.0524304120795368
-0.03189832256759939 -0.016509617417810152 0.0524090425721645
-0.03179455275441509 -0.01845886668707486 0.052382012755100016
-0.03168754000671241 -0.020440282072747784 0.052388401533188855
-0.0315806533777911 -0.02241516206433608 0.05239978840684678
-0.03146944759773106 -0.0244341686336651 0.05245415215916477
-0.03136794452706796 -0.026337550816285804 0.0524316310101583
-0.031264690976039164 -0.028255963070374257 0.052429928584570296
-0.031158575661942852 -0.030201863851209987 0.05245878554662242
-0.0310612729969107 -0.03204313289937133 0.05241735041252593
-0.03096441360234935 -0.03387477077508133 0.05237758552854005
-0.030854511857752214 -0.0358485487850555 0.052456997695095764
-0.030754765743196254 -0.03770306498791526 0.05245383861510111
-0.030639499108214764 -0.03972672915614067 0.05259250152949879
-0.03055379261180546 -0.04141440677633218 0.05247753446350151
-0.030578344448886702 -0.041867880994015005 0.051393874517713156
-0.03063552060197523 -0.041959320183122095 0.05001983043302699
-0.030685805242626214 -0.04213004037100698 0.04870378349507032
-0.030744105452188572 -0.04221429973759072 0.04731342528470739
-0.030803834112612533 -0.04228553418994396 0.04590698387411024
-0.030870498998020583 -0.04228305261053156 0.04443492394279269
-0.03092796308605804 -0.04238508177093092 0.04304188841316897
-0.030987350764121648 -0.04246870660697527 0.04162822524030929
-0.031052197350097743 -0.042495295232865715 0.04016175220355944
-0.03111518192811399 -0.042545346420678365 0.038708516080326605
-0.03117718651432786 -0.042609096748221 0.03726063710789418
-0.03124117608557365 -0.042654173231728654 0.035791093276551667
-0.031308253751658105 -0.04266872568105279 0.03428959985203378
-0.031372699593131555 -0.042715019994446435 0.032808509299887045
-0.03143925454911995 -0.04274155496349824 0.03130430106746862
-0.03150785964894614 -0.04274911808424364 0.029777341429804927
-0.031582090707309385 -0.042699323444045534 0.028194259000307142
-0.03164597202475991 -0.042764343782918435 0.026703342210109837
-0.03172008840240876 -0.042722601924271686 0.025113200255725998
-0.03179703807334356 -0.04265406033235214 0.023492307959594727
-0.03187281183236519 -0.042601742049267644 0.02187809952533515
-0.03195517882459586 -0.042482768978921615 0.020197446290207532
-0.032053555143679434 -0.04219749089569014 0.01836076770265993
-0.03214631822430388 -0.04197644870065542 0.01657173342980589
-0.03222913814796595 -0.04186507525707189 0.01487200181663495
-0.03233355312601911 -0.041529567783276045 0.012961573825927275
-0.03242420277184029 -0.04134408755033264 0.011176919992978429
-0.03252854208240763 -0.041018991136304805 0.009255758789351476
-0.03263319397750927 -0.04069558366826348 0.007325668578829103
-0.032767894764489616 -0.04006265747353971 0.005099591176971507
-0.03397779767341771 0.05936007380641545 0.06790196905440293
-0.03381475543469687 0.05640131657512265 0.06812205515209147
-0.03361164805095037 0.052930963983985446 0.06865301617779868
-0.0335198071952999 0.0509110637074236 0.06835600545092407
-0.03332129221635132 0.04751738348960016 0.0688728220947093
-0.033178035849412556 0.044846141338346746 0.06898093846653225
-0.03328399690120166 0.04538976240545545 0.06719415020187641
-0.033433681336490925 0.046489844901204114 0.06506590153732894
-0.03356943406541076 0.04740389435530995 0.06303605395119005
-0.033712895836428995 0.04840988597778506 0.06093864932502635
-0.03385970836042357 0.04945158166740554 0.05880680542323047
-0.03400617626862411 0.05048162509073584 0.05666899307230949
-0.03415073384851617 0.05148012112841799 0.05453747732251718
-0.03429486902286581 0.05246610563386461 0.05240075645316994
-0.03444283660503252 0.053493533868092025 0.05022536966293889
-0.03460494262605843 0.05469248162681384 0.04792953519390519
-0.034760815130285456 0.0558047209510974 0.04567359216996425
-0.03492110378750902 0.056964894283981604 0.04337330541800999
-0.03507908573757531 0.0580881358702775 0.041082005970077884
-0.03524878193562455 0.059350580025187505 0.038687445247233165
-0.03542299965839948 0.060661266949148085 0.03624648765284272
-0.033318164798863244 0.03347387813785557 0.05220827881884227
-0.033203831958815364 0.03122376725775594 0.05215370858049806
-0.033076984559261884 0.028823489216397713 0.05220772115619282
-0.032952536436173976 0.026459297549087213 0.05224961200115813
-0.03282627011499369 0.024078710528985692 0.052313740078851756
-0.03270454529732776 0.021760576775667895 0.0523479476507287
-0.032586523993370864 0.019494208407436764 0.05235875175534532
-0.032469073017777315 0.01724070635636943 0.05237178499595385
-0.03235320279121012 0.015012459317208182 0.05237859536723122
-0.03223870557051167 0.012806799364488586 0.05238077664127655
-0.03212147317620628 0.010573285719624959 0.052412608833205865
-0.03200247552280765 0.008323981964011407 0.05246618318616575
-0.03189089062158678 0.006171026564910476 0.05246425939860477
-0.031782659713503324 0.0040644373839959225 0.05244052854620307
-0.03167056884275729 0.0019162839552869793 0.052455953109127484
-0.031562247147443746 -0.00018060802579827895 0.05244586493608128
-0.03145152872072872 -0.0023011564789855443 0.052462653399625025
-0.03134590856210889 -0.004354641890613853 0.0524422223801671
-0.031233007098150516 -0.006490685146658515 0.05249070416324009
-0.031125008963274237 -0.00856215478594513 0.0525034787654064
-0.031020719715992157 -0.010583755085789515 0.05249046680569863
-0.03091199497488358 -0.012653342199288486 0.05252218003464859
-0.030812217945010528 -0.0146105685204444 0.05248220948724641
-0.03070851651038334 -0.016609687158311903 0.05248248405378603
-0.030604273948065523 -0.018610121590503792 0.052493623924953214
-0.030505159650805354 -0.020544465081791974 0.052465696572843
-0.03040554584052116 -0.022479830965377312 0.05244802801457116
-0.03030544855605986 -0.024415992404810127 0.05244052006123373
-0.030202073027897423 -0.026385915129400028 0.052468100666983986
-0.030100118152798467 -0.02833398599944914 0.05248908117780743
-0.029999562321722087 -0.030260564480085406 0.05250352970735961
-0.0299050285674058 -0.032111506875091955 0.05246974950277239
-0.029812809948267485 -0.03393066607262424 0.052420652541639634
-0.02971268473700429 -0.035837651869771614 0.05244855644192847
-0.02961608640395641 -0.037698563542447994 0.05245033281977235
-0.02950102491711576 -0.039769522881353214 0.05262600912412879
-0.029429564398455968 -0.04132856137876001 0.052409956330648655
-0.029461697845846745 -0.04168384377658657 0.05124822189834194
-0.02952318297827457 -0.041701376854229866 0.04981459237164798
-0.029579224653723247 -0.04178474792420772 0.04842757363687561
-0.029635324866366924 -0.04187021612490294 0.04703671063840248
-0.0296908622320903 -0.04196492360354187 0.04564776914190083
-0.02974762081255869 -0.042048379302000505 0.04424417733463554
-0.029804831412169577 -0.042129471470246316 0.04283301629939401
-0.02986241949477456 -0.0422090842980557 0.041414944905210194
-0.02992196439769206 -0.042269260201614645 0.039975075981379005
-0.02998119332924673 -0.04233597080218443 0.038534679332593524
-0.030039703928070247 -0.04241375488358895 0.03709759084095454
-0.03010091575111504 -0.04246387068560764 0.035631410514867845
-0.030160615723679816 -0.04253408064762926 0.03417602045191542
-0.030221839378605606 -0.04259007905412393 0.03270255765003377
-0.030282746990933637 -0.04265265690634523 0.031228515430497816
-0.03034244169095691 -0.04273184915539391 0.029762541838839918
-0.030405952773274618 -0.04277128665445584 0.02825625769529444
-0.030467768943301783 -0.04283278910266303 0.026762621302363898
-0.030530821614270228 -0.04288357241727636 0.02525334858647743
-0.030593476640216312 -0.04294189364797074 0.023744229158545405
-0.030660030012836438 -0.04296007480766123 0.022193375103607582
-0.03072138908193505 -0.04303903031133671 0.020689441702363198
-0.030784412392777037 -0.04310264327016328 0.019165553811788916
-0.030850459410647582 -0.04313605959396016 0.017608177626546595
-0.030917379459810955 -0.04316314483421879 0.01603828702894161
-0.030982308771246348 -0.04321537290531474 0.014484173240112863
-0.031045474939316288 -0.04329010558244378 0.012943750974008628
-0.03111375594549327 -0.04331211605273455 0.011348637753410162
-0.03118567654855196 -0.04329785436536471 0.009713125559326075
-0.0312510510496867 -0.0433582976081599 0.008138992252931465
-0.03132490416489035 -0.04333002987286455 0.00647576878649192
-0.03141187044198088 -0.04316353680751306 0.004675976788110381
-0.03241393726631939 0.05671326848585856 0.07088940656778281
-0.03232788378173578 0.05471464715140578 0.07056386907489748
-0.032278778925245236 0.05321980519443276 0.06995579113895561
-0.03222050586470961 0.051603817410037944 0.06942241986583281
-0.03175606279728083 0.0445223960488883 0.07208140301797572
-0.031720280983091695 0.04322507506743972 0.0713903551138737
-0.03183259976095013 0.04391591614975754 0.06952970712565565
-0.03197339640450951 0.04498219379630464 0.06743598231191139
-0.03210657042042942 0.04593938871213038 0.06539440743306829
-0.03224590302394102 0.046971859229253454 0.06329537742642721
-0.03238961942260104 0.04805550935911618 0.06115258610284041
-0.032523966251513964 0.049007309214633366 0.05907655619497548
-0.03266529243245759 0.050044730779342295 0.05693578825197909
-0.03280607851616391 0.05106773836172884 0.054790748510405884
-0.032949872471143775 0.05212322911292605 0.05261254485949557
-0.03308450726675723 0.053050602554338244 0.050500523449593715
-0.033228331607611995 0.054091939889829355 0.048304726312702495
-0.03337861309868422 0.05521065825700361 0.04604684877421816
-0.03353098064278994 0.05634898317203524 0.04376248925858961
-0.03368765453009366 0.05753579008280091 0.04143300431617508
-0.03384548478630266 0.05872963329999181 0.03908427242041279
-0.03399358304751443 0.05978858846046259 0.036807342136248866
-0.03203867029172829 0.03349953311899967 0.0521916977561423
-0.031920230405656745 0.03113902708327665 0.05220878563106274
-0.03179775613640344 0.028732369659613843 0.05226727770883888
-0.031678147323687046 0.02636904184528588 0.052308935295568515
-0.031560711615183874 0.02403989282813146 0.05233939727126519
-0.031448579520465855 0.02178505102392675 0.05233168042410302
-0.03133193783950472 0.01947804377288731 0.052369555916220334
-0.031212054964074826 0.017135480481870913 0.05244250868400452
-0.03110176243410592 0.014921789469496738 0.05243987535950134
-0.03099154314787747 0.012714705293404183 0.05244336553097928
-0.030883412055167835 0.010539899776479789 0.052435424613794857
-0.030775512610060042 0.008373600725495256 0.052432085877575696
-0.030659325718227253 0.006107665440368781 0.052508041438373954
-0.030554693047729564 0.0039940545950780115 0.05248943148980689
-0.030446273540662542 0.0018379562600960853 0.05251067685492561
-0.030342076088317984 -0.00025930592468514924 0.052501150547278164
-0.030236831542300356 -0.0023643920470696744 0.05250732129831531
-0.030134143437399858 -0.004431948331947155 0.05249712986561894
-0.030027361965643845 -0.0065455458526991195 0.052529883379059894
-0.02992526943136895 -0.00859498400453379 0.05252705259315915
-0.02981792542178037 -0.0107047440901476 0.0525778217435775
-0.029718624221691144 -0.012708765561115554 0.05256241496390551
-0.029609784792577636 -0.014826287992393161 0.052639667734019124
-0.029516647798161304 -0.016743358439757938 0.0525805858067277
-0.029418626723389567 -0.018716121605897584 0.05257184146008337
-0.02932408837291939 -0.020640805397188544 0.0525371729927237
-0.029230781474168643 -0.022545441361755736 0.05249696992842734
-0.0291321602030418 -0.024510679916114442 0.05251153531072522
-0.029036363278882652 -0.026436162186770362 0.052505990028391236
-0.02893981408802013 -0.02836593729165282 0.0525133048491504
-0.02884139150370203 -0.030313657744532374 0.052543999692162
-0.02874809955016448 -0.03219370516176162 0.05253274299402272
-0.028662703129702604 -0.0339728047897942 0.052453120186757074
-0.028565929128712895 -0.03588577475179899 0.052485834645874474
-0.028472923377131996 -0.03774807298900568 0.05248889154223907
-0.02835937344958766 -0.03985418735006324 0.05269230161638122
-0.028319081034502116 -0.041069879552255106 0.052206320080685875
-0.02836040432041219 -0.04130009021001224 0.050944507720603216
-0.028419288070541955 -0.04132128657279671 0.04951216550585008
-0.028475001738512848 -0.041383545074295536 0.04810663935838566
-0.02852728304756371 -0.041489761204625775 0.04673074591117493
-0.02858102800344541 -0.041581180451699284 0.045337511519224216
-0.028636627464018665 -0.04165325640914469 0.04392301447172081
-0.028690785606941285 -0.04174533593208818 0.042519119709091224
-0.028746964648827592 -0.04181621379519368 0.04109220086657317
-0.02880389582036758 -0.041881072647309836 0.039654482373680355
-0.028861052935058286 -0.04194618890523227 0.03821105799703017
-0.028917824852905734 -0.04201878665428005 0.036767922157439736
-0.028975281736374967 -0.04208624417670759 0.03531454431914266
-0.029033584771779187 -0.04214672186175217 0.033849265150128094
-0.029091890457633635 -0.04221016661378996 0.032380386632677394
-0.029149886234067782 -0.04228023224605171 0.030911023226417533
-0.029208035601994878 -0.04235148876591088 0.029436570365296955
-0.02926657426439398 -0.042421204936260004 0.027954650672159853
-0.029325505509635467 -0.042489372600004904 0.026465195289619714
-0.029385465095661364 -0.04254865585319734 0.024961754788629553
-0.02944559099390264 -0.04260909971413551 0.023452956945545667
-0.02950596344503787 -0.04266979143182309 0.021937972110059045
-0.029566824069747092 -0.04272796913230831 0.02041431800768312
-0.029626248702551664 -0.04280576684928078 0.018901596022589895
-0.029686154727626302 -0.04288110461227479 0.01738030238604682
-0.029748733977471204 -0.04292896209972852 0.015827879308876358
-0.029809218228151975 -0.04300393417053039 0.01429320425472419
-0.029870602414175766 -0.043071774565333065 0.012745523620106558
-0.029932568033752112 -0.04313616930685954 0.011188055466506364
-0.029994461810723797 -0.04320456443636955 0.009627536580271101
-0.030053882969751526 -0.043304091903141495 0.008089001091449555
-0.030121096883653067 -0.04331878888227614 0.00646534761710138
-0.030190948499721832 -0.043307262215691256 0.004809915953979893
-0.03026280168247984 -0.043276856937197905 0.0031291536721522184
-0.031042394091389505 0.05731641293619599 0.07347471867390712
-0.030888496502526543 0.05430608339546733 0.07371790149510332
-0.030972799871641393 0.05467013634118395 0.0720533186759853
-0.030765515921471864 0.05091691436781415 0.07274002763367562
-0.030670848302991507 0.04876020197480552 0.07252618424224619
-0.03048068048466928 0.045266671916985246 0.0730963344203201
-0.03042725848481664 0.043701103264568664 0.07256032011056446
-0.030415520178808615 0.04272186763656344 0.07168549730733292
-0.030510746295501916 0.04323764057943297 0.06992984289902437
-0.030662597082171266 0.04453788870585168 0.06769961212812164
-0.030786743065658748 0.045444428288266836 0.06568979409711945
-0.03092721533634649 0.04657109760476896 0.06353592938837438
-0.031060140551173912 0.047585612465822436 0.06143626234433086
-0.031197647268669113 0.04865640088759582 0.05928961867823207
-0.031325143319022836 0.04958157521390494 0.057218620207153126
-0.0314974302190666 0.051117287283647506 0.05476031728163827
-0.03249388048618999 0.06398141454700562 0.04528796577159766
-0.03180795044466545 0.05369347783600331 0.05010116227867578
-0.031928240018209215 0.054489897481886373 0.048056100538668045
-0.03199770710597352 0.05458481522636971 0.04644007333912148
-0.03214454687432416 0.05573210397227574 0.0441522848175257
-0.03229244222461528 0.05688590696155582 0.04184598456493488
-0.032434680417900326 0.0579548739729418 0.03957939630330454
-0.032599446427617515 0.05932190341181165 0.03710727207066117
-0.030757213697064915 0.03350075486354981 0.05219090813081084
-0.030637422449951796 0.031057951096999048 0.05226148113497486
-0.030518915988250142 0.028638894135599113 0.05232837414261876
-0.030408552092944487 0.026335799772534918 0.052330784654507134
-0.030299859044042615 0.024061065201695042 0.05232540304568212
-0.030189332534290344 0.021767569115960173 0.05234330007246707
-0.030076676005117646 0.019451490405929917 0.05238730372533423
-0.029959463496355282 0.01708060198566036 0.052479393239872385
-0.02985123200680337 0.014835691367483972 0.05249806549832903
-0.02974327348469185 0.012600209042640198 0.05252117936987322
-0.02964329815090996 0.01047648208576929 0.0524787639350901
-0.029540080874654737 0.00831516216783057 0.05247224402491074
-0.02943229177751807 0.006098927593887304 0.052514079221713805
-0.029325450471919222 0.0039009720763125144 0.05255410652237774
-0.029226141571036892 0.0018079212179927806 0.05253166087603195
-0.029120222926991256 -0.00036666572051097246 0.052576571263894034
-0.029020851017022564 -0.0024497267504755005 0.05256759942978445
-0.02892215500804243 -0.004518619359923981 0.05255868861965873
-0.02882175122265219 -0.006604529150437188 0.0525720067770003
-0.028723694363216593 -0.008654472293637638 0.05256976962210258
-0.028628178167194148 -0.010666117489854354 0.05254993305826278
-0.028528482090625064 -0.012726900513447104 0.05257558014371566
-0.02842577868807271 -0.014821297342374806 0.05263602495205305
-0.028332995877356965 -0.01678195643232533 0.05260891298882642
-0.028233745079707575 -0.01882107934456062 0.05264928989799689
-0.02814455121103044 -0.02072542583221254 0.05259995424602726
-0.028051190739654692 -0.02267851849551289 0.05259623848914452
-0.027960385926110824 -0.024593848883880887 0.0525739116992745
-0.02786868567394105 -0.026515770035818453 0.05256601922654314
-0.027782957631873304 -0.02835654045037217 0.05250618069300067
-0.027684519422982043 -0.030354631090073914 0.052575231350050045
-0.02759730395455533 -0.032204785130798 0.05254123424074847
-0.027510852807819664 -0.03404057181883019 0.05250533430235371
-0.027418702708595425 -0.035943867623737746 0.05253083606384251
-0.02733101414948783 -0.03778587064406519 0.052518328940405756
-0.02721976877593202 -0.03992010758331688 0.05274391732505834
-0.027205009151396762 -0.04083477767880128 0.0520212461444291
-0.027255569015270795 -0.04092881119900005 0.050650666283381385
-0.027311864753443008 -0.0409537138045023 0.049219698463944195
-0.027364322495359507 -0.04102959827070074 0.04782350661877427
-0.02741726888307112 -0.04110219877965521 0.04641906527486367
-0.02746998876847077 -0.04118045403313153 0.045013522868556255
-0.027523417488750715 -0.0412527313680513 0.04359746064734771
-0.027577417083080844 -0.04132079715919196 0.04217220759077378
-0.027633667896435114 -0.04136392175421599 0.04072064189514335
-0.027687004776859918 -0.041446008824763625 0.03929517492319018
-0.027739814089040814 -0.04153744743005622 0.037871695232543356
-0.02779378291763326 -0.041617471885888935 0.03643295619928649
-0.027848553825294022 -0.04169055636402308 0.03498252289335513
-0.027904135061305 -0.04175666442213011 0.0335202334073485
-0.027959789497180473 -0.04182485645533224 0.03205363827550606
-0.0280155915300217 -0.04189423245900242 0.0305819582201739
-0.02807146644748198 -0.04196571201598476 0.02910595703354868
-0.028125075052814624 -0.042067658590968615 0.027650058757754892
-0.02818199390154464 -0.0421324359916565 0.02615605978971869
-0.028239828065325004 -0.042189215136533564 0.024648809133160532
-0.028297060078990657 -0.0422563435667202 0.02314421314567283
-0.028354677887443308 -0.04232190208416309 0.021631885064738288
-0.02841291575328114 -0.04238311313988391 0.020109303878100226
-0.028471006817064284 -0.04244919980432427 0.018584566301576122
-0.02852801640995653 -0.042531305851793544 0.01706765708629926
-0.028587047169888306 -0.0425923965153564 0.01552548298826667
-0.028646009699704787 -0.04265745989187769 0.013980272749883893
-0.02870458732590738 -0.042730244653806426 0.012435441381053958
-0.02876332611166785 -0.04280426093765982 0.01088513082471465
-0.028820879837502342 -0.04289540897203964 0.009343901456455805
-0.02887778950670928 -0.04299722343045825 0.007805991925414146
-0.028940035264795223 -0.043039398782525384 0.006206333828889854
-0.02901009233063889 -0.04299335159724116 0.004517379464254567
-0.029079924870898353 -0.042953682725943465 0.0028264125166490017
-0.02951704817508948 0.05470860310582004 0.07639051471802502
-0.0294678839343139 0.05315596172627002 0.07581713181436028
-0.029470044407719054 0.05236433297525206 0.07481758944855796
-0.02938430146799592 0.05027636659835233 0.07455631967749421
-0.029286759941042455 0.04801954147822535 0.07440026629999047
-0.029242528332760392 0.04655129256337315 0.07379933910318784
-0.02919478248540988 0.04503398990046875 0.07323123014710822
-0.029022353484605398 0.04169472614618225 0.07373029056996672
-0.028928195530135824 0.03950834165907541 0.07357030076518806
-0.02900660399521418 0.03984293446425208 0.07193248521165752
-0.0293484294650111 0.044005938720497906 0.06801524631707256
-0.02958753073103574 0.046658040600764505 0.06496552428653163
-0.029725641034357382 0.04783297497542183 0.06277850387978734
-0.029738748517932376 0.047191842806054374 0.06167398065805074
-0.029861585597382972 0.048134308968290795 0.059606619422427676
-0.0314082063964629 0.06958742213180452 0.045001790223993976
-0.03137280805975873 0.068200527713692 0.04426838370390074
-0.0312964984375949 0.06622834427895513 0.04390007935186646
-0.0313029327754285 0.06544587507813265 0.04280044430496127
-0.03128987188663164 0.06438428856089867 0.04187453574453198
-0.030717147613593374 0.055336577716862956 0.04596773209097266
-0.030771043654450093 0.05524575123628561 0.044459602906122775
-0.030908468563866788 0.0563392687401193 0.04219335593263246
-0.031043865438548954 0.057396333257549004 0.039936341793475494
-0.029559419088671938 0.03551042267082016 0.05241047468568194
-0.029473761168213316 0.03347387813768793 0.052208278818950626
-0.02935691755233135 0.031002305362678395 0.05229764819436222
-0.029243038922710168 0.028578996247402844 0.052367523935019644
-0.029135530173654056 0.02625153156886162 0.05238617248314731
-0.029029731469375257 0.02395404966329301 0.05239613671098392
-0.028927695885733993 0.021715132450618513 0.05237815299663395
-0.02881910008489518 0.019390315549031256 0.05242819193678222
-0.028710660337083034 0.01707374323194233 0.05248400309805301
-0.028598475096759276 0.014711141657634652 0.052582243485272406
-0.02850227263556105 0.012576644508925927 0.05253719427706727
-0.02840205853894362 0.010391956950389691 0.052536527974724745
-0.028305336916039942 0.008261149590047978 0.05250936070169421
-0.0282011177453814 0.006032314416187401 0.05256010840469161
-0.02810520731997177 0.003923697396446435 0.052538316652922745
-0.028006043923870617 0.0017757460175022444 0.05255414012157028
-0.02790595033601108 -0.00037941733711938097 0.05258552932920346
-0.027806261897020013 -0.0025234419772200423 0.05261966987652694
-0.027712479015935647 -0.004581248407094174 0.052603171374744184
-0.0276149244739879 -0.006685213193095119 0.05262962793700077
-0.027518355778308055 -0.008770317618867096 0.052652955206783814
-0.02742919673150404 -0.010749459616785084 0.0526101066778355
-0.027337340941061432 -0.01276014331324371 0.05259971295800242
-0.027243882296463687 -0.014787357333878481 0.05261125141545475
-0.027152967957102644 -0.016775029186559653 0.05260382906245625
-0.027055153611913046 -0.018850495893646235 0.05267099640391537
-0.026966505504802275 -0.020797370737499044 0.052653331321215024
-0.02688102482431008 -0.02269683301470843 0.052609900159706846
-0.02678979795083859 -0.02466838136568089 0.05262981075837253
-0.026702735522425754 -0.026579241294685474 0.05261388044652382
-0.026617647158612652 -0.02845893916138792 0.05258381363209358
-0.026528476346851154 -0.03038814765643988 0.0526007791280137
-0.02644658104617259 -0.0322158643999943 0.05254972495114468
-0.02636021025775219 -0.03409824463692579 0.05254977088506457
-0.026271928883159427 -0.036001033807469995 0.05257511962638506
-0.026179257195687596 -0.03795675668996934 0.05265141763510106
-0.026089539771519284 -0.03986844251974181 0.05270346345014537
-0.026091300995885244 -0.040574458246967704 0.05181632075942133
-0.026148806597087418 -0.0405504865181765 0.050351248690001627
-0.026201509776288788 -0.04059249230102613 0.048932284940127746
-0.02625325979113368 -0.0406498742528113 0.0475197539068149
-0.026303906368805793 -0.04072450798723298 0.046115323480183656
-0.02635488697281189 -0.040797635177029834 0.044704012542079785
-0.02640502479133432 -0.04088453212640064 0.043298181803449576
-0.02645598058232841 -0.040963655656258036 0.04188036919288923
-0.026508182269449673 -0.04102955353215393 0.04044595761726033
-0.02656023935816508 -0.04110023067965213 0.03900960610014237
-0.02661292418162006 -0.041165753964792495 0.03756309204550623
-0.0266661722370786 -0.0412270027856656 0.03610704281012839
-0.02671906544425356 -0.041295766255426525 0.03465125473057362
-0.02677131301777588 -0.04137572552834973 0.03319889358561734
-0.026824409749579364 -0.04144779221507133 0.03173388257130544
-0.026878652110774236 -0.04150827061678297 0.03025292556191611
-0.026931309760163842 -0.04159187156747951 0.028785573194330172
-0.02698446397899075 -0.04167213425302796 0.02730930140898974
-0.027038992455927325 -0.04173802218315592 0.0258144660528844
-0.02709286518904807 -0.04181521638410546 0.024323188580737898
-0.027147466390325448 -0.041886267822634826 0.02282031066429341
-0.027203319058085297 -0.0419446801765917 0.02129999005301858
-0.02725836682227311 -0.04201628384698952 0.019784855064869322
-0.027313712064223204 -0.04208725121377932 0.018262751758407192
-0.027368611639644314 -0.0421668625188914 0.01674192267003244
-0.027426277139044716 -0.042215172218010744 0.015186555763206822
-0.027483284142142645 -0.04227486937294839 0.013634721480416723
-0.027537887126515306 -0.04236749158969477 0.01210609019233927
-0.02759194988234261 -0.04246983356340733 0.010579907148689116
-0.027645388705132765 -0.04258288077998207 0.009057172018753168
-0.027700256577405456 -0.04268135683277674 0.007514684246894332
-0.02776354778661377 -0.042679641267894364 0.005872813934000076
-0.027834682583780444 -0.04258553102983853 0.004137327340453245
-0.02790238604193007 -0.04253726850675327 0.0024363265583781657
-0.028210496500427326 0.0551731301419629 0.07757414756637579
-0.02816561018002848 0.05365297622543169 0.07698136182957552
-0.02813296537023235 0.05232487805365815 0.07628504772475425
-0.02802788074370268 0.049879824911726434 0.07622466193288743
-0.0279424919338532 0.0477445468879279 0.07599862267509014
-0.02786133622423316 0.04567939317979286 0.07574120681335322
-0.027767970311003868 0.043431460497880436 0.07559752482277693
-0.02768471361279847 0.041343943163775765 0.07537050822231367
-0.027625753723263632 0.039633015620468004 0.07493252737222064
-0.027601399857955705 0.03845397096733916 0.07418871229805485
-0.027708735522710238 0.03928341447653588 0.07226256338754247
-0.027837210347730085 0.04042814768523262 0.07013813982725997
-0.028016851961271513 0.04234221065627203 0.06754116174854263
-0.029705235998564044 0.06710810107324561 0.051208859691484754
-0.028476687844966785 0.04765960428500693 0.06139159356386675
-0.028574039477789796 0.04829708656823223 0.059507785063166785
-0.02999528801656461 0.06887415448133388 0.04543735636893387
-0.0300153324717736 0.06829915940836445 0.04420780753900977
-0.030005306896960942 0.0672717277472904 0.04325560092172964
-0.029977513961676677 0.06597876370680883 0.04246940804833965
-0.02993764587288769 0.06450691579366541 0.041797923835944606
-0.029888679897905706 0.06290166174422729 0.04121450048255382
-0.029455631119801214 0.055580170837750076 0.04424828880196291
-0.02951025247633575 0.05553127862677254 0.04270680819365763
-0.02959010572737017 0.055853429996608306 0.04092236187327508
-0.028275308203389072 0.03552642799030026 0.05240018835995586
-0.028188407467682017 0.03341647129659581 0.05224538141615048
-0.02807847912775377 0.030972069388092327 0.05231730012818675
-0.027969404847939413 0.02854665863484368 0.05238866008616877
-0.02786295149303714 0.026166111912079792 0.05244231713921088
-0.027762997682779872 0.023887046606898 0.052440423473785025
-0.027665112003060238 0.021644073323397073 0.052425383657780655
-0.02756309193295352 0.019346465776356403 0.052457500362955434
-0.027462292295257408 0.017072600129149962 0.05248477139240726
-0.027361058915231922 0.014798318264684862 0.0525233244295884
-0.027255003720896013 0.012459985324314526 0.05261647808711589
-0.02716342450862384 0.010337479732242416 0.05257375742338649
-0.027065521694433485 0.008128936835315903 0.0526002154300837
-0.026969457086506925 0.005952626978734388 0.05261517179854569
-0.026875875395876107 0.0038176687348268623 0.05261198684615165
-0.026783761831614954 0.001709267649703694 0.052600585319422855
-0.02668923881022755 -0.00042829066192712206 0.052619863049308324
-0.026592731766816122 -0.0025887087630121486 0.05266577257258759
-0.0265038609851092 -0.004634466803812576 0.05264097014407293
-0.026410066181152023 -0.006745186600823794 0.05267245842997892
-0.026317869627345926 -0.00882770112655934 0.052694160845673244
-0.026233257517111377 -0.01079721206665396 0.05264458429267321
-0.026146413638701276 -0.012793380144913713 0.05262384143969101
-0.02605562176458124 -0.014840261092891438 0.05264986699830693
-0.02596686115707867 -0.016853192896981617 0.05266119364313415
-0.025879051610552872 -0.01884755445260161 0.052668825911133976
-0.025792387602376007 -0.020820698084364098 0.05267063825271473
-0.025706577096480058 -0.02277681672112969 0.05266956380884846
-0.025620447873255386 -0.024732378112752196 0.05267780805914968
-0.02553502954052518 -0.026672985826004303 0.05268456956968803
-0.02545368340754404 -0.02855189226795035 0.05265428544554396
-0.02537245205924215 -0.030424450081641574 0.05262845040819408
-0.025294666030821217 -0.032244482606674785 0.0525716568042911
-0.02521292367517782 -0.034114719083934486 0.05256246435403822
-0.025128619967696445 -0.03601554920488598 0.05258636392270388
-0.025036267285329622 -0.03802236793113323 0.05270251668416409
-0.02496610139566026 -0.03971870414479922 0.05258621792540508
-0.02498375208147535 -0.04020595895758661 0.051526235389229735
-0.025038419446764777 -0.04018739979238101 0.05006389087504448
-0.025086057184840103 -0.040268081867463 0.04867416092210575
-0.025134073702335814 -0.040346383417634635 0.04727698242042827
-0.025182802191202284 -0.0404178046677911 0.045868670348705065
-0.025232316107029543 -0.040481410829251496 0.044448344098478754
-0.02528222460826206 -0.040542565189730484 0.04302022504015157
-0.025332397697763163 -0.04060305951305904 0.04158570783359605
-0.025383574694997815 -0.04065294517696105 0.0401365729710374
-0.025432872609098007 -0.040731111229238226 0.03870476032400233
-0.025483646008468128 -0.04079234314437308 0.03725306300269321
-0.025534690371760305 -0.040852911050553276 0.03579479913917788
-0.025584373283610018 -0.04093466565597148 0.034348255416365825
-0.025635275405111596 -0.04100305711494595 0.03288453030194316
-0.02568638047794273 -0.04107172125682412 0.031414969184025476
-0.025738654585902646 -0.041127843084862226 0.029928610905880337
-0.025787889758179618 -0.041227297882231395 0.028473131035048505
-0.02583918896947747 -0.04130233310038495 0.026990705438382667
-0.025891320344393322 -0.04136938505784005 0.025495196974422762
-0.0259426121806004 -0.04145053705578605 0.0240056819485005
-0.02599467002762746 -0.04152462305341453 0.022503787249828933
-0.02604863131132308 -0.041576800816222115 0.02097631499022229
-0.026101399454787715 -0.041647736639911004 0.019458886811318077
-0.0261542394914349 -0.041720817807428534 0.017936949690524895
-0.02620829430128999 -0.04178116992622377 0.016397195958939736
-0.026262931797068182 -0.04183711100214704 0.014846876586395996
-0.026314483319317017 -0.041936244948400925 0.013328879871736976
-0.026366960877409307 -0.04202641518157041 0.011796419698629157
-0.0264192124652292 -0.04212256775490353 0.010262966148071484
-0.026470432261339598 -0.042235057215070815 0.008738060790642377
-0.02652558374756983 -0.04230003699481444 0.007163012377865763
-0.02658633258979037 -0.04229650483827663 0.0055176201811589776
-0.026646473863830393 -0.04230429128906221 0.0038752371730541024
-0.026935315954175237 0.05528890654333618 0.07750972754177687
-0.02685458721296131 0.05315323927638649 0.07726107063423365
-0.02667959159082088 0.04949430525591836 0.07787871403205676
-0.026594680589054922 0.047303734720574864 0.07768360089884782
-0.026533614604127048 0.045503466321762165 0.07727530015932257
-0.02647901676314254 0.04381120070449396 0.07681170947276411
-0.026424719255114075 0.042127109530377516 0.07634931698141209
-0.02637488906651671 0.040518080642502785 0.07584929608354182
-0.02632298068469958 0.038878793262666134 0.07537233396209972
-0.026295218902620522 0.037628962814734435 0.07467259767184092
-0.026411939939217484 0.038687737305547754 0.07261397180606674
-0.02653307748755193 0.03980974806094578 0.07050506918008154
-0.02664689323980736 0.04080788676386793 0.0684568285257236
-0.02675669489346273 0.04173533483715047 0.06643853320618825
-0.026876849562700596 0.042820096401471164 0.06431319918982009
-0.028566522892977075 0.06871723829082094 0.04710919574720146
-0.028607940461532134 0.06849654060790267 0.045667951180037025
-0.028628113691550588 0.06793865855019177 0.04442921465870425
-0.028668545624258586 0.06769804420348657 0.04299227322988003
-0.028623558840661464 0.06611463582747212 0.04238500279781787
-0.02854377210937739 0.06398899503569833 0.04212149713095947
-0.02848475393995839 0.06219285006830627 0.04165985522682597
-0.028170261146773137 0.05641508389949468 0.043720721324095824
-0.028151505161148033 0.05526081556777662 0.04287867894661779
-0.028136828970155767 0.054171087763093706 0.04199749293646882
-0.026994990337008362 0.03560277789661387 0.052351119673356095
-0.026901751533311053 0.03333344259569665 0.05229904366940946
-0.026799522892899212 0.030930955549140493 0.052344022152312486
-0.026694262152410487 0.028487984833092506 0.05242700980478332
-0.026592830652060886 0.026110371090240947 0.05247895448228562
-0.026498517517098266 0.02384826544660451 0.05246605651411895
-0.0264004643152063 0.021534621210260507 0.05249813287198407
-0.026302455464593366 0.01922765785598024 0.05253690951266676
-0.026206968015431584 0.01696517762747729 0.05255697146234373
-0.026117300075161255 0.014797185855988992 0.052524089777693406
-0.02602034542319503 0.012523915008859965 0.052573030252443864
-0.025925719508369072 0.010291908345930245 0.05260490067270901
-0.025830543033695353 0.008057358892260058 0.05264940277655561
-0.025738734087383853 0.005879517917656896 0.05266568958595452
-0.025653312228565858 0.0038036080733598876 0.05262175638988986
-0.025562115641577152 0.0016460273031743133 0.05264476826951764
-0.025473969625912765 -0.0004601578437885556 0.05264224988112021
-0.02538158372376533 -0.002624490721093331 0.05269104798209101
-0.025293002743405162 -0.004726259438989799 0.052706166558416256
-0.02520330700043646 -0.0068392442968168154 0.0527396304924036
-0.025119470727952332 -0.008859459430695549 0.05271696567696721
-0.025035848775536006 -0.010871356479596583 0.0526981170960964
-0.024951017442746873 -0.012896074454893935 0.052698393003525024
-0.02486911809254117 -0.014872195625985685 0.05267317669560545
-0.024782532297041117 -0.016912535452016375 0.05270474532162461
-0.024701733494535374 -0.01886226118281098 0.05267967802452783
-0.02461802459124501 -0.020849853043102107 0.052692268782610574
-0.024534028243094166 -0.022836540420778484 0.052714114555753366
-0.024453209726875848 -0.02477152902892099 0.05270717108750739
-0.024371756572169043 -0.026710848419403854 0.05271312028609232
-0.02429200187380547 -0.028620402234865394 0.052706225846316734
-0.02421302304347846 -0.0305137780619249 0.05269654006216712
-0.024142367200704326 -0.03228140242627747 0.052599950682756635
-0.02406359944168707 -0.034162303193304266 0.05259912764328878
-0.02398434080642857 -0.03604548337731239 0.052609552313291785
-0.02388531472214176 -0.03820917827407028 0.05284800746760121
-0.02384744515605355 -0.039485815494955834 0.05240386552597892
-0.02387381698936703 -0.03983666574860767 0.0512355250396499
-0.023923242375907303 -0.03985844176417758 0.049803543543452955
-0.023970430258796856 -0.03991527058562244 0.04839343916888739
-0.024017993279162684 -0.03996963000309339 0.04697560598381795
-0.024065177335578527 -0.040032302326375335 0.04555864644718499
-0.02411235704166836 -0.04009792502660531 0.044138294543488776
-0.02415978571940835 -0.04016290273007628 0.04271162869028561
-0.024207209745213207 -0.040230849790372114 0.041281556430710575
-0.02425533327687438 -0.040291815956013444 0.03983990446986613
-0.02430339102203014 -0.040356655697868504 0.03839550762284466
-0.024351704213109452 -0.04042084359182968 0.036944620814137574
-0.02439995031683542 -0.04048893090690553 0.03549099532439548
-0.024448583412168698 -0.040554550894269736 0.034029301329084605
-0.024497214540974328 -0.04062317558187495 0.03256408241355718
-0.02454669621416245 -0.04068291528620388 0.031085256329666633
-0.02459512544545634 -0.04076032976941174 0.02961530562566811
-0.024642885693462277 -0.04084999797640565 0.02814978241707905
-0.02469109757053029 -0.04093633281189024 0.026675384038430117
-0.024740765955139306 -0.041005484290527305 0.02518002995880586
-0.024790634567454388 -0.04107491453890172 0.023678647671898867
-0.02484090638310233 -0.041141848430536865 0.02216877029143416
-0.02489192273895207 -0.04120163568755436 0.02064622961533602
-0.024944030627056864 -0.04124959033893344 0.01910673910297883
-0.02499465477397205 -0.04132101910814917 0.017581481982874958
-0.025044527721645296 -0.04140579360976365 0.016061689793004874
-0.025096659325909307 -0.04146288146518928 0.014510640083633508
-0.025145355475632687 -0.04156981124243936 0.01299792124624638
-0.025194102604976627 -0.04167903139446044 0.011481022601970314
-0.025244983849127205 -0.041762386932095996 0.009934237930122991
-0.02529411840296337 -0.04187241547929421 0.008405354610434457
-0.025349186168774247 -0.04190561042779373 0.0067992528400459
-0.02539872757768069 -0.04201637393146157 0.005257919613980644
-0.025458278071301826 -0.0419960936419006 0.003588024659226363
-0.025572578877535328 0.05556401095946417 0.08023025237158884
-0.025486059740161587 0.053261045767821924 0.08007000271013495
-0.025420592198753898 0.051323337228105115 0.07971624000723315
-0.025365985478861836 0.049575059790364195 0.07926382089874742
-0.025314545961035644 0.047884204799761076 0.0787852312042698
-0.025280929435033028 0.046499468009825684 0.07813908807370185
-0.025220513116395775 0.044662426250874354 0.07775441587611126
-0.02516422507348028 0.04289914181347676 0.07733433306818191
-0.025117497909757838 0.04130099251469643 0.07682546819376032
-0.025084978428087445 0.03994540807742952 0.07618129888734124
-0.02505505719915573 0.038635640603803645 0.07551412257471257
-0.02503094211193655 0.03742532284982253 0.07479203697705028
-0.025096505631629 0.037720014693320814 0.07318486135714483
-0.0252229882952686 0.03902984215437749 0.0709678287910514
-0.025325771347496133 0.03993573948091622 0.06897731595068068
-0.025447613272042598 0.041152713918535755 0.0667882438483301
-0.025558143172297286 0.04217366496223446 0.06470344914397186
-0.027229102086267387 0.06909730699261674 0.04687842783668661
-0.027264955253918977 0.06881634427753347 0.04547265891993407
-0.027259001515830068 0.06784159081444174 0.04448883029428585
-0.027246592082491913 0.06676065034357481 0.04357128386364029
-0.027200538175139285 0.06512619061635988 0.04299903579637332
-0.027120170052933473 0.06293044263278957 0.04278283244854647
-0.027045799173565768 0.060838284007756815 0.04251094507479136
-0.02689943364883598 0.05757168385077166 0.04298988532792469
-0.026845469629355 0.05582499426930354 0.04252016115644164
-0.026807173758109596 0.054337399621765814 0.04189120835187371
-0.025713070286442784 0.03566067461541411 0.05231391051243994
-0.025615007846578376 0.03324068498354654 0.052358993812203436
-0.02551530618530746 0.030800412799109 0.052428868680992835
-0.02541955692256313 0.028430524674195212 0.05246456627563545
-0.02532562454976861 0.02609614182459913 0.05248830709801361
-0.025233331058973456 0.02379421919182828 0.05250177926759236
-0.025135994407368533 0.02141708437463835 0.05257625573490954
-0.02504306562627605 0.019116987413720865 0.05261087971339212
-0.024947330982556894 0.016777897694470356 0.05268284475751245
-0.024871141242413925 0.014757555614092976 0.05255087421572158
-0.024776924834339034 0.012454378443026604 0.05262028863073037
-0.024687534002346287 0.0102341256763403 0.05264438904976271
