# .PCD v0.7 - Point Cloud Data file format
VERSION 0.7
FIELDS x y z
SIZE 4 4 4
TYPE F F F
COUNT 1 1 1
WIDTH 780
HEIGHT 1
VIEWPOINT 0 0 0 1 0 0 0
POINTS 780
DATA ascii
-0.08763503715284665 0.040136151982472563 0.025388670277724734
-0.08752969758384943 0.04024546584943041 0.02374923950809299
-0.08742304472618517 0.040355477533514254 0.022100106976925604
-0.08731654740753386 0.040465991009166216 0.020442687210594168
-0.08646508512090467 0.04067921924267659 0.018014660972202723
-0.08632813490122426 0.04079522127272514 0.016304915967058353
-0.08698082453175843 0.04080294394063457 0.015402381469763471
-0.08669566579429727 0.040940276176567696 0.013524869347588842
-0.08640858103217247 0.04107853598457136 0.011634676096302976
-0.0861384747892503 0.041215105638613345 0.00975153767356196
-0.08588404868978844 0.04135015356408611 0.00787428204550833
-0.08535370706829165 0.041524345889664485 0.005693828567017223
0.07889793765901909 0.04940542275832662 0.052036129795303365
0.07598002396685449 0.049187267105108394 0.052178855029178794
0.07319429678605094 0.04898246745011319 0.05225747941198672
0.07050903006985543 0.04878768788945434 0.052289550592911904
0.06788543435002586 0.04859880554510563 0.0522972577164314
0.06528759425254604 0.048411976108044014 0.05230159245733734
0.06263996210634959 0.048219037491114336 0.052347965438297506
0.060132428234051905 0.048040539434013374 0.052321668805038135
0.0576045062602108 0.04785913455695342 0.05231931147263669
0.05500796815932901 0.04766955739851817 0.0523707946216459
0.052387229950535685 0.04747660330405334 0.05244947538708444
0.04986049894277933 0.04729316685909502 0.05248225001458012
0.047269444901191116 0.04710197221688353 0.05256710996062708
0.04469670508617529 0.046912037418638766 0.0526528896133856
0.04229371591252684 0.04674001195589559 0.05264377576246693
0.03989325994262888 0.04656758900412957 0.05264427695228313
0.03750176618435258 0.04639547551240148 0.05265032358993266
0.035172129644600425 0.04622952062032947 0.05262789060495121
0.03295899865916835 0.04607581394533693 0.05254105188121283
0.030412890795919245 0.04588454309498266 0.052680741220373695
0.03022169272671721 0.04595438813891979 0.05129384463126502
0.030377083674131167 0.04606312987489586 0.049674529997353334
0.03037181209974288 0.046154367609143994 0.04815421340040793
0.03036165785950895 0.046245423606806654 0.046631093676354374
0.03038069258797299 0.046340116013184884 0.04508241603831514
0.03040346702394703 0.04643560826796919 0.043524922216635675
0.030466702776899557 0.04653603802015706 0.041933713573689135
0.03051672478528078 0.04663538208158913 0.04034477377575124
0.03056204527223577 0.0467345957531751 0.03875239466258962
0.03061618058088733 0.04683520866474323 0.03714730111575387
0.030675487539568613 0.04693681597743205 0.035531869424957674
0.030762276778624087 0.04704196017777575 0.03389049735927252
0.03084573398025109 0.04714715253213875 0.03224435523990449
0.03099175477663546 0.04725991535643163 0.030547146203958375
0.039233369857469225 0.048299142540347194 0.023123782871733
0.03587422252677985 0.048012969979892135 0.023869365181420965
0.03265303557365168 0.04774146883551152 0.024535899113774462
0.03148229175128392 0.04770483493658346 0.02374857811409492
0.03117572274114644 0.047767711824536346 0.02233982007132085
0.031227364519707035 0.04787224438467873 0.020666710689831558
0.031218582397317285 0.047970211972876334 0.019030532590839422
0.031212296130794237 0.04806887515790097 0.017385785934589282
0.03120598395226626 0.048167945032252746 0.015734259637940562
0.031218713600766612 0.04826964601287019 0.014061764912507824
0.031234045094791885 0.048372074885063066 0.012380292031843432
0.031260932892202 0.04847628399414004 0.01068304947827331
0.031277699729935216 0.04857974270160979 0.008986197689411834
0.031299667911230955 0.04868424670766438 0.007278198531795843
0.03135515012686835 0.048793136438487136 0.005537361432542964
0.031441807798719745 0.04890616366590856 0.0037650185770227163
-0.052508135767633524 0.040537536080628746 0.0425896151261842
-0.05450450589309719 0.04038111363173291 0.04280616851848007
-0.056417870741083564 0.040234228436275825 0.042963378876600566
-0.05422364995032186 0.0405938225572366 0.039611105559000825
-0.0592980055494608 0.040055636781016556 0.04249458697407399
-0.061803871843849334 0.039833580425582965 0.043193100898574144
-0.06310655086185002 0.03976007424656475 0.042860418514896303
-0.06497260204051625 0.039616067811609104 0.043026243841522926
-0.06692593098768168 0.03946052390036847 0.04327951291614701
-0.0672748319173328 0.03950502451384506 0.042125248651585456
-0.06733081567766969 0.03958645505473667 0.04070723998117093
-0.07208818651645499 0.03907739276955157 0.04348520264503597
-0.0733652248024873 0.039004423688293835 0.043174164886112976
-0.07482668751826671 0.03890784316422884 0.04303515606169761
-0.07633541781362607 0.03880484551896537 0.042946304119591494
-0.07783618131486514 0.03870239174893327 0.0428579213568141
-0.07936183069740899 0.03859630986574511 0.04280008706780841
-0.08089170856318462 0.038489206712341385 0.04275416082123612
-0.08241385279930435 0.03838260266326144 0.04270916882514603
-0.08386279517944495 0.03828487942568859 0.04260404378370314
-0.08534918651108275 0.03818190506694714 0.04254142795447702
-0.08654264547563711 0.03811611803195104 0.04221081449733238
-0.08760335882620557 0.03806713362952936 0.04175957172081596
-0.08832584932360893 0.03806160658555608 0.04099025903603698
-0.08860933061878834 0.038112885427574066 0.039801478309654414
-0.08868432190886266 0.03819145423920381 0.03840830598895956
-0.08868442573155622 0.03828012744583091 0.03693670483947803
-0.0886845300375344 0.038369213374954164 0.035458254237629105
-0.08867743776274939 0.03845965529744619 0.03396587830879
-0.08864361618750832 0.03855402087696654 0.03244024643832655
-0.08858285883322492 0.03865236480924617 0.030880697055746975
-0.08852179072554678 0.03875121173768374 0.029313171102215874
-0.08846186461867822 0.038850373608166795 0.027739057895342478
-0.08838849792716441 0.03895178052830655 0.026143707331803157
-0.08828693841035767 0.03905740335533591 0.024511995280494414
-0.08818409248611586 0.039163698074819356 0.022870666667029194
-0.08807921245744332 0.03927076903235551 0.02121888101078534
-0.08797449606447527 0.03937832845756733 0.01955879451995901
-0.08786920447687935 0.03948647869389571 0.017889589371629155
-0.08775589999286137 0.039596221406537326 0.016203507454097987
-0.0875927413385138 0.03971319258753071 0.014456887425021547
-0.08740840370006497 0.03983358046686587 0.012678809513455513
-0.08722219365014755 0.039954801955333595 0.010889129823111576
-0.08700316818692894 0.04008105278904632 0.009055099120425403
-0.08671458257663878 0.040217356836598515 0.007137140056167279
0.07889213401771594 0.04803244640873939 0.052039514049876945
0.07602165424827961 0.04782529136319182 0.05215443794880187
0.07325113366437341 0.047627776232247815 0.05222394956643761
0.0705230981675834 0.047433945646137066 0.05228120324058194
0.06786593020469645 0.04724679496176551 0.05230889756857077
0.06525723935306826 0.04706401209047316 0.0523198125970844
0.0625962465346881 0.04687502130134095 0.05237435648903793
0.06003634849192374 0.04669595372510549 0.05238000596305026
0.05753345922166969 0.04652221166078903 0.052362697281345794
0.05488984841324496 0.046332905469322026 0.052443339692986035
0.05242403239684523 0.04616171019965033 0.05242674319846974
0.04981364689208506 0.04597449129928899 0.0525113550305098
0.04727975367159082 0.045794681205697 0.052560669508627034
0.04472222052972147 0.04561164605481645 0.052636857954291294
0.042293715912229524 0.04544167829042228 0.05264377576265483
0.03985444815579586 0.04526988997681825 0.052668940627192906
0.03751789234063441 0.04510844204546895 0.052640017876731005
0.035142632320132594 0.04494219704977934 0.052646848000676705
0.032948031799858 0.04479474923221409 0.05254813987060458
0.030376711385777355 0.044606068666738184 0.05270425610910501
0.030058762965142705 0.044660262201439524 0.05140033700287583
0.03022701444544279 0.04476734147104818 0.049773167570425325
0.030233569762851853 0.04485729617837108 0.04824558695345421
0.030229219406702257 0.044946424116658334 0.046719121178382894
0.030233371238348072 0.04503683540171254 0.045180883096646696
0.030279009123277634 0.04513213956453564 0.04360857202496282
0.030317505517191035 0.04522704534520867 0.04203454984653199
0.030365965810639717 0.04532342575343518 0.04044723248326343
0.030424457296006235 0.04542129710768009 0.038846421599187664
0.030477047593196804 0.045518914579009466 0.03724291135680846
0.03051999538413147 0.04561586393757411 0.0356393133140403
0.030591564812573413 0.04571637041715719 0.034009110447879465
0.03068080374898341 0.045819242732120326 0.032359583991905194
0.03074186628690745 0.045919407384266045 0.030722693987576544
0.03082187796769481 0.04602208844275168 0.02906543538068007
0.03098466758887697 0.046134414050937426 0.027342209569107878
0.030979224945684614 0.04622841512947084 0.02573126480770399
0.031010131978678024 0.04632686977488724 0.024087624143744768
0.031026086470654746 0.04642405337588116 0.022447858572655188
0.031074862430618688 0.04652532564948014 0.02077742054661791
0.031046835940897577 0.04661836984183654 0.019155894029390663
0.03106170348844317 0.04671663887629486 0.017496306355095192
0.03104114010722886 0.04681131038612719 0.0158558981368771
0.031070030523253356 0.04691197839787536 0.014172075294296704
0.031096499147982015 0.047012791246675845 0.012482894120574128
0.031092460655382403 0.047110554794730385 0.010809403006984852
0.031131876576350748 0.047213681524471265 0.009096157315989561
0.03116505740077985 0.04731652868999807 0.007380252671761789
0.031209943826815634 0.04742114837263673 0.005648043990955809
0.03127563097616859 0.04752859517583495 0.0038923699059132955
-0.052623943748993984 0.03939768411969293 0.042687304615178
-0.05436443923709566 0.03927615465681158 0.0426873900207948
-0.05399814768993921 0.03940641534328416 0.04090056325708419
-0.057912172865129286 0.039023477089739585 0.04277219593046527
-0.059372185453864856 0.038934056600188706 0.04255849544126594
-0.06127586147299535 0.0387907506679157 0.04273580179048325
-0.06512233169075748 0.03849748931095753 0.043157292197665564
-0.06706940330567451 0.038346985095748846 0.04340574566701916
-0.06724231381853674 0.03841161823883762 0.04209648742254313
-0.067297441618417 0.038490900029114594 0.040677566539391696
-0.07226730319837943 0.03797002401476316 0.043645294702543636
-0.07343508706099466 0.037912412058631974 0.043236934510800795
-0.07490595400020783 0.03781734079356738 0.04310674863710262
-0.07641408750194445 0.03771725562859059 0.04301773001409642
-0.0779480308028167 0.037613535044051634 0.04296000367230973
-0.07948547371860637 0.03750891122244872 0.042913523564206635
-0.08095158238112887 0.03741264647160701 0.042809379408941306
-0.0823845072439287 0.03732006210548652 0.04268196347520936
-0.08388682295078892 0.0372184210178399 0.04262643551335532
-0.08532244768828356 0.03712463105606324 0.04251637971757549
-0.08659939364540553 0.03705024395380241 0.04226425198806688
-0.08768127090676436 0.03699995252083058 0.04183332085751046
-0.08843634243378551 0.03699046537234453 0.04109539321647282
-0.08881820852290812 0.03702790522685251 0.040001260384397164
-0.08895993338153235 0.037095812259022254 0.038673287339994256
-0.08903001542510525 0.03717309336611395 0.03727069336801908
-0.08910039007989579 0.03725069714237825 0.03586224319317566
-0.08917105918233387 0.037328625612886954 0.034447900061931436
-0.08921399485061277 0.03741044983123878 0.03300011373204964
-0.089242713396056 0.037494472132624426 0.03153175270307579
-0.08919646712524837 0.03758847932805491 0.02998230398000923
-0.08913984959666948 0.03768425918887976 0.028414958480454056
-0.08908294279481499 0.03778052841332684 0.026839605014818635
-0.08902574449704981 0.037877290761426236 0.025256182053820186
-0.08892881484681064 0.03797964306136103 0.02362469691543634
-0.08883062728147634 0.03808264485449422 0.021983625019777908
-0.08872823120537815 0.03818668364434491 0.020329868641389304
-0.08860905531575869 0.03829340197235559 0.018650373937259934
-0.08849364914005808 0.03840013987369803 0.01696605257570305
-0.08835830549549445 0.038509995810714126 0.015252271535468653
-0.08817527217773435 0.038626627985778296 0.01347966453485977
-0.08799411678209174 0.038743576128832766 0.011699426410760105
-0.08780961043357166 0.03886153085608379 0.00990600090276711
-0.08761870615075756 0.03898090155981408 0.008096031544869264
-0.08717093351929683 0.03913483046647279 0.00600232886536084
0.0789124473985387 0.046662142744976376 0.05202766878784848
0.0760202185952299 0.0464587091677077 0.052155279991053516
0.07317440722291224 0.0462592024190458 0.052269212885037386
0.0705132504069036 0.04607768955663914 0.052287046441961804
0.06790215353090301 0.04590057378553925 0.052287279899407624
0.06521861178937993 0.04571538646549123 0.052342998297600474
0.06264815973015386 0.04554103975303126 0.05234301654028367
0.06005258439540684 0.04536344590351565 0.05237014793839301
0.05753211893140653 0.04519286812391629 0.052363515747226475
0.05498274623433874 0.04501865631556853 0.05238628505748255
0.052433233980296035 0.04484375178461581 0.0524210595510079
0.04982275621837734 0.04466187432487804 0.05250569621551843
0.04728490824187731 0.04448679464184448 0.052557449166993286
0.04469798078547055 0.044305945262550335 0.05265208807622351
0.042268439866770646 0.044140721235886596 0.05265974727399375
0.03980187580707223 0.043970997361405625 0.05270234870819013
0.03751168982608327 0.04381898312317164 0.05264398170636131
0.03516844225095289 0.043660828940102675 0.052630260426005604
0.032993121474039544 0.043519616112209565 0.05251899796924231
0.03053715497858578 0.043348426923148276 0.05259997543626527
0.029839312757094894 0.043361206726307805 0.051543771651522186
0.030074636308436153 0.04347223906176307 0.04987332274384049
0.030088151364529303 0.04356032553599933 0.0483417036426817
0.03008958272846618 0.04364748720321557 0.04681193310510201
0.03009953382456354 0.04373589973018402 0.0452703377239877
0.03013268396569474 0.04382712781191047 0.04370691910714408
0.030164751103362475 0.043918607426455945 0.042137790253097496
0.03021286804519957 0.04401216484622181 0.04055128067812114
0.03026978020479193 0.044107038429350875 0.03895212715171731
0.03033308813675184 0.04420297956899429 0.03734183827961268
0.03037941268956018 0.04429748959191999 0.03573645487979965
0.030471655896018413 0.044397313646744326 0.03409242485912517
0.030535823393366412 0.04449452314017001 0.03246087473353554
0.030638766480387047 0.04459630924603406 0.030795122063578817
0.03068118487343463 0.04469197269320916 0.029164817212994354
0.030767451083413333 0.044792774226198206 0.027496489279938974
0.030819087929597755 0.044890232871270995 0.025845627981267383
0.030840868859599746 0.04498484687004451 0.02420916772246373
0.030899169055316145 0.0450838281560457 0.02253949389142751
0.030907365655094998 0.04517774943615628 0.020899015890926076
0.03090172024512894 0.04527054522492426 0.019261817102024292
0.030909956199346778 0.04536524689302722 0.017607674174529964
0.0308865597924477 0.045456867839924274 0.01596996316278604
0.03092780137797918 0.045555983571180694 0.014277597399294129
0.03091833473169958 0.04564992042841919 0.012615795464976043
0.03097894684293323 0.04575199433311523 0.010894537929101444
0.030998934438954795 0.04584999676732455 0.009196403864121072
0.03099595680614009 0.04594586185223065 0.00750845525932986
0.03105970467565683 0.046049550504624975 0.005762562807412164
0.03111988076304867 0.04615327802762054 0.004011730694688298
-0.05275753296610919 0.0382565615527824 0.04279999341435886
-0.05452558992578138 0.03813527077838244 0.0428240480752487
-0.05415916572991519 0.03826178401434372 0.04103783125051391
-0.0583281246478945 0.037860019741778835 0.04312866956662298
-0.06019412504044941 0.03772560334625982 0.04326662386937624
-0.06187381706120387 0.03761241185791262 0.04325367903733257
-0.06332878872638997 0.03752509531347986 0.04305390909383894
-0.06529910325833971 0.0373767657387512 0.04331200853679473
-0.05914665984031836 0.0381854614437574 0.036434995378199886
-0.066989872651534 0.037343973151260645 0.0418732112012174
-0.07085220555298727 0.03697017074683719 0.04383816740765334
-0.07234136009713693 0.036876375975609194 0.043711485752798374
-0.07350721937911814 0.036820619258354746 0.04330174373159057
-0.07498517971868263 0.03672739922312053 0.04317830439541337
-0.0765274823398614 0.036626069089571285 0.04312068361545918
-0.07801330099046017 0.03653104517665451 0.04301957418988217
-0.07946834846584627 0.036439283798209834 0.04289781197244652
-0.08090353737115119 0.036349494264182595 0.04276506993130419
-0.08240871774053304 0.03625085508320317 0.042704408272175365
-0.08383585036010482 0.03616119836882255 0.042578933626728765
-0.08518217087559182 0.036080920716587785 0.042384972031362544
-0.08652037126985118 0.03600126045359034 0.04218983976510471
-0.08770127838525577 0.035940376122456465 0.04185225931038694
-0.08854176823224585 0.035920735090761144 0.041195705850447906
-0.08902252191888987 0.03594498531701418 0.040196676717776214
-0.08918660406722817 0.036008154496302826 0.038891215512409705
-0.08925781739309291 0.03608302411295358 0.03749084820917076
-0.08932861260145597 0.036158293734393394 0.03608395090424549
-0.08939612276020165 0.036234319948068215 0.034667674844929
-0.08944597737933996 0.03631288556919866 0.03322782111128891
-0.08947303624132374 0.0363946457458802 0.03175900427875189
-0.08949949647435046 0.0364768644970623 0.030282843469029708
-0.08952679884926462 0.03655936559238314 0.028800718098627942
-0.0895542250058044 0.036642240725328554 0.027311873173100965
-0.08958250124950567 0.03672540165029407 0.025816993636995633
-0.08961236020569807 0.03680875849166793 0.024316785543309183
-0.08955489549867984 0.0369034926164297 0.022720740874156764
-0.08943351722165699 0.037006734529321246 0.02105137911084659
-0.08931219164255466 0.03711046301690282 0.01937340517119207
-0.08918944789803696 0.0372148678639872 0.017685237342682125
-0.08907191944612824 0.03731911177538658 0.015993681895595857
-0.08893743127358189 0.03742601564090316 0.014275601461193499
-0.08875681628258958 0.037539319541108215 0.012500040846420424
-0.08857510437953942 0.037653311559278896 0.010713696885594703
-0.08837580483383056 0.03777011061072773 0.008898992007451756
-0.08810531170685093 0.03789662548050927 0.0069984202876144375
0.07895162825059715 0.04529356821275365 0.05200482141137369
0.07598002396570713 0.04508832817956998 0.052178855029851756
0.07317156599806446 0.044898358010124796 0.052270889012107136
0.07059485904509016 0.04473051070059801 0.052238623686498675
0.06783667715005842 0.04454408795503263 0.052326355458924945
0.06520895593832965 0.044369860454343414 0.05234879409855975
0.06265909036496065 0.04420268150794089 0.05233641772602027
0.06007152778687663 0.04403110934894578 0.05235864599639167
0.0575441818340639 0.043864867159710226 0.05235614937703126
0.05499734804671158 0.04369603483886811 0.0523773171282802
0.05239905862899302 0.043521402000190904 0.05244216903175436
0.04981364689147383 0.043347377510696984 0.052511355030889495
0.04728233094085271 0.04317810089089483 0.052559059347732084
0.04469032669995221 0.04300205968651553 0.052656897229922395
0.04224316682539264 0.04283991880097831 0.052675716887104096
0.039820650144886394 0.04267962772014942 0.05269041820453957
0.03752905732686507 0.04253194594314009 0.05263288268940031
0.035220071672276476 0.04238191869791776 0.052597079132828406
0.03296631021900981 0.04223690515383889 0.05253632634793787
0.030417715194940853 0.042061321980755205 0.052677605591413934
0.02967909269396707 0.042069544759804636 0.051648492939623425
0.02992357852021721 0.04217821477798332 0.04997261007778475
0.029940414202488885 0.04226401956033738 0.04843935295703933
0.029943975464150785 0.042348805863987746 0.0469087134848426
0.0299682141310319 0.042436056229669006 0.04535810955037933
0.02999133476664423 0.042523541441761875 0.043801921781495556
0.030024316725794253 0.04261239561314004 0.042232704055406245
0.030074565224743444 0.042703392518731155 0.040645273942953086
0.030131160267174162 0.04279541400890311 0.03904685932558022
0.030190458026169875 0.042888088098502794 0.037439851694552884
0.030238925544017137 0.04298001129811701 0.0358335304219119
0.030317236582564244 0.04307541777697125 0.034199717582260536
0.03039342032507436 0.04317099023307296 0.03256036484953334
0.03046249795444228 0.04326620870789474 0.03091895149279711
0.030543075028486466 0.04336302185684564 0.029262374307205463
0.030590351278565908 0.043456732473152244 0.02762227579244081
0.030655325923699184 0.04355269075592463 0.02596257997126522
0.0306992957262891 0.04364682744414714 0.024310827820462233
0.0307070561602375 0.04373752393353254 0.022678200831951323
0.030729941793318893 0.04383019697665987 0.0210278178663294
0.030750403576620622 0.043922995958868484 0.019372266398251015
0.030743162588877493 0.04401323268248032 0.017730084537207424
0.030754877510835776 0.044105864690274124 0.016067131698670245
0.030778058470853187 0.04420010690186157 0.014388694085827103
0.030788625731295094 0.04429339194717863 0.01271255160121515
0.030820896479982873 0.044389394736696355 0.011013075092552838
0.030826492565296626 0.04448293236767224 0.009326435642804443
0.030880740090542813 0.04458210281056557 0.007595806111656167
0.030880074492982745 0.04467576304756599 0.00589948474660712
0.030979677078225076 0.044780663492038665 0.004119177240503369
-0.0529063108861042 0.03711464159506559 0.04292549460009004
-0.054805329487828014 0.03698212526727824 0.04306127116510872
-0.05676588348649625 0.03684207717479184 0.04326005998921323
-0.058335572238913946 0.03674564688579256 0.04313505220509534
-0.06037602967152128 0.036595394666949374 0.0434233407894144
-0.06210783055856495 0.03647956324300906 0.043456353396647496
-0.06371917835102758 0.03637694048393548 0.04339380038392443
-0.06549164830564536 0.036255464412684665 0.04348053034855448
-0.06670372798572588 0.0361975744759554 0.043084009723744876
-0.06683646459170994 0.03626321530761401 0.041737526628352006
-0.07103467267581048 0.03586183884857427 0.044000402019413576
-0.0724161525796912 0.035783160265210986 0.043778334257859874
-0.07357931809210405 0.035729335104545894 0.04336652275894087
-0.07504533356974985 0.03564022037353941 0.043232634662292546
-0.07651539088675519 0.03555023419216366 0.04310970552628102
-0.07797579280185096 0.03546096291426536 0.04298534137564758
-0.07941621623928835 0.03537361416501538 0.0428499831740809
-0.0809227572089245 0.03527814706445863 0.0427827954135635
-0.08234121209015627 0.03519255451514359 0.04264182588728971
-0.08369449263794504 0.035114216423484355 0.04244720089739895
-0.08504031359742992 0.03503639659450929 0.04225208380601714
-0.08638018255364271 0.03495892093009493 0.04205782963589627
-0.08766983684447455 0.034887020110951635 0.041822497732049824
-0.08859374101081535 0.03485808970100177 0.04124515794271988
-0.0891519395395281 0.034872422389940205 0.04032045869877765
-0.08941648130536067 0.034921749308586145 0.03911222656301094
-0.08948455414982115 0.03499472778486232 0.03770997359733891
-0.08955505344012626 0.035067756038295164 0.036303927792113944
-0.08961798134445387 0.03514203189188361 0.03488431994882413
-0.08967974338734591 0.03521679509225408 0.03345727910250196
-0.08970658852094526 0.035296110495695934 0.03198944222547412
-0.08973427445254506 0.03537569717763559 0.030515692378909054
-0.08976208552042059 0.03545564357934023 0.02903528140587769
-0.08979002257488783 0.03553595214515246 0.02754816404316096
-0.08981736217654207 0.03561671332478674 0.026053565044053317
-0.08983974507306275 0.035698461129610275 0.02454701237289303
-0.08984767982327707 0.03578236103995624 0.02301871883653034
-0.08982939528215522 0.03586986854975906 0.021456363980367932
-0.08980955858013828 0.035957984470797996 0.019884844869147655
-0.08979182349038084 0.036046264021995 0.018307858962864576
-0.08977326615525943 0.036135068668617404 0.016722347185461894
-0.08965363902498558 0.036236784743162005 0.015023550543444786
-0.0895185416748211 0.03634090693389424 0.013299632749432744
-0.08932921363853452 0.03645226352056118 0.011509380538367864
-0.08912903265499195 0.03656551014205938 0.009697847127969061
-0.08892910032861678 0.036679275981604184 0.007876617992592039
0.07886166729431249 0.04391248302434634 0.05205727999071236
0.07596423514397405 0.043720511248591325 0.05218811552284186
0.07312185029748286 0.04353305698560758 0.05230021785301231
0.07053998103632347 0.043369793222915703 0.05227118573455952
0.06779907165742538 0.04319066433616168 0.05234879798929398
0.06517861168673222 0.043022406510230024 0.05236700784705295
0.06262630006761727 0.042860052718128254 0.052356213198619495
0.060066115223613104 0.04269631174956518 0.05236193236614417
0.05758439628173784 0.04253951136935081 0.05233159189553804
0.05498805587114536 0.04237101369051609 0.052383024061809114
0.052406944772023345 0.042203335989448615 0.052437297907446445
0.04979152583704349 0.04203167238310259 0.05252509687638046
0.04728104230177921 0.04186954820347173 0.05255986443095506
0.044704359398532234 0.0417003350582233 0.05264808031716128
0.04222168710174257 0.04153964121221408 0.05268928956604202
0.03979436653809498 0.04138373312520872 0.05270712061342758
0.037479439700429995 0.041238233138766296 0.052664591735179844
0.035196713926127776 0.04109532293603345 0.052612090732862826
0.03291878966848566 0.04095232020434846 0.05256703934866791
0.03060233304253801 0.040804949412917825 0.052557612807478726
0.029557504868090834 0.040782691353514394 0.05172796384666595
0.029793153522915505 0.0408871691544669 0.05005833588123021
0.029803669915064113 0.04096972090040035 0.04852973634957869
0.02981059227823818 0.04105224504402744 0.04699736892002526
0.02983697789659301 0.04113703883335809 0.045445825594147726
0.029853734116944086 0.04122121133591378 0.043894405006033255
0.02988397777773283 0.04130707141115157 0.04232755336084826
0.02993635494856961 0.04139549594623035 0.04073920431290545
0.029999986365471187 0.0414854077118068 0.039136502915643356
0.030050382922260643 0.041574350982922274 0.03753610934468182
0.030100996040246464 0.04166367645602116 0.035928838653138784
0.03016910251068461 0.04175513236823391 0.0343026432306498
0.03025235230495965 0.04184849375406691 0.032658922232131404
0.03032977510990037 0.041941644466932555 0.03101218988573068
0.03035782923941066 0.042030156142509704 0.02939322696947483
0.0304345789745597 0.042123991328253466 0.02773291428175023
0.030475462197138314 0.04221454971175725 0.026091031138153975
0.030524029664582397 0.04230626638574943 0.024436681960949558
0.030570300159753594 0.042398125312751826 0.02277693968244665
0.030566494219581408 0.04248521930670289 0.021146473666972754
0.030586601982111883 0.04257513504100745 0.019491828710933745
0.030579027481349386 0.04266256798139785 0.01785054381609763
0.030600510820457782 0.04275336750146977 0.016181039090839622
0.030613212844080917 0.0428436353010223 0.014510995724517972
0.030623428115479467 0.042934021393455854 0.012835780390060891
0.0306476896206499 0.04302624613362855 0.011142979569913058
0.030660573137266833 0.04311767113322223 0.009451549096324452
0.030685018776188788 0.04321068739581952 0.0077441910360017685
0.03071854052694789 0.04330504475461796 0.006022612962289398
0.03079459934227957 0.043404261325948656 0.004261013480111819
0.03097792874423444 0.0435151719686591 0.002408941169858958
-0.053081272079443576 0.03597088083565627 0.04307308261060783
-0.054765756755976225 0.03586577857888271 0.04302771293095903
-0.056853395742142765 0.03571606784567067 0.04333466424930055
-0.0553551467409748 0.03595922378202158 0.040580806356010135
-0.05518029647548983 0.036057899284880186 0.03894704296772783
-0.062189817040408935 0.035365084631980924 0.04352736023115744
-0.06377556075558988 0.035268380177627984 0.04344288951697345
-0.06569831431355783 0.03513393202670967 0.04366141129340312
-0.05940038512235668 0.03591110288511144 0.03665823314814448
-0.0663466304697794 0.035218806480902184 0.04130428385293783
-0.07119832320993963 0.034756875454250574 0.04414590648322059
-0.07233287620129897 0.03470812515262935 0.043703902961928276
-0.07353100032684678 0.03465203785589109 0.04332311036352521
-0.07500878719539933 0.034564314816667774 0.04319962639704095
-0.07647306328697923 0.03447771497145373 0.043071275392122965
-0.0779210142771582 0.0343925631950639 0.04293534634444551
-0.07942962337905346 0.03430017171201759 0.042862283576861004
-0.08083846746185053 0.03421865709990293 0.042705059251894495
-0.0821987637997511 0.03414228079078049 0.04250976651616023
-0.08355154190656061 0.03406641067868618 0.042313983626228846
-0.08489832112538487 0.03399087701223968 0.042119068934542314
-0.08623986120978155 0.03391559528551873 0.04192569461651091
-0.08755330186477589 0.03384318566930074 0.04171218936798299
-0.08861082394476583 0.03379982275074846 0.04126141235222519
-0.0892755619823542 0.033801457070710195 0.04043869785967236
-0.08964528911587671 0.033837124545123706 0.03933220943299287
-0.0897109411711341 0.03390811012491842 0.03792876099042525
-0.08977615656648413 0.03397947674932384 0.036518719337313155
-0.08983950491714682 0.03405139321577966 0.03510063791363505
-0.08990312198606859 0.034123614745650066 0.03367654111146606
-0.08994048636806279 0.03419923822439691 0.03222022113167822
-0.08996867715045948 0.03427629001641049 0.03074816909202277
-0.08999699524891547 0.03435368979190188 0.029269468929336573
-0.090023276819088 0.034431694298753125 0.027781906267567602
-0.09004027673579995 0.03451116125308974 0.02627810307855194
-0.09005808013157596 0.034590910287062085 0.02476807628488986
-0.09006797472166539 0.03467197453636433 0.02324292149844992
-0.09006844913272744 0.034754542705233045 0.02170091704390653
-0.09005213563693021 0.03483950172862476 0.020134285528109364
-0.09003281464126489 0.03492522611451505 0.01855694990001433
-0.09001339833051891 0.03501137339948483 0.016971832894617567
-0.0899938859976287 0.035097946720667156 0.015378876788418316
-0.08997427692852389 0.035184949246300494 0.013778023285568708
-0.089910201704886 0.03527772420507858 0.012122398746721719
-0.08984059563208618 0.03537161611934202 0.010452513527499763
-0.08968206821675584 0.035476718421427446 0.008679317439773127
-0.08925793179175484 0.03561453375364337 0.0066119525912082255
0.07884135837846623 0.04253834744737929 0.05206912264909669
0.07598289477649861 0.042355967141303616 0.05217717123585752
0.0731175894556037 0.042172255020081595 0.05230273145640385
0.07048370969063666 0.04200927464332745 0.05230457452369164
0.06786453711467122 0.04184703195844701 0.052309728948856216
0.0652006798253108 0.041680008411227355 0.0523537617294319
0.06263039859055836 0.041521057926423154 0.05235373892405809
0.06007829367588524 0.0413631888592048 0.052354537921916855
0.05749057398709462 0.0412013763940764 0.052388885713994415
0.0549469095475793 0.041043063598959456 0.05240829471364711
0.05235700402123161 0.040879792568992455 0.052468145383100906
0.04976550396183732 0.04071573453929504 0.05254126195520148
0.04726557923804442 0.04055966724715444 0.052569525051562205
0.04464823412683411 0.04039189876250637 0.05268334449827616
0.0422191602178516 0.040241288301170484 0.05269088626180607
0.03981314020905957 0.040092271541139035 0.05269519053353905
0.03748936228874983 0.03995048104345109 0.05265825052480988
0.035253268746608 0.03981647766040692 0.052575743974932365
0.03292731819829936 0.03967337365132598 0.05256152727569091
0.030580604738223494 0.039527718185674056 0.052571735167580014
0.029359025340075173 0.039489226042553977 0.05185769186842404
0.029653159150729635 0.039596012722767374 0.05015035144789132
0.029663389414882835 0.039675930440743856 0.04862245706027368
0.02967366105857011 0.039756171411389485 0.04708838261704196
0.029675477460487154 0.0398359174336663 0.04555376971021169
0.029701627778278672 0.03991833687215934 0.043996637696816776
0.0297486106015305 0.04000310650936807 0.04241904245079653
0.029801902774854172 0.04008883021675851 0.04083058060392819
0.029859097905748533 0.040175279615961054 0.03923278538619618
0.029907947808775426 0.0402612648932729 0.0376339887603474
0.029971770722871993 0.04034906139450422 0.03601813235819812
0.03004327200630591 0.040437966024309116 0.03439007204487188
0.03011138052406659 0.04052689950663763 0.03275741237705371
0.03016863765637967 0.04061512886324672 0.031125389668778758
0.03022614463663298 0.04070374321863382 0.02948624544476275
0.03030133105711974 0.04079446521328472 0.027827554650480923
0.030346905588298667 0.040882630652714226 0.02618284090287115
0.030365166712905345 0.04096845156569029 0.024550757441643978
0.030379745416060422 0.041054260222656354 0.022914521626069717
0.03042326950691049 0.041143303447009595 0.02125044855363073
0.030434256987513897 0.041229470378965266 0.01960302860452695
0.030427633689192213 0.04131423461279304 0.017961652203001333
0.030451314869237356 0.04140238531444873 0.016291130987505453
0.03049029818101534 0.04149243826451604 0.014602188102540936
0.030465977864591043 0.041576501501917815 0.01295323004951654
0.030507701859696867 0.04166757067500649 0.011247969851438055
0.030510084492883283 0.041755048820008016 0.009565026789913167
0.03054314069856806 0.04184599769178908 0.007851755037825092
0.03058274449325421 0.04193799289725004 0.006126122606334383
0.030623806426615663 0.04203052391147106 0.004391902399763725
0.030864568199272358 0.042143779973464614 0.002496284857140152
-0.053267919162295785 0.03482707803392808 0.04323052821955309
-0.0549660482090098 0.03472377274200191 0.04319756290503329
-0.05690671352078008 0.034594284783388496 0.04338011769345357
-0.05872237673364844 0.03447751536752644 0.04346654640810971
-0.05685762977993425 0.034752372457467456 0.04039212167628459
-0.06211432606529366 0.034267987002820494 0.043461979023713904
-0.0640065205853983 0.03414152563900702 0.04364397384288088
-0.06507910873062234 0.03410241231902842 0.04311946202933081
-0.0653046454977746 0.034154181435383346 0.04185304033799947
-0.06963929239554023 0.03376347163639163 0.04421653909884593
-0.07109131053746365 0.03368227831741576 0.04405075970223371
-0.07216773362624718 0.03364136834080237 0.043556300771344425
-0.07349417666236913 0.03357315577505923 0.04329002515202074
-0.0749623303274034 0.033489230310771695 0.043157667087839524
-0.07641786868144335 0.033406300147015774 0.04302116302792636
-0.07792776885704983 0.033317057978621695 0.04294151108572564
-0.07932904095802124 0.03323930011908722 0.042770004066617295
-0.08069491883473306 0.03316507123901783 0.042572671628579306
-0.08205544515924901 0.03309109230322234 0.04237690027057733
-0.0834091849556815 0.033017523160223876 0.042181319705278164
-0.08475691875218105 0.03294428041397579 0.041986606852383646
-0.086106613061262 0.0328704843675845 0.041800220143396405
-0.08743739067172229 0.03279844776241196 0.041602471460828905
-0.08858804625874234 0.03274611155771891 0.041239739386838725
-0.08939837088085711 0.03273147151857487 0.04055615890297026
-0.08982056162721008 0.03276013078120117 0.03950072181893416
-0.08993271762060862 0.03282364452180124 0.03814309258482085
-0.08999621515044803 0.03289291596384192 0.036732496157490024
-0.09005998125915399 0.03296248040691715 0.03531593325675442
-0.09012473198661158 0.033032259153313905 0.03389406711531523
-0.09017401147942622 0.03310411391068635 0.03245063227242101
-0.09020270546717368 0.0331786387964765 0.03098027450006341
-0.0902221835567486 0.03325456137968975 0.029493964919609983
-0.09024030998856242 0.03333099627422222 0.02799939348190289
-0.090258519938818 0.03340778334614558 0.026497935735564082
-0.09027609024076544 0.03348500781882367 0.02498881118619467
-0.09028793880412744 0.03356325549554665 0.023466787476171203
-0.09028893628842477 0.033643123193909004 0.021926476302908726
-0.09028920966491094 0.03372345587496804 0.020378067452683335
-0.09027487137812873 0.03380586058514335 0.018807142237814434
-0.09025606771559247 0.033889177759620144 0.017223954641984562
-0.090237171137936 0.03397290663207409 0.01563294398758175
-0.09021670843361485 0.03405722153559643 0.014032506424089208
-0.09015701683838073 0.03414651799765976 0.012382820913186654
-0.09008516391768451 0.03423766865426833 0.010711896707166602
-0.09001218369743863 0.0343293942596408 0.00903123618428281
-0.08981884175423221 0.03443570267678327 0.007212993261735301
0.07885876591061775 0.04116769423347548 0.052058971863198245
0.07595849402299842 0.04098746660733539 0.052191482817213086
0.07312185029680718 0.040812240923946655 0.052300217853410935
0.07047245709671673 0.040653128022805345 0.05231125128752223
0.06776564981854821 0.04048824597830706 0.052368743762676306
0.06516206200792546 0.040332016800944163 0.0523769415798544
0.06260307652573899 0.04017920550382203 0.05237023322966994
0.06003364262204025 0.04002485874959566 0.052381648897923516
0.05747583411609419 0.039870965580727724 0.05239788681012386
0.054986728449136435 0.03972270495194629 0.05238383931859325
0.05236751691113922 0.03956204484524533 0.052461651765957795
0.049804537947428174 0.039405877521659215 0.052517013608425034
0.047263002168579815 0.03925105580144358 0.05257113508763289
0.04467374378753397 0.0390912658606281 0.05266731647261352
0.04217999736117389 0.03893959573150654 0.05271563261742207
0.03982065014411085 0.038799661563701036 0.0526904182050324
0.037434793845660896 0.038656738836085947 0.05269312347993377
0.035276632810100184 0.038534227482769995 0.05256072831485581
0.032923663070933584 0.038393250023554204 0.05256388962057573
0.03056129260629281 0.03825084439297229 0.052584287131023644
0.02929170598856362 0.038209141555222446 0.05190169240784959
0.029508437269103627 0.038305283927214696 0.0502454743141762
0.029519580002652257 0.03838268176136791 0.04871751026360144
0.029533188950610134 0.03846061870887792 0.047181749826537
0.0295480663386386 0.038538986120387385 0.04563892911446027
0.02955814219437608 0.03861721844080929 0.044093076263806874
0.029608458910006963 0.03869953926250207 0.04251376519726968
0.029667538123258785 0.03878301506590563 0.04092189741322971
0.029721977156606516 0.03886639076800438 0.03932649302213337
0.029766837513072686 0.038949199783949076 0.03773095777978247
0.029827871995097677 0.0390338735284642 0.03611756527751586
0.029884243139461975 0.03911844923155558 0.03450056755090114
0.02996556362368058 0.039205737484325515 0.03285928757193429
0.030039818120928874 0.039292709400625216 0.031215885969587687
0.030099508448462042 0.03937864831755373 0.0295756978552304
0.030217939163141028 0.03947054956275942 0.027886784391154773
0.030228404803183395 0.0395524943259195 0.026267469217964745
0.03026640801237568 0.03963741692671775 0.024621673574806158
0.030295806636380485 0.03972186232482074 0.0229751260499213
0.03030650174330174 0.039804855007340725 0.021335216850666305
0.030304663283170108 0.03988698137718444 0.01969762184122248
0.03029525500862229 0.039968716055324614 0.01805880533886628
0.030312330798517473 0.04005335652490213 0.016393687523569178
0.030316821453276466 0.040137127123717385 0.01473089329474181
0.030318794169361563 0.04022100202029155 0.013063021394938923
0.030358909729935546 0.04030894671634859 0.011359563375657578
0.03036862304564719 0.0403942889234633 0.009671697421639758
0.030378377578697824 0.04047999327078512 0.007976669195271735
0.030430400399469038 0.04057020559083961 0.006242245901626087
0.030463415235440494 0.04065892894977036 0.0045148198501333
0.03058143825222681 0.04075640364410334 0.0027144349512753796
-0.055185414751599715 0.03358118075230981 0.043383588823799835
-0.05692337175198442 0.03347663001355727 0.04339431884738543
-0.058694306600353185 0.03336822542631305 0.043442490104235565
-0.06050618677996361 0.0332551199083785 0.043535475488987174
-0.0623601499529865 0.033137164667737216 0.04367488212333975
-0.0640756630032343 0.03303302508052008 0.043704172434530786
-0.06412683172509887 0.033101180375228564 0.04228599760885554
-0.06804172919885731 0.03276769246510786 0.04426123733229492
-0.06976891958578774 0.0326608120358555 0.04433119024534149
-0.07089026949878752 0.032616761337219136 0.04387201070705665
-0.0719830910508733 0.032575500748728815 0.04339126974532537
-0.07344352981362035 0.032495466984860284 0.04324452012891522
-0.07490671597973103 0.032414783374544315 0.0431074368482498
-0.07641786868138822 0.03232867756163398 0.043021163027876286
-0.07781139818565364 0.0322546121997383 0.04283530239573097
-0.07918363752104951 0.03218246570750601 0.04263660344040643
-0.08055049276229759 0.03211056258152724 0.042439474781918896
-0.08191125387312781 0.03203898003597003 0.04224322502243394
-0.08326596151894733 0.031967715931639516 0.042047848297160406
-0.08462191759289212 0.03189599195750724 0.041860141261686135
-0.08597252397568655 0.031824511838237396 0.0416739537933577
-0.0873178067376349 0.031753274457529984 0.04148927705197436
-0.08855600917411655 0.031693233511942975 0.041209256104846714
-0.08944732382370646 0.03167033664236249 0.040602980133432276
-0.08983829008932953 0.03170143542311805 0.03951776650796207
-0.08997035786399787 0.03176073785820674 0.038179469275845423
-0.09007233970178552 0.031823584634402866 0.0368064476672616
-0.09017543835329567 0.03188660304899862 0.035428677211377824
-0.0902782325554613 0.031949949422122044 0.03404473885958964
-0.09037571788106702 0.032014173521100024 0.03264964899411671
-0.0904206039150861 0.03208446703955945 0.031196382571403725
-0.09043913006135335 0.03215798886829575 0.029710244445204648
-0.09045702186997417 0.032231927683289696 0.028216558736023856
-0.09047571719525482 0.03230612766113638 0.026716714828419974
-0.09049377612552767 0.03238075004770396 0.025209217810763906
-0.09050757281528288 0.032456200164288344 0.02369031752752232
-0.09050836575997828 0.03253345616050263 0.022150953546720642
-0.09050989026020495 0.03261099968527423 0.020604992100208497
-0.09051142204514295 0.03268891374334161 0.019051643445073707
-0.09049833547658814 0.03276883938244674 0.017475659121370724
-0.09048005264110154 0.032849733110300684 0.0158865896609669
-0.09045432880268883 0.03293185460197522 0.014281939257811238
-0.09039751971441307 0.03301788062627218 0.012636582824502918
-0.09033302078487832 0.03310519338643466 0.010974767676547204
-0.09026076594531413 0.03319380975123795 0.009296236639271482
-0.0900728227404079 0.03329600661833632 0.00748514550085394
0.07894872573589262 0.03980318865318505 0.052006513943380905
0.07594270668241732 0.03961985488830356 0.05220074244147482
0.07313321292975083 0.03945281564558642 0.05229351468217991
0.07046823751776776 0.03929765810364644 0.05231375498865176
0.06777121978047657 0.03913912137838468 0.052365419672736835
0.06523240658188395 0.03899373552570401 0.0523347181500286
0.06257575781084285 0.03883751760367636 0.052386725512936216
0.06002417234301227 0.038689869781126096 0.05238739900873601
0.05748253393475444 0.03854251960379739 0.052393795477722827
0.0549575272129314 0.03839605482314776 0.052401773710038735
0.05231889904921527 0.03823903957196622 0.05249168211769051
0.04971477030393762 0.038084447972989224 0.0525727782687771
0.04722177325896271 0.03793905169640184 0.05259689303965903
0.04468267288758787 0.03778901257809828 0.052661706211995396
0.04215599788513558 0.037639484620600225 0.052730797485846526
0.03982565691560663 0.037506783614305435 0.05268723655856378
0.03751044934392189 0.03737490476878236 0.05264477445902743
0.03521761283834801 0.03724449747092854 0.05259865938082198
0.03285909974855561 0.037107714251101216 0.05260561753293069
0.030499747220470996 0.0369703138732261 0.05262428869251534
0.029107891911553052 0.03691903725018268 0.05202183495766449
0.029356588498564262 0.03701481129831595 0.050345281545351284
0.029381906970097127 0.03709087697385073 0.048808507525555545
0.0293843444967411 0.037165184546068854 0.047280681860151275
0.029403762138031864 0.037241322840450015 0.04573537956223861
0.029425689040905756 0.037317993558933324 0.044182099787749674
0.02947935987808664 0.03739785035908938 0.04260101790708415
0.029533260908349623 0.03747804966341097 0.041013154798872464
0.029582501322665045 0.037558148349609945 0.039421810111274214
0.02963317849140512 0.037638701954536107 0.03782280638803037
0.02968038768564496 0.03771926497151871 0.03621947580632495
0.02975365987653178 0.03780254194191217 0.03459129864898908
0.02982972528626604 0.03788641401591141 0.03295419122891596
0.029917266434024037 0.03797168322984101 0.03130197907871096
0.030321793980662204 0.03808650862898887 0.029418681310792505
0.03058037833493149 0.0381883289375758 0.027629359153149347
0.030485450522580837 0.038257859799295434 0.026083897892986152
0.030237664347449622 0.03831350485805724 0.024642313675967198
0.030201885741239998 0.03838907486989949 0.02304293763545212
0.030184781962385 0.0384666952428452 0.021423580096008865
0.030188978352749307 0.03854662360177407 0.019782062764188646
0.03015666347221685 0.0386234701482804 0.01816051810944358
0.030159556198958493 0.03870393380143357 0.016506420109743458
0.030173844310911857 0.03878580193766324 0.014836970350887713
0.030180587705029516 0.03886730176933589 0.013166116195225175
0.030189899944135123 0.038949384292651025 0.011486320064034161
0.030201797510056194 0.03903205472430664 0.00979749413599057
0.03021374568875379 0.039115076839936494 0.008101483861547853
0.03026538099937992 0.039202212562244224 0.006368030866761798
0.03032750093408354 0.03929071206493823 0.004618979182507865
0.030383477660957947 0.03937900010046582 0.0028669625170486546
-0.050593270707848415 0.032844428650022406 0.04097433622239033
-0.05037706607189052 0.03293792205976813 0.03930604139868965
-0.05716472500294961 0.03233679141733776 0.04360007266523519
-0.05894511423599241 0.03223100723488583 0.04365743403176986
-0.060759650488845074 0.03212135204953315 0.043753842946501975
-0.06231555643580955 0.032037047189211194 0.04363626057960246
-0.06270412163419409 0.03206923864492133 0.042510044988747775
-0.0627112365674829 0.03213984782408524 0.04104702177427516
-0.06817632320347228 0.03166190085004537 0.04437965858380277
-0.06936328244657919 0.031613001585789745 0.043972417035935185
-0.07048273655575171 0.03157070228209598 0.04350966625962999
-0.07191659694958513 0.03149638259714978 0.04333183822072939
-0.07338749202158434 0.03141797078644587 0.04319417146785576
-0.07490062003576436 0.0313349105320006 0.04310193106172555
-0.07628471499445355 0.03126462684235682 0.04290026994441254
-0.07766336663958984 0.031194580936170956 0.042700197593148914
-0.07903734805133433 0.031124695277488616 0.04250238992197458
-0.08040518692447607 0.03105512205051375 0.04230546657223205
-0.08176692435850869 0.03098585916477773 0.04210942162695752
-0.08312991871439118 0.030916150168048846 0.04192106859474276
-0.0844875209667394 0.03084667901870429 0.04173424198197867
-0.08583903560907491 0.03077751938421304 0.041548253116435674
-0.0871845034958818 0.030708669173971668 0.04136309637591801
-0.08849547565515481 0.03064309041071785 0.041151658469168184
-0.08939482293160161 0.030620133666896532 0.040552765453259365
-0.08984325367447926 0.03064420209585059 0.039522538651466155
-0.08997390833122043 0.03070167462589341 0.03818290055677026
-0.09007589595642584 0.030762425036024697 0.03680990240551835
-0.09017900039605425 0.03082334135632644 0.03543215554928447
-0.0902810868554002 0.030884649974917376 0.03404754055833059
-0.09038000648771971 0.030946580888457694 0.032653880413792635
-0.09043850876510767 0.031013086938925762 0.031214140305076743
-0.09049654548367869 0.031079955693477563 0.02976748334990592
-0.0905548330144052 0.03114711342875251 0.028314574506538404
-0.0906133729866756 0.031214562022100597 0.026855373159871576
-0.09067216704402253 0.031282303367168564 0.025389838342233906
-0.09072687749751823 0.03135080480063006 0.023913512408058946
-0.09072819146833955 0.03142537352619432 0.022375836142401906
-0.0907302383802579 0.031500219511296064 0.020831574865264157
-0.0907322950657895 0.03157542286973957 0.01927994007547751
-0.09073363145185953 0.03165106523226911 0.017720120252781524
-0.09072253151081106 0.0317284215139339 0.016139814856741597
