# .PCD v0.7 - Point Cloud Data file format
VERSION 0.7
FIELDS x y z
SIZE 4 4 4
TYPE F F F
COUNT 1 1 1
WIDTH 776
HEIGHT 1
VIEWPOINT 0 0 0 1 0 0 0
POINTS 776
DATA ascii
0.029446459927363788 -0.08113516195797738 0.029640850522524298
0.029452929677086324 -0.08177001792845201 0.028741109757844385
0.0294377890416542 -0.08262570411579151 0.028056341909153126
0.029449841488016222 -0.0832038262485173 0.02710069199610121
0.029468969263302072 -0.08371065926518567 0.02607345348307688
0.029494757462941713 -0.08415091273319153 0.024978193841995733
0.029527462744254964 -0.08452246773886862 0.023811759534584753
0.029569280289419606 -0.08480367897477553 0.022551376164005266
0.02962147734386774 -0.08498244671498345 0.021183424740723933
0.029668411039631956 -0.08521653232665888 0.019866004324848252
0.029732719865326076 -0.08527885812168429 0.018368839783669155
0.029845933702395626 -0.08485567551381684 0.016368216721822593
0.0301076667887457 -0.08295768360430394 0.012839088439222712
0.03545443578221804 0.030963042693963827 0.05831914809822708
0.035324521344365256 0.028635156665057837 0.05831668899785358
0.03519545425575416 0.02632309065524835 0.05831500472541723
0.03259576607604157 -0.004661214262768776 0.07685535825399067
0.032442074346947056 -0.007189980661250095 0.07712080299012206
0.03229059222129681 -0.00968614364419823 0.07737795966253627
0.03214229151941228 -0.012138641742838518 0.07761927640806238
0.032056802171043605 -0.013861004887061101 0.07739061369885375
0.03192654260343461 -0.016093982164303855 0.07750862603310771
0.0317992383541605 -0.018287081476238365 0.0776111094698752
0.031688205070879445 -0.020288082438512822 0.07759537533718985
0.031589360155155455 -0.022144745322965786 0.07749161000883278
0.03147452071971126 -0.02417922444442372 0.07751718485367845
0.03135167255417565 -0.026299555087761994 0.07761131722065157
0.031233686581230036 -0.028359034425849583 0.07767423136094251
0.031141774337677626 -0.03011762407071006 0.07753943217673948
0.031021662291575217 -0.032190911968161484 0.07763125105044447
0.03089872673128942 -0.03429055208694365 0.0777519060527199
0.030791944946806277 -0.03620260260956104 0.07775147048926237
0.03069775676797271 -0.03796819366746834 0.07765688588598388
0.030590750681510563 -0.039873243956719095 0.07766957850440687
0.030471048339455277 -0.04191550887876794 0.07778962782911802
0.030381450706210116 -0.043615963195724805 0.07767472794696928
0.03029425378829192 -0.04528553930964696 0.07754540647764571
0.03018139757219469 -0.04723658658438079 0.07762809828715495
0.030102600935088805 -0.04880430144882986 0.07744094496382498
0.030004847424963642 -0.05057843439360654 0.07741224916837144
0.029896178782843813 -0.05246876463043504 0.07747795615920927
0.029843959119026296 -0.053731261221636295 0.0770875110813507
0.029747441493683798 -0.0554791162311245 0.07706376372018636
0.02968536325745585 -0.0568441251735014 0.07676148813177802
0.029615224809650228 -0.058294663200328445 0.07652925272213656
0.029557980975203377 -0.05960088897577592 0.07619388713002223
0.029510565198544857 -0.060797174191550285 0.07577985569355006
0.029460959819499425 -0.062015140332126184 0.07538670250568266
0.029421777525366306 -0.06311749809434614 0.07490894283207436
0.029407985827836065 -0.0639425662698469 0.07421991939344585
0.029385663638154615 -0.06485936211035531 0.0736035826896431
0.029372963609531653 -0.06567117340851475 0.07290706672784125
0.029367957172421875 -0.06639945520135682 0.07214594965583754
0.029347455650132765 -0.06729420754176774 0.07151703826913303
0.02927077668002041 -0.06879110145340472 0.07136910430224847
0.02917312407533382 -0.07050915196158214 0.07140509208373336
0.029110299851983337 -0.0718504241860577 0.07114702093475206
0.029085591616852532 -0.07278224966727348 0.07056368041191025
0.0291731936451079 -0.07251756721051045 0.06901007117757757
0.03308484127927325 -0.031643491785314504 0.034264391576811326
0.03319985862832962 -0.031184104954088354 0.032357898541483576
0.033248674018514175 -0.031430059708785374 0.031023273297265064
0.03333101873438961 -0.03132446549167006 0.029392238180205255
0.03341377233797463 -0.031218346940040054 0.027753104058767242
0.03352273075716183 -0.030840726572607224 0.025878436688481443
0.03358070280671007 -0.031002588572447864 0.024448666096049565
0.033664980360100336 -0.030891960920437056 0.022782391263873547
0.03374968200089273 -0.030780776586479097 0.02110773168228791
0.033837337748487295 -0.030642717342697634 0.019402072610706478
0.03391999420794907 -0.03056063012133292 0.017736371691381425
0.03400589105839241 -0.03044874152401672 0.016037050852368895
0.034248081190426896 -0.02872393400616735 0.012925314731831283
0.034178996521466685 -0.030223255637779556 0.012612458224869005
0.03426611584878871 -0.030110638138433954 0.010887923727833981
0.03435348749005686 -0.029999427758102493 0.00915632901111979
0.03454761402978748 -0.02879764647251798 0.006446741997833405
0.03453035401030954 -0.029767320282974574 0.005659383115724115
0.03461937400267583 -0.029651367990875477 0.003898270960607686
0.03470865722181353 -0.02953682211282249 0.002129866593820362
0.03114835555793248 -0.0672263392409771 0.03317456371753186
0.03098755942206402 -0.0695679341371262 0.033814647894865824
0.030871513967624394 -0.07145049864170971 0.03404699875841022
0.030780478664907133 -0.07307589349343008 0.0340522248844643
0.03070731152574548 -0.07451759397664948 0.033895140727809414
0.03064508149319811 -0.07584630524655472 0.033639361702069215
0.030594805432004345 -0.07705261117793016 0.03327441404796183
0.030552703902287114 -0.0781750453434103 0.03283501201082295
0.030519776029930328 -0.07920422463330651 0.03231102095486932
0.03049277032572452 -0.08017307409375196 0.03173257494167103
0.03047120014866413 -0.08108682365168518 0.031103823984290513
0.030456558950183104 -0.08193108350801515 0.03041005343499581
0.0304425378419451 -0.08276855520869653 0.029711142672450508
0.030445037958710154 -0.08344281415700555 0.028854250382086277
0.03045617983227085 -0.08403235131937925 0.02791394817089965
0.030471351945927032 -0.0845829274878867 0.026934090111438935
0.030502045769560338 -0.08498253548193108 0.025802983296790594
0.03053059171256403 -0.0854044906644309 0.024691070547973426
0.030570340341606925 -0.08571880784471797 0.02346841929597654
0.03061877326745924 -0.08595069264102623 0.02215872210104658
0.030672280879852406 -0.08613568168455876 0.020796641401149507
0.030741263511111745 -0.08617369516840101 0.019279549916925265
0.030810479531321402 -0.08621262755026077 0.017756383829218014
0.03091676504809025 -0.08589848364253516 0.015863096234970175
0.031080141439950065 -0.08504186176032652 0.013398238342464452
0.03658600574950792 0.028633967998969334 0.058317448636296954
0.036452434764894015 0.026323090655313186 0.05831500472537554
0.03631983553483531 0.02402902538794438 0.0583125785943564
0.0336502464897393 -0.006636013189357304 0.07676075069322638
0.033481740842424106 -0.009262915751896583 0.0771013341483349
0.033311498480710806 -0.011901697016209578 0.0774635373114205
0.03318403594440016 -0.014057273254529545 0.07752034047705011
0.03307704872971789 -0.01597999292632246 0.07743286114147468
0.03294280340298655 -0.018199837592968893 0.07755279717414607
0.03280361234192248 -0.020468392653091916 0.07771656419334352
0.032680336858940735 -0.022555227107778963 0.07776903763483287
0.03257037100728969 -0.02449008533090652 0.07772845184956509
0.03246014478047421 -0.02642292916747957 0.07769563042758923
0.03232944805486152 -0.028575316887194724 0.07782285759840901
0.03223576329721903 -0.030316946994321803 0.07767716275257139
0.03212045630502421 -0.032290522916206876 0.07770046212675277
0.03201179341430709 -0.034186585831502525 0.07767926989356216
0.03188916903388009 -0.03622966197158578 0.07777047980703705
0.03181126750493072 -0.03778193540992153 0.07752531807959898
0.03169556232371349 -0.03974019181503219 0.07757507721307841
0.03157731144475144 -0.04172083400575638 0.07765059919797426
0.03149700894530788 -0.043286912534244604 0.07743844502738886
0.03139578352676435 -0.04507464779740611 0.07739314127760774
0.031279137069111104 -0.04702354764016076 0.07747344135969517
0.03120625904762212 -0.0484980886188357 0.0772174336835747
0.03110200398044038 -0.050305058382221324 0.07721161769660745
0.03100087020885112 -0.05207408527303781 0.07718672180053798
0.030925054178676158 -0.05356891183594975 0.07696706147714366
0.030830991587092176 -0.05525435879687263 0.07689610646473788
0.0307364555666438 -0.05694065853100788 0.07683388775843566
0.03068561407648921 -0.05816018277342844 0.07642784623658938
0.030602975599012705 -0.059713376358786985 0.07627916873237242
0.03057011845951878 -0.060738088950274494 0.07573481836458973
0.030524604501326456 -0.06189449840664962 0.07529424734165385
0.030476293387648148 -0.06307825511444226 0.07487870633627089
0.03047204229430319 -0.06379829909427182 0.07410816338534262
0.03045644068949879 -0.06463681056126447 0.07343025610224271
0.03044568269902704 -0.06542410360617029 0.0727136104502874
0.030434201262373298 -0.06621845043628233 0.07200346136401134
0.03039550614921421 -0.06729496495256965 0.07151763770694664
0.030294705913663993 -0.06901349216754327 0.07154605417427853
0.03020644943576309 -0.07059781116604807 0.07147601325945033
0.030166463447530167 -0.07168002737309775 0.07100998652773283
0.030140916453182127 -0.07261176897906119 0.07042584620488129
0.030320224158292237 -0.07143719368538587 0.06813192450316335
0.0344937819556186 -0.029312284930503196 0.032359444467454035
0.03451840273338921 -0.029824919214053836 0.031241324271333637
0.034604096860929946 -0.029715087217750402 0.0296069238756832
0.034690217529615264 -0.029604708534460955 0.02796438827827752
0.03482791012904123 -0.028973885369835917 0.025879716185662982
0.03486394315502452 -0.029380348546339807 0.024653034290615217
0.03495155652206469 -0.029266347916749702 0.02298406567878125
0.03503970824576895 -0.029150794255385748 0.021305857788493032
0.03515345087817105 -0.028781269039291846 0.019403150525574953
0.03521696088574371 -0.028921866311062527 0.017927291424125913
0.03530635978310719 -0.028805544562976904 0.01622430721303536
0.03539631260054211 -0.028687640869465014 0.014511797576332086
0.03548652617061078 -0.02857112031665371 0.012792268090167036
0.03557720076517202 -0.02845400430101569 0.011063951176458975
0.03566823951807895 -0.028337286715427512 0.009327657795478228
0.035888990848313235 -0.02693761815784279 0.006448256045339995
0.035852229202699794 -0.028097028897209053 0.005823811198200468
0.035944886713335934 -0.027976471699786953 0.0040587473921355754
0.03603781939614302 -0.027857310110781297 0.0022863518366921243
0.03227682224823417 -0.0663540503328433 0.03388399482445564
0.032089299745863935 -0.06890509743392503 0.03470672521583884
0.031961566408382235 -0.07086389005018395 0.03500362450459854
0.031861343371753066 -0.07254894571665021 0.035060040560634775
0.03177983076166903 -0.07404764918538104 0.03495310907188842
0.03171222150879885 -0.07540787406671112 0.03472480177497261
0.03165264658439546 -0.07668734543754852 0.03442722617385918
0.03160409119798382 -0.07785777279669087 0.034032602472357454
0.031564331759052495 -0.07894131026942641 0.03356033421724092
0.0315316544976766 -0.07995501468425531 0.03302539740950233
0.03150585905740558 -0.08090127826220717 0.03242906843955917
0.03148605113145705 -0.08178911461753102 0.03177902795584625
0.03147267726591436 -0.08261465959663417 0.031070682259830007
0.03146212697363068 -0.0834127232085789 0.030336922174913183
0.031469081557311124 -0.08404401058531485 0.029441319075223904
0.03147689936521179 -0.08466742416082634 0.028537317249177907
0.031487303070191944 -0.08526673110734323 0.02760877528991368
0.0315093848191595 -0.08575632621809148 0.026570415934209834
0.0315410736876564 -0.08615647764648737 0.025440745432926903
0.03157676059142626 -0.08652049280645913 0.024271781218342392
0.03162183807694031 -0.08679812175084506 0.023012322773806215
0.0316708438679806 -0.08704103684242076 0.021713311874653474
0.03172595865863992 -0.08722916786121276 0.020353745135200718
0.03181326434074941 -0.08712032781745627 0.01868496466365699
0.03192387881035469 -0.0867990747135054 0.016789168862823
0.032010175961749765 -0.08670782771293489 0.015120197477410391
0.03222215483941046 -0.08545977111937697 0.012240823502732867
0.037847592154669686 0.028633967999038112 0.05831744863625299
0.03770941527403447 0.026323090655380355 0.05831500472533241
0.03757224365673223 0.024029025388009884 0.058312578594314046
0.03743595945083686 0.021750433317329843 0.05831092144510086
0.03730055419817021 0.019487166129638245 0.05831002495422438
0.034540901513700775 -0.011032263967901301 0.07689207611259774
0.03438649101413838 -0.013431969220948803 0.07710703557868101
0.03423533263130007 -0.015790173123776563 0.07730669417146618
0.03409764525056752 -0.01799768877293667 0.0774176844151391
0.033960796956509984 -0.020190339501019616 0.07752968102908012
0.03384329609957718 -0.02217083545054016 0.07750924324475894
0.03374101753258191 -0.023984315913126775 0.07738472129306237
0.03360132512069695 -0.026190732308073783 0.07753694829677074
0.033476202502399875 -0.028236749813666362 0.07759019911118997
0.033371623668501764 -0.030060119764061588 0.07749969715216731
0.033228732144989136 -0.03228340972435417 0.07769551978182204
0.03313414901302429 -0.03399170250559763 0.07754311440524969
0.033011726895517964 -0.03598859770406215 0.07760113112611561
0.032895654054823455 -0.03791363648658219 0.07761834816579755
0.03281519151430315 -0.03946087626286304 0.0773766912267016
0.032677748692734335 -0.04160000692824517 0.07756430956577048
0.032556486347794115 -0.0435645383551847 0.07763780107556562
0.032481374695082874 -0.04504366139166133 0.07737076886812075
0.03236659718829874 -0.0469314510968451 0.0774065833095344
0.03226001040200498 -0.048729446352615446 0.07738630663143223
0.03218151750019915 -0.050232354521135725 0.07715826011567484
0.03207010113220032 -0.052071656050655335 0.07718492927450549
0.0320020580899471 -0.05345951709655539 0.07688589977143925
0.031897233855335265 -0.05522245332816306 0.07687230665880285
0.03181385216546771 -0.05676099740974677 0.07669914264607053
0.03175288981460499 -0.05806653123211919 0.0763572272335927
0.031693999838341744 -0.059348288605933996 0.0760023797474364
0.03163441167786043 -0.06063463762150956 0.07565596328294216
0.0315962830243885 -0.06170019819961303 0.07514534340596624
0.03156022183136744 -0.06274314388956553 0.07462050501798459
0.03153561973404171 -0.06366850072056707 0.07400761557849944
0.03150961668259861 -0.06460696040333169 0.07340700833771807
0.031502573680832466 -0.06535311434575519 0.07265802568057497
0.031481161104831595 -0.06624356009274757 0.07202322787157597
0.03145305877843302 -0.06720026042923027 0.07144268568320153
0.03136612442271364 -0.06874523178118269 0.07133260712806927
0.03128056508985344 -0.07027273001740686 0.07121597102916033
0.031220065818893895 -0.07154654311601721 0.07090263747760872
0.0312088411354185 -0.07232721775600665 0.07019578558863127
0.035795972909517026 -0.027427675060270718 0.032360210809272316
0.03579411559674657 -0.02821305915944422 0.03146121145531777
0.035883288102747074 -0.028097980969620073 0.02982264045713784
0.035972708569182776 -0.027984276762494098 0.028177494307579376
0.03614123000764236 -0.02709540053116949 0.025881003663151048
0.036153292078349435 -0.02775124007923474 0.024859209133580973
0.03624436566518142 -0.027632859424976952 0.02318671713091619
0.036335999986868095 -0.027512895303837104 0.02150494616841625
0.036477673313624254 -0.026908351316465018 0.019404235082059296
0.03652036046638023 -0.027274111666527878 0.018118298132080102
0.03661329517902082 -0.027153311855483253 0.01641162807466484
0.03670670408716683 -0.027031895668441774 0.014696249804257877
0.036805964388747045 -0.02685785945390806 0.012927061297178244
0.03689485522892448 -0.026788197939004277 0.011239973688734861
0.0369893950112974 -0.02666792393992634 0.009500714811617572
0.03723856020404039 -0.02506535934481008 0.006448884449548886
0.037180673822502765 -0.026418436532577805 0.005989056451873975
0.037277110011815766 -0.026292215444966627 0.004219121383649438
0.037373728057966994 -0.026168390473939207 0.002442709370601426
0.03346039277963451 -0.06496777225013828 0.034130685204382005
0.03321711124157423 -0.06799197915980393 0.03537110509190622
0.033069528718342164 -0.07010020420502278 0.03579746990362881
0.032955701082116165 -0.07188342092956135 0.03593899457102295
0.032864064457668464 -0.0734527272534376 0.03589355224975643
0.032786790396124914 -0.0748831234673768 0.03572765104358333
0.032721964405611766 -0.07619348467112907 0.0354569202666698
0.032666835567742185 -0.07741034700257732 0.03510451514558077
0.03261927763387477 -0.07855418016988253 0.03468838138272118
0.0325806019920966 -0.07961325843383726 0.0341963791524344
0.032548563518086986 -0.08060901249980151 0.033647676088098544
0.0325223970510311 -0.0815489618177912 0.033048547707455134
0.03250094613257632 -0.08244417909154922 0.032408826936599744
0.0324887816938098 -0.0832527920871356 0.031687393002507
0.032479282044993917 -0.08403635325740383 0.030942750005146513
0.032485721878770385 -0.08467311900825908 0.03005564384880638
0.032494419706190124 -0.08528947167074447 0.029147901039880353
0.03250852330009105 -0.08585678210487518 0.028190958026669877
0.03253103379404607 -0.08634802826093929 0.027157256068226276
0.03256182433243314 -0.08676490469486525 0.026047301780814547
0.03259283530296729 -0.08718109974494226 0.02493377001114122
0.0326315400117364 -0.08752895342692285 0.02374847686993753
0.03267204690815431 -0.08786218469555951 0.02254472260315804
0.032713715884725644 -0.08818667842475664 0.021328240520834096
0.032804843230147464 -0.08806826908509297 0.019654712194987878
0.03290333382503456 -0.08788771830636477 0.017908614819297286
0.033015468745253185 -0.08758929431698964 0.016031290209302884
0.03316592456779563 -0.08695358899483546 0.013792827584615142
0.03346962044132235 -0.08495965690279261 0.010121526964037897
0.0391091785598321 0.028633967999109222 0.05831744863620758
0.03896639578317557 0.026323090655449743 0.05831500472528778
0.03882465177862975 0.024029025388077496 0.05831257859427036
0.03868382476587107 0.0217504333173959 0.05831092144505795
0.038543906004782046 0.019487166129702582 0.05831002495418236
0.03840510466214585 0.017241347293668885 0.058308388940796985
0.03551286294078698 -0.013638379394785405 0.07724346574918761
0.03540323435991281 -0.01551276021841741 0.0771223069513712
0.03524120088406786 -0.017925506318004714 0.0773694389164209
0.03508418780048431 -0.020279625996426298 0.07758969165173707
0.03494749372890847 -0.022417573195163965 0.07767600306034186
0.03479594149594693 -0.024702857080105778 0.07787305559425448
0.03472884774449868 -0.026113876244532486 0.07748442526110064
0.0345921642677426 -0.028235843687049178 0.07758957643384046
0.034450154665598996 -0.03040665855955682 0.07773915274004853
0.0343444538277045 -0.03220069769171391 0.07763805030768284
0.034251868247401396 -0.033856655672816705 0.0774487637604371
0.03411177414053282 -0.035992093782385215 0.07760358713611862
0.034002074772741 -0.037813136853692475 0.0775473579374128
0.03390954060197362 -0.039455715394769386 0.07737302568105128
0.03378090308592887 -0.041459501766199225 0.07746396667073893
0.03367758826685547 -0.04320243777268967 0.07737778584742769
0.03359480700216556 -0.0447343236051293 0.07714742474466538
0.03346697059891089 -0.04671553170806858 0.07724983530569207
0.033370578836161 -0.04837610592639752 0.07712839591283285
0.03326926455196552 -0.05008194462070059 0.0770478738402322
0.03315573474480246 -0.05190557466815865 0.07706237762843601
0.0330644340424047 -0.053502961938081295 0.07691813219378257
0.0329881709208873 -0.05494701061987922 0.0766668408478148
0.032894273984538196 -0.056562903518911745 0.07655057303127541
0.03282849751960389 -0.0578964038532393 0.07622894076109074
0.0327376424503878 -0.05947502911511077 0.07609846726779607
0.032702783366049815 -0.06049763748496767 0.07555153584753163
0.032634545498457984 -0.06184729965509189 0.07525807609935992
0.03261906230537492 -0.06267603738753241 0.0745687998347371
0.03259912087339292 -0.06354782418639926 0.07391413396927984
0.03256721826235651 -0.0645357566649854 0.0733515537653813
0.03256768811792322 -0.06520645543698472 0.072543191385604
0.03256416453399593 -0.06591606136053962 0.07176541844369516
0.03252053534970773 -0.06701523341252097 0.07129624970674675
0.03242275703742274 -0.06863764872630479 0.07124700639664039
0.03233644678731327 -0.07014504782603753 0.07111383418748013
0.03229196237929494 -0.071245041308385 0.07066016744130693
0.03229227034238918 -0.071911650788755 0.0698597983046802
0.0370760481643668 -0.026592493069328926 0.03168136014251649
0.03716853459776278 -0.026474069403939482 0.03004019491141313
0.037261483601010524 -0.026355053443938237 0.028390821410932243
0.03746276679068865 -0.0252051627824198 0.025882299195841563
0.03744899035518587 -0.026113253125113423 0.025065563393212253
0.03754355726158282 -0.025990448414615508 0.023389526695997143
0.03763870757701958 -0.02586602940159699 0.021704171030982322
0.03781008023538355 -0.025023857842413455 0.01940532634173292
0.037830039819094004 -0.025619282825908696 0.018311087127547587
0.03792654346275883 -0.025493965262371687 0.016600722456517558
0.03802354072319813 -0.025368006698683887 0.014881609258886652
0.038148952215744956 -0.024979391930949058 0.01292794969013561
0.03821903132140484 -0.025114146797392933 0.011416867410790954
0.03831720716526758 -0.024989274140471363 0.009673747712735159
0.038596188042840825 -0.023182793822885184 0.006450414134306637
0.03851584649205479 -0.024730462280223686 0.006154228537617934
0.03861588543480409 -0.024600558407092743 0.004381201212837915
0.03871622406018194 -0.02447202780999358 0.0026007621261960323
0.03482215332728083 -0.061979023789580645 0.03294391502341626
0.03438054617872486 -0.06676330916161577 0.035752393083794576
0.03419988916783033 -0.06913426999861089 0.0364082151340786
0.03406784385315586 -0.07105258679536164 0.03666668617474206
0.03396251367468133 -0.07272134292200777 0.03670774730385995
0.03387417575430455 -0.07423083235819239 0.03661115896529499
0.033800545572908264 -0.07560289004241966 0.03639492403355743
0.03373798841968033 -0.07687141356725147 0.036088689082054815
0.03368395364048151 -0.0780601844127804 0.03571326584908047
0.03363777568757781 -0.07917574453832382 0.03527368363532274
0.03359905726906781 -0.08022216313792457 0.03477274913685102
0.033566998591889705 -0.0812070955131372 0.03421675185315837
0.03354023282318597 -0.08214321736864832 0.03361692556793067
0.03351865183992083 -0.08303182564741535 0.03297380827295221
0.033507623070326 -0.08382531592360559 0.032240697536667695
0.03350157277007752 -0.0845739982166191 0.03146504728650912
0.033503644545073825 -0.0852502426310337 0.030619205432087793
0.03351069049646505 -0.08588246686757861 0.029729967922840883
0.03352520620241516 -0.08644890376410996 0.028775183813098293
0.033545632413940756 -0.08696377919972154 0.02776794749274214
0.03357174108531847 -0.0874294687379712 0.02670982252179488
0.03360505945929565 -0.08783291044393016 0.02558694416451468
0.033641535457726135 -0.08821006253413888 0.024434546283185143
0.03368889683285411 -0.08849356075084608 0.023183989726709098
0.03373412304888382 -0.08879764562948789 0.021950045380699335
0.03380645121342827 -0.08886778836232068 0.020472623464191375
0.033897913808686335 -0.08877483606516268 0.01882083291759562
0.03400122121190367 -0.0885831046821291 0.017058502580586
0.03415375081508854 -0.08797043039759445 0.014849276321529936
0.03433809760036604 -0.08708987490459508 0.01234615269127387
0.040223376292317294 0.026323090655521353 0.05831500472524176
0.04007694501972864 0.02402785857661388 0.058313332715816124
0.03993169008090588 0.021750433317463957 0.05831092144501371
0.03978737103741372 0.01948831158540626 0.05830927627414784
0.03964397900609243 0.0172413472937335 0.05830838894075452
0.03958000773917132 0.015800416397042494 0.05778541358666467
0.03664124210627267 -0.014547679916322831 0.07648084986471815
0.03643679357620825 -0.017335581338868367 0.07697514331021599
0.03625387537242692 -0.01989961918822747 0.07733428410023638
0.0361126631522741 -0.02203941467473347 0.07742042138910524
0.03598337891604306 -0.024054544326153504 0.07743244986391579
0.03585630442065935 -0.02604248024938044 0.0774356336078818
0.03571059428288768 -0.02821047026369128 0.07757214017746589
0.03558407724763241 -0.0301822940228183 0.07758411860608486
0.03545755424703235 -0.03214909408931921 0.0776021954048513
0.03536240115811875 -0.03380101777353278 0.07740989226996706
0.03523442755682654 -0.035772578307344205 0.07744937657425507
0.03510235267277307 -0.037779335034887285 0.07752348124485381
0.035008392655800025 -0.03940667941397319 0.07733819750430762
0.034877481725489275 -0.041392188650188455 0.0774158944658764
0.03474590547376498 -0.04337894219856586 0.07750452919107359
0.034669739069012454 -0.04481988822534777 0.07720920302049689
0.03454783077835365 -0.04670306635535992 0.07724078600648213
0.03441686140410938 -0.0486693735165708 0.07734245818624183
0.034342129210514764 -0.050085215846804976 0.07705027460284655
0.03423541520434197 -0.051807467891522796 0.07698998452340189
0.03413294518513998 -0.05348445905412913 0.0769044046084314
0.034062177869841836 -0.05485189544456609 0.07659588991665836
0.03395975084992008 -0.056520876706024736 0.07651905309204171
0.03390440985768794 -0.05773398670167551 0.07610646827262288
0.033835404859814754 -0.059075695185629995 0.07579571475931626
0.033777693268450634 -0.06030673309364609 0.07540602025537577
0.033725139913528906 -0.06148627378215937 0.07498140025745201
0.03369198121660328 -0.06247918381155093 0.07441712525908983
0.033662534493803555 -0.06343552082646559 0.07382713860701023
0.03363856091277055 -0.06433882364777466 0.07319817928670863
0.033629660512297106 -0.0650986665327925 0.07245879240212333
0.03360541061380902 -0.06600295255345112 0.07183381983438566
0.03358966692514058 -0.06682619121611855 0.07114663599565918
0.03348949623905705 -0.06844185435032069 0.07109121846318822
0.033401567642399606 -0.069938744212097 0.0709488056950246
0.03335606519507525 -0.07103528005417437 0.0704914758526144
0.033346359200557105 -0.07179589444151319 0.06976620891049151
0.03846008110889224 -0.02484134613079758 0.03025799699567827
0.03855649255258304 -0.024717949426902308 0.02860518039649035
0.0387925978348826 -0.023303061477734255 0.025883602859565424
0.03875088025133549 -0.024468296903852826 0.02527374158553153
0.03884897290375275 -0.024341029286988725 0.023594152201733887
0.03894767193050848 -0.02421211616906377 0.02190520363723175
0.03915063812455242 -0.02312868875937174 0.019407270005065758
0.0391461437564296 -0.023956336282342616 0.018504821842433572
0.039246250312433124 -0.023826457988956717 0.016790746806091272
0.03934698090987164 -0.023694902482010116 0.01506702056103737
0.03950005441808799 -0.023090435448626767 0.012929715010673026
0.039549665702392385 -0.023432806717752996 0.011595515181472948
0.03965162449225065 -0.02330227393366424 0.009847641362284443
0.03975399730230358 -0.023172089585109912 0.008091623080155486
0.03985758184033762 -0.02303507385494663 0.006321124752526608
0.03996147915604487 -0.02289940087868314 0.00454318704419987
0.04006557509971872 -0.022766115900364814 0.0027586953067469944
0.035608547079155624 -0.06498802642145213 0.03564743364454975
0.03536275894354869 -0.06789359451199123 0.03677325355565203
0.03520576992139321 -0.06999975517709017 0.03719400745548934
0.03508103789963899 -0.0718134525663442 0.037361109734118436
0.034978526121435635 -0.0734254663945399 0.03735374639284833
0.03489140819515252 -0.07489741931353122 0.037225918170341266
0.03481893839594451 -0.07623680946838651 0.036982610827352214
0.034757739519718826 -0.07747420787172943 0.03665043920930139
0.03470398982997704 -0.07864381304542284 0.03625999390001344
0.03465805080414283 -0.0797429107367627 0.03580776131158686
0.03461488974885829 -0.08081590970790392 0.03533477090969861
0.034585776117606756 -0.08176481543024133 0.03474742214714471
0.034557309316894554 -0.08270693034753496 0.03415609087551558
0.03453153306875363 -0.08362457381921595 0.03354369445858768
0.03452914516592542 -0.08433886831307758 0.032737010262048505
0.03451755147573042 -0.08513251369077124 0.03200761931057189
0.03452002300690736 -0.08580459163945747 0.03116052759002652
0.03452948627560826 -0.08641671041123788 0.030254365887376955
0.034539466690715864 -0.08702477750396687 0.02934337834424605
0.03456098257704273 -0.08753462020116898 0.02833409799676817
0.03458594723372879 -0.0880159104469656 0.02729446112753242
0.03461728952990407 -0.08844393264623962 0.026199244500034746
0.03465512996932656 -0.08881804810920002 0.025046959628309995
0.03470218094317225 -0.08911567610292076 0.023813880404868037
0.03474892801973733 -0.08941776205533014 0.022581161755334533
0.03480931583383727 -0.08960674520949208 0.021228579136520154
0.034890450401601485 -0.089623692115467 0.019693706720716075
0.035004097865499635 -0.08937114625103804 0.01787303025816267
0.03514143826661854 -0.08892488078917216 0.015840903833838405
0.03532567878010901 -0.08809256969160834 0.01339328524665917
0.035568235160493865 -0.08678195982260917 0.010427000374050921
0.04148023746401271 0.026321912984246465 0.05831576159300356
0.041329349551602466 0.024027858576685934 0.05831333271576955
0.041179555395941335 0.02175043331753418 0.05831092144496808
0.041030726382339865 0.019488311585474594 0.05830927627410315
0.04088285335003962 0.017241347293800058 0.058308388940710776
0.04073615744055449 0.015011645358141146 0.05830676466799828
0.04079320882071019 0.0147745088226513 0.056991356895095546
0.04085817632582117 0.01461218999159225 0.055621808040226095
0.03743223482476762 -0.01945841670408477 0.07703774613365355
0.037236471053119516 -0.022085096575907404 0.07745129589282926
0.03707541629242008 -0.024368387982920625 0.07764574400745844
0.03697605529845757 -0.02604980423005565 0.07744063877833321
0.03685036347754033 -0.027981038602229613 0.07741447799632248
0.03667908929984588 -0.03034565966118341 0.07769700298002172
0.03656504642235566 -0.03215443309695237 0.07760590502183579
0.03648602523031745 -0.03362338779021956 0.07728579085182544
0.03634658682316985 -0.03566665686857551 0.07737496630963542
0.03623123005334563 -0.03747482052387735 0.07730838041252758
0.03611696509084035 -0.03926809863963315 0.0772397694597651
0.03598266267070362 -0.04124724762768467 0.07731238366531162
0.03586415814217559 -0.04307141883984855 0.07728370448064742
0.03576043991920643 -0.04475110439377322 0.07715954059566629
0.03564656464880022 -0.0465226308172646 0.07710979772155355
0.0355475170634042 -0.04815003813969493 0.07696338421025264
0.03545660264725268 -0.04969712750975619 0.07676545541245017
0.03533243856436355 -0.05155260535886108 0.07680192116296025
0.035226948183045934 -0.05322842343390083 0.07671444768935223
0.03515788496151249 -0.05455981130546572 0.07637801047127049
0.03503435333412033 -0.05639631865812378 0.0764256350612369
0.034974184999826546 -0.05763851066338288 0.07603447348705883
0.03488431900383346 -0.05915407362964076 0.07585513688396733
0.03486078668873893 -0.060051581781156604 0.07521153287837398
0.03477812773148652 -0.06149480520520406 0.07498793840009091
0.03477393378370594 -0.06221091961923453 0.07421042920427817
0.03474493935876809 -0.06315518751874649 0.0736099794972947
0.03472000600879494 -0.06406101813295861 0.07298182005649531
0.034718417512316066 -0.06475187068323068 0.07218725037840881
0.03469560935988891 -0.06563677267287038 0.0715455603199823
0.03464850073405206 -0.06674260655088105 0.07108048456389326
0.03457480187072684 -0.06808880921619459 0.07081031064045629
0.03447320361529471 -0.06968572613214435 0.07074640889013578
0.034422586978162605 -0.07081629205516199 0.07031536404589855
0.03442258697846103 -0.07148678930178304 0.06951629637042589
0.03985767058071999 -0.023073902446544003 0.028821387566210166
0.04013080147099891 -0.021388984578017856 0.02588491473111343
0.04005921872430144 -0.022814332644002677 0.025482110977513128
0.04016075910944169 -0.02268356082319417 0.023799776301113684
0.04026304043423679 -0.022550111112778326 0.02210721980196223
0.04049963917364569 -0.021220727986242083 0.019408377485320427
0.04046883325616012 -0.02228419963537992 0.018698659646036675
0.04057257766172777 -0.02214971418936207 0.016980851382151108
0.0406768553450342 -0.0220145374473375 0.015254213062291633
0.04085956580463593 -0.02118885869260384 0.012930617011409018
0.0408870270770998 -0.021742088644288726 0.011774172512532266
0.0409925798530922 -0.021607888410376586 0.010023287471359499
0.04109879617575128 -0.021471962889431706 0.008262446382561517
0.04121086433145406 -0.02128881003310129 0.006451953097007523
0.04131371738231264 -0.02119073021810869 0.004706894449579613
0.04142160661966241 -0.02105264767726528 0.002918339273893733
0.03702039284544333 -0.06167668163440598 0.03417952947286962
0.0365747857935661 -0.0662570725055791 0.03678764192591638
0.03636877394528487 -0.06874969606110759 0.037546474433989174
0.03622331082817009 -0.07071225524698482 0.03784090135714052
0.03610321855340764 -0.07245089961108864 0.03794289204396489
0.03600189029951742 -0.07402381699012761 0.03790270400429585
0.035916153742119136 -0.07545926962185273 0.03774408409923069
0.035842938701727604 -0.07678439986272051 0.037490264686781016
0.03578022984619565 -0.07801711891560104 0.037156383518517355
0.03572127971140302 -0.07921542739121129 0.036795467280994254
0.035688829435237705 -0.08018657620979797 0.036225543304818364
0.03561627338420528 -0.08149599510126149 0.03597851828911658
0.035603696512873324 -0.08229597388422677 0.035252819218838716
0.035553740740313824 -0.08341045515488482 0.034828979709648045
0.0355389302521891 -0.08422750515431382 0.034123371048251805
0.035545851962411674 -0.0848616873091323 0.0332422785192551
0.035524657265594055 -0.08573143341764822 0.032589442202687946
0.035537966684506504 -0.08631227559817195 0.03165628129735909
0.035542522196726996 -0.08696655298561612 0.030794075407953037
0.03554918235417035 -0.08760351794199961 0.02991440134648604
0.035578481605381095 -0.08805304926087304 0.02884826721851108
0.03560299317674961 -0.08854332176890489 0.027820250844020233
0.035637401406175155 -0.08895288485576708 0.026709261333268453
0.03567567162485451 -0.08933199560278537 0.025564650041825954
0.03571968677317979 -0.08966541556876484 0.02437049062803076
0.03577499182471857 -0.08990804898936688 0.023080145654882145
0.03583928579026584 -0.0900793634009725 0.02171206934851705
0.03591606427975994 -0.09015137977145943 0.020236324907840553
0.03601978863880471 -0.09000718696665366 0.018530448327683913
0.03613977852823846 -0.08973503434266711 0.01668261395301185
0.036314728831915645 -0.08902260328730227 0.014364536387351745
0.03655772215952888 -0.08776744503012995 0.011461475262134424
0.04258175408347697 0.024027858576760097 0.058313332715721644
0.04242742071097743 0.021750433317606455 0.058310921444921116
0.042274081727266655 0.019488311585545037 0.058309276274057076
0.04212172769398745 0.01724134729386878 0.05830838894066559
0.04197058645391166 0.015011645358207926 0.0583067646679542
0.04193835696665684 0.01391312628730934 0.057563889492036
0.042005003382902376 0.013749790629711045 0.05619822078965997
0.04207186195884875 0.013585935015505368 0.054828204668773584
0.03845044826383846 -0.021279776904105097 0.07690701370300934
0.038257645328260974 -0.023816950700258466 0.07727097669772687
0.038089215654292755 -0.026118451936735954 0.07748755226544804
0.037974223324379656 -0.02791387601266848 0.07736832481809947
0.03783070897455552 -0.029971130865066142 0.07743820652138986
0.03768626742055458 -0.0320315947983309 0.07752055525831786
0.03754681522570847 -0.0340402232301667 0.07757701347237769
0.03745536341833105 -0.035598342672752414 0.07732697529433608
0.037303555014502034 -0.037711711534761716 0.07747571382939111
0.037156689439862264 -0.03977367916402702 0.0775988618563247
0.037084337499017725 -0.04114315530570212 0.07723804529377998
0.036947182744121426 -0.043106085287271945 0.07730859757574662
0.03681861148739477 -0.0449850229147889 0.07732843146290216
0.03674038886629296 -0.04639779257917992 0.07701917063737251
0.03660080129142397 -0.04836868519042997 0.07712297935926604
0.03651371495570751 -0.04985525574455474 0.07688150619654904
0.03640856104027576 -0.051503048341677904 0.07676535298211545
0.03629930931868089 -0.05318410018172187 0.07668156356010503
0.03623122677301392 -0.05448771063428448 0.0763242271528834
0.036116009236613934 -0.056215262496467744 0.07628984367423286
0.03606068809050648 -0.057397599047700476 0.0758528113609265
0.03598625974585662 -0.05875001883846942 0.0755488052838715
0.035935420355800156 -0.05988751027992528 0.07508647047675873
0.03588021732088581 -0.061062235246816976 0.0746564340221674
0.03585968973021196 -0.06192437913168264 0.07398965136654528
0.035820691483848296 -0.06295078915880781 0.07345164310040789
0.03580558195962908 -0.06376272146104128 0.07274950199630861
0.03578953666131441 -0.0645824085703472 0.07205456111718075
0.03575964109774328 -0.06552446082249125 0.07145714759943445
0.03570978292022009 -0.06664224660291818 0.07100105666607448
0.03562790563369824 -0.068041223384251 0.07077244796752286
0.0355365388680546 -0.06952081997388565 0.07061449547294318
0.035501803101355214 -0.07049843691261515 0.07005974253385094
0.035487554776559 -0.07129477600028755 0.06936105297348644
0.04147734120792771 -0.019463833741881043 0.025887059989975703
0.04137383349157316 -0.021153296270151223 0.025692321885972647
0.04147907844662342 -0.021016973143681394 0.024005575936601575
0.04158497661476176 -0.020878940922766764 0.022309389507443933
0.041857055852633884 -0.019300864559845587 0.019409491874480544
0.041797933018417555 -0.020604830239050298 0.018894305252594945
0.04190534944432123 -0.02046569664929221 0.017172754791541955
0.0420133193912394 -0.020325846098754374 0.015442333114087436
0.04222733563088613 -0.01927659678750504 0.012932401417839468
0.04223093705065507 -0.02004397183337031 0.01195460040693902
0.042340352113783786 -0.019904006798119322 0.010198923710461216
0.042450214303178926 -0.0197643526794839 0.008435020232777923
0.042588834789333924 -0.019383303777126937 0.006453501422298502
0.04267276120359825 -0.019473460096042283 0.004871425767684234
0.042784603918885715 -0.019329485782478006 0.0030778720108232682
0.03788048702918006 -0.06388178835220648 0.03615042339431668
0.03757910959149733 -0.0671313246666177 0.03757313708364707
0.03739191296825126 -0.06941181748829411 0.03814449474130366
0.03724995578703654 -0.07130665889476073 0.03838057301629183
0.03713179825483957 -0.07299742214990274 0.038441689783535404
0.037030996681939446 -0.07453913561756792 0.03837548381756928
0.03694699897053441 -0.07593737242711518 0.038185013970629345
0.03686786444703537 -0.07729210476533527 0.03796094195930111
0.03681870275919015 -0.07839585911163083 0.037509335349237394
0.03672068089506606 -0.07990108463889023 0.03743777307215179
0.0366969141556677 -0.0807910479271502 0.03679475009298644
0.03663428862080976 -0.08199941411012951 0.036455038842084175
0.03662679153018666 -0.0827534658402988 0.035688122645127884
0.036588631083584656 -0.08375803454750136 0.03516142327073185
0.036578810658817136 -0.0845298986201512 0.03441410135667883
0.0365648549091535 -0.08533505848944312 0.03369975889600563
0.03656260497928915 -0.08604461083520681 0.03289367961991169
0.03656656504191525 -0.08670375520815582 0.03203856138453387
0.03655576689217162 -0.0874823640157702 0.03130038055194284
0.03657394744813193 -0.08802683025030555 0.030332068834860726
0.03659494056179584 -0.08854935176501738 0.02934049169460551
0.03661433328016413 -0.08908551488744898 0.028360776908255392
0.036662226483506165 -0.08939415063080292 0.027151450145862788
0.036700359336476175 -0.08978258347404744 0.026018519404572837
0.036746659914476 -0.09010735160741856 0.02481795007451787
0.03680128097218228 -0.09036770352621931 0.02354795378379748
0.03686548559053378 -0.09055409062962316 0.022197717113580873
0.0369375363361093 -0.09068080734844464 0.020780732245732902
0.03703367393499475 -0.09062006880395551 0.019163929148064363
0.037156224769308584 -0.09035491697435283 0.017326641843204926
0.03732136198064054 -0.08975976518481038 0.015134368076384075
0.0375453917781287 -0.08870920670901589 0.012450053071250133
0.03804434341503531 -0.08551724296284297 0.007487243809663313
0.04383415861535215 0.02402785857683637 0.05831333271567235
0.0436752860260142 0.02175043331768073 0.05831092144487282
0.043517437072194104 0.019488311585617535 0.058309276274009725
0.043360602037935896 0.01724134729393928 0.05830838894061924
0.04320501546726946 0.015011645358276593 0.058306764667908795
0.04307867781486417 0.013056581926651045 0.05813320631363572
0.04314686667200544 0.012891123958223727 0.05677213867368941
0.04321539387029417 0.012726259751065672 0.05540600367036774
0.04328413908891265 0.012560871025901255 0.05403552228762187
0.03951721054726096 -0.02259165230205379 0.07643824050314701
0.039297148499650394 -0.02532051167511018 0.07694224402439487
0.03910870780522797 -0.0277540358301388 0.07725848491347845
0.038962030885183185 -0.029802018272825803 0.07732135104743013
0.038836856605124884 -0.031650070402728714 0.07725546678585934
0.03868613908520998 -0.033724155327496064 0.07735619222239021
0.0385668132399259 -0.03550984461334783 0.07726480502838073
0.03844367829261054 -0.03732540353965891 0.07720283628734784
0.03830155455767522 -0.039306843650239065 0.07726728839699057
0.03817867509578761 -0.0411107201554583 0.0772148814695556
0.03807344751251878 -0.04275232488286146 0.07705457121758627
0.03795051800912663 -0.04454794498187148 0.0770128580281029
0.0378118236859973 -0.04647936404836056 0.07707838794544758
0.03771018671271309 -0.04807654162938074 0.07690973753870542
0.03759846059393192 -0.049759413535567454 0.07681116731294033
0.03749438015793645 -0.051370552762120714 0.07666758433925158
0.037382739212287026 -0.053044605699790304 0.07657807037430286
0.03732270358841561 -0.054259985278888756 0.07615435598395515
0.03719406965055156 -0.056076157733431775 0.07618551566606815
0.03712589287193739 -0.05735728064883533 0.07582240881666
0.037050782539215635 -0.058696592553539095 0.07550830048178156
0.037004608343115815 -0.05978038327860358 0.07500481363835237
0.036945333849377184 -0.060976670841263014 0.0745908608715461
0.03694292398008176 -0.06167614723322268 0.07379839008173852
0.03691367361485596 -0.06260851283056412 0.07318650007005281
0.03690040139594654 -0.06340140585567611 0.07246810381638899
0.0368995109850513 -0.06408679105910292 0.07166649135751763
0.03685806542805426 -0.0651219311456872 0.07114027325618966
0.036804130315041574 -0.06626304178447423 0.07070094250516556
0.036670859970430694 -0.06808352261155098 0.07080610424173689
0.036578668525413235 -0.0695470666541983 0.07063549098533983
0.036554010916910074 -0.07042970714155306 0.07000446953162481
0.03655497211575955 -0.07109283256194243 0.06919778102766733
0.042697382225715536 -0.01946281862891691 0.02588623488823738
0.04280375047249047 -0.019343221065128757 0.024213217823452204
0.04291329923811949 -0.01920056584180374 0.022513393082080446
0.043222844987587536 -0.017370020277864495 0.019411466799199972
0.043133600979898455 -0.018917161666767823 0.019090917708547483
0.043244724540845866 -0.018773335522832446 0.01736560900019929
0.043356545074962304 -0.018627733244523492 0.01563052071044546
0.0436035530362751 -0.017352524427538263 0.012934196845048762
0.04358168159299045 -0.018336336700763345 0.012135047826420109
0.043694879222220505 -0.01819158556739625 0.010375440214032972
0.04380854091032272 -0.018047126124115076 0.008607564183457594
0.043975214011274896 -0.017466169584968327 0.006455059195888402
0.04403878895272555 -0.01774647348205116 0.005035876164237285
0.04415437673492077 -0.017598651935758602 0.003239131368640069
0.038864395046405785 -0.06494756957457226 0.037103003927402345
0.03860780627348477 -0.06775659418309848 0.038134927147613074
0.03842860727219556 -0.06992566192675925 0.03860859301147823
0.03828611545433283 -0.07178975039544966 0.03881918201991125
0.03816552558467773 -0.07347096366875139 0.03887387953312388
0.03806387568602841 -0.07499447793610026 0.03879323828028014
0.0379908713795835 -0.07628297327961298 0.03850374403824197
0.03787494536743734 -0.0779145498092213 0.038537991213781486
0.03781874368967152 -0.07906184619467288 0.038129975467872
0.037762055793987524 -0.08021097719961529 0.03772807232453207
0.03773065657768971 -0.08115570231049929 0.0371381305099342
0.03768611658103474 -0.08220416642961498 0.03664885092860437
0.037656790725573396 -0.08312983167322535 0.03604623459537454
0.03761297993355906 -0.0841695093612641 0.03555497983734485
0.03761769881529009 -0.08482287812848405 0.03469578079900587
0.037612239824929394 -0.08555691434305562 0.03391416717373036
0.037621030503997406 -0.08617831484923283 0.03302356690302688
0.03758709342879107 -0.08713639141810908 0.0324610309176539
0.037590419697884604 -0.08780056850662027 0.03161272084933808
0.03762843636953141 -0.088193058887791 0.030496080832981776
0.037627973417894145 -0.08888773743084388 0.029676096906524507
0.037647983331980474 -0.08942274039593151 0.0286969655661809
0.03768704536359225 -0.08981024943437532 0.02756841934284765
0.03771697653804029 -0.09027006527066878 0.026509551379675755
0.037779314986715495 -0.0904800364136415 0.025195292772376754
0.03783455695381885 -0.09074711820866421 0.023934098721891617
0.03789813029736643 -0.09095202150650056 0.022604801917953055
0.03797209829269607 -0.09107934214355579 0.02119054328749881
0.038072499613297936 -0.09100663639230139 0.019563489288524638
0.03817019359025745 -0.09095833402508241 0.017953562796016675
0.03833977434081859 -0.09036488979455481 0.015766310804256112
0.038544746243346036 -0.08950817459150856 0.013288738628898622
0.03893256973949132 -0.08726995117737557 0.00933657916680436
0.04508656314722804 0.024027858576914807 0.05831333271562167
0.04492315134105167 0.02175043331775728 0.05831092144482308
0.04476079241712222 0.01948831158569203 0.058309276273960986
0.04459960284539016 0.017242482256604463 0.05830764295203911
0.04443944448062791 0.015011645358347259 0.05830676466786211
0.044280556926593134 0.012797887451305667 0.058305152009893446
0.044283923029874966 0.012037278069579382 0.057342834430226974
0.04435397913724496 0.011870303235420099 0.05598130325220502
0.04442438272176961 0.011703914124340242 0.05461470394093859
0.0444950101664792 0.011536995950746087 0.05324375929446029
0.044565862540775734 0.011369546187248447 0.05186844855467165
0.04032396771464504 -0.026889684537492853 0.07666451497400062
0.040097810181808996 -0.029603013742774964 0.07718384047904986
0.039923667368429686 -0.03185074147958572 0.07739489584948889
0.0397779726304196 -0.033842527092021846 0.07743889280914687
0.03968173246990155 -0.0353958698361625 0.07718473725901398
0.03952021133391021 -0.037516495237384595 0.07733781830543004
0.03937192130080947 -0.03951591587604719 0.07741578352881848
0.03928381383212688 -0.04098604362491515 0.07712584271941275
0.0391506353598261 -0.04284464436075669 0.07712086348903499
0.03901206632117959 -0.0447452313069866 0.07715530018444772
0.03893278660948343 -0.0461278256117274 0.07682318646248515
0.03878905544092319 -0.04806415140007264 0.0769006936458832
0.03866281597919604 -0.04984460933251855 0.07687369276293793
0.038575390263987513 -0.0512867739420656 0.07660576385010842
0.038459937381206566 -0.0529663403939008 0.07652000409288351
0.038385974839659824 -0.05428646253272973 0.07617410662635579
0.03827845051840961 -0.05589076577873181 0.07604647245186413
0.03820249268492693 -0.05722202253742509 0.07572041590932
0.038137929335837956 -0.05845359530382366 0.07532407364435581
0.03807662543611742 -0.05965518149881521 0.07490937942126205
0.038013588897417655 -0.06086926206617138 0.07450854706662297
0.03799715095730779 -0.06168701540685345 0.07380676394853414
0.03795836242654593 -0.06269279768774116 0.0732517910078154
0.037962301852678015 -0.06333737781876758 0.07241823779127865
0.0379622102291654 -0.06401597258163905 0.0716110403112862
