# .PCD v0.7 - Point Cloud Data file format
VERSION 0.7
FIELDS x y z
SIZE 4 4 4
TYPE F F F
COUNT 1 1 1
WIDTH 773
HEIGHT 1
VIEWPOINT 0 0 0 1 0 0 0
POINTS 773
DATA ascii
0.023995737239254744 -0.03975971491077905 0.050665768727325255
0.025965894729406636 -0.039624493577115255 0.050693736630356034
0.027893430675352382 -0.039493443539050786 0.05069920704903347
0.02981013068398891 -0.03936304887550185 0.050706075958833696
0.03170029753035625 -0.03923506677844047 0.05070217579484576
0.033581892925670376 -0.039107502382258456 0.05070115146342502
0.03544582033877569 -0.03898137853780605 0.0506958717596841
0.03729052923845538 -0.038856878692345706 0.05068496126968319
0.039127975668686865 -0.03873266661562526 0.05067764960490795
0.04095015587460504 -0.03860964753302111 0.050667569981979466
0.04275638991589792 -0.03848790600685159 0.05065404691770803
0.044554765881126 -0.03836653343591399 0.05064340600554057
0.04634183505567141 -0.038245923961395624 0.05063283199510882
0.048120282367698 -0.03812577685382969 0.05062440908887145
0.049885033926421074 -0.03800667397079093 0.05061396057012896
0.051621043504760045 -0.03789034237538762 0.05058907242495736
0.0533573562482742 -0.03777347204291653 0.050573288875469524
0.05508797871109855 -0.037656747693170844 0.050561721744640575
0.05680793848003396 -0.037540742504329636 0.050550225881052846
0.05851324597452051 -0.037425921302580774 0.05053538864055762
0.060204910324160976 -0.037312175211340504 0.050517920408293226
0.061882302190858385 -0.037199584193942536 0.05049716620228317
0.0635472084638708 -0.03708794841516983 0.05047450770092998
0.06520452521715275 -0.036976704541496715 0.05045400805747208
0.06685428352245537 -0.036865851541665565 0.05043564836178038
0.0684863971660411 -0.03675657067853885 0.05041069348422289
0.07010809133585533 -0.03664802619211209 0.050385217524889614
0.07171870429240068 -0.03654030065857051 0.05035855820711094
0.07331607840910731 -0.03643365336400863 0.050328731096767276
0.07490490889714979 -0.036327537945458926 0.05029974054438141
0.07648152126815733 -0.036222392163554155 0.05026827394963196
0.0780475503322175 -0.036118028921355495 0.05023567041355298
0.07960678808987609 -0.036014003394048914 0.05020522661230242
0.08117020455284413 -0.035909012842310045 0.05018675881155027
0.08272887469389839 -0.03580411487545465 0.05017232069146149
0.08422748192744967 -0.035705920443592484 0.05011167811394346
0.08546539709291079 -0.03563850452175446 0.04982092160207596
0.08662980231852441 -0.035579606901533695 0.04946809977598132
0.08651059800119681 -0.035674879185265206 0.04793617776773468
0.08621708040983228 -0.035791606238167996 0.046235022628515365
0.08606376826849499 -0.03589192078837515 0.044655153463259156
0.08589591582705969 -0.035994456269738184 0.04305358982227747
0.08573288090434561 -0.03609687754999557 0.04144829145998852
0.08557398944291811 -0.03619926587326268 0.0398386341848358
0.0853720053809105 -0.0363073828679181 0.038179676896078374
0.08538186860670605 -0.03639009880242098 0.03671455985533317
0.08558019551343088 -0.03645010268027971 0.03542390335115736
0.08585002486289461 -0.03650160260439257 0.0341974525032811
0.08610162152654799 -0.03655558699732278 0.03294907709788575
0.0863137457954205 -0.03661469429011253 0.03165773101052799
0.0863625008755815 -0.03669428540196458 0.030201169244576664
0.08659419009754699 -0.03675156919085622 0.02891854647899811
0.08661948778536122 -0.03683477098489808 0.02742649855614182
0.08666184046718772 -0.03691624019323377 0.025944567727120726
0.08670290487477461 -0.03699825487605279 0.024454587929663263
0.08677003456549615 -0.03707739547515978 0.022984043903148288
0.08683152514349224 -0.037157618910505015 0.021501194306357274
0.08695414100271448 -0.03723053728775009 0.020073852156983374
0.08691960190899028 -0.037323612515632404 0.018479633499062287
0.08703474363845276 -0.037398220131312776 0.017031517861620715
0.08714586835067156 -0.037473693802817565 0.015572972461893375
0.087251461447869 -0.03755023205536521 0.014102314134515626
0.08726609181855072 -0.03763871476444859 0.012530190567397737
0.08739191279571268 -0.03771343973217885 0.011067285961746332
0.0875167309284397 -0.03778865425183494 0.009596974814456871
0.0877120511128095 -0.03785519581883072 0.008195030942946047
0.08792312703887983 -0.037920036088585636 0.006804202798968706
0.08803158689770124 -0.03799841037216679 0.0052978679667098905
0.08817903971042551 -0.03807213227933668 0.003826807847115976
0.0033696098260989626 -0.03997048639629482 0.05026176905149188
0.005702563954197271 -0.03980650096416784 0.050450085573031156
0.007811149545326412 -0.039665559377713024 0.05048863211871252
0.009896673140165346 -0.03952647918613001 0.050520966110322585
0.011958499502728648 -0.0393893393676216 0.050546414852813415
0.014007072681875288 -0.039253041024403336 0.05057242492412972
0.016041517454849885 -0.039117682690738974 0.05059825561158149
0.018066913270214147 -0.038982727672276805 0.05062756922441164
0.020050019741434166 -0.038851736468667485 0.050635524503878815
0.02205377343017062 -0.03871798326035117 0.05066887386821056
0.024004385521306237 -0.0385893819620196 0.050672290063900005
0.02596208500888908 -0.03845947764609389 0.050690848313911574
0.027897207217294273 -0.03833146403807818 0.050702085693582144
0.029812002572796203 -0.03820510967034557 0.05070751050020644
0.03170586492575972 -0.03808049075536761 0.0507064654429174
0.0335855726609427 -0.03795688201980698 0.0507040019568501
0.03545585298901177 -0.037833775316406186 0.05070368534490388
0.03730680671981518 -0.03771225369526285 0.05069770658200223
0.039144114886220494 -0.037591706248624145 0.05069035451989745
0.04096526958949415 -0.03747241395361616 0.05067953143619397
0.042769613374219084 -0.03735445704079547 0.05066456844461115
0.04456787797220274 -0.03723666339287954 0.05065389476605392
0.04635570367131103 -0.037119514746326826 0.05064398524376884
0.04813231544869501 -0.03700310090057629 0.05063413787771692
0.04989867075024579 -0.036887320590687736 0.0506250448242217
0.051627805762938406 -0.03677517012625077 0.0505945982098337
0.053368253490647444 -0.03666127567359598 0.05058224098798075
0.05510044773238565 -0.03654780658282863 0.050572019574982585
0.05681783088645426 -0.03643549808357203 0.050558439178405856
0.058523056570107757 -0.03632406072461121 0.050543577266234874
0.060215450906358714 -0.0362135758145201 0.05052676500734099
0.06189436463649378 -0.03610412260630555 0.05050734144354285
0.06356076748192674 -0.03599559862873296 0.0504860059392741
0.06521955550796177 -0.03588745713165991 0.050466821391060845
0.06687076009221715 -0.03577969709344533 0.050449768899250735
0.06850118369811703 -0.03567381794228778 0.050423432575863014
0.07012275819263591 -0.03556847583123086 0.050397920193046286
0.07173325276802878 -0.03546392848266881 0.050371224783879176
0.07333050999131924 -0.035360427533839354 0.05034136209618767
0.07491847120184553 -0.03525752895896145 0.050311673208841445
0.0764919854800511 -0.03515582755195801 0.050277529213813066
0.07806015544761552 -0.035054285040703924 0.05024687783531284
0.07962076369776427 -0.034953157949720856 0.05021771782081358
0.08118917474124437 -0.034850675042972803 0.05020380308740935
0.08274262588782533 -0.03474946133438748 0.05018474061176087
0.08422604553430185 -0.034655912913144064 0.05011037398184848
0.08543255557714236 -0.034594130964845836 0.049790947946984354
0.08647709549646532 -0.034550939987676464 0.0493279986469185
0.08625759187039322 -0.034655163227705704 0.04770284303640454
0.08600095605030333 -0.03476420774267142 0.04603466046955951
0.08584261443868374 -0.034862219674815766 0.0444490579124987
0.08566390961408082 -0.03496307483583128 0.042836252408847864
0.08547837883934745 -0.03506519745491345 0.04120863700424571
0.08531572410821092 -0.03516508788135539 0.03959416830308593
0.08510404671584126 -0.035271242931347396 0.03792471425996741
0.08514471357095038 -0.03534794402782755 0.03648773200928296
0.08537350656922599 -0.03540262461889996 0.03522518623989623
0.08564834995603676 -0.03545206916755467 0.03400254765906141
0.08588591686070945 -0.03550619822728026 0.03273952990945228
0.08610224075469836 -0.03556312420104779 0.03145119615105424
0.08617185060687038 -0.03563792994843796 0.03001403242320627
0.08636079478404907 -0.03569872628969067 0.028688263405314496
0.08639736121713726 -0.03577818774822164 0.027206197105111685
0.08642081303832266 -0.035859609044554555 0.025704281311512422
0.0864598965459118 -0.03593952037766198 0.024211071214533364
0.08652582052533175 -0.03601654945533649 0.022738051264722003
0.08660538449792815 -0.03609228308542728 0.021272227249438835
0.08670386696442861 -0.036166067780300334 0.01981913856169093
0.08671561438159392 -0.03625081549860123 0.01827095342706575
0.08677594537879757 -0.03633001007245297 0.01676539702859442
0.08687169002014128 -0.03640523056734707 0.015289578913842305
0.08701351881215369 -0.03647513351387352 0.013855103250985934
0.08701859261610706 -0.03656226475718932 0.012271722544728525
0.08713199805972466 -0.036636402922964106 0.010794450474720274
0.08725490123361224 -0.036709720732829146 0.00932071032691767
0.08740620177892122 -0.03677986077287108 0.0078706545728503
0.0876033842002662 -0.03684461921701954 0.006463341782399157
0.08777329671312606 -0.036913102452706896 0.00502109822448249
0.08793173168506441 -0.03698335851925468 0.00356043956848745
0.0034916596615152673 -0.03874679929943335 0.050348931950190634
0.005698396975975628 -0.03860066964595363 0.050447093371018936
0.007803923700250015 -0.03846431346449348 0.05048341500477105
0.009887466750371054 -0.038329652800807704 0.05051428267338254
0.011950389524516436 -0.03819655782985469 0.05054049520499948
0.013998030699206465 -0.03806448760450957 0.05056578898421149
0.016032556331005254 -0.037933224617182175 0.0505916431860281
0.018059019139644195 -0.03780225055458046 0.05062171244116753
0.02004708546130818 -0.03767471568240719 0.05063333568423839
0.022038263364671018 -0.03754632425871082 0.05065724137882588
0.024032249373730996 -0.03741710253446511 0.05069330112237963
0.02597732340363801 -0.03729244731728485 0.050702401210229675
0.02791042448136616 -0.03716852110909451 0.050712160467212275
0.029811066630988592 -0.03704747724298347 0.05070679323150956
0.031709576424691244 -0.0369261463778393 0.05070932513278681
0.03358925231871762 -0.03680628589001234 0.05070685239024214
0.03545129276534065 -0.036687778629999945 0.05070013377124816
0.03731313643756606 -0.036568788577021547 0.050702662768272344
0.0391557700457123 -0.036451328137805196 0.050699529550237266
0.04098038196890724 -0.036335280862187805 0.0506914918334721
0.04278371726362651 -0.03622100232975678 0.0506757905053033
0.044581863082963746 -0.03610678764066086 0.05066508188156932
0.04637130449824861 -0.03599301300462734 0.0506565315502393
0.048148644675597096 -0.035880045216878445 0.050647340115828665
0.04990974984757329 -0.03576833336625002 0.05063405011251132
0.0516387938438953 -0.03565958862341396 0.050603577129296695
0.053378311844196225 -0.03554924321950839 0.050590503951174814
0.05511042226672075 -0.03543921929002216 0.050580257275437024
0.05682772269291897 -0.03533032069357392 0.050566651977638044
0.05853368404595127 -0.03522217803370999 0.05055244771867606
0.06022599080023827 -0.035115048157961896 0.05053560902882115
0.06190642617600162 -0.03500874330958797 0.050517515920441236
0.06357352785935688 -0.03490342869530999 0.050496826919115556
0.06523300245790803 -0.03479848596569946 0.050478284925439654
0.06687938999102677 -0.03469451677572214 0.05045716478390805
0.06851363443633057 -0.03459142375391317 0.05043415930301404
0.07013665184135948 -0.03448911174512261 0.05040995320133579
0.07174779988390118 -0.03438765690853897 0.05038389017678113
0.07334342131961352 -0.03428746989142979 0.05035266251895537
0.07493278567270378 -0.03418753056728684 0.05032426765952708
0.07650319634289471 -0.03408925263773806 0.05028744486712439
0.07807350090471982 -0.03399054645210074 0.05025874350743276
0.07963620892448015 -0.03389224590826628 0.050231522554672225
0.0812052245768427 -0.033792796968815784 0.05021822349376798
0.08275927038503206 -0.03369457956055209 0.050199773730327135
0.08416211205756047 -0.033612924359498864 0.05005232740936699
0.08538542247690245 -0.03355113704925458 0.04974793070929201
0.08626517635300518 -0.03352788462669562 0.049133573074645776
0.08599486454860938 -0.03363475745964065 0.04746054294333252
0.08576945456314783 -0.03373702141164388 0.0458200426547557
0.08561609341143045 -0.03383155676868644 0.044237960614701755
0.0854127622554321 -0.03393222252224575 0.04260098406573948
0.08522706499478955 -0.034031335273558366 0.04097198476867897
0.08501336209141447 -0.03413411188309282 0.0393079618823613
0.08484144598808263 -0.034232565195440136 0.03767484970053364
0.08492400281259221 -0.034302191417747374 0.036276632355594585
0.08517311689353463 -0.03435293009453753 0.03503252543922725
0.08544274010854752 -0.034401533469445335 0.033803839966967786
0.08566989855998786 -0.034455283644488514 0.032529678039116494
0.08590143482826684 -0.034508776160587555 0.031255108986155244
0.08597875106248998 -0.034580472462890734 0.029824491463270986
0.08611084573093936 -0.03464611286005674 0.028441647329988162
0.0861461488972034 -0.03472338267464372 0.026957048887315926
0.08617274310016126 -0.03480203744726152 0.025456974038055302
0.08621871063672037 -0.034878786901822716 0.02396938073167315
0.08627452649252215 -0.03495473949175427 0.02248492707042915
0.0863640346249912 -0.035027074239527965 0.021027860873123916
0.08645242490106342 -0.03509988522135277 0.01956323622197509
0.08646508512015538 -0.035182027453214595 0.018014660971436225
0.08653239661342998 -0.0352580630793603 0.016514957167026167
0.08664269479173442 -0.03532933868842358 0.015052887085792055
0.08674218690473873 -0.03540224765527477 0.013573202529998274
0.08676165596271201 -0.0354850923472156 0.012003398816415212
0.08686108095746631 -0.03555873669378296 0.010510065677308278
0.08698204534841336 -0.03563014473476706 0.009032811770009641
0.08713523040004012 -0.03569801154402791 0.007583268914154062
0.08735934116454519 -0.035757630302727016 0.006203180342652048
0.08753348313754444 -0.03582359740599351 0.004764127013572872
0.0876946228484754 -0.0358914667663306 0.0033050565393374365
0.0035747348985438188 -0.03752774559512465 0.05040826081732752
0.005696313452415724 -0.037394605205581286 0.05044559724527581
0.007795665250771022 -0.037263123801584634 0.05047745234276324
0.009880305910901832 -0.03713256374917681 0.05050908421664757
0.011944306808236882 -0.03700352196011609 0.050536055299344296
0.013992002464618236 -0.03687557474197288 0.05056136484362139
0.01602757773981084 -0.036748309869648374 0.05058796947676969
0.018059019139747612 -0.036620930224739445 0.05062171244124425
0.02006273440776596 -0.03649580730580025 0.0506450089805458
0.022054742765206636 -0.03637134114943816 0.050669600865754005
0.02403609232437387 -0.0362474300511046 0.05069619894352295
0.02598494211331226 -0.03612628745077812 0.05070817728864174
0.027915144694437566 -0.036006526212523544 0.05071575841894582
0.0298129385098711 -0.03588955337774749 0.05070822776527634
0.031708648557398245 -0.035772298783076126 0.05070861021605183
0.03359477166004193 -0.035655526263157725 0.05071112792774457
0.03546406109030964 -0.03553997990729561 0.05071007794281912
0.037307710979503694 -0.03542656989957642 0.050698414619805676
0.03915666656376482 -0.03531213206855174 0.050700235296077756
0.04098482653228286 -0.035199345941616465 0.050695009396275914
0.042796938598074874 -0.0350877324790986 0.0506863103423017
0.04459584703802716 -0.03497700525870074 0.05067626807260711
0.046386903879395314 -0.03486661566026821 0.050669076693993564
0.04816067571859051 -0.03475754502050472 0.050657067256941024
0.049916567387346344 -0.03464986378368953 0.05063959153066727
0.05164809088174083 -0.03454425730469593 0.050611174211479315
0.0533883695839637 -0.034437278623693515 0.050598766410145934
0.055118733915153206 -0.034330873473369466 0.050587121643012434
0.05683514115408295 -0.03422546978325195 0.05057281125020052
0.058543493405823266 -0.03412045347015134 0.05056063531293681
0.06023734068549019 -0.034016506801612924 0.050545132713794905
0.06191768279543586 -0.033913531210650674 0.050527011409330747
0.06358469235342223 -0.033811514819995746 0.05050629456737926
0.06524328465183771 -0.0337099425456537 0.050487050503066844
0.06688880388878254 -0.033609312300201255 0.050465232561238194
0.0685229718431033 -0.03350944687420992 0.050442203791062235
0.07014977248783516 -0.03340992592149098 0.05042131672800515
0.07176081457198269 -0.03331164977923381 0.050395221367066256
0.07335557217460498 -0.033214683162948115 0.05036329735026496
0.07494559222974895 -0.03311779355062614 0.05033553538662333
0.0765166482959107 -0.03302251419676982 0.0502993426937528
0.07808536255273013 -0.03292706105552554 0.050269289899736225
0.07965238795163171 -0.03283136229309307 0.050245983149393714
0.08122273154182735 -0.03273487315945958 0.05023395309720463
0.08277736013709075 -0.032639657410000286 0.050216112186464046
0.08409887002847455 -0.032569411054574775 0.04999490861701733
0.08530683412300738 -0.032511246056362963 0.049676205024324405
0.08599521706083535 -0.03250968534934305 0.04888589847095742
0.08572880827167939 -0.03261285745704685 0.047215172723650556
0.08553974711226242 -0.03270799567069357 0.04560708803507307
0.08536832326256372 -0.03280162502802052 0.04400706103979379
0.08515178425863468 -0.03290066635641661 0.04235650663533913
0.08497460017105662 -0.03299580554058565 0.04073424870187592
0.08471111431785511 -0.03310095866292495 0.03902186360070886
0.08458277011655069 -0.03319156671048233 0.03742871964130584
0.08471395119088693 -0.033253663263814334 0.03607572767415301
0.08497172438472705 -0.0333019031015043 0.03483890048394078
0.0852375789646973 -0.03334946193091024 0.03360556591589686
0.08547191141963811 -0.03340078059184935 0.03233734261398791
0.08569448213782582 -0.03345366207043468 0.031053019500760393
0.08578245749237623 -0.03352197020511934 0.029631815339524192
0.08587226675151954 -0.03359039125115873 0.02820624971264235
0.08589303356983047 -0.03366695682390624 0.02670601329826383
0.08592055701733115 -0.033743115636860624 0.025205563274579512
0.08594746348218907 -0.03381970423920847 0.02369756611375895
0.08602577877385559 -0.033890788924639544 0.022234367734953908
0.0861074020306552 -0.03396183242425485 0.020768020764823703
0.08621472542389214 -0.03403026708470535 0.019321320245215767
0.08620815159726297 -0.03411211783930006 0.01775181693023503
0.08628844706796651 -0.03418435210678408 0.016264105185480326
0.08641409523979193 -0.03425169505971292 0.014816604233013175
0.08647035711635648 -0.034327393102842975 0.013290784534779998
0.08650502610426664 -0.034405960900783815 0.011735395479776756
0.08658815805392989 -0.034479270778860906 0.010223575367230786
0.08672984742338619 -0.03454610764255201 0.008766710056214433
0.0868932769357934 -0.034610727531570656 0.00732665895046164
0.08705504581653467 -0.03467585595030855 0.005878787083025083
0.08727887021336722 -0.03473401337711505 0.004491297623992363
0.08746548544177424 -0.03479683550651685 0.003058259305388944
0.0035936583466322225 -0.036315361980665574 0.05042177515418128
0.005695271682068126 -0.036188427531737635 0.05044484917625203
0.007788438809272991 -0.036061782045917694 0.050472234798200954
0.009871098713391757 -0.03593562579416754 0.05050240019334118
0.011937210053838965 -0.03581054481429436 0.05053087522542071
0.013985974033075388 -0.035686623035572206 0.050556940558485586
0.01602259901353198 -0.03556336297251091 0.050584295667832235
0.018051124667657292 -0.03544037648455806 0.05061585540462066
0.02006273440786127 -0.03531852319915226 0.05064500898061691
0.022055712094939117 -0.03519797756040079 0.0506703278593198
0.02403032786777215 -0.03507872138509919 0.05069185218870548
0.025983989792474183 -0.034961016590274244 0.05070745529238918
0.027918920774562317 -0.03484465483756791 0.050718636711477416
0.029830720369135255 -0.03473007732108611 0.050721855077272504
0.03172349384714346 -0.03461689080980558 0.05072004843157507
0.03359937097796495 -0.03450489382202033 0.05071469077249541
0.03546679703794131 -0.03439325819967154 0.05071220874170812
0.03731042372990212 -0.03428350830444527 0.05070053871076957
0.039159356089770225 -0.034172763751549914 0.05070235251143779
0.040985715431132996 -0.034063794642884136 0.05069571289789515
0.04280398955632625 -0.03395516642668159 0.0506919205877559
0.04460808205079031 -0.033847491045487746 0.05068605523149733
0.04639730266371861 -0.033740843824005974 0.05067743947729747
0.048171846627335146 -0.03363521178997859 0.05066609897644958
0.04992423678603308 -0.03353135420120624 0.050645825354970864
0.05165823250990814 -0.033428903308771275 0.05061946145134355
0.05339758863961147 -0.03332546660991608 0.05060633988796537
0.05512621403849388 -0.03322266805028832 0.05059329927631062
0.056844207703946936 -0.033120501742673024 0.05058033886955171
0.05855330217263621 -0.033018795515331344 0.050568822412188075
0.06024706852331918 -0.03291820803752467 0.05055329533931069
0.06192733069826206 -0.0328185602372143 0.05053514986996088
0.06359186911609543 -0.03272008565898505 0.05051238056323942
0.0652519844500965 -0.032621631940970085 0.0504944670872608
0.0668990016453696 -0.032524091747410555 0.05047397211116167
0.06852997453433846 -0.0324277749168696 0.05044823684363431
0.07015826173153888 -0.03233130909860956 0.05042866909036081
0.07176923526081597 -0.03223620830789511 0.050402552808811396
0.07336772207610948 -0.03214198061694594 0.05037393134705115
0.07495237174068126 -0.03204877235125898 0.05034150027466949
0.07652785735485446 -0.031956103110232816 0.050309256751571885
0.07809796454270507 -0.03186358092919685 0.050280494542629506
0.07966856525327864 -0.03177059182189467 0.05026044220188258
0.08124023647593864 -0.031677072073218245 0.050249680875948555
0.08278821294209676 -0.0315856234840309 0.05022591431520401
0.08403416298979188 -0.03152560766813415 0.04993615971108578
0.08521676372547776 -0.03147201480331599 0.04959399995655134
0.08568762101141941 -0.03149356627721747 0.048603693961444705
0.08546155780678666 -0.03158920125151323 0.04696870116493562
0.08529241531380671 -0.031679215774740636 0.04537779443195944
0.0851071422009394 -0.03177136192880197 0.04376366369600998
0.0848758507371517 -0.03186884905754899 0.04209801925662782
0.08470134052605771 -0.03196070047410112 0.0404769309803118
0.08442067128131975 -0.03206437410125542 0.03874693931361767
0.084334634050718 -0.03214757775616898 0.03719261820587533
0.08449480184602526 -0.03220460588973229 0.03586612144040857
0.08477079316786051 -0.03224937448321972 0.034645719028921496
0.08503507164934365 -0.032295620425210086 0.03340985660645773
0.085253820822914 -0.032347027565158136 0.03212547760314238
0.0855078310068566 -0.032394835177570996 0.030870754506159226
0.08557853772715857 -0.032462872040676154 0.029431653561964588
0.08564363754353521 -0.0325318412208401 0.027980669190225627
0.08564318539672033 -0.032608322408478906 0.02645821801869197
0.08566201047746985 -0.03268304504631489 0.024947811608622916
0.085692068436238 -0.03275688292754686 0.023441636767873975
0.08578256876529317 -0.03282439553104898 0.021989386440439962
0.08584286689129811 -0.03289557153978805 0.020500179341805647
0.08594377590012908 -0.03296257995808131 0.019045564406483362
0.08596574860302458 -0.03303868705648147 0.01750383767907454
0.08604034489924528 -0.033109290964196056 0.016008983084181472
0.0861543386049145 -0.03317583021364229 0.014548117098215407
0.08619049807424983 -0.03325140795172154 0.01300002453350918
0.08624719671857983 -0.03332504300872356 0.011466139454518798
0.08631775571228995 -0.03339747310678891 0.009939730919958978
0.08645602146818382 -0.033462613825232794 0.008477787948892923
0.08664941151443323 -0.03352183533299675 0.007068021211523223
0.08682906907886057 -0.03358290159288153 0.005637885173044477
0.08703217501219929 -0.033641600185672346 0.004226952436627629
0.08723675269436582 -0.033700417685151925 0.00281189791819092
0.0036104776049167286 -0.03510329379157025 0.050433786766495514
0.005706730841053054 -0.034981084230362496 0.05045307770943591
0.007784309289208757 -0.03486010628235286 0.05046925325397039
0.009862914156380742 -0.03473853352630955 0.0504964585623775
0.011928085256421195 -0.03461771119867164 0.05052421483920594
0.013976931016392857 -0.034497914264822634 0.05055030385970144
0.01601164534007804 -0.03437894360241742 0.05057621293719422
0.018035334698743133 -0.03426051277125019 0.05060414057110707
0.020044151133924937 -0.034142987100282254 0.05063114682934644
0.02203632451302595 -0.03402653911565951 0.050655787247559925
0.024013033386980576 -0.033911064263471694 0.05067881108650085
0.025967799559642457 -0.03379718186596542 0.05069518076581653
0.027907592293565042 -0.033684240901038554 0.05071000165046935
0.029824169366230058 -0.03357303077873931 0.05071683464835386
0.031727204973594936 -0.033462640945765294 0.050722907834450603
0.033603050345141494 -0.03335437947459493 0.050717540980776465
0.03545767704523628 -0.03324768866938362 0.05070510594847527
0.037308615234454945 -0.033140898060813814 0.050699122653899864
0.03916563148677349 -0.03303306877162113 0.050707292551764094
0.040983048720901194 -0.03292859154939593 0.050693602382209546
0.042809277583235716 -0.03282281737136788 0.05069612811925345
0.044614199225449735 -0.03271864991089525 0.0506909485455877
0.04640596782658424 -0.03261530944780431 0.05068440806872948
0.04818215757390243 -0.03251303686867389 0.05067443541347477
0.0499284974104926 -0.03241322779469689 0.050649288466668274
0.051666683392535995 -0.032313782401978734 0.05062636709708862
0.05340513111977918 -0.03221388058711971 0.05061253605473509
0.05513286275052537 -0.03211459458456013 0.0505987902693017
0.05685162541532057 -0.03201575692148869 0.050586497519591156
0.05855984102106088 -0.03191752576837634 0.05057428020337246
0.060250311005633383 -0.03182061477468591 0.05055601610515176
0.061932958373844105 -0.03172405220736592 0.05053989707948281
0.06359904555629742 -0.03162870553887549 0.050518466285639385
0.06526226541574404 -0.03153322396778738 0.050503231617776534
0.0669076300024683 -0.031439097224737214 0.05048136667456177
0.0685400889822737 -0.031345840934027994 0.05045695077861745
0.07016366373766952 -0.03125305916099141 0.05043334765866514
0.0717776554940468 -0.03116082502374465 0.050409883853888005
0.0733791117429084 -0.031069438429433452 0.05038389996120746
0.07495839772213136 -0.030979873947762686 0.05034680217698623
0.07653831840354691 -0.03088984532689398 0.05031850921800152
0.07810982428769786 -0.030800263570718637 0.05029103924292788
0.0796825351708525 -0.030710157777823547 0.05027292832446806
0.08124898818150667 -0.030620281654008322 0.050257544081141414
0.08279472424849027 -0.03053210719035361 0.050231795252297984
0.08400107968393372 -0.030478126139016397 0.04990612266931521
0.08509873194916567 -0.0304350054295491 0.04948627521637883
0.08539871529063331 -0.03047336149139972 0.048338636925163936
0.08515933806126802 -0.030567242228234617 0.046689979211047505
0.08502232593420417 -0.030651022179128917 0.04512740298452539
0.08484116193866814 -0.03073973666074794 0.04351579392730193
0.08459141654498092 -0.03083594380576185 0.041831568669707664
0.0844057150628485 -0.030925959987077704 0.040198552258749576
0.08413258966539416 -0.031025465198529868 0.03847425027335988
0.08407434386776735 -0.031103072888255975 0.036944952129535635
0.08427826847667086 -0.03115369961970716 0.035659017266499116
0.08456444709062338 -0.031195963425769413 0.03444733156051405
0.0848293478058958 -0.031240652731626857 0.03321103874515707
0.08503246654841062 -0.031292037824835334 0.031910442079040036
0.08525982555298545 -0.03134111126109629 0.030628576960937903
0.08533523530379167 -0.031406445094415 0.029192834899665232
0.08538804201536043 -0.03147447544967029 0.027728481933481874
0.08538105920631628 -0.031549162999896 0.02619824560494277
0.0853881576568451 -0.03162270623378308 0.02467480071943906
0.08543697822955226 -0.031692153358554506 0.023186012898994246
0.08553299525245056 -0.03175689091561344 0.021737995296572332
0.08558682565719417 -0.0318264496430295 0.02024093798483373
0.08570151849390056 -0.03188981116452411 0.01879900964854958
0.08569894764172192 -0.031966082028422126 0.01723089920815918
0.08577153734126769 -0.032034617242354395 0.015732569744508818
0.08587530748693406 -0.03210011231041988 0.014259707659044163
0.08590633806112502 -0.03217379853265929 0.012704796031491439
0.08598589510716198 -0.03224257189737648 0.011193257319317473
0.0860491317413214 -0.032313452806722716 0.009657753248829726
0.08615969004223129 -0.03237951495065764 0.00816511963376354
0.08636110283257248 -0.03243596355740308 0.0067622480306561705
0.08655713696311912 -0.0324932759444592 0.0053479926525069055
0.08678582886672792 -0.03254727938686563 0.0039629812784012786
0.08698786073632209 -0.032604482765864896 0.0025438236317548713
0.003567375270523254 -0.033896685714738445 0.05040300487814964
0.005693188124106685 -0.03377605220290928 0.05044335302580599
0.007778114838620009 -0.033658589280825275 0.05046478081452771
0.009837335101225697 -0.03354295218040425 0.050477889285393374
0.01189563789735304 -0.033426919513551666 0.05050053081279415
0.013945779454967722 -0.03331114261102743 0.05052744162942002
0.01597678839203215 -0.03319661534841553 0.05055049194750938
0.017995853798264794 -0.033082693971490676 0.05057484905200499
0.02000306556457354 -0.032969374106047264 0.05060049914157433
0.021996573458497926 -0.03285682791132781 0.050625974109772764
0.02397459524083495 -0.03274522278734374 0.05064982636018944
0.02592969910143139 -0.0326352438620848 0.05066629513510307
0.027872658259757488 -0.03252591474118453 0.05068337341026147
0.029799834941755976 -0.032417573394622035 0.05069818571015067
0.031707720685330065 -0.03231054875377375 0.05070789529563757
0.03359661140189779 -0.03220482190363237 0.05071255307702183
0.035460413093374055 -0.03210096394367088 0.05070723682563999
0.03730138106328984 -0.031998778043481835 0.05069345827813859
0.039142321714889905 -0.03189615950406557 0.05068894292176579
0.0409803819690851 -0.0317933707543978 0.05069149183361282
0.04281015890510348 -0.03169091398715202 0.05069682936181169
0.04461594694904458 -0.03159025745346035 0.05069234660285582
0.046409433766838815 -0.03149031936407533 0.05068719540486344
0.04818473521134642 -0.03139165600785393 0.050676519442529266
0.04993275792595986 -0.03129512999151763 0.05065275148977488
0.051669218573281994 -0.031199275337733996 0.05062843872213685
0.053410159248135525 -0.031102582658477047 0.050616666675054045
0.05513701805862947 -0.031006801820307635 0.05060222202684622
0.056854097910810086 -0.03091153098072615 0.05058855034069415
0.05856147569199022 -0.03081676617308665 0.05057564461679942
0.06025355342280103 -0.03072304356367493 0.05055873681632839
0.061937781938765146 -0.030629659231517403 0.05054396598377364
0.06360382967062184 -0.03053760314091428 0.050522523281989806
0.06526701025243664 -0.03044541679510401 0.05050727659442661
0.06691547355474786 -0.03035423724461737 0.05048808865465021
0.06854942481832466 -0.0302640514105313 0.05046499391343634
0.07016906555725716 -0.030174846457526185 0.05043802606540837
0.07178301358707562 -0.030085795878409673 0.05041454885786617
0.0733836673750129 -0.02999763713609687 0.05038788720152704
0.07497044897786598 -0.029910432309946923 0.05035740535942679
0.07654803159508383 -0.02982373303285603 0.050327100228450106
0.07811797732723363 -0.02973739034847982 0.05029828824857496
0.07969356314430198 -0.029650108845279483 0.05028278497735322
0.08125773937948882 -0.029563552527061873 0.05026540683028019
0.08277518948177964 -0.02948119402265008 0.050214151675536445
0.08395359954182174 -0.029431828870101907 0.049863014431643704
0.08494335976922757 -0.02940084753488598 0.049344470795257445
0.0851092475922311 -0.029451172209548022 0.04807306430158026
0.0849004205296986 -0.029538853763382878 0.046451192694398624
0.08473585680170564 -0.029622539361197603 0.04486182637859942
0.08454499019602962 -0.029709225488065143 0.043239788404490664
0.08431953674839271 -0.029799759200871512 0.04157687871552257
0.0840963569550578 -0.029890481206054198 0.039907242052866776
0.08384761805941066 -0.02998418228622547 0.03820450507116535
0.08384594191807804 -0.03005349705601756 0.03672762770313348
0.08406656994474543 -0.030100749265337116 0.03545653739144344
0.08436002283790833 -0.03014087096392677 0.03425079179334106
0.0846211309408727 -0.0301844508041264 0.033009811550988366
0.08481225699895151 -0.030235328951745057 0.031696518602809365
0.08504017630823768 -0.030282705347662794 0.030414089279024448
0.08507823027639949 -0.03034964368329274 0.028940566155290948
0.08512460032973768 -0.030416046725044315 0.027468553144885444
0.08510584865161519 -0.03048942649011341 0.025925296335414905
0.08513612435526807 -0.030558122481933344 0.024423542267506593
0.08517697615705261 -0.03062605530041788 0.022925466888417678
0.08526657013320615 -0.030689285800668445 0.021469629816922353
0.0853527933968326 -0.03075316447104356 0.02000398068003212
0.08532913875590786 -0.03082872568689633 0.018420024346966546
0.08543993286181495 -0.030890690507410876 0.01696592603254876
0.0855180528122631 -0.03095635122217285 0.015471912991608494
0.08562893373964897 -0.031018909321966406 0.014005053214782626
0.08561936572616052 -0.031094361022977173 0.012406645663181448
0.0857105026439085 -0.031159621457274023 0.01090565984533648
0.08577850342860432 -0.031227627297872044 0.009373671597119881
0.08590988806065208 -0.031289286924717975 0.007901545952891664
0.08613309418741139 -0.0313415521349371 0.006520427603168122
0.08631516923323707 -0.03139842389927606 0.005090043587119786
0.08654212120578281 -0.0314508120838076 0.0037018373769806545
0.007407107630578058 -0.03248858683572389 0.050196910848179455
0.009714506806034806 -0.03235563547835152 0.05038872130709754
0.011828697295649726 -0.03223891488736667 0.050451669425479684
0.013874412510485656 -0.03212767015392452 0.05047506520125439
0.015917018217179613 -0.032016234661267816 0.05050638745365588
0.017936616429856056 -0.031906346186299915 0.05053089988956755
0.019941419768218227 -0.03179729517392411 0.05055451459885085
0.021933535549323868 -0.0316889019364878 0.050578695920694805
0.02391211569519608 -0.03158124518803613 0.05060271294000673
0.02587158024491637 -0.031474821312588074 0.050622232677442314
0.027814104738243917 -0.03136944595819418 0.05063874136907004
0.02974928349816397 -0.03126427666489336 0.05065944508784276
0.03166224893957986 -0.031160633281272273 0.050672859561271044
0.03356165299711583 -0.031057756565870627 0.05068547267704515
0.035436699245501135 -0.030956612945085487 0.050688768109310445
0.037294146589361754 -0.03085661022667379 0.05068779366531312
0.039131562292723965 -0.03075797328536196 0.050680473022672534
0.04097682623529386 -0.030658211934978873 0.05068867771760932
0.04280310820264749 -0.030559728950434954 0.05069121931988657
0.044610703724241085 -0.030462505947955593 0.05068815238784008
0.0464059678266438 -0.030365977761743466 0.05068440806877739
0.04818129835266305 -0.030270836140660486 0.05067374073004238
0.04992679317384169 -0.030177987175868202 0.05064790323266394
0.05167090867223317 -0.03008486205262817 0.05062981978789588
0.05340932123741282 -0.029991852386508623 0.05061597824709968
0.055137018058640186 -0.029899416041009957 0.05060222202685505
0.056852449584660736 -0.029807698367105746 0.05058718179676014
0.05856065835858981 -0.029716242237753893 0.05057496241180892
0.06025436401691431 -0.02962571760626826 0.05055941698558164
0.06193617409989011 -0.029535890731411118 0.05054260969592328
0.06360781632309054 -0.029446606930400798 0.05052590401945112
0.06526938261763965 -0.02935786129311942 0.050509299037447
0.0669186108666665 -0.02926986684111328 0.050490777353277616
0.06855409252848521 -0.029182759266342197 0.050469015301763176
0.07017215222755058 -0.029096886291363935 0.050440699368150266
0.07178760609141333 -0.029010875090854944 0.05041854730486767
0.07338822287306912 -0.02892586738010402 0.05039187432452319
0.07497572110574952 -0.02884170896697511 0.05036204399087146
0.07655400863770412 -0.028758038842868573 0.0503323867334477
0.07812687105493604 -0.028674504264432823 0.0503061958126258
0.07970164981521832 -0.02859041415245381 0.050290012733983536
0.0812657608651095 -0.02850695357507679 0.05027261394972643
0.08275999401672596 -0.02842973298858472 0.050200427306155704
0.08388738993757511 -0.02838697521254081 0.049802901314263626
0.08476917910790016 -0.02836738390225696 0.0491855003292454
0.08480556228380065 -0.028428294238617695 0.047794447707919296
0.08460715722783418 -0.028511914392538362 0.04618073081455332
0.08444521798107685 -0.028592423772143508 0.04459238418474171
0.08424314534651589 -0.028677153130401818 0.04295849605446517
0.08403768458245386 -0.028762596532953 0.04131284690392506
0.08379440778034458 -0.028852078497341543 0.039622908544105606
0.08357826447708139 -0.028939349940375524 0.03794954340129486
0.08362455148229936 -0.029001603191380274 0.03651697473133536
0.08385457116875955 -0.02904630555108497 0.03525377034680144
0.08414942342828152 -0.029084905838474964 0.03404831504028916
0.08439197749853994 -0.029128786632221366 0.03278835060338642
0.08458876923087039 -0.029177345805109157 0.031479410487560144
0.08478917367146094 -0.029225777522178874 0.030168984982042957
0.0848185597764724 -0.02929123412880207 0.02868568105972541
0.0848562399742987 -0.029356180985384398 0.027203771275107813
0.08483756718275809 -0.029426994335531503 0.025659219218452822
0.08486950148549899 -0.029493135181289338 0.024157739101461573
0.08491502545457957 -0.029558240825172985 0.022662968171230813
0.08500715015808197 -0.02961902302584649 0.02120832049949606
0.08510565095137279 -0.029679458336649773 0.019753749332918846
0.08511517996696971 -0.02974906574360577 0.018202270189371483
0.08518423001878878 -0.029813046955359197 0.016704340981867072
0.08527770889038316 -0.0298748827121501 0.01522476865304645
0.08539423562194559 -0.029934696496026432 0.013762466821582886
0.08534849997884036 -0.030011156533853167 0.012125229259973003
0.08543763374557856 -0.03007435438297851 0.010620697777164456
0.08552182334749375 -0.030138357939330323 0.009104231564512733
0.08566271007415471 -0.03019691336213613 0.007640740929169443
0.08580566991150756 -0.03025554156330284 0.006173169373932641
0.08606899230293968 -0.03030217239414385 0.004827607314642324
0.08629572180438672 -0.030352773504805673 0.0034378091525959498
0.013475859083938446 -0.030971158644467464 0.05018256557040679
0.015743574577046948 -0.030845014439693303 0.050378403154144824
0.01784377255378078 -0.030732443153632306 0.05046201751513785
0.019851359714993022 -0.03062721259064065 0.050487334505315395
0.021844275023839288 -0.030522782218403478 0.05051175087038545
0.02382076031144431 -0.030419305955042285 0.050533825361893936
0.025786749935280184 -0.030316286194948264 0.05055791909402335
0.027739468238804577 -0.030213961864892704 0.050581850182489785
0.02967904915111269 -0.03011232594686123 0.05060562026863252
0.03160098267346617 -0.0300117679602185 0.050625654234319695
0.03350920227259874 -0.02991195811382258 0.050644841915777616
0.0353892618405211 -0.02981414011199833 0.050651823114947536
0.0372606832084606 -0.029716648837948677 0.050661591746760104
0.03911093818481903 -0.02962056541324553 0.050664237567817294
0.040948377703052985 -0.029525178062141305 0.05066616268286328
0.04277842844237295 -0.029430021859395396 0.050671582341768884
0.044595847038198466 -0.02933555279760513 0.05067626807274417
0.04639123678441187 -0.029242591580643615 0.05067256124993813
0.048167550212290466 -0.02915089091057031 0.05066262530958304
0.04991827172879282 -0.0290610273845788 0.050640976849851305
0.05166837351738518 -0.028970829555425494 0.05062774818401028
0.05340596915186685 -0.02888133675226639 0.05061322450024086
0.05513286275055734 -0.028792395144775242 0.05059879026932812
0.05684832869638645 -0.028704072186588794 0.050583760376398224
0.05854839786337518 -0.028616721978447415 0.050564728924449576
0.060249500391162614 -0.028528898687120677 0.0505553359188165
0.06193295837383361 -0.028442253703156586 0.05053989707947398
0.06360861364163689 -0.028355921077004766 0.05052658015681183
0.06527017339816205 -0.028270462741177477 0.05050997317840389
0.06692096380973656 -0.028185587895558518 0.050492793842223216
0.068557204258273 -0.02810163825604182 0.050471696160988455
0.07017523883693633 -0.028018947395722825 0.0504433726181413
0.07179066768567172 -0.027936123427140237 0.050421212870642274
0.07339201901905396 -0.02785419745898502 0.05039519683740018
0.07497948680088984 -0.027773158008370942 0.05036535720183205
0.07655998544719445 -0.027692386219679337 0.050337673032249286
0.0781335410102249 -0.02761188153138191 0.05031212618293035
0.07971120623406353 -0.027530642516743222 0.050298554131350315
0.08127305275470736 -0.027450477127916546 0.05027916554400785
0.08268761355374976 -0.027383379293211968 0.05013505410393232
0.0837988247646207 -0.027343699042641716 0.049722491097374866
0.08452297242026341 -0.027339289913330806 0.04896079345552801
0.08449261537723235 -0.027404122039206186 0.04750733404557117
0.08430319854731544 -0.027483883525851252 0.04590040512904908
0.08413878438028338 -0.027561703059776954 0.04430829914238271
0.08392176554660719 -0.02764474028505175 0.04265899888128938
0.08374361371237354 -0.02772455730326095 0.041037368926643114
0.08349844781679144 -0.02781096305881318 0.03934421483689543
0.0833260864574345 -0.027890990918965845 0.037710839581439226
0.08340283314604585 -0.02794815137100069 0.03630600976227677
0.08365259859911 -0.027989399772109895 0.03506059290577074
0.08393409921159978 -0.02802786536476009 0.033841295712341235
0.08415139351179524 -0.028072540417811077 0.03255584282545404
0.08436642471449152 -0.028117636503656396 0.031263412988898454
0.0844770463554343 -0.02817279581885266 0.02986419238167093
0.08454656795688048 -0.028232100663666933 0.02841870171109251
0.08456881118639742 -0.02829616595215477 0.026920175243332067
0.08457401820712596 -0.0283621512619847 0.025397835709881578
0.08459343952494175 -0.02842709336378966 0.023882525864111548
0.08465111703456829 -0.028488689332437405 0.022398507640857213
0.08473453460111391 -0.028548113293168535 0.020933719497483738
0.08482355769464467 -0.028607281370376107 0.019468130342982504
0.08484447622773428 -0.02867327982667969 0.01792676449508529
0.0849235632429341 -0.02873398592590552 0.016437677807668416
0.08500147498172395 -0.02879509560201701 0.014940718837640254
0.08507971882265736 -0.028856465760712335 0.013437379016505269
0.08511582797637385 -0.028922221162895525 0.011883494309322118
0.08516046317085924 -0.028987463234087258 0.010331243388291833
0.08519920661015878 -0.029053594762644845 0.008765577065686592
0.08539682058515868 -0.029104510248796137 0.007360192829123202
0.08557604287737375 -0.029157475382254164 0.005929632522433725
0.08581629394414686 -0.029204700913636614 0.0045582188903791065
0.08604279437150114 -0.029253510944180175 0.003166785843997877
0.015794188398403075 -0.029716279504326964 0.04894139785572865
0.0193729018611265 -0.029488040651335756 0.050130429948584465
0.021635504886700574 -0.029365793433883125 0.050355174071649744
0.023684121358334198 -0.029260458990847248 0.05043079118734328
0.025679939904526716 -0.029158990844375066 0.05047694171869249
0.027641164756274927 -0.029059924799388282 0.05050691899187798
0.029588171302421362 -0.028961606409048015 0.05053597508815616
0.031514616661325434 -0.028864561264018904 0.05055910968869609
0.03342911554115224 -0.028768088540006755 0.05058280302315876
0.03532903417667105 -0.028672409070730154 0.05060491686654789
0.03720549970495024 -0.02857826116526181 0.05061838291293913
0.0390643006468247 -0.028485175225767836 0.05062752414262789
0.040911031822158384 -0.028392693721927393 0.05063660601544573
0.042741402087626446 -0.028301177426032286 0.05064212153218872
0.044561759123091293 -0.028210103475117133 0.05064900011251833
0.046366971080465 -0.0281199033685457 0.050653046581923544
0.048146925884783975 -0.02803142920062716 0.05064595046733428
0.0498995230148469 -0.027944868346985664 0.050625737560119344
0.05165231663568787 -0.02785791676525683 0.050614627289820247
0.05339423631548229 -0.027771504611767712 0.05060358594510983
0.05512122732758229 -0.027685977756301133 0.050589180885480256
0.056834316897327763 -0.027601255055747124 0.050572126900454095
0.05853613644154576 -0.027517118620407958 0.05055449466367112
0.06024544725773284 -0.02743197781851395 0.05055193493589161
0.06192893862568544 -0.027348663244748328 0.050536506232505884
0.06360303232816505 -0.027265785151661986 0.0505218471243527
0.06526621945613009 -0.027183475504026056 0.050506602440013704
0.0669162578885295 -0.027101930293526855 0.05048876083427939
0.06856031592648093 -0.02702053864137969 0.05047437696716062
0.07017755375400397 -0.026941096220191037 0.05044537752101591
0.07179296384183154 -0.026861458965687892 0.050423212010553164
0.07339581507195853 -0.026782553815120017 0.05039851926881017
0.07498400551353818 -0.02670456788544976 0.05036933294806645
0.07656670907922847 -0.02662671025213738 0.05034361987195046
0.07814095172940289 -0.026549240758065737 0.05031871517896486
0.07972002700931274 -0.02647100180874255 0.05030643802046264
0.0812796151540352 -0.02639411551799881 0.050285061708140844
0.08260215971181673 -0.02633766408941774 0.05005787317609972
0.0837066036799668 -0.02630012154846006 0.04963876159997349
0.0841986236355014 -0.02631634301949594 0.04866476818457588
0.08412343073679207 -0.026382703924682976 0.047168624980312046
0.08397399512646736 -0.026455934760710013 0.04559679749901824
0.08382881445672946 -0.026529122220787377 0.04402093568538967
0.08361063503431548 -0.02660913165273993 0.042369053125686285
0.08344457256610394 -0.026684865252742523 0.040757234923312846
0.0832099838663738 -0.02676706452965308 0.03907257982662832
0.08307716865380654 -0.026840534868865444 0.037475221780017554
0.08319185943532925 -0.0268921449575513 0.0361052683030651
0.0834503531358019 -0.026931065963138056 0.034867154454550686
0.08371772549942152 -0.026969367283789614 0.03363326736712752
0.08391190111166791 -0.027014457328325456 0.032324389990464
0.08413782580949292 -0.027056883147335016 0.03104133963858302
0.08422954363464413 -0.027111684513885424 0.029622505755748207
0.08428076774493842 -0.02717042506962077 0.028157799866480926
0.08427933797706066 -0.027234241068809478 0.026634562051721378
0.08429656596169577 -0.027296652042389395 0.025122663168620274
0.08431387308829352 -0.027359349719481493 0.023603818924810394
0.08436575053615741 -0.027419169550760326 0.022112544140649892
0.08445390961381238 -0.02747593362403786 0.02065105073286988
0.08456274721110613 -0.027531059488434862 0.01920406012827014
0.08457629607281014 -0.027595258160912777 0.017653827150426404
0.084674524958464 -0.027651914365801864 0.016182910627554947
0.08477769752870323 -0.027708381950297515 0.01471060970827548
0.08478804672243884 -0.027773764348828785 0.013135903727817921
0.08485544137657802 -0.02783413536322385 0.011612965233264327
0.08488506027312498 -0.027898331764083854 0.010043635017388308
0.08493618331338804 -0.02796082070479992 0.00848947848666276
0.08510295195276463 -0.028012737873464953 0.007050123082505411
0.08530017462229489 -0.02806203621072582 0.005637053355856847
0.08556546129650289 -0.028105143059413622 0.004290819402604951
0.08571893857022755 -0.028159049877051538 0.0028197595457095104
0.021502187164085418 -0.028260605958361006 0.04878547860618537
0.025009969915511188 -0.028045113729251826 0.049969008045438856
0.027391380660735543 -0.027917135939779604 0.05031652268858322
0.029459738386713064 -0.027813245419862423 0.0504375491931508
0.03141054961725931 -0.027718182606399 0.05047892659363212
0.03333425275538254 -0.0276248590254736 0.050509317914282426
0.035241393038860036 -0.027532450914797856 0.05053666057504658
0.037122238801178875 -0.027441736164980697 0.05055318939810244
0.03899252588404489 -0.02735147454277989 0.05057102250259449
0.04085054977058539 -0.027261804752714367 0.05058873867799768
0.04268672940450874 -0.027173495574339793 0.05059862004473209
