# .PCD v0.7 - Point Cloud Data file format
VERSION 0.7
FIELDS x y z
SIZE 4 4 4
TYPE F F F
COUNT 1 1 1
WIDTH 770
HEIGHT 1
VIEWPOINT 0 0 0 1 0 0 0
POINTS 770
DATA ascii
0.05994906480749829 0.0 0.01398975213803999
0.059429601884567806 0.0 0.011892414536154305
0.058867911661799 0.0 0.009741891656707191
0.05826938340421539 0.0 0.007542670752113068
0.056718208773267 0.0 0.004404439432799112
-0.04296492579339328 0.0012442299233350093 0.08576515418928696
-0.040990255151861665 0.0012407918165329036 0.0854657512915484
-0.03948355928825992 0.0012387127711243273 0.08491215856087353
-0.03862875311996122 0.0012385407095613775 0.08399622952549202
-0.038211163622016375 0.001239654689202147 0.08283307668227516
-0.037938670124501916 0.0012412007060990883 0.08158474435899846
-0.03772772876457536 0.001242934425049185 0.08029763420009811
-0.037373679965706175 0.001244251183745385 0.07908906642695396
-0.03703205287520733 0.0012456097969389037 0.07787029847972182
-0.036553164566483276 0.0012465657938328363 0.07672847112417888
-0.0361848590617157 0.0012478546211845236 0.07551959899818764
-0.03573557575523423 0.0012489068811443742 0.07435554615493384
-0.035214938424669606 0.0012497499677277982 0.0732314166380173
-0.03459079704928941 0.0012502864197662055 0.07216711864444725
-0.033931502672341074 0.0012507194934581298 0.07112268494455953
-0.03325863857386108 0.0012511134572438564 0.0700854436570848
-0.03260082733266001 0.001251554274405119 0.06903815155713916
-0.03189499355402842 0.001251851911976583 0.06801916361535704
-0.031109303992385484 0.0012519093041977018 0.0670485293307132
-0.03039699074320429 0.0012521891665180137 0.06603243835480133
-0.029464422689441938 0.00125180169823333 0.06515251984183928
-0.028652703089486642 0.001251780179281071 0.06419800553662314
-0.027828063362213162 0.0012517192128703443 0.06325165945301947
-0.026801565823270257 0.0012510418092880607 0.06243300688318154
-0.02584287455495432 0.0012505691367244826 0.06157285679452906
-0.02478222759005777 0.001249782142314305 0.060778975856457196
-0.02367757211440713 0.0012488569037917613 0.06001523436309436
-0.022494630884604683 0.0012476871373115653 0.05930427603486754
-0.021270072254082173 0.0012463844332935398 0.0586231366286617
-0.019937828121156576 0.0012447439154465228 0.058015471917690464
-0.01876112693749682 0.001243578298115244 0.057309471493520836
-0.01745907942966962 0.001242019294861176 0.05668909707017289
-0.01614895929676341 0.0012404289777089136 0.05607780892445002
-0.014863625483919174 0.0012389094725520058 0.05545375702561939
-0.013471390117761883 0.0012370503424895616 0.05490519602941968
-0.012030834522033795 0.0012350326796583173 0.05439375637256172
0.036217638974759714 0.0010863792166336433 0.08569873478392145
0.03765876547112368 0.0010840476229158837 0.0853741564052945
0.0382495036143366 0.0010843812482722183 0.0844708350639963
0.0322534937987114 0.0011054748729665514 0.07901531379542287
0.03175623382250786 0.001109289219032374 0.07732924280320308
0.031073506623677194 0.0011137059743333384 0.07550432501490115
0.03006103248115044 0.0011191863114092674 0.07343700278951393
0.02880328733278059 0.0011254683394303856 0.07118305466229996
0.027276070006327535 0.001132634032771261 0.06872235114632563
0.025058727045215945 0.0011420308620326515 0.06575123137306732
-0.014522389593445817 0.0012709149948153765 0.03592705629771714
-0.014521880897839679 0.0012735303910176128 0.034364017869739305
-0.01452137010420601 0.0012761565737835722 0.03279453307095742
-0.014519693635358322 0.0012787898670949091 0.03121941124980082
-0.014519176198711237 0.0012814378086287495 0.029636919892034652
-0.014518656614706638 0.0012840967389000446 0.028047861326513268
-0.014516964059132775 0.001286762936750211 0.026453063231681617
-0.014516437702167873 0.0012894440348960499 0.024850753552851712
-0.01451590914714912 0.0012921363290372958 0.023241752790384484
-0.014514200231997065 0.0012948360520441244 0.02162690734091771
0.026587692681311947 0.0011633967428482997 0.05116514896659652
0.028502302961523562 0.0011595803408128856 0.051163315991659686
0.030404392953309267 0.0011557888955297212 0.051161495003112345
0.03229408506806952 0.0011520221629955586 0.051159685883764905
0.03417058328252687 0.0011482829202692562 0.051157178288033234
0.036035848395897074 0.00114456487434239 0.05115539485656223
0.03788997455949855 0.0011408678491053596 0.051154328591692
0.039731267851846996 0.0011371975901809852 0.05115256580731303
0.041561637880946745 0.0011335479295836912 0.05115151546298924
0.043379418542558223 0.0011299245422574354 0.05114977294471568
0.04518648607178216 0.00112632134187374 0.0511487382025525
0.046981201639246295 0.0011227439339734017 0.05114701557887852
0.048765408826627665 0.0011191863122581198 0.051145996128727
0.05053749555021436 0.0011156540141112725 0.051144293037340194
0.05229927343784235 0.0011121411116811533 0.05114328857702327
0.05404915663505161 0.001108653075410331 0.05114160466451467
0.05577650877884405 0.0011052259900544647 0.051130360265640384
0.056279472744300396 0.001105928186653939 0.0501114604235845
0.05678390253798726 0.0011066284731640211 0.04909195475897432
0.05728814600096954 0.0011073324535748096 0.048070464426125614
0.05779303142012393 0.0011080373302283324 0.04704767362623208
0.058299384066765825 0.0011087402912024035 0.04602427867570463
0.05880555632138418 0.001109446961895824 0.04499888252947065
0.059131318674636224 0.0011107754592794257 0.04381701256000886
0.059443860386522274 0.0011121552667612653 0.04262024579156665
0.05975717954404908 0.00111353850650577 0.041420502073059584
0.060071279051667814 0.0011149251913354786 0.040217770282939325
0.060385337485479196 0.0011163181863492392 0.03901131775199784
0.06050711655086366 0.0011183841576053362 0.0376319802420198
0.060564018660951735 0.001120684835609973 0.0361897467534702
0.060621155365421675 0.0011229949987817938 0.034741567267324414
0.06067769788263094 0.0011253176042846993 0.03328666288352161
0.06070951848697825 0.0011277371563618954 0.03180330524663738
0.06071062820211953 0.001130275312611847 0.03028569353649474
0.06071174292376785 0.0011328249197021395 0.028761235151903763
0.060712025109227685 0.0011353890057955102 0.027229119219263243
0.06071314805107314 0.0011379617616536718 0.02569082201300532
0.060714276093626396 0.0011405462035599637 0.024145537507396397
0.06071540927172275 0.0011431424113166869 0.022593217987194658
0.060715702407658 0.0011457534700649748 0.021033027639073387
0.06069227496026136 0.0011484610051689759 0.019443471607478058
0.06062966201644632 0.0011513209089586492 0.017809590296538447
0.06056758828970338 0.0011541920427535694 0.016168357590255145
0.060504350064885526 0.001157080596576427 0.014518105990603103
0.06014505098264866 0.001161047121017496 0.012576708577641205
0.05958664052836571 0.0011657496760641612 0.010432899705993703
0.05902542423500434 0.001170484207781793 0.008273331906961168
0.05776406969369818 0.0011777760149592862 0.005420445343087665
0.0562023255318545 0.0011861921091447527 0.0022539024707529665
-0.040589648425151226 0.0024792390343640267 0.08568865598464762
-0.03897866159276686 0.002474464999431289 0.08519475598523793
-0.03791399291962455 0.0024728824030438366 0.08439865323348614
-0.03745121245880395 0.002474836432707041 0.08326346639047316
-0.037103209497718725 0.002477474710707312 0.08206068177716339
-0.036777102122948935 0.00248025237131003 0.08084235786897415
-0.036490793412609024 0.0024832761859716035 0.0795979382003788
-0.03616919640877014 0.00248610224338262 0.07837053346685255
-0.035825392292561764 0.002488807139387592 0.07715285411374154
-0.03536750905229752 0.0024908432272662817 0.07599899284787698
-0.034920799295745986 0.0024929537695209314 0.0748362081766708
-0.034413735598879114 0.0024947117276742595 0.07370681298540999
-0.03378092345730066 0.0024957234985635447 0.07265044199459328
-0.03307388636395303 0.0024962938718629444 0.07163745815273934
-0.032370086857212266 0.002496885909778591 0.07062186151800576
-0.031748935697037906 0.0024979779929979575 0.06955539833419871
-0.031118950036842896 0.0024990210027468827 0.06849306479798034
-0.030363069363911754 0.0024993069109139864 0.06750684088448644
-0.0294288616871361 0.002498513677077147 0.06663043371958849
-0.028781280514699026 0.0024994570389938733 0.0655768953725474
-0.027902745000717266 0.0024989995625526165 0.06466654532221361
-0.027004600219604102 0.0024984208089538053 0.06376905121832899
-0.02602852947332407 0.0024973640252785555 0.06292147565289635
-0.024988010995837306 0.0024959088420294377 0.06211609581119676
-0.023952189714000427 0.0024944767161934884 0.06130942664384198
-0.02287934072436104 0.0024928115341907022 0.06052824320761235
-0.021675243300494584 0.0024903321199032835 0.059833854316082846
-0.020495366981028607 0.00248799222051319 0.05912665805767231
-0.01928451837337286 0.00248545168220098 0.05844248110106842
-0.017873376324434864 0.002481661159907094 0.05789297263316767
-0.01657417915465048 0.0024785498779144916 0.05727398650447019
-0.015168816294207799 0.0024747663443549692 0.05672927787713905
-0.013792423973340184 0.0024711480784870756 0.05616972970639922
-0.01226377869109968 0.002466565248872161 0.05571684771107738
-0.010842886770104865 0.0024626377275973423 0.055196641250411294
0.036102911211817856 0.0021734772118788175 0.08562076358297122
0.03727530450480837 0.0021705025066165243 0.08511210109380851
0.03757389017950996 0.0021730123835409123 0.08400656297126186
0.031204873214412177 0.0022175593643176533 0.07829072499907819
0.030653139561112874 0.0022255455263885627 0.07656279730793036
0.029842837313599768 0.0022352006048832664 0.07464451606637884
0.028645824547065213 0.002247347441627961 0.07244281287521293
0.027206623909282357 0.00226108291313293 0.07005521439799384
0.02545927828066663 0.0022768367649934843 0.06743196070625757
0.021357698130508918 0.002307676921355209 0.06310811098479774
-0.013938109498119522 0.00253809420593062 0.03634661310458043
-0.013935245574007105 0.002543302215810019 0.03478757294103585
-0.013933527607321583 0.002548539075553824 0.03322128105212979
-0.01393180255114368 0.002553797546009589 0.03164852561736892
-0.013928907849379446 0.0025590702667238688 0.030070119716149313
-0.01392716607846256 0.00256437233076651 0.028484323003002132
-0.013924249752913731 0.0025696888539866957 0.026892807569129262
-0.013922491048490193 0.002575035055969017 0.02529380671926873
0.022698199640547423 0.002342355224150026 0.051152191043861706
0.024659480693391522 0.0023344829344580653 0.051166272114930134
0.026586743573096427 0.0023267996814454687 0.05116442940597421
0.028501362048238887 0.0023191668367922268 0.05116259878662416
0.0304034601482433 0.0023115839060409175 0.051160780138289896
0.03229316028568058 0.002304050401179875 0.051158973343931824
0.03417058328252376 0.0022965658405385333 0.05115717828803085
0.03603584839589419 0.002289129748684799 0.051155394856559955
0.03788997455949594 0.0022817356982107366 0.051154328591689946
0.0397312678518445 0.002274395180361987 0.05115256580731109
0.04156163788094447 0.0022670958591673976 0.05115151546298746
0.043379418542556225 0.002259849084514884 0.05114977294471407
0.04518648607178033 0.0022526426837474927 0.051148738202551
0.046981201639244685 0.0022454878679468143 0.05114701557887724
0.04876540882662622 0.0022383726245162492 0.051145996128725835
0.05053749555021314 0.002231308028222553 0.051144293037339195
0.052299273437841354 0.0022242822233623136 0.051143288577022494
0.05404915663505078 0.0022173061508206676 0.05114160466451395
0.055788925496210895 0.0022103681087039346 0.05114061489957711
0.056641326202755804 0.002209406838046268 0.0504118939001566
0.0571446014016066 0.0022108099030921768 0.049393019862526255
0.05764851620792705 0.0022122147512794537 0.04837285094799859
0.05815389481876182 0.002213615778338182 0.04735207890638099
0.058659091746382785 0.0022150241958830605 0.04632931585593325
0.059164931948446964 0.002216434406785948 0.0453052505067596
0.05954908667037878 0.0022186854695020286 0.04417504270360545
0.05986174303483127 0.0022214379657137387 0.04298026566128882
0.06017517612447887 0.002224197299889686 0.04178252046127129
0.0604893888373258 0.0022269634975426384 0.04058179602920903
0.060804384085805185 0.0022297365843124825 0.0393780812355925
0.06100416132131664 0.0022333211154189556 0.038069300343616164
0.06106199647041627 0.0022379082850368707 0.03663019236272408
0.061120069691615264 0.002242514337235924 0.035185160451451314
0.061178382457945546 0.0022471393888486694 0.033734167956545935
0.06122864384052301 0.002251841586187267 0.03226972737933309
0.06123091825445687 0.0022569015414274627 0.030755613531583126
0.06123320291281159 0.0022619842876200934 0.02923467984149314
0.061234663022422475 0.0022670958609671407 0.027706118169565697
0.061236966495652245 0.002272224680092469 0.026171400120256205
0.06123928041479154 0.002277376757545396 0.024629722384012398
0.06124160485106089 0.0022825522518943133 0.023081037511745284
0.06124393987632509 0.002287751323152358 0.021525297622053907
0.061241219299645044 0.0022930102349688914 0.019957708451856626
0.06118007790426033 0.0022987105527149916 0.01832789501059734
0.061118631761964526 0.0023044392825461316 0.016689958092628188
0.061057729793096094 0.0023101905297705162 0.015044646732394251
0.06085648917248637 0.002316977663075186 0.01325716637051294
0.06030304841519463 0.002326335094899138 0.011121676293938398
0.05974425510070297 0.0023357746593900067 0.008968032204991094
0.05880324770290424 0.0023480261988988596 0.006429959111667882
0.05725569375157058 0.0023647378228561617 0.0032825174696693438
-0.04031579543583347 0.0037164544155677 0.08584103264851298
-0.03854412575463201 0.003707875550762256 0.08543797101621767
-0.03736555000410974 0.0037044906816787555 0.08470743711873965
-0.0366216296300797 0.003704930469974031 0.08373329120141423
-0.03620700093235352 0.003708284669005567 0.08257122551443022
-0.0358402511547507 0.0037120759226389357 0.08137918786535828
-0.03548936118387597 0.003716022423166632 0.0801751364739424
-0.03526474783148181 0.003721107333280308 0.07889488118865656
-0.03490526346356537 0.0037250095526082413 0.07768940522625939
-0.03446307243919061 0.0037281881255972382 0.07652946491585425
-0.034058120905008926 0.003731712075723235 0.07534512904026686
-0.03351233554704147 0.003733987070693117 0.07424166168837157
-0.03295639829270658 0.0037361796409084817 0.07314250923665847
-0.03228727888454602 0.00373736214229372 0.07210960922052123
-0.031639024743330635 0.0037387373414288754 0.07106320304937752
-0.030876913417184793 0.003739089299208772 0.07008486792272078
-0.030133517917617925 0.0037396120253996032 0.06909483188494658
-0.029507628598842373 0.0037412024378361717 0.06803222307829027
-0.028711905106372337 0.003741255830940242 0.06707328450416422
-0.027804757186917606 0.003740294990142381 0.06618352254445647
-0.026937840056971918 0.0037396973827268838 0.06526937414988793
-0.026134228258045733 0.003739676043236974 0.06431591635699185
-0.025084943320595854 0.0037374047698537855 0.06351771199698963
-0.024077535438460806 0.0037355088254809724 0.06269467451093697
-0.023132466366221238 0.003734178553216937 0.06183328574450436
-0.02200005508720515 0.003731117209061912 0.06109334414744466
-0.020853416867328 0.003727912436351038 0.06036500884950963
-0.019645812281732178 0.003724131106364391 0.05967882803907215
-0.018356349459141996 0.0037195761796924897 0.059049140731430805
-0.01698500600244407 0.0037142428311058686 0.058476881095390176
-0.015626613856332072 0.0037090087169307237 0.057900295419654135
-0.014190108288013092 0.003703025477740719 0.05737979303474516
-0.012596426680687778 0.0036955500763340477 0.0569691137432673
-0.011131162898875502 0.003689246672771868 0.05647809383059421
0.03399450257401082 0.0032734385828027852 0.08550038298332063
0.03603127571253861 0.003260889021017538 0.08557207871571462
0.03681695355192799 0.0032600698587123404 0.08479886633909237
0.030573556831678117 0.0033255710488095842 0.07919603191059593
0.030108642395183904 0.0033367036161096285 0.07753323789486372
0.029388595078344404 0.003350298489384218 0.07568417391525295
0.02825383499437628 0.0033678856169505303 0.0735343572267104
0.026934178830535005 0.0033873032682037196 0.07124037409060363
0.025093105074702804 0.0034117703725313024 0.0685622813189698
0.022451924763040032 0.003443979823381923 0.0652959645024887
-0.013357286572401206 0.003793774828622482 0.038316117741483746
-0.013354394719471752 0.003801543055148177 0.03676576397178838
-0.013350339034082226 0.003809332088827139 0.035209879817480194
-0.013347421013579774 0.003817164222603659 0.03364676884342893
-0.013344490969193379 0.0038250286290722967 0.03207721699374971
-0.013340389758853655 0.0038329142996760437 0.03050203501974419
-0.013337433053461356 0.003840843806410019 0.028919487809538735
-0.013334464089045428 0.003848806190177357 0.027330379099413937
0.020766517357039882 0.0035250040143944067 0.051169994283881415
0.022719447736044562 0.0035133256452601377 0.05116812703364343
0.024659480693384417 0.003501724401687168 0.05116627211492475
0.026586743573089766 0.003490199522168268 0.051164429405969214
0.02850042112995721 0.0034787594879870567 0.05116188157777962
0.030402527338239782 0.0034673850315821418 0.05116006526968353
0.03216641898164879 0.0034573245074928744 0.0510613198540984
0.034170583282518596 0.003444848760807851 0.051157178288026794
0.0360358483958893 0.0034336946230272467 0.05115539485655618
0.037889974559491446 0.003422603547316149 0.05115432859168639
0.039731267851840446 0.0034115927705430206 0.05115256580730787
0.041561637880940694 0.003400643788751134 0.051151515462984465
0.04337941854255278 0.0033897736267723606 0.05114977294471129
0.04518648607177733 0.003378964025621269 0.051148738202548616
0.04698120163924202 0.0033682318019202483 0.05114701557887508
0.04876540882662389 0.0033575589367743973 0.051145996128724
0.05053749555021114 0.0033469620423338497 0.051144293037337585
0.052299273437839744 0.0033364233350434867 0.05114328857702116
0.054049156635049445 0.0033259592262310147 0.051141604664512896
0.05578892549620995 0.003315552163055911 0.05114061489957633
0.057001555661906234 0.0033104524444583536 0.050710979030469394
0.05750450354714426 0.003312552397393567 0.049693419968109054
0.05800808991749523 0.0033146550161886877 0.04867456912917478
0.05851313714740969 0.0033167519130091094 0.04765511673761058
0.05901800338439167 0.0033188598681042313 0.04663367798166285
0.059524331401141495 0.003320962090081386 0.045611638795416576
0.059966597545711875 0.003323732676031177 0.044532852493182395
0.06027936715430404 0.0033278507625876764 0.04334006279977687
0.060592093123208624 0.0033319875365310113 0.042143603845597066
0.0609064174076176 0.0033361261166775934 0.040944880419298946
0.061221523492103136 0.0033402749904675615 0.03974317547971573
0.06150049688937875 0.0033448182513345997 0.03850599646025166
0.06155926059541905 0.0033516777893879716 0.03707000674066285
0.0616182658214921 0.0033585655202775064 0.03562811507505942
0.061677514059642446 0.0033654816181707837 0.03418028500284359
0.06173700681422878 0.003372426258672968 0.032726479762472005
0.061749531262150326 0.00337989632951846 0.031224018839224987
0.06175297830693416 0.003387495866295711 0.029706595051283036
0.06175560872614455 0.0033951384487472635 0.028181572681315548
0.061759085077722986 0.003402806760194714 0.02665041868580842
0.06176257716837863 0.0034105097895863637 0.02511233245759581
0.06176608510524456 0.0034182477732330754 0.023567266811797327
0.061769608996423364 0.0034260209495952706 0.022015174134329962
0.061772307347642996 0.0034338385552011067 0.020455217984783503
0.061728617562060994 0.0034421890323178697 0.018844432953598056
0.06166864111451942 0.0034507528239420757 0.01721057972965684
0.06160836549297327 0.0034593593334057934 0.015568576531571343
0.061548639025547414 0.0034679997053137404 0.01391917575949142
0.06101543426901013 0.003481799746003262 0.0118065859755766
0.06046162400676053 0.003495887199432059 0.0096613196201763
0.05983580665124755 0.0035108224556693415 0.007433042766238018
0.05830054171874982 0.0035357299138496965 0.004302812434442027
-0.03819261668534246 0.004939711816147247 0.08563471494772829
-0.036784171002336497 0.004932490031149807 0.08503476465255211
-0.035815400349642645 0.004930416631357522 0.08418988999558044
-0.03527209518719476 0.004933353302305251 0.0831038139001829
-0.03489930574291933 0.004938316002949954 0.08191836404084177
-0.034672267469489204 0.004945023112849347 0.08064608704628456
-0.03432281423905842 0.004950303776559074 0.0794409605851864
-0.03403647458223785 0.004956354655705587 0.07819601867660406
-0.03361220261633324 0.004960786356584406 0.07702851887714857
-0.033102049305680115 0.004964210516023453 0.07590914546772637
-0.03263963313486434 0.004968218409760463 0.07475948255189693
-0.03218119488082127 0.004972289367092658 0.07360514181757394
-0.03130554010307729 0.0049713699919706625 0.07269888535390195
-0.030650218341226387 0.004973095868634268 0.07166014457246875
-0.029989738714789937 0.004974766299597296 0.07062353767402951
-0.029268941032866702 0.004975715264263958 0.06962279713313052
-0.028476388469588554 0.004975800263961953 0.06866557517415633
-0.027785568394982807 0.004977118128751732 0.06764546551264755
-0.02690754248887456 0.004976168629228574 0.06674088231189346
-0.026069448205673806 0.004975701098502623 0.0658119059765443
-0.02519199952993445 0.004974752139513746 0.06490792996359757
-0.02420246603853826 0.004972430840992916 0.06407533466544241
-0.023172269341120544 0.0049696029192402 0.06326994276198944
-0.02209834125352772 0.004966227768455111 0.06249416218894843
-0.02096048015342905 0.004962054014999853 0.0617614601125856
-0.01981081647478722 0.0049577184966653415 0.06103885177144719
-0.018634699394892706 0.004953039584887481 0.060336003126658266
-0.017234138897660345 0.004945568868882154 0.05978262774438614
-0.015986618302238742 0.004939963150209403 0.05913310183160558
-0.014498367028765335 0.004931348753489201 0.0586460287721598
-0.013080010163837308 0.004923568733452893 0.05811763890055577
-0.011663901271419863 0.004915785568825415 0.057592397701117515
-0.009998400832281651 0.004904858804157532 0.05723943826305805
0.034309760447134574 0.0043606424835236 0.08571345277409476
0.035583531827146686 0.0043534623305344945 0.08526778333361235
0.036105097306789014 0.0043556974807605845 0.0843123873322571
0.02941261551314056 0.0044487003306255685 0.07839824929154895
0.028801130171012657 0.004465421060001433 0.0766297569572362
0.027913623126390286 0.004485696351042603 0.07465934254064382
0.026531772978052703 0.0045123113177206586 0.07233123603125918
0.024750037080227938 0.004544106684578952 0.06970600472532545
0.022421780560689775 0.004582977818143316 0.06667532925280989
-0.012781669399845208 0.0050406837075293465 0.04027103047462921
-0.012776469236570165 0.0050509543826019266 0.03873091324229572
-0.012772394080175331 0.005061281655008888 0.03718368395874122
-0.012768302225326544 0.005071651244592618 0.03563011472665528
-0.012763042645116907 0.005082048633638998 0.034071002018648544
-0.01275891472828472 0.0050925035807530125 0.03250464170731909
-0.012754769792247156 0.005103001633022798 0.03093182338095174
-0.01274944971811709 0.00511352809558318 0.02935336151768203
0.018799577729058548 0.004715693098728502 0.05117114484532287
0.0207655431265239 0.0047000179924612025 0.05116926755882578
0.02271848196787668 0.004684446750001673 0.051167402711237375
0.024658523297219737 0.004668978342450826 0.05116555017933244
0.026585794459816015 0.004653611754454803 0.05116370984151203
0.028500421129948328 0.004638345983982858 0.051161881577772905
0.0304025273382314 0.004623180042109632 0.05116006526967709
0.03229223549840665 0.004608112952801448 0.05115826080033492
0.03417058328251127 0.0045931316810772305 0.05115717828802113
0.03603584839588253 0.004578259497369752 0.051155394856550906
0.03788997455948512 0.0045634713964216155 0.05115432859168151
0.03973126785183473 0.004548790360724104 0.051152565807303374
0.04156163788093553 0.004534191718334914 0.05115151546298041
0.043379418542548065 0.004519698169029877 0.05114977294470757
0.04518648607177306 0.004505285367495082 0.05114873820254523
0.04698120163923819 0.004490975735893715 0.051147015578872024
0.04876540882662067 0.004476745249032572 0.051145996128721394
0.05053749555020842 0.00446261605644517 0.051144293037335364
0.05229927343783741 0.00444856444672468 0.051143288577019275
0.05404915663504767 0.004434612301641377 0.0511416046645114
0.05578892549620851 0.004420736217407901 0.05114061489957511
0.05736099082089546 0.0044090702630203435 0.05100940468288223
0.05786361161139858 0.004411864027900303 0.0499931572765836
0.05836768986556268 0.0044146501838199835 0.048976309327067036
0.058871585846834606 0.004417451026746288 0.047957485105195985
0.059376121620361544 0.004420255425877782 0.04693736729128506
0.05988211623158196 0.004423052193813854 0.04591665061745526
0.060382214947316826 0.004425942171555651 0.04488903956230761
0.06069509595811451 0.004431418825991428 0.04369822706046883
0.06100875224528313 0.00443690905082739 0.04250446388816492
0.061323186693942044 0.00444241289656447 0.04130773906475682
0.06163594832234831 0.004447964375505243 0.04010589383684021
0.06194785622594701 0.004453552444677517 0.038899601306631615
0.06204597651653021 0.004462137506985758 0.0375004915661572
0.062105069853509665 0.004471304771165409 0.03606094079136235
0.062163583900775365 0.0044805212672704535 0.034614727624956376
0.062223163818055205 0.00448976430253389 0.03316328059487472
0.06225243645240075 0.004499474131198337 0.031678237026696976
0.06225617937746547 0.004509586750041792 0.0301634620777938
0.062260768715961645 0.004519733238826785 0.028642619954760695
0.06226454734324344 0.004529937231086842 0.02711415588590982
0.06226834307084256 0.004540187401761911 0.02557877471570441
0.06227299117607732 0.004550472216598888 0.024037203634103
0.06227682334276924 0.004560815635584935 0.022487852451286927
0.06228067297056206 0.004571206183769034 0.020931441738204437
0.06225678974207066 0.00458204059089685 0.019341791654163498
0.062199067239297634 0.0045934093497409885 0.017712664496255803
0.06214105758701499 0.004604834664242847 0.01607543299205283
0.06208275863717366 0.004616316957472123 0.014430036516263012
0.0617119073262028 0.004632358549042116 0.012476196604867651
0.061171533637488174 0.00465092433711721 0.010347398161839216
0.06062078093664247 0.004669726883076181 0.008195609277526161
0.05933870872337049 0.004699234452044546 0.0053165834333628315
0.05779303158343735 0.004732715988447926 0.0021581997396531993
-0.03780366220299236 0.0061689380388764955 0.0858524175355759
-0.036249302542356476 0.006157757032774126 0.08533590585886561
-0.03506994831731236 0.006152051773614291 0.08461206828571427
-0.03419915843491733 0.006150873889356287 0.08371503450276155
-0.033857973354827486 0.006157514040717262 0.08251506349583532
-0.033605396416566624 0.006165490730735315 0.08126100247659873
-0.033247467683193865 0.00617193580231786 0.08006438521194398
-0.032898200350485685 0.006178534156498575 0.07885977606160333
-0.03253053706085407 0.006184883964668375 0.07766293963782933
-0.03214564450537444 0.006191001195145816 0.07647335846082462
-0.03151774125868162 0.0061935111784974335 0.07542516080831171
-0.031153640923713755 0.0061999798037413265 0.07421837433425033
-0.030385919198619327 0.006200419738727745 0.07325087602696509
-0.029783305038776964 0.006203342490439642 0.07218349934247328
-0.02913094397559529 0.006205527549334096 0.07114497583873197
-0.028313313005527918 0.00620522789395431 0.07020636395931351
-0.02745145702710311 0.00620425861852803 0.06929505269234293
-0.02672251109106072 0.006205298398881056 0.06830209629576883
-0.025841153277742335 0.006204029561609363 0.06740333517185043
-0.025028513643714223 0.006203800521432509 0.06646223465994394
-0.024303843253169533 0.006204910644006792 0.06546596920072745
-0.02329957181867548 0.006201757525585716 0.06464585845619264
-0.02205954271789956 0.006194986525373733 0.0639770456793754
-0.021071759584092298 0.006192054089569092 0.06315021785890579
-0.019971879507682144 0.006187388991877144 0.062396815826841756
-0.018745165159551824 0.006180754234369933 0.0617275927321857
-0.017561836464385805 0.00617476194521319 0.06103331279356167
-0.01623198056883951 0.006166482746609692 0.06043764752796815
-0.014814844881398892 0.006156819886022096 0.059903285615663715
-0.013360873941362428 0.006146547310943307 0.05939787359263271
-0.011867377760721665 0.006135619571872728 0.05892363594343081
-0.010332863752813226 0.006124009497375134 0.058482040304310146
0.03187684647325223 0.0054778247788945696 0.0853843482440031
0.03411475096070782 0.005453851341678813 0.08558165390715386
0.03517887922531354 0.005448165865461437 0.08499277361910626
0.028609310234544383 0.005562262992129274 0.07918980383979615
0.028045456665011403 0.0055823753950439885 0.07745875687354481
0.027289570261094687 0.005605595317112793 0.07558528063078468
0.02604998222182081 0.005636547096253157 0.07336445848032164
0.0244393765342254 0.005673495027902738 0.07086938013583116
0.021832122464141568 0.005726394675968616 0.06765615663428876
-0.01227823358936797 0.006279988224588943 0.042164168945346525
-0.012204858274870833 0.0062916723015518546 0.04068071505810622
-0.012198492136615446 0.0063044732156140775 0.039143680365182176
-0.012192100040672449 0.006317326324852497 0.037600378479405394
-0.012186827033545455 0.006330250292454471 0.03604994414419349
-0.012181532407153417 0.006343227248088464 0.03449315305637929
-0.012175066148590041 0.006356239023966157 0.03293080536374854
0.014786030283111373 0.005934875970411697 0.051144104392002676
0.016820455004087964 0.005914341389343564 0.05117303469558748
0.01879957772904367 0.005894616373410868 0.05117114484531182
0.02076456889076639 0.005875038290580667 0.051168540829860276
0.022717516194528442 0.005855574132988142 0.05116667838494604
0.024657565895936595 0.005836238520065144 0.0511648282398805
0.026584845341485086 0.0058170301826057595 0.0511629902732208
0.02849948020666715 0.005797947868058197 0.05116116436511753
0.030402527338220686 0.005778975052637216 0.05116006526966893
0.032292235498396604 0.005760141191001975 0.05115826080032715
0.03417058328250194 0.005741414601346691 0.051157178288013916
0.036035848395873815 0.005722824371712333 0.05115539485654408
0.03788997455947707 0.0057043392455271525 0.05115432859167518
0.03973126785182729 0.005685987950905252 0.051152565807297545
0.04156163788092876 0.005667739647918755 0.05115151546297503
0.04337941854254196 0.005649622711287447 0.05114977294470269
0.04518648607176762 0.005631606709368943 0.051148738202540844
0.046981201639233416 0.005613719669867223 0.051147015578868193
0.04876540882661645 0.005595931561290787 0.05114599612871795
0.050537495550204814 0.005578270070556522 0.05114429303733242
0.05229927343783447 0.0055607055584059005 0.05114328857701683
0.054049156635045226 0.0055432653770517626 0.0511416046645094
0.05578892549620679 0.0055259202717599055 0.051140614899573666
0.05751866150821444 0.005508669484040252 0.05114031279399145
0.05822274726038523 0.005508738939579204 0.0502929176092512
0.05872567667433026 0.0055122278518910045 0.04927669594030448
0.05922924354403081 0.005515721186348389 0.048259186225130424
0.05972854832670821 0.005519302617563371 0.04723623010359901
0.060228501941182455 0.005522888702741967 0.04621194468088263
0.06072829031505772 0.005526493431863151 0.0451856286138152
0.061086112357409406 0.005532553816285051 0.04403510075863032
0.06139579377248444 0.00553947017906827 0.04283967273055389
0.06170625043533989 0.005546403856079327 0.041641252101558335
0.06201748526072465 0.005553354912415625 0.0404398276201714
0.06232950117801772 0.005560323413501304 0.03923538797844622
0.06249853548794898 0.005569807671005629 0.03790076565086836
0.06255765504207711 0.0055812486868692624 0.036463341953936745
0.0626170179726942 0.0055927368017639435 0.03502000083981077
0.06267744760030775 0.005604257929927585 0.03357144407431267
0.06272330567590773 0.005616086493973506 0.03210352069722583
0.06272809982116673 0.00562869014151444 0.03059192875342276
0.06273374263931203 0.005641335918555369 0.029074291785798456
0.06273858191553278 0.005654053278922911 0.02754905969634236
0.06274427387406029 0.00566681340681507 0.0260177015739107
0.06274915890328908 0.005679646025893346 0.02447864389589116
0.0627540661072889 0.005692536896358036 0.02293259993987473
0.06275983207888597 0.005705471514546442 0.02138030558494053
0.06275472566472862 0.005718659651858024 0.01981067807573439
0.0626974859096825 0.005732841504170131 0.018184452008406293
0.0626408044025965 0.005747078751914115 0.01655094202422308
0.06258384066282974 0.005761386890809668 0.014909298346870437
0.062354485835335316 0.005778868048883324 0.013093991357192247
0.06181947350274586 0.005801951549749253 0.010973587212670388
0.06127845395991238 0.005825251269405157 0.008834508452001566
0.06031576623004986 0.005856311924326943 0.0062706809534542884
0.058821116053036304 0.0058971942047111245 0.003167337891105515
-0.03759580106900423 0.007399069172522098 0.08596875995823866
-0.035790074360510626 0.007381214928308522 0.08559446013716304
-0.03442806757141231 0.007371128119550112 0.08497559015435391
-0.033365589752223146 0.0073663020330710805 0.08418989413586256
-0.03280661827254211 0.0073703820454791265 0.08311750610856719
-0.03244220784571916 0.007377932651263323 0.08193143270208836
-0.03211915504880836 0.007386247881549881 0.08071851655139117
-0.03178484252488806 0.007394394154505851 0.07950900404047936
-0.03140181108800355 0.007401701471246806 0.0783249623736636
-0.03080866239609109 0.007405276871899706 0.07726208586720787
-0.030392537707835787 0.0074120398393255444 0.07609280405784424
-0.029962795925115637 0.0074185842282187605 0.07492905708760905
-0.02937693797271479 0.0074223440813801795 0.07385650408880584
-0.02883482091002415 0.007426907229331757 0.07275609834591895
-0.02811021875762859 0.007428190968162106 0.07176473404174705
-0.02725629895140197 0.00742713869079653 0.07085184349648749
-0.026323768595395536 0.007424656497572615 0.06998764000682478
-0.025721685995579058 0.007428169920302065 0.06892028739778089
-0.02483575184807396 0.007426528507013442 0.0680279017424194
-0.023957125373202548 0.007425014000026283 0.0671315894386536
-0.023076557194584457 0.00742345806694984 0.066237087745729
-0.021938389729635466 0.007417177890538569 0.06550596670393227
-0.021151783050301964 0.007417324796817365 0.0645538985162254
-0.019980863353093403 0.00741040554853949 0.06384737491809578
-0.01882120523695202 0.007403666471905491 0.06313633332190022
-0.017599220149500272 0.007395750140090918 0.06246822830021109
-0.01642262285903251 0.007388641984352163 0.06177374723033119
-0.01512160114631933 0.00737919951825754 0.06116340160106837
-0.013678917516930567 0.007367088693904448 0.0606499084869645
-0.012120119183651135 0.007352768933242343 0.06021797091752473
-0.010527707735572323 0.007337765247180625 0.059814070733004654
-0.00894178184097838 0.007322822667944986 0.05941181554805719
0.0323666039664674 0.006564221546422162 0.08571352076108604
0.03389684873092508 0.006548708904706648 0.08543438277939741
0.03427345797302045 0.0065548166482556625 0.08437743186923768
0.02721687561363434 0.006700939536818529 0.07823822096602209
0.026498485817508466 0.006728043726953763 0.07639570016722919
0.02534751046697603 0.006763437693937636 0.07424333217991558
0.02376039005737013 0.006807239365166346 0.07177361745986727
0.021465574532860132 0.0068646558008854065 0.0687917289333756
-0.011942212642967187 0.007514233331245606 0.04392953490119733
-0.011735789931251905 0.0075256447537392634 0.042547336612205444
-0.011638805873848579 0.0075391934858959776 0.041082758174298295
-0.011621063340533977 0.007554314639277177 0.03955605591232586
-0.011613505105563748 0.007569693288452565 0.03801585291603826
-0.011607057882569993 0.007585156626757211 0.03646854178756859
-0.011600584264900127 0.007600683271270558 0.03491489603717163
0.012821196661087386 0.007145047620440918 0.051176116094169055
0.014827042246317368 0.00712105797494094 0.051174203202598856
0.01681946356744629 0.007097228881848608 0.0511723031131322
0.01879859493927738 0.007073558734776819 0.051170415697676774
0.020764568890748902 0.00705004594869714 0.05116854082984729
0.0227175161945119 0.007026688959586093 0.05116667838493366
0.024454481261784844 0.007007455087707752 0.0510116899351184
0.026584845341470265 0.006980436219127201 0.05116299027320953
0.02849948020665316 0.006957537441670111 0.05116116436510687
0.030402527338207586 0.006934770063164917 0.05116006526965888
0.032292235498384336 0.006912169429202612 0.05115826080031771
0.03417058328249051 0.0068896975216162564 0.051157178288005034
0.03603584839586316 0.006867389246055011 0.05115539485653581
0.0378899745594673 0.006845207094632777 0.05115432859166752
0.0397312678518183 0.006823185541086482 0.05115256580729044
0.04156163788092054 0.006801287577502669 0.05115151546296853
0.043379418542534576 0.006779547253545085 0.05114977294469686
0.04518648607176101 0.006757928051242864 0.05114873820253557
0.04698120163922753 0.006736463603840786 0.051147015578863475
0.048765408826611345 0.006715117873549046 0.051145996128713844
0.05053749555020037 0.006693924084667917 0.051144293037328814
0.05229927343783081 0.006672846670087154 0.051143288577013835
0.054049156635042395 0.0066519184524621725 0.05114160466450707
0.05578892549620462 0.0066311043261119305 0.05114061489957189
0.057517840702236256 0.006610420049970619 0.051139631309296885
0.05856311034649292 0.006603559482042364 0.05057700901651557
0.05906082822448394 0.006607837339356549 0.04955792149556598
0.05955919137456123 0.006612120742747808 0.04853751276688062
0.06005820105239135 0.006616409703008606 0.04751578025944819
0.06055704410761459 0.006620720952072435 0.046492027111086964
0.061055723996381595 0.0066250545662245 0.04546624160748025
0.06146560727798689 0.006631238519545106 0.04436204831775814
0.06177621067851724 0.006639501770971848 0.04316914412247025
0.06208677527546397 0.00664780250011526 0.04197255465330879
0.06239811738244899 0.006656124010442071 0.04077296947795772
0.06271023992291985 0.006664466380089781 0.039570377332525
0.06295063500441722 0.006674341730789607 0.038300633362219505
0.06300978191653683 0.006688049270201262 0.03686533562166944
0.0630699902386645 0.0067017960964259075 0.03542486129878075
0.06312962708682268 0.006715616754239735 0.03397771689266266
0.06319115247250612 0.006729459982626635 0.03252607454651041
0.06319863369832013 0.0067445054547721215 0.031019136535593517
0.06320449911080028 0.006759653214257419 0.029503939802291046
0.06321121744301544 0.006774851660042313 0.027982679950779243
0.06321713769574455 0.006790136192198069 0.02645379991049246
0.06322391493823143 0.00680547217878233 0.024918775421766792
0.06322989078585228 0.006820895344435805 0.02337602589943255
0.06323672773333905 0.006836370747350102 0.02182704908669364
0.06324275994432405 0.006851934441238336 0.02027024051449544
0.06319519634103737 0.006868720795794358 0.018655569123659954
0.0631389970071291 0.0068857704640028425 0.017024972224775836
0.06308336045122825 0.006902886808009421 0.015387065969644453
0.06299365443731625 0.006920819235146236 0.013708507719850493
0.06246226079424777 0.006948408900127486 0.011594796657457107
0.061927467914205836 0.006976200851487389 0.009464995738160065
0.06124222156218084 0.007007398903228273 0.007175365405309941
0.05976356169330832 0.007056061425439116 0.004092415430346441
-0.03542953690688705 0.008604004218235081 0.08579744964174038
-0.03385135536534878 0.008587768961573818 0.08530220456077536
-0.03258546283100483 0.008577917641103314 0.08463430956469631
-0.03195839938418954 0.008581239031403868 0.08360354856166194
-0.031470462946135425 0.008587455491435301 0.08249152000734072
-0.030892264119130264 0.008591822029943607 0.08142979796642474
-0.030622737489059637 0.008602624739723633 0.08018665778872291
-0.030363010370263344 0.008613672980624612 0.07893424195939702
-0.029824360882078016 0.00861894055823863 0.07784275600097862
-0.029459523672199395 0.008627863995544788 0.07664641102268491
-0.028817129719297674 0.008631004962190447 0.07561277765119143
-0.02836473620672042 0.008638147598652886 0.07446406523859964
-0.027715374674758986 0.008641173982525042 0.07343190701713706
-0.0270238356020277 0.00864332302568907 0.0724243580624431
-0.026157294460107006 0.008641784397876549 0.07152296504650299
-0.0254699371136356 0.008644031467684384 0.07051203383436166
-0.02432503560171534 0.008636586424642231 0.0697829724463534
-0.02347112673938717 0.008635294003761335 0.06887562206496362
-0.022726291622572337 0.008636318154961568 0.06790055851873139
-0.021796069904466864 0.00863339265388803 0.06704163326235196
-0.020743423985898624 0.008627839658509377 0.06626104561676105
-0.019822738638894777 0.008625090162842686 0.06539846461272186
-0.018855054156787288 0.008621321579850736 0.06456684374217186
-0.017697396482746375 0.008613454652525358 0.0638585848364906
-0.01628679969810809 0.008600108937716577 0.06331645858873192
-0.015011318621896308 0.00858962614836159 0.0626910275832201
-0.013783466941746425 0.008580131621055814 0.062038018267792316
-0.012296880134995025 0.008564993552845134 0.06155829466606555
-0.01074727947121018 0.008548427148081215 0.0611253719721499
-0.009163180908654367 0.008531044143239614 0.06072102702461768
0.03016484560178956 0.007690920496186248 0.08555001327270692
0.03225329878754157 0.007660733036494385 0.08563736684519452
0.03328439678362238 0.007653563113195334 0.08502045177435077
0.026263715227097584 0.007822921966049126 0.07893385618025237
0.025596986234907637 0.007853355037847133 0.07713119664541351
0.024619236064411076 0.00789075874265543 0.07510430604942994
0.022900202342427234 0.007944667480635808 0.07255226100049905
0.020440567534136533 0.008015166676391882 0.0694669578142813
-0.011754810323828191 0.008744622851116494 0.045582257518719416
-0.011433408006278178 0.008755312157571459 0.04428697243808677
-0.011209525555267774 0.008768214092058932 0.04291907566764419
-0.011074372577844993 0.0087831463295648 0.04148365130857001
-0.011045319362959216 0.008800509282645834 0.039967228232408
-0.011037738039430256 0.00881842410139361 0.03842929673125006
-0.011028987275141067 0.008836386475256537 0.0368859130698575
0.010801790680867396 0.008364066020865354 0.05117804191764419
0.012821196661062628 0.008335888890514962 0.05117611609415096
0.014826042063197598 0.00830792353874695 0.05117346916501736
0.016818472125432804 0.008280122779353888 0.051171571526713144
0.018797612144204057 0.008252507458490942 0.051169686546104376
0.020763594649744976 0.00822507572693828 0.05116781409696819
0.02271655041597842 0.008197825759982225 0.05116595405475344
0.024656608489516507 0.008170755757010581 0.05116410629655499
0.02658484534145278 0.0081438422556488 0.05116299027319632
0.028499480206636674 0.008117127015282173 0.051161164365094325
0.030402527338192098 0.008090565073692758 0.051160065269647004
0.03229223549836985 0.008064197667403381 0.051158260800306554
0.03417058328247696 0.008037980441885945 0.0511571782879946
0.03603584839585061 0.008011954120397801 0.05115539485652604
0.037889974559455586 0.00798607494373851 0.05115432859165836
0.03973126785180758 0.00796038313126781 0.051152565807282
0.04156163788091083 0.007934835507086674 0.05115151546296082
0.04337941854252575 0.007909471795802805 0.05114977294468981
0.045186486071753074 0.00788424939311686 0.05114873820252919
0.04698120163922054 0.007859207537814415 0.05114701557885787
0.048765408826605294 0.007834304185807363 0.05114599612870896
0.050537495550195266 0.007809578098779356 0.05114429303732465
0.05229927343782653 0.007784987781768447 0.05114328857701034
0.05404999139549149 0.007760551835627435 0.051142290422353354
0.05578892549620207 0.007736288380463979 0.05114061489956978
0.05751784070223459 0.007712156724965761 0.0511396313092955
0.05889215752082272 0.007696339634520911 0.05085165535340458
0.059389583260220424 0.0077013203471007095 0.04983377973768838
0.059887653238096694 0.007706307510425278 0.04881458582545384
0.06038555522041972 0.007711320580127356 0.04779338120602178
0.06088410540997907 0.00771634017623011 0.04677084710362195
0.06138330507342893 0.00772136631148669 0.04574698092032853
0.061845020053154065 0.007727316512505166 0.04468892510586925
0.06215491702568132 0.007736953794307906 0.04349713403393046
0.06246558795225987 0.007746615144796415 0.04230236651635827
0.06277703573588933 0.007756300654249139 0.041104611388899426
0.06308601369135669 0.0077660892938255675 0.03990099829940541
0.06338764582150114 0.007776100378418831 0.03868715559658986
0.06344516547320811 0.0077921083805589375 0.03725244252175347
0.06350292243520345 0.00780818242730673 0.035811810215880924
0.06356091817913584 0.007824322928229946 0.03436522197157238
0.06361915418885161 0.007840530296289743 0.032912640777287505
0.06363989007346188 0.007857733507986476 0.031419762646796134
0.06364591464295671 0.007875377387555334 0.029906809054922823
0.06365114209163475 0.007893121051805821 0.028386289554744926
0.06365721923375789 0.007910924388759797 0.02685966480834906
0.06366332385251272 0.007928808219939755 0.025326137733547527
0.06366945613466846 0.007946773092490353 0.023785661413033288
0.06367561626868629 0.007964819558526452 0.022238188503313328
0.06368180444474919 0.007982948175189405 0.020683671229869194
0.06365125793861093 0.008002080627333603 0.01908726275652578
0.06359710719821232 0.00802189410780145 0.017460864013972843
0.06354268763333304 0.008041805949798751 0.015826391219547542
0.06348799723717258 0.0080618168876033 0.014183784099717267
0.06306693285328252 0.008091185807294371 0.012179170367138503
0.06255259100359029 0.00812305577974806 0.010072274144939608
0.06203418129985733 0.008155177807129583 0.007948714790135203
0.0606962185123317 0.008208320720542488 0.005007884544140029
0.05920686208054732 0.00826557717250725 0.0018964183084925756
-0.035202458152579996 0.009827811581540717 0.085925299337725
-0.03330775478832482 0.009801794929902616 0.08561006657224021
-0.031822189870040984 0.00978533040027731 0.08506912378663628
-0.030755620189468924 0.009778705349955626 0.08429275951694826
-0.030272858625213228 0.009785878327268006 0.08318178653423602
-0.029600946742675605 0.00978859146742735 0.08217843016229814
-0.02944282985748964 0.009803526921634156 0.08087469269474554
-0.02910941606029338 0.009814345076862472 0.07966950273541751
-0.028686153189528663 0.009823060976841548 0.07851422018515616
-0.028333877528361917 0.009833507314851511 0.0773143168862333
-0.02773560169816308 0.009838101884638267 0.07625822127550813
-0.027155247431218554 0.009843144241216796 0.07519004538978494
-0.026575452024059698 0.009848219517167993 0.0741200772816768
-0.025865959885878642 0.00985019002295821 0.07312739053437986
-0.024961836525335068 0.00984747037743383 0.07225298716062295
-0.024177490894927545 0.009847636843471798 0.07130580969528089
-0.023341597793136826 0.00984655491684811 0.07039042374367815
-0.02231864007849743 0.00984092718597367 0.06959155962003138
-0.021532492893745758 0.00984103801536948 0.06864638979759718
-0.02053612406875449 0.009836025495762766 0.06783327233689296
-0.01957021085195826 0.009831737063549872 0.06700237941844972
-0.018561104509325965 0.009826374872673814 0.06620019358646512
-0.017475451665211694 0.009819114843300992 0.06544850378328992
-0.016453078572336133 0.009813380663888616 0.06465828540125518
-0.015135836337919484 0.009800365817640858 0.06406033756597129
-0.013808749113003227 0.009787056582638494 0.063472640331531
-0.012378013671954069 0.009771133139365257 0.06295663528681883
-0.010916743096336612 0.009754390250308989 0.062465431786645376
-0.009296524586724142 0.009733637024841497 0.062084272345045266
0.027456626829180153 0.00883939298180975 0.08506101387596107
0.030581399599499348 0.008779247127577607 0.08582843080618169
0.03200975247237847 0.00876120233855258 0.08547367613152679
0.03282781401315049 0.008758348389479642 0.0847118663156862
0.024528792036990488 0.008983959977140786 0.07775476891122227
0.02351250145813466 0.009027606151995611 0.07570667014741284
0.021861069896591867 0.00908741000011103 0.07320893287768213
