# .PCD v0.7 - Point Cloud Data file format
VERSION 0.7
FIELDS x y z
SIZE 4 4 4
TYPE F F F
COUNT 1 1 1
WIDTH 776
HEIGHT 1
VIEWPOINT 0 0 0 1 0 0 0
POINTS 776
DATA ascii
-0.09530727022548391 0.026045755235247978 0.04189194254342049
-0.09186052656909038 0.026419268604973706 0.03707416734561686
-0.09784819504644487 0.025936472548451713 0.04147519635662267
-0.09927439734381038 0.025867249292084192 0.04142966787150554
-0.10052887130012833 0.025813392783442277 0.04122159472918685
-0.10175756943413661 0.025761643477423324 0.040993886477038166
-0.10284417811546459 0.02572269486353246 0.040629629567047576
-0.10415700980582415 0.025662743623128384 0.04049764758761115
-0.10546503735016094 0.025602951159607985 0.04036759684700841
-0.1059934568419384 0.025614959436055882 0.039450902299825175
-0.1054497808525256 0.025726390527361614 0.037436082088837586
-0.10546863699474934 0.025786091975220388 0.03598698944180595
-0.09964309151455247 0.026390353083862044 0.028490231117411724
-0.09934151002236696 0.026481847898942205 0.026663289518493116
-0.09903852100410404 0.026573914690932357 0.02482435743161554
-0.0987334178928213 0.026666623875071818 0.02297259427377968
-0.09842617848456603 0.02675998219829465 0.021107865282455784
-0.09811607981246034 0.02685406252392458 0.019229290920106556
-0.09780520039565271 0.026948673725471873 0.01733896124675488
-0.097492122677105 0.027043953945173508 0.015435264605707544
-0.0971768232570171 0.02713991030438609 0.013518058712420622
-0.09685999196371947 0.027236482110215048 0.011587971773860561
-0.09654018095229577 0.027333812033791205 0.009643320006953504
-0.09236161744349974 0.02780069721066949 0.0034664888413752926
-0.09365750761285235 0.027744980679949054 0.003253504712863009
-0.09890451878359668 0.027309209561622964 0.007413510703042581
-0.10025427203407289 0.02724680918603006 0.007296051653103708
-0.1004571994614385 0.027294878561477495 0.005905550429343931
-0.10044509366162885 0.027364010547071497 0.004268005449377665
-0.0997798726189103 0.027496891438575106 0.001885474361994044
0.16578891660623174 0.03804288293007439 0.028493988824887573
0.15567232532920527 0.03741106935738516 0.03216434312146643
0.15108786574502175 0.03716181052401615 0.03290524326400657
0.1471838056781356 0.03695904956490059 0.03329960640903229
0.14360272374483596 0.03677808603531505 0.03353630743920061
0.14042193535358305 0.036624452097838156 0.03356978300203867
0.1373834560822591 0.03648021708489246 0.03353890188554237
0.1108126745965235 0.03468273215859545 0.046615317836382064
0.107035849752803 0.034482341472006225 0.047102314179321536
0.10401581489117406 0.03433454522201469 0.047182059066062654
0.10128051673469962 0.034206300761095404 0.04711446501825456
0.09875660101662226 0.034092528425175087 0.04693855269060426
0.09646850380699085 0.03399504312971835 0.046638267743692896
0.09491344485228648 0.03394925689666382 0.04592471241389523
0.09336719000791327 0.033903922693345474 0.04521039767959617
0.09110092610962933 0.033807075510115185 0.044920249037214977
0.08924384310713562 0.033739089946452056 0.044399331880009385
0.08757706352309086 0.03368446522021229 0.04377263714943663
0.08598787386280388 0.03363519503836964 0.043105127417956746
0.08455458820831674 0.03359693743969593 0.042349296248636314
0.08321707226264008 0.033565426946735366 0.04153965285104316
0.08196831163425489 0.03354019670852552 0.04067945845707738
0.08079110177198368 0.03352003981118505 0.0397782514747127
0.07969661137503004 0.03350579450518568 0.038828476862586225
0.07864876234448276 0.03349487773479798 0.037851434755444446
0.0776501402616811 0.03348749689391303 0.036845044167498786
0.0766974609251595 0.03348343347223888 0.035810830206320976
0.07586808530464134 0.0334883524788238 0.03469997705883948
0.07509407080950153 0.033497338742163554 0.03355386028400825
0.07439710713130915 0.033512005260802266 0.032358178567193474
0.07376817664104945 0.03353172357850051 0.031117828385498536
0.07324507914101408 0.03355930379564768 0.02980790995013427
0.0727123619351363 0.03358628394550744 0.02850146381885904
0.07243720974831652 0.03363239013049568 0.027025894488692803
0.07222563657598813 0.033683383201541565 0.025504453361829882
0.019487161356697646 0.029840443330607185 0.05831003180711508
0.017242477495353126 0.029733068536323265 0.0583076501116786
0.015012765199583833 0.02962637999888703 0.05830602881552388
0.012798997051389593 0.02952045436606162 0.05830441911281137
0.010599898439486832 0.029415200967515057 0.05830355890880168
0.009532370795900635 0.029394256769950604 0.057552663241209445
0.009505447501418074 0.029451304819550654 0.05610056127730406
0.009477314954621396 0.029508491695504263 0.05464356257556313
0.011431010917022477 0.029715205720766934 0.0518264481058357
0.009419612141753797 0.029623450609330356 0.05171328616096088
0.009391147189844129 0.029681308621640763 0.05023918567061719
0.009362570829654082 0.029739393082959347 0.04875931573568859
0.009333882405841543 0.029797705325332203 0.047273642418438344
0.009926035044799997 0.029903501494687852 0.045345908697061565
0.009278405101100562 0.02991518922334571 0.04428316741759053
0.009250502076193823 0.029974279262818395 0.042779069504289
0.00922248860207614 0.03003360319974088 0.041269017885903925
0.010428531482810977 0.030187855009987587 0.038866752601576404
0.009161616646604365 0.030152611517917472 0.03823416856620154
0.009132129302950598 0.030212557107590052 0.0367068865400868
0.009103656548934524 0.03027282892226631 0.03517269339928386
0.010767846167379913 0.030464297862511626 0.03239003296612808
0.00904523243134614 0.030394008768976275 0.03208670852493822
0.009014136684983687 0.030454830548545045 0.03053569992923366
0.008985197871774708 0.030516073853797888 0.028976769426320492
0.008954999399933161 0.030577474804290045 0.027412413681883352
0.00892467915923012 0.030639123340871228 0.025841750010284603
0.008894236411664591 0.030701020964072744 0.024264740181415667
0.008864820121647132 0.03076325943905663 0.022680469297865102
0.008835284321292436 0.030825750771850628 0.021089761957295283
0.00888297614313932 0.030894593978141108 0.019432982745604954
0.008774694783707404 0.030951406839405216 0.017889776231309107
0.008743635025438568 0.031014573953120128 0.016280431454369526
0.00871244823138384 0.031077999423040584 0.014664504388186783
0.00879517110038408 0.031150751186337113 0.012952183394406236
0.008650856013351527 0.031205724664996746 0.01141181869618424
0.008619285704654034 0.03126993516810021 0.009775893859590157
0.008587585206649873 0.03133441046171028 0.008133222815620289
0.008568652202874227 0.03140018646814486 0.006473390681682345
0.00852379040814022 0.031464161999218955 0.004827474494788209
0.008491694473570066 0.03152944156662506 0.0031643125431742303
0.008459465081419981 0.031594992571836185 0.00149423502745466
-0.0845703579837051 0.025462886125960284 0.043263428909278756
-0.08599595574185848 0.025399296875686105 0.04314730462432065
-0.08840251569943569 0.02525133913282606 0.043962180193480915
-0.08870459482054066 0.02528348691654452 0.04280196724275087
-0.08841923924402012 0.025366363186437462 0.041079119533562136
-0.08813200679195132 0.02544978456026756 0.039344940099681924
-0.0927907122817973 0.025105756382073453 0.04235631605674123
-0.09399319252762911 0.02505979687715801 0.04206726065084915
-0.0916069800659422 0.02532549948046948 0.038297280386690224
-0.0964286683347953 0.024964576400654373 0.04153496182320904
-0.09504663785504697 0.0251436222184553 0.03872526837996709
-0.09473291134747336 0.025230013368757378 0.03694874090406275
-0.10050950939734327 0.02478255553527041 0.04120239191471775
-0.09693792289017011 0.025154962012400767 0.03618905742500006
-0.10290552681459497 0.02468838003670265 0.040691106610898864
-0.10404886224891269 0.024645788130286804 0.04038871239761921
-0.10537197134208942 0.024587074492055154 0.040273367656523285
-0.10665776055994786 0.02453139437170879 0.040126989957735004
-0.10612478291084321 0.024637275802375586 0.038126611945860533
-0.10585926375952748 0.024719808795639082 0.036388668804656465
-0.10585027111932799 0.024779802976353682 0.034906035926585366
-0.09876536413542275 0.025474206367476153 0.026064701823919956
-0.09845975050200761 0.025562950489258003 0.024219936626299288
-0.09815200010130676 0.025652315085782137 0.022362273332527605
-0.09784209044516462 0.025742306687162438 0.02049157619809766
-0.09752999872874424 0.02583293191546974 0.018607707566954457
-0.09721640842244411 0.025924133394138883 0.016711281104156372
-0.09690059605117501 0.026015981116047134 0.014801416780446386
-0.09658253791301824 0.026108481974424978 0.01287797125927792
-0.09626220996775547 0.026201642960889747 0.010940799158270509
-0.0959395878308163 0.026295471167206787 0.0089897530125842
-0.0923283230528738 0.02669172643757626 0.003430071120425704
-0.09362516328218329 0.026638158654471295 0.0032179439306448954
-0.0988142752652243 0.026225168361826687 0.0073137820075622195
-0.10016466252209882 0.02616522598420567 0.00719651368272195
-0.10131251469455693 0.026123767527603006 0.0068605232753482515
-0.10100818098755387 0.026217103374156312 0.004899937441054991
-0.10046840929449868 0.026332847009210982 0.0026621704153020898
0.15893815120717902 0.03606962856479964 0.030410894691971224
0.15177776449292302 0.035659402833198434 0.032532608648095485
0.14751853078988109 0.035441449641402216 0.03311772924699086
0.14368400791479496 0.03525110592625931 0.033491876845644586
0.14024100048713672 0.03508630105820125 0.033669272895743785
0.1372875180156956 0.03495376303932265 0.033591968647485704
0.1099175670012949 0.03317737299173688 0.04711337158960671
0.10657216652335205 0.03301431017392922 0.04736184336223026
0.10364770836781345 0.03287907015920979 0.04738931010214131
0.10085748394329613 0.03275240437480062 0.04735404483398997
0.09837157459872004 0.032645895700488564 0.04715789094950845
0.09659756227275335 0.032587351765295994 0.04656431526025584
0.09507907130047882 0.0325459792810502 0.04582924983818604
0.09355980644420542 0.032504396295862624 0.045098729651044944
0.09123701075451618 0.03240774649057547 0.04484089453237866
0.08947797026574078 0.03234932384893225 0.044262011125635825
0.08785084735922444 0.0322997261476826 0.04361112353344737
0.08628292756032319 0.032254006779158184 0.04293005633037411
0.08487090666527114 0.032218846550030225 0.04216052099057066
0.08359048098846034 0.03219262977455986 0.04131551904449959
0.0823717259890821 0.03217057471882062 0.04043591757900972
0.08121553241926188 0.0321527672420363 0.03952054805891425
0.08014504289015634 0.03214083800581062 0.038554636258756936
0.07915366482729169 0.0321343629053746 0.0375413410763647
0.07815089065910152 0.03212706869607142 0.03653573993301079
0.07729128909129779 0.03212973943186136 0.03544193753291924
0.07644476726661847 0.03213333535409066 0.034339692335113026
0.07571101848458844 0.032144847714155066 0.03316622466293423
0.07502071548747824 0.03215945560654257 0.031964130853210815
0.074452820720605 0.032182732187297024 0.030682758516653863
0.07397930560124544 0.032212753030416014 0.029338689189030653
0.07349025869584902 0.03224179543179701 0.028001523671999484
0.07326261759946645 0.03228945135120225 0.026492425249482532
0.07308126986053581 0.03234057863147926 0.02494833259031848
0.019487161356530003 0.028597091525153304 0.05831003180722466
0.017242477495189812 0.028494190680631505 0.0583076501117859
0.015012765199424905 0.028391947498922068 0.05830602881562896
0.012798997051234884 0.02829043543413133 0.058304419112914174
0.010598794244230991 0.02818948851602864 0.05830429693393485
0.010135224641171336 0.02821275652330226 0.05714747716354851
0.010108325860259115 0.028267516265832723 0.05569310066574917
0.010082430403846043 0.028322568820133554 0.05423231444276816
0.011431010916885531 0.028477072149058424 0.05182644810592929
0.010025887222934071 0.028432997949234592 0.051296662414003324
0.00999856416808792 0.02848861682978788 0.04981946518855257
0.009971134008345761 0.02854445373328387 0.048336477431455915
0.009944714542973576 0.02860059134485537 0.046846883635026315
0.009926035044680925 0.028657522265733842 0.04534590869714522
0.009891562630350348 0.028713531609841907 0.043850049366739696
0.009863704105264604 0.028770254524865913 0.042343537998411285
0.009836862280271197 0.028827284689253132 0.04083025784585109
0.010428531482705894 0.028930027717897044 0.0388667526016519
0.009778332889826324 0.028941692589730023 0.03778889484715403
0.009751160560493355 0.02899940513095308 0.03625749688071539
0.009722743992873206 0.029057264279491745 0.03472080813667611
0.010767846167288986 0.029194952118233572 0.032390032966194804
0.009666709354038294 0.029173762685364663 0.0316281198528357
0.009636809837619442 0.029232235342416396 0.030073728638716102
0.009609079128921783 0.029291113619365435 0.028511386609975375
0.010955171708584566 0.029452942135880015 0.025912292154443017
0.00955098339809074 0.029409412450282755 0.025369478093676845
0.009522910354667236 0.029469007342303052 0.02378811485433585
0.00949472330640938 0.02952884424953222 0.0222003296894831
0.010995534312079835 0.029704201366565444 0.019434232005288432
0.009438004406216394 0.02964925003061341 0.019005336468333967
0.009407150703673428 0.029709646221542825 0.01739984657384558
0.009377333539039967 0.029770377167039563 0.015786897121650045
0.010896835078296974 0.02994915890218118 0.012954123526788597
0.009318499098503241 0.02989267589599253 0.01254021560762486
0.009288315528080127 0.029954158200546768 0.010907313823955433
0.009258007540503377 0.03001589393604158 0.00926768119567789
0.010660442686783678 0.03018775763851096 0.0064750810623218635
0.009197015224052418 0.030140131993671614 0.005968056248451203
0.00916632933424405 0.030202637495347226 0.004307979484438562
0.009135515905275893 0.030265402787315078 0.0026410029784906253
-0.08282628454237073 0.024488574124040183 0.043091521442143066
-0.08465078159583528 0.024395356965856596 0.04333837650865002
-0.08604199463998974 0.024337219999458815 0.043190432672093715
-0.08841883290201846 0.024197859755035838 0.04397754545310756
-0.08814075811157313 0.02427642674575536 0.04226825706295867
-0.08785300232986604 0.024356154938229027 0.04054034518096283
-0.08756406871229389 0.024436349117190996 0.03880173353909555
-0.09269965364987764 0.02406723180047036 0.042268769485926505
-0.09390060369064657 0.024023331949880784 0.04197777994583868
-0.09535185764969645 0.023958381390722018 0.04193525718080632
-0.09443273254587597 0.024091003345568303 0.03958592875867456
-0.09413364086333248 0.024172365093923145 0.037829096787316
-0.09924012274545019 0.023800743951980168 0.04139585031218368
-0.10045007181046356 0.023754945784383384 0.04114344270058268
-0.09688438154455259 0.024111350246485166 0.036135680686568805
-0.09815493036500439 0.02406095057816448 0.03593057166246422
-0.10411113926622373 0.023613607696915048 0.04045144297523612
-0.10528014582872158 0.0235704057691328 0.04018039446502375
-0.10660667389972572 0.023513598683663425 0.040074997082302166
-0.10659111977939895 0.023570958640997248 0.03860367646322066
-0.10631979436231576 0.023650454050445493 0.03686222990128596
-0.1060440162849195 0.02373071164602134 0.03510629292643114
-0.0981868732203463 0.024462463534938098 0.025463677758602588
-0.09787861606575793 0.02454785709855408 0.02361304712055784
-0.09756819924422871 0.02463384893428728 0.021749450859951613
-0.09725489699173362 0.024720506164020842 0.01987201049679188
-0.09694079517532439 0.024807652748714323 0.017982812598323794
-0.09662447093370446 0.024895415938473286 0.016080247692955518
-0.09630590059600308 0.024983802300708745 0.014164173409768388
-0.09598577632926791 0.025072755938213277 0.01223521672034572
-0.09566192525606254 0.025162471281915805 0.010290917044744163
-0.09097485824655727 0.025635625537893423 0.003587121386954828
-0.09238602848280547 0.025574493387620027 0.003493189868209401
-0.0936714722476153 0.025524150379975533 0.003268858047598633
-0.10009053301725662 0.02508157973313974 0.007114170856666435
-0.09728477278303405 0.02539321886019603 0.0023634863849910093
-0.09853719862296151 0.02534486470434724 0.0021268457105828587
-0.10078735496536184 0.02520715914987791 0.0030219534923145996
0.15486225587274538 0.03430571970858655 0.030866584084204507
0.14853088156997674 0.03396520428466329 0.03256765552854757
0.14406674993783797 0.03374295135849251 0.033282666918653614
0.14046398863918153 0.03357511161682661 0.03354665933883155
0.11374285361125208 0.03192110247244519 0.046615361193752314
0.10924795710165303 0.031691769823032186 0.04748595442265474
0.10612702048945999 0.03155019340318113 0.04761099704973343
0.10330877821234674 0.03142764305210526 0.04758013428324387
0.10059582661503536 0.03131144600834005 0.047502231489408686
0.09816835378732253 0.031213326632818516 0.04727365988606069
0.09693219363864719 0.031192258091179894 0.046372566347098076
0.09536880639476042 0.031149802423210665 0.04566225441761551
0.09322244498132248 0.03106915295549646 0.04529431259398842
0.09140072158814377 0.031009414564886918 0.04474543047653562
0.09015123672485537 0.030986922009815825 0.04386712546345617
0.08809161657141662 0.030911187816353818 0.04346908627285073
0.0866130443519349 0.03087336021145771 0.04273418043990862
0.08522971836942322 0.03084166045667424 0.04194638624579339
0.08397047730663049 0.0308180271356332 0.04108743111999569
0.0827907663539294 0.030799561033594162 0.040182943292944806
0.08168538795673558 0.03078594782812246 0.03923526381350145
0.0806388771497975 0.030776189243913326 0.038253069871716394
0.07965374825717736 0.030770474967330548 0.03723420709326891
0.07870888675896276 0.030767421655496445 0.03619107608969896
0.0778851777834268 0.030772445169804045 0.03507300726009771
0.07705530716675524 0.030777076135748337 0.03395825470787983
0.07634728718566869 0.03078989245143085 0.032766449409581566
0.07571218021666642 0.030807655750786183 0.031527205829450566
0.07516303354174647 0.03083127316315768 0.030231440513368957
0.0747188382918797 0.03086205971512838 0.028866077384968047
0.07433402232622316 0.030896979204635376 0.02745925208200395
0.0741145673083361 0.030943229968584444 0.025941801745716475
0.021749272460421964 0.027452958495730245 0.05831167938024606
0.019487161356369354 0.02735373971970094 0.05831003180732963
0.01724247749503338 0.027255312824941223 0.058307650111888765
0.015012765199272582 0.02715751499895854 0.058306028815729605
0.012797882713943665 0.027060340320264754 0.05830515977641548
0.010763387649609046 0.02697513357135812 0.05819428553036282
0.010738825766633153 0.027027545791119857 0.05674178882894432
0.010714168251191147 0.027080162079461678 0.055283636787182344
0.010688303173185865 0.027132907039454306 0.053820551620613166
0.011429893104799527 0.027238861386929412 0.05182721201313262
0.010634038445623328 0.027238861387706342 0.05087874940886983
0.010607864504085573 0.02729222697645483 0.04939844332069748
0.0105815878027411 0.027345802080310885 0.04791232550069091
0.012091467865367689 0.027506537398788167 0.045347051225336665
0.010530971796499755 0.027453742613040354 0.044920937918672965
0.010505513651745513 0.027508033061975825 0.04341637081429672
0.010479954619242615 0.027562538657754307 0.04190584128244074
0.010454294098090067 0.027617260681818388 0.04038931381011057
0.010428531482605141 0.027672200425807477 0.03886675260172423
0.010396991783016507 0.027726959279102126 0.037342218520366455
0.010371012184629103 0.027782336780103507 0.03580751167102347
0.010343789355684252 0.027837855305888067 0.03426749374690308
0.010767846167201833 0.027925606373956368 0.03239003296625875
0.01029015964516955 0.027949641968570235 0.03116807502946034
0.010262610004998562 0.028005831848836 0.029609437365346603
0.010234949370213409 0.028062248112168234 0.02804452011539471
0.010956326438341046 0.02817246200627875 0.02591142611157332
0.010179292422831943 0.028175765282609195 0.024895694445211836
0.010152449597598368 0.02823295189177532 0.023310833505376938
0.010125497588274412 0.02829037110930089 0.021719526092996377
0.010995534312020327 0.028412714350623525 0.019434232005334007
0.010071263341823011 0.02840591306946767 0.018517413880645484
0.010041651801740992 0.02846387011179098 0.016908332626670963
0.01001308544457774 0.028522148773519388 0.015291763575112971
0.010896835078251343 0.02864702155860477 0.012954123526824346
0.009956771251073138 0.028639510312873852 0.012037762906826455
0.009927853393817243 0.02869851117197639 0.010401164081447478
0.009898816141978961 0.02875775563074873 0.00875780815214755
0.010660442686752036 0.028875246436834246 0.006475081062347177
0.0098403804845838 0.028876981406890368 0.005450656897544648
0.009810980578621065 0.028936965785521705 0.0037867766572414197
0.009782643273994307 0.02899728736438157 0.0021150062891265864
-0.08322080548524691 0.02339306961279111 0.04345726951441159
-0.08469858049641571 0.02333095107039696 0.043382920800509095
-0.08677954356062756 0.023221266519250203 0.04388134940501681
-0.0884351482972815 0.02314449706247894 0.04399290901085323
-0.08757475692440808 0.02326550063337308 0.04173249805585599
-0.08728530274372687 0.023341999218672454 0.040000179096153665
-0.08699393879266859 0.02341900252888256 0.038256430584742096
-0.0926252351094159 0.023026731359775184 0.04219722121109387
-0.09382040424366578 0.022985213356798016 0.041900272729081645
-0.0953148167609626 0.022919663426610982 0.0418992736564765
-0.09663185471298424 0.022867970814313254 0.04173337350135614
-0.09786038330795288 0.022823120346885783 0.04148716000362962
-0.09894272901471762 0.022789786896437333 0.04110242221638799
-0.10029501574714128 0.02273459038468727 0.04098966066534915
-0.10160889606126305 0.022682229500761087 0.040845670184675054
-0.10289959101773072 0.022631494594883565 0.040685158396033816
-0.10410392966647608 0.022587512953134044 0.04044418086834528
-0.10520651131419922 0.02255158277157892 0.04010583963196512
-0.1065348619884427 0.02249711146867445 0.04000191131506481
-0.09852591130567634 0.023203944831534803 0.0303529353201471
-0.10660928663760305 0.022598505614921865 0.037159913222482854
-0.10633804295498167 0.02267484547540829 0.0354102019227745
-0.09760602293084514 0.023446594310601743 0.02486020241743725
-0.09729510318281737 0.023528609169119707 0.023003673758678067
-0.09698200064024043 0.02361119980833723 0.02113411144487315
-0.0966666922358666 0.023694372312966772 0.019251377739476883
-0.09634986374217269 0.02377807403190619 0.017356085082444184
-0.0960307888837606 0.023862369209439353 0.015447354496847199
-0.09570944368500933 0.023947264179595383 0.013525042558640676
-0.09538580382788392 0.02403276536686369 0.011589003795452801
-0.09505912207860723 0.024118939807911976 0.009638308381931138
-0.09092269652280743 0.02452541275311169 0.0035303588637205507
-0.0923830697871742 0.024462807922972726 0.0034899536188037206
-0.09368176111611992 0.024413536572516614 0.0032801700829567793
-0.09482255192887606 0.024377377706293963 0.002902502746379265
-0.10002060388751938 0.02399700587835684 0.007036493794362719
-0.10137987448297608 0.02394106096869799 0.006935731533499301
-0.101275161171136 0.02400959355242551 0.005199559384902297
-0.10119173250895319 0.0240766499194574 0.003478107032553246
0.15072814752608776 0.032555350499359474 0.03137374302445228
0.145132846749239 0.03227432753852579 0.03269992966313828
0.1409764840638783 0.03208034627011933 0.033264855636046975
0.11260878363443694 0.030400582672846305 0.04724265569365654
0.10874370281775364 0.0302202471428124 0.04776653045621143
0.1057981011399809 0.030095842693424104 0.047795097238377826
0.10296873191313699 0.029978138215943917 0.04777158687469091
0.1002872459002635 0.02986912778942148 0.04767699267172576
0.09849671889926553 0.029814870893235743 0.04708659991149872
0.09722518443229222 0.029792604140314007 0.046204678121508136
0.09570701606709853 0.02975492338751223 0.04546731956992939
0.09334100619832186 0.02966430182688468 0.045225577559638186
0.09173461324562393 0.02962072767791583 0.044550729544844514
0.09017106772623273 0.029579665205508088 0.0438554941427442
0.08835841568498692 0.029522843608528304 0.043311693162344234
0.08694362588939097 0.029490769938500968 0.04253802879095875
0.08559810956659508 0.02946292815794023 0.04172653456851594
0.08438408896192962 0.029443262303408584 0.04083916601979126
0.08322252456149354 0.029426831215332263 0.03992229125683139
0.08213979064335653 0.029415321500374073 0.03895936214324941
0.08113376559696661 0.029408627367621797 0.03795085973119405
0.08017124346444393 0.02940466889249834 0.036916379397443966
0.07930675828019279 0.02940693074905694 0.03582178193806401
0.07849243629230707 0.029412398338120132 0.03469577150814013
0.07772065203093348 0.029420603534553138 0.03354257742581013
0.07702221560435873 0.02943353364536495 0.03234238379214882
0.07642490824626347 0.029452997408574988 0.031076844880987053
0.07592853350273737 0.02947902074220216 0.029744989264356314
0.0754740389360572 0.029507841922818485 0.028383452690489974
0.0750643698452158 0.029539667445021133 0.026989870970853425
0.07489733634864487 0.029587296126854134 0.02543589039070676
0.021749272460264424 0.026205096745914126 0.058311679380348425
0.019487161356215865 0.026110387914250032 0.058310031807429996
0.017242477494883834 0.026016434969252353 0.058307650111987075
0.015012765199126976 0.025923082498996396 0.05830602881582586
0.012797882713802 0.025830324851152563 0.058305159776509685
0.011368815294216295 0.025788579051125384 0.05778962809714716
0.011344283118074339 0.025838690236473026 0.056334852900201515
0.011320768113921964 0.02588906959834981 0.0548736609646755
0.011296046428938333 0.02593957246425674 0.05340751757980794
0.01142877529905273 0.026000657642530147 0.051827975916003854
0.011244074532000714 0.0260410237982845 0.05045954115180101
0.011219056970753927 0.026092121835616124 0.0489761140050336
0.011195064310976 0.026143495290379862 0.047486073345596125
0.012090337181796529 0.02625616510769667 0.04534784117909957
0.011146794432165152 0.026246851502401997 0.04448831975802614
0.011121386345432582 0.02629876129267514 0.04298133484403244
0.011097009463675533 0.026350952498973144 0.041467573284514725
0.012583241529940115 0.026504564741293632 0.038868908406003544
0.011044555474833628 0.02645572999369436 0.03842440130275315
0.011018740965675622 0.026508470121824185 0.03689331098157511
0.01099282332721413 0.026561420947386272 0.03535610393651123
0.01291351413236591 0.026746087234093108 0.032391796271676265
0.010941821255748496 0.026668037273421104 0.032262352093916424
0.010915592718710954 0.026721628134630852 0.030706567108229943
0.010889258554050762 0.026775434817002473 0.02914451666388196
0.010862818122404416 0.02682945862689918 0.027576162836117024
0.010956326438270825 0.026891895551443105 0.025911426111626
0.010810772167371863 0.026938241998254585 0.024419519879005203
0.010785169882989942 0.02699300486901185 0.02283114046841972
0.010759463292532634 0.027047990848687746 0.02123628985553383
0.010995534311963429 0.027121227334682176 0.019434232005377583
0.010706569185462422 0.02715855722084321 0.0180279141613795
0.0106782080142383 0.02721405900121087 0.016415226692645002
0.010650900738743085 0.02726986914515536 0.014795023029178567
0.010896835078207767 0.027344884215028797 0.012954123526858485
0.010597123509830608 0.027382260707800945 0.011533672730591082
0.01056947979143985 0.02743876359050485 0.009893361411204227
0.010541721752313993 0.02749550014107141 0.008246266578751993
0.010660442686721783 0.027562735235157846 0.006475081062371324
0.010485859863431146 0.027609680067874884 0.004931557356230687
0.010457754574647593 0.02766712638543763 0.003263857577774809
0.010430720997217091 0.027724896031038015 0.001588237134638737
-0.08141498527982721 0.022413151310736727 0.04323675241576114
-0.08333166886978793 0.02232149096256084 0.04356004750354803
-0.08474925956783641 0.02226667000093345 0.04343014915348581
-0.08711053235766447 0.02214098884259833 0.04419141114042707
-0.08729798229647495 0.022177755912971452 0.04292208509036949
-0.0870072966396036 0.022250632315311606 0.04119535791259965
-0.08671541523389403 0.02232393492601607 0.03945793120222518
-0.09136064307267988 0.022024751819432753 0.0424329816877661
-0.09255773859530536 0.02198517054368759 0.042132327985402285
-0.09072749573999639 0.02217507588166959 0.03891119064898746
-0.09380036319195834 0.02199302269697642 0.0404280514825649
-0.09659028632515343 0.021831685915363455 0.04169278193384607
-0.09322812313555462 0.022139599766651384 0.03694026662506916
-0.09859475583100291 0.021780534151728904 0.04075908912582871
-0.09989925383491616 0.021731577280938746 0.0405971505562579
-0.09677723870848587 0.02202295438953837 0.03602886724978355
-0.10285671390443546 0.0216060969372601 0.04064219158155147
-0.10405804166157312 0.02156435503144624 0.040397958663468736
-0.10513870698405797 0.021531764636350918 0.04003718785165361
-0.10647142946012356 0.02147944223821876 0.03993735357085243
-0.09795059540959228 0.022194010800291934 0.029764384813417977
-0.1067145244949943 0.021563088038307605 0.03726812873487528
-0.1056175500569222 0.021700532672878397 0.03466549303811628
-0.09702279880336878 0.022426573398657272 0.024254260773495073
-0.09670919722160726 0.02250518114332816 0.022391801260630173
-0.09639268395624068 0.022584397475751694 0.02051549894535304
-0.09607535223777358 0.022664061479268128 0.018627436892575622
-0.09575577388844791 0.02274428948443348 0.016726007822467748
-0.09543392496511566 0.022825087502015378 0.014811069277934685
-0.09511049997813864 0.02290640444080188 0.012883246992030306
-0.09478331791051181 0.022988418047615942 0.0109400837433275
-0.09445378455291731 0.02307102104423523 0.008982955975099571
-0.09093983742993783 0.023409247488431647 0.0035490116433700702
-0.09232980296514576 0.02335514173207906 0.003431689862536169
-0.0936288391380446 0.023308092764786206 0.003221985328535737
-0.0944918008197152 0.023296020012723982 0.002536987557696546
-0.09997043140476486 0.02291029385920635 0.006980762354782455
-0.10132935766183115 0.02285692992609551 0.006879328711952459
-0.10123152090056642 0.022921798236577955 0.005150583530130426
-0.10116278596137179 0.022984617227551074 0.003445454205099785
0.14756287263417855 0.030878876921850464 0.03137165759640159
0.1417360865539833 0.03059700075748602 0.03284717621094263
0.11175794106050058 0.028903232792617032 0.047713287028429696
0.10838923641862042 0.028760442185806086 0.04796376185210327
0.10543599987702673 0.02864147498034435 0.04799776975042014
0.10266721992155242 0.028532894839289686 0.04794134391152788
0.10016769807844378 0.028439751985631947 0.04774469722254343
0.09905126430136552 0.02842781661356057 0.04677069165865033
0.09745140583483886 0.028387274285755163 0.046075049782707655
0.09543858117116405 0.02832213246909699 0.045622038136051035
0.09351664682549954 0.02826213275985197 0.045123751137407575
0.09217029695907625 0.02823610531458002 0.044296671011091415
0.09018327224553846 0.02817183630391494 0.04384833592236592
0.08869082091836816 0.02813682127794116 0.043115596957486624
0.08727618585582403 0.02810632225596966 0.04234070323462996
0.08599722663387327 0.028083829811565156 0.041488346041361146
0.08479092114880277 0.028065609360288457 0.04059497020870517
0.08365358576894882 0.028051464241140626 0.03966205999904793
0.08262198040979346 0.028043632001362433 0.038666588869993246
0.08164462127624222 0.028039042721795762 0.037638898990336955
0.08070477585470415 0.02803670366747318 0.036588702217320856
0.0798853820733128 0.028041652129880038 0.03546437675114961
0.07909091373371663 0.02804813275752856 0.034323990653136405
0.078371626147623 0.028059210761504652 0.03313587833471937
0.07769765006829588 0.028073093125645605 0.031918000220420184
0.07717684390645357 0.028096381401984918 0.030601709285017542
0.0766803215367583 0.028121246755478033 0.029267251515462334
0.07624653042336171 0.028150055074724678 0.027889777968518104
0.07602205521369138 0.02819183208509684 0.026374383944885782
0.07580136019630856 0.028234006958319957 0.024851610857177686
0.0217492724601141 0.02495723499609942 0.05831167938044618
0.01948716135606937 0.024867036108800505 0.0583100318075257
0.017242477494741115 0.024777557113564837 0.05830765011208083
0.015012765198988143 0.024688649999035576 0.05830602881591762
0.01279676838279803 0.02460024012612461 0.05830590043583206
0.011974995511203568 0.024598301119448284 0.05738446765748578
0.011952719298956582 0.02464624253512881 0.05592591486062082
0.011929239945687675 0.02469430140220045 0.05446241995552431
0.013619524904905866 0.024849922512857663 0.05182843678447335
0.011879764729980147 0.02479084294426523 0.05151977198866742
0.011856004258403718 0.024839467948182557 0.05003903161182055
0.01183327502672682 0.024888354961339447 0.04855169403032178
0.011809329367156063 0.024937363617722755 0.04705927329623566
0.012090337181688948 0.025005871531132873 0.045347841179174786
0.011763416223504852 0.025036105711706613 0.04405514018693757
0.011740323032743194 0.025085770575114318 0.04254413455076356
0.011717138038546848 0.025135632873494698 0.04102712214566123
0.012583241529844635 0.025242442610749746 0.03886890840607171
0.011665931008980335 0.025235662981148023 0.037978207196441904
0.011641316397584367 0.025286050361905073 0.03644380688467419
0.011617747560946523 0.02533671282380733 0.0349024362337772
0.01291351413228281 0.025472464032464278 0.03239179627173694
0.011568027959442284 0.02543850112095589 0.031802776996917415
0.011543018048599474 0.025489702581826028 0.030243589098313428
0.011517907257048321 0.025541110570338213 0.02867811201583076
0.01309137846336228 0.02569643514053244 0.025913773277224605
0.01146738058043223 0.025644551148865168 0.025528137473428247
0.01144312346595966 0.025696661840091964 0.023942688107441934
0.01141876756798249 0.025748984744305124 0.022350782236290334
0.013121963448083529 0.025914538807018377 0.019435489467587275
0.011370923911402542 0.025854348894860546 0.019146548298309585
0.011343931877649316 0.025907162967582074 0.017536829651423114
0.011318000878842549 0.02596027037909089 0.015919613497942076
0.013012110040202696 0.02612707705338858 0.012956076224042212
0.011265818630498692 0.026067141084312566 0.012665208398615069
0.011239566059864425 0.026120907083666274 0.011027937061139359
0.011213204968419765 0.02617489533658291 0.009383897703064303
0.012765610209500344 0.026334159367370952 0.0064767822529696595
0.01116015452036867 0.026283544138390298 0.006075346365737144
0.011133463798336518 0.02633820748370329 0.004410749230395916
0.011107852262916385 0.026393178394150275 0.002738251281291959
-0.07256811494588455 0.021773874693141734 0.04099523927422011
-0.07392413248123897 0.021727746445028315 0.04075704653571227
-0.0723863456601953 0.021885287035809112 0.03788398850393787
-0.07186543417144797 0.021971737994792045 0.035922505548999506
-0.0817946803574699 0.021318985967526852 0.04358692594178487
-0.0833790525297628 0.021255201659407686 0.043603975418163854
-0.08479992142351178 0.02120275046913021 0.043477361462930686
-0.08708839422507275 0.02108823360309442 0.04417067271099506
-0.08673004729728007 0.02116223622707043 0.042387283327050496
-0.08643765233979278 0.021231858018808388 0.040656150449101314
-0.08614332712750494 0.0213019394210749 0.03891358944095019
-0.09130602280330546 0.020979882338643323 0.042380739921052624
-0.0925034402842651 0.020942171777884395 0.042080123918282086
-0.09068722325314099 0.02112202968830502 0.03887227007676958
-0.0937767900205475 0.020947443094519798 0.04040515122784677
-0.09350405285430369 0.02101611138073465 0.03867907221785566
-0.0975743618991129 0.020769102057959468 0.04120640961362987
-0.098524518452211 0.02074848828835128 0.040689788336394306
-0.09983888829170168 0.020701153085039316 0.040537281010400716
-0.10109596390773112 0.02065779309792678 0.040334314986626374
-0.0979945516275269 0.020934345011095458 0.03576985740419181
-0.10378830863682159 0.020557338861288018 0.04012626118700646
-0.10508652728118534 0.020510293117381645 0.03998435598249611
-0.10641897855924465 0.020460491476987596 0.039883972254793065
-0.09737364032508139 0.021179932525477323 0.029174157410246815
-0.1066729586219834 0.020539363661321263 0.037225386775304625
-0.10556702094621384 0.020670938488754186 0.034613265628547496
-0.09643718625590075 0.021402375296112337 0.023645837676766535
-0.0961208834302903 0.021477547253490197 0.02177741422079582
-0.09580235086068817 0.021553249127803556 0.01989581950693875
-0.09548227662614561 0.021629433003504082 0.0180016647469588
-0.09515993164421527 0.02170615736113629 0.016094072019709083
-0.0948352916643524 0.021783427972800102 0.014172897813844176
-0.09450833208946557 0.02186125069308026 0.012237996567203757
-0.09417830275012906 0.02193968654595095 0.010288439517144421
-0.09081607963953664 0.022303967795984578 0.0034143380944905433
-0.09224912575140493 0.02224916532650393 0.003343444359261538
-0.0935678078307996 0.02220286504769064 0.003154884820331272
-0.09471653078554626 0.022169405007242064 0.002785338095573131
-0.099930846191297 0.021822378950358913 0.006936791221373528
-0.10128724646566284 0.021771758937179815 0.006832310902265104
-0.10102510238881568 0.021846275246657106 0.0049189277011958965
-0.1006938722219719 0.02192652899701026 0.002916501334982058
0.14437314858025696 0.029213221546069854 0.03139714601034882
0.11131809399511289 0.02743366162125037 0.04795658210770831
0.10804497127697271 0.027303278974461324 0.04815531708726839
0.10510481114514991 0.027190952474111612 0.04818314014018893
0.10236133000052655 0.027089178429633667 0.04811356580664633
0.1005312439788329 0.027038092205980552 0.047538807131759675
0.09935728015604439 0.027023569215896437 0.04659636340053219
0.09780598764840248 0.026987812456077367 0.0458718689565627
0.09546649678106661 0.026907595667289716 0.045605948338480196
0.09378189374012524 0.026863970593026584 0.04496997609823783
0.09239919747526215 0.026837221330062395 0.04416319315152967
0.09044734907585988 0.02677817997215146 0.04369344902343303
0.08899631803313163 0.026747291441724986 0.04293537469025366
0.08763800070327238 0.026721548038201738 0.04212601919786352
0.08640155403606142 0.026702638025914664 0.041247048045581935
0.08523007248443992 0.026687357683346364 0.04033137524238828
0.08414098461174219 0.02667672328119131 0.03936781776219461
0.08313961589654928 0.026671066490500477 0.03835229386342165
0.08215959132532591 0.02666661131466504 0.03732442575543199
0.08128279073070088 0.026668067651663085 0.03623370542969667
0.08046694526221138 0.026673037526436544 0.0351051559539714
0.07972217773269008 0.026682125188270733 0.03393184242325714
0.07901107079791297 0.026693193058240812 0.03273638233110199
0.07838546252416606 0.026709253491905487 0.031485839407955574
0.07788968110758177 0.026732906915398306 0.030151279352885252
0.07745981050070683 0.026760483691886373 0.02877191069321916
0.0770498370698714 0.02678932770044489 0.02737641025911125
0.07683805275504979 0.026829848617169593 0.02584995711697352
0.07674468426771408 0.02687745226687544 0.024241931201235023
0.021749272459970992 0.023709373246286067 0.05831167938053916
0.019487161355929872 0.02362368430335229 0.0583100318076169
0.017242477494605335 0.02353867925787861 0.058307650112170095
0.015011640608564969 0.023454151232575996 0.058306772132509344
0.01279676838266941 0.023370228119810786 0.058305900435917546
0.012583041998326161 0.02340435863375151 0.056978059834938366
0.0125619183215947 0.023450043442744622 0.055516464104962526
0.01253959242523739 0.02349584044981746 0.054049907894120286
0.01361839693052247 0.023607359252142298 0.05182920337762448
0.012492430306303148 0.023587839158145496 0.05110107939008868
0.012470962441337219 0.02363424378514014 0.04961644095891565
0.012448281798238592 0.023680763803540176 0.04812672905921045
0.01427082056289819 0.023838188664974478 0.04534899439745488
0.012404916545012856 0.023774491589368417 0.04512805983792284
0.012381970273131815 0.02382156590397974 0.04362060319574507
0.012360069798153794 0.023868895636410144 0.042106362040028544
0.01233808212424542 0.023916413816833904 0.04058609178390593
0.01258438433408704 0.02398038975330052 0.03886809226297677
0.012289269242688083 0.024011742220184838 0.03753060372505518
0.012265862251746085 0.024059761700379156 0.03599288012823687
0.012243509350835569 0.024108043639911314 0.034448160501850233
0.012913514132203818 0.024198840830836236 0.032391796271794615
0.012196228546270393 0.02420505004490327 0.0313417385827271
0.012172445169233936 0.024253846589738885 0.029779133964264848
0.012148565705521752 0.024302840276301113 0.02821021630508136
0.013091378463295222 0.024411613383501684 0.025913773277274676
0.01210167763293929 0.02440149560017688 0.025052417127164994
0.012077508678659421 0.024451088225430004 0.02346432263954351
0.01205557338715424 0.024501027468345194 0.021867991776740814
0.013121963448028628 0.024618811866664047 0.01943548946762913
0.012007920796429927 0.024601301720781187 0.018658379138723813
0.011983361423377303 0.024651710665945535 0.017044152641982724
0.01195870119757031 0.024702326614720316 0.015423297347232467
0.013012110040159897 0.024820723200716467 0.012956076224075574
0.01190907569254035 0.02480418464447591 0.012161536363860803
0.011884109152857036 0.0248554293125958 0.010520547828268723
0.011859039239387581 0.02490688615882304 0.008872764793715127
0.012765610209469702 0.025017451399000468 0.006476782252994029
0.011809776274248007 0.025010517031097957 0.005555694163749458
0.011784394759250305 0.02506261869305473 0.0038872654843453702
0.011758907274412589 0.025114937883496783 0.0022118709855700747
-0.06835797649820435 0.02082487249314746 0.04162050607731149
-0.0677249836976434 0.020913589709847386 0.039585431227421475
-0.06743470525721657 0.020979922697776834 0.03784573013444675
-0.06713296891245685 0.02104731815618913 0.03608627784807156
-0.0668123972514802 0.021116275944631394 0.034300149843657646
-0.06646386576494917 0.021187417384175344 0.03247868471349752
-0.07991965972998027 0.020332854128169656 0.043311868245842544
-0.08195921180763083 0.02024197439539895 0.043738664959320606
-0.08342642120857818 0.020189249482017183 0.04364788944421366
-0.08493300769291429 0.02013362399603694 0.043601385939534054
-0.08707339554346682 0.020034837288170963 0.04415662233439854
-0.08616064699848486 0.020142759572311687 0.041851101749472486
-0.08586581139206084 0.020209155150660713 0.04011486370743905
-0.08556902565363644 0.020275989889485216 0.038367141660796966
-0.08630136467649341 0.020272820836469804 0.03759401540767637
-0.09246165853665772 0.019897924451565466 0.04203995366041019
-0.09365779477861319 0.019862027624644868 0.0417431219315505
-0.09482828565579848 0.01982772809305512 0.041426631005116954
-0.09371071050525842 0.019951054605097017 0.03888087359693099
-0.09766660205372524 0.0197242711568874 0.04129694989691174
-0.09876750017767733 0.019694229191956993 0.040929529990803515
-0.09981339288837338 0.019667865997698007 0.04051199509168901
-0.10122653628095646 0.019615814292335495 0.04046448592894414
-0.09794127961182397 0.019891344782219083 0.03571647394061661
-0.10385923789948326 0.019524511163128314 0.04019770702383069
-0.10504868474120749 0.01948743142595726 0.039946040468788135
-0.10637816965696595 0.01944033462690854 0.03984243945222776
-0.10700030224863827 0.01944283888774757 0.03902227179711398
-0.10646364043777579 0.019527174961241005 0.037010146032870395
-0.10642352010749384 0.019576771292914026 0.03549855198851776
-0.0958491705867468 0.020373974290666244 0.023034917852902848
-0.09552943885623766 0.02044573187643222 0.021159757646291855
-0.09520886971320958 0.020517895285905117 0.019272835522219367
-0.09488602965120618 0.020590569902594735 0.01737254639929786
-0.09456089445359306 0.02066376117791498 0.01545874773446032
-0.094234160978651 0.02073742283698122 0.013532064019074141
-0.09390364005104679 0.020811715900431172 0.011590041400516449
-0.09357074238654584 0.02088654319652459 0.009634053926647346
-0.08941952962355704 0.021237936971890626 0.003532755145736144
-0.0907466996088766 0.02119380036643333 0.003338838564965363
-0.0933639385905275 0.02110757787281815 0.0029307419951641878
-0.0985467611774174 0.020781133713401893 0.007018150459936923
-0.09990044288657823 0.020733486488264896 0.006903019323971804
-0.10094990308983148 0.020707936572894502 0.006455661742722052
-0.10061772042934358 0.020783943313924552 0.0044617380590746825
-0.09951294751323131 0.02091733124380582 0.0015843724984911933
0.11100299750304321 0.025973218595983654 0.048130873201252256
0.10775441881666747 0.025850959854893583 0.048316985633189646
0.10483155900738328 0.02574542942094012 0.048336082708602734
0.10223306608552252 0.025656650565158083 0.04818578085199088
0.10107837898549438 0.025644017829358746 0.047228943436220916
0.09955207701230773 0.02561161453220493 0.04648539334417706
0.09783725342465904 0.025569063790305404 0.045853953186472785
0.09562319480953424 0.025499754482940628 0.04551563186083224
0.09423441935327553 0.02547423158291207 0.04470762754656593
0.09227166193443603 0.025417915611147125 0.04423756245087063
0.09075453706231457 0.02538526140753791 0.04351327647836922
0.08935094708711527 0.025358576938410777 0.042726167961132544
0.08803223957635709 0.025336355489506263 0.04189209625821366
0.08682019287642034 0.0253197964617574 0.040997209146246216
0.08569870635237603 0.025308063273246972 0.04005008376355362
0.08462789821220312 0.025299026359760387 0.03907386846569488
0.08364639539778873 0.025294795070600905 0.03804459033314278
0.08272213550920315 0.025293656119690065 0.03698090074927757
0.0818846790958751 0.02529723602799886 0.03586404636897306
0.08106191579563127 0.025301630936906235 0.03473765368871046
0.08036262601170607 0.02531278783714631 0.03353398881628172
0.07968059849724418 0.02532493315933385 0.03231809180341888
0.07910958150155861 0.025343213845409135 0.03103086677272604
0.07863897718477136 0.025367083687936883 0.029677811665366483
0.07825088445711065 0.02539559010041138 0.02826920797112381
0.07790513122081205 0.0254265444348514 0.026829818990328325
0.07773900731183475 0.025467549576098494 0.02527092995529695
0.024027853777885966 0.02254328155154822 0.058313338949305404
0.02174927245983521 0.022461511496474 0.058311679380627424
0.019487161355797644 0.022380332497905345 0.05831003180770333
0.017242477494476438 0.022299801402193606 0.05830765011225486
0.015010516024501208 0.022219659441893292 0.058307515444897706
0.013213966222709983 0.02216355216012314 0.05802860269547894
0.013194082185049305 0.022206797350062313 0.056569651075025484
0.013172999472490843 0.02225014867781389 0.05510574834589993
0.013152957345873295 0.022293732791842127 0.053635359848061614
0.013617268962560491 0.022364803058638746 0.05182996996641148
0.013108127198170172 0.022381160496519465 0.0506803152055888
0.013086709504333993 0.02242519594306508 0.049193308198676844
0.013065207364713616 0.022469405012718466 0.047700438215468155
0.014269679692363257 0.02258348230515916 0.04534978709043935
0.013024219792374336 0.02255847755905975 0.04469538270071788
0.01300360390285732 0.022603279182226328 0.04318390278573575
0.012982905963154046 0.02264825911349548 0.041666407260195104
0.01475386947102253 0.022796101256828558 0.03887026004959715
0.012936682537294686 0.02273849519517981 0.03861649558942781
0.012914579489844036 0.022783949423035608 0.03708158420052543
0.012893537202371796 0.022829652013054216 0.03553969414085645
0.012871258773725858 0.02287547178337826 0.033992441835165865
0.012914668313049715 0.022925284457854557 0.032390953810330136
0.012826432554403688 0.022967665317388655 0.030879229851251355
0.01280388367594204 0.02301404131830681 0.029313194625678884
0.012781243552417887 0.023060604981743112 0.027740822369956175
0.013091378463231607 0.023126791626471566 0.025913773277322083
0.012736852536477938 0.02315436804189318 0.024576038396009248
0.01271510513602836 0.02320157030535024 0.02298353569565864
0.012693268886347087 0.02324896541406328 0.021384526811693172
0.01312078862495697 0.023323015758319705 0.01943638496887945
0.012648153161719633 0.023344269619764 0.01816773043533232
0.01262486789262579 0.02339218054458513 0.016549875374193723
0.012601486847257926 0.023440288535112628 0.014925365802547386
0.013012110040119151 0.023514369348044763 0.012956076224107271
