# .PCD v0.7 - Point Cloud Data file format
VERSION 0.7
FIELDS x y z
SIZE 4 4 4
TYPE F F F
COUNT 1 1 1
WIDTH 764
HEIGHT 1
VIEWPOINT 0 0 0 1 0 0 0
POINTS 764
DATA ascii
-0.014317411645620583 -0.021316582553553565 0.039691792736528564
-0.014296719644283576 -0.02260514440286293 0.039186257541922176
-0.014276126238928094 -0.02388900919085918 0.03868141166805372
-0.014255553313896992 -0.02517015367122416 0.03817878815586606
-0.014235078247205987 -0.0264466428870197 0.03767684087511253
-0.014214661912306095 -0.02771947055197116 0.037176333407131334
-0.014194304056855187 -0.02898865239799836 0.03667725956573675
-0.014173966111350944 -0.030255157755095297 0.03618038426012654
-0.014153724572900811 -0.03151709003106873 0.035684159493124035
-0.01413354076502517 -0.032775423169792595 0.035189350000986386
-0.014113376449396153 -0.034031111993742535 0.034696721495388994
-0.014093307472161832 -0.03528228819829854 0.03420472467415003
-0.014073295489359955 -0.03652991115365267 0.03371412508800059
-0.014053302589580515 -0.03777492138781757 0.033225689209091136
-0.014033403976277677 -0.039015478473279186 0.032737866507929425
-0.014013561633727684 -0.04025252742076768 0.032251423307438576
-0.013993775323577864 -0.041486083090122416 0.031766353764298816
-0.013974007563747066 -0.042717067276438536 0.03128342530233719
-0.013954332713512102 -0.043943676092679906 0.030801085870627964
-0.013934713188204783 -0.04516683573177327 0.030320102758972844
-0.0139151487547955 -0.04638656072172104 0.029840470254520912
-0.013895639181561243 -0.04760286550905696 0.02936218267646551
-0.013876147512833519 -0.04881664898315197 0.02888600854012935
-0.013856747072583126 -0.05002615194847926 0.028410394074119993
-0.013837400804659826 -0.05123227758890353 0.027936107678080635
-0.013823937912233577 -0.05229557557977871 0.02733914362228612
-0.01385451345895122 -0.052306205738340605 0.025804327567429397
-0.013885261331718631 -0.05231600719193502 0.02426192018853346
-0.01391610905093223 -0.05232673000219934 0.022713444107065273
-0.013947131240646175 -0.05233662088239027 0.021157273787550612
-0.013978254782770694 -0.05234743757818877 0.019594954479832394
-0.01400951754224699 -0.05235830265769165 0.01802564683009339
-0.014040958057873767 -0.05236833093319959 0.016448487180755977
-0.014072502238164005 -0.05237929179916506 0.014865055357991874
-0.0141042264130872 -0.05238941257858526 0.013273664008876529
-0.014136132059309716 -0.05239868765895833 0.011674246309003655
-0.014182017570899492 -0.05208516096090843 0.009763566908532029
-0.014228201938887597 -0.05176959223573874 0.007840443083992288
-0.014274688092530546 -0.05145196146841441 0.005904752860715234
-0.014321478999492016 -0.05113224838147207 0.003956372664752128
-0.014146601201140755 0.02669805037191425 0.0413930282044242
-0.014041167351559608 0.02282392843204817 0.04250202578936613
-0.013937293461186 0.019007126529471563 0.043594615067083786
-0.01383494516341127 0.015246381877773385 0.04467115752002604
-0.013734049846181652 0.011539340980971868 0.04573279184169976
-0.013634615490716895 0.007885977947109934 0.04677905372393221
-0.0135366868477642 0.004287317062658669 0.047808733499824396
-0.01344015488980003 0.000739981260258038 0.048823727702177244
-0.013392589961635741 -0.0014007586131598582 0.04885569206523521
-0.01337283945005569 -0.0027449938422625664 0.04832632329256947
-0.013353184206962672 -0.004084217281137226 0.04779775341261766
-0.013333586657166312 -0.005419509747784157 0.047270735023951904
-0.01331400966342854 -0.006751930900272596 0.046746022157862055
-0.013294526848641477 -0.008079407970721708 0.04622208666452049
-0.013275100970186011 -0.009403005638979667 0.045699682313622036
-0.013255695217636764 -0.010723767741209034 0.045179564243433945
-0.013236382572091348 -0.01203965232852261 0.044660202430633955
-0.013217126119097401 -0.013351708185492861 0.04414235176579462
-0.013197925613762197 -0.01465995199810155 0.04362600566318969
-0.013178744674660466 -0.015965406876498334 0.043111920662864456
-0.013159655440253656 -0.017266071252369786 0.042598564380442794
-0.013140621426859008 -0.018562973088507184 0.04208669312630825
-0.013121606569937487 -0.019857120219381852 0.041577064435608935
-0.013102682385405885 -0.02114654084484463 0.04106814425736521
-0.013083812707768872 -0.022432247581672282 0.04056068991022049
-0.013064997301872798 -0.02371425645232894 0.04005469507027981
-0.013046200519215333 -0.024993555277761703 0.03955091852938569
-0.013027493058225167 -0.026268211267207853 0.039047824143859544
-0.013008839171144612 -0.02753921693208783 0.03854617050610487
-0.012990203516830685 -0.028807545340606422 0.03804671729725129
-0.0129716561896552 -0.030071292463409283 0.03754792690277037
-0.01295316175047048 -0.031331435991726275 0.03705055881681202
-0.012934685161526837 -0.032588934458322116 0.036555373566213634
-0.012916295920839233 -0.03384191217669186 0.036060832146237065
-0.012897958893883317 -0.035091332236363015 0.03556769490890649
-0.012879639342403932 -0.03633813884802156 0.03507672318423083
-0.012861406175629883 -0.03758048425694299 0.03458637665599851
-0.012843224559741004 -0.03881931716547937 0.03409741649128961
-0.012825060052145579 -0.04005556767169505 0.03361060478172495
-0.012806980980728465 -0.04128741554895632 0.03312439997654071
-0.012788952808522608 -0.04251579532303834 0.03263956401603796
-0.012770975320880128 -0.043740721619329015 0.03215609112764661
-0.012753048304358645 -0.0449622089810886 0.03167397557120327
-0.012735137800679277 -0.04618116444384035 0.03119398062069928
-0.0127173111852601 -0.04739581277718374 0.03071456282836832
-0.012699534407385868 -0.04860706534025183 0.030236485335641272
-0.012681807258353578 -0.049814936353403005 0.029759742529783917
-0.012664096160038442 -0.051020314800945765 0.029285098551638244
-0.012660526523402308 -0.05185371715676407 0.02848575116128299
-0.012688503572982126 -0.05186336130470515 0.02695485468425085
-0.012716638190847266 -0.05187217195582139 0.025416394168667145
-0.012744864055924322 -0.051881899903983675 0.0238718849243183
-0.012773215500062806 -0.05189167113255749 0.02232050403861191
-0.012801727462875659 -0.051900603929629474 0.0207614047628652
-0.012830332745009752 -0.05191046064555249 0.0191961363327961
-0.012859100555651438 -0.05191947560580179 0.017623044322432502
-0.012887963100124649 -0.051929418953341466 0.016043701011957123
-0.01291695550134243 -0.05193940703744743 0.01445725200844361
-0.012946113510857254 -0.051948548340728484 0.01286281815337531
-0.01298167708867483 -0.051797660711057236 0.011111219971011332
-0.013023892120260047 -0.05148160773670296 0.009195225028545806
-0.013066382605164496 -0.051163492514923026 0.007266728208254747
-0.01310915124821436 -0.050843294795386906 0.005325606747389522
-0.01294237695358852 0.02930506079339229 0.03961141078804392
-0.012845271201414063 0.025385719731281953 0.040741599171268905
-0.012749648958176716 0.02152593429277505 0.04185413867147636
-0.012655439849735998 0.01772318994559341 0.042950236722196
-0.012562612780255571 0.013976231508387837 0.04403025511525671
-0.012471137559601927 0.010283840358443541 0.04509454510487432
-0.012380914701673221 0.006642624681439224 0.046145007763064516
-0.012292091654978344 0.0030569741496599967 0.047178065954299686
-0.012204533997146248 -0.0004775945692759298 0.048196407015465625
-0.012118954370934722 -0.003939033886203813 0.0491837331102834
-0.012101164403915088 -0.005273355205882457 0.04865631961122924
-0.012083460008359682 -0.006602723800870125 0.04812969651875021
-0.012065807341332625 -0.0079282082598216 0.047604612108411215
-0.01204817295255969 -0.009250856288292308 0.04708181608576234
-0.012030623161490858 -0.010568618240546723 0.046559789213347524
-0.012013124423338774 -0.011882546780162817 0.046039280934169646
-0.011995676515654958 -0.013192658610134134 0.04552028463139979
-0.011978246377925134 -0.014499980670930446 0.0450035514732775
-0.01196089956403213 -0.015802503774723087 0.04448755974130858
-0.011943602920555898 -0.01710125972409604 0.04397306035946186
-0.011926323674884078 -0.018397260154909945 0.0434608055361006
-0.011909126815292164 -0.019688525704765036 0.04294927179743013
-0.011891979477443998 -0.020976072801196066 0.04243921112087928
-0.01187484917287718 -0.022260898002670504 0.04193137670829139
-0.01185780033154 -0.02354105133484402 0.04142424341689854
-0.011840800374408364 -0.024817534078673098 0.04091856423063733
-0.011823849091534345 -0.02609036199859799 0.04041433290442231
-0.011806914367538683 -0.027360511897940254 0.0399123038954558
-0.011790059899159206 -0.028626072316277007 0.03941094996370248
-0.011773253481974002 -0.029888024689088022 0.03891102536536234
-0.011756463276248902 -0.03114733125638547 0.03841328544653505
-0.01173975243690287 -0.0324021089557861 0.03791620149186259
-0.01172308903627662 -0.033653324593093725 0.0374205286587741
-0.01170644150674032 -0.03490192605865472 0.03692702313917978
-0.011689872468270465 -0.03614605827647549 0.0364341548221902
-0.011673350266410741 -0.03738667363750575 0.03594267972310111
-0.01165684360215543 -0.03862470589219058 0.035453354837554296
-0.011640414567299017 -0.03985832754663965 0.03496464873706967
-0.011624031777089976 -0.0410884767878501 0.03447731825244832
-0.011607695036547594 -0.04231516825650705 0.03399135758370614
-0.011591373399464327 -0.04353931717126602 0.033507524735724104
-0.011575128263821873 -0.04475913219472949 0.03302428663861978
-0.011558928599079957 -0.045975532898449356 0.032542401147713396
-0.011542774214592481 -0.047188533597657456 0.032061862591932166
-0.01152663451100647 -0.04839903133656526 0.03158342991459806
-0.011510570204043055 -0.0496052702450997 0.03110556853561791
-0.011494550611398894 -0.050808151638644716 0.030629037263565806
-0.011499209557430974 -0.0514126541861577 0.029630294528434464
-0.01152459742217666 -0.051421315858649064 0.028103306000194617
-0.011550128170924797 -0.05142913926888887 0.026568780612572007
-0.011575741619288222 -0.051437875937587196 0.025028226387245556
-0.011601468920382043 -0.05144665144111904 0.023480824341083617
-0.011627341778320815 -0.051454583653379404 0.021925731753818067
-0.0116532992124131 -0.051463435661158186 0.020364490434265414
-0.01167937280305395 -0.05147232728067236 0.018796262738365987
-0.011705594692879307 -0.05148037052337645 0.01722018673525838
-0.011731903089057362 -0.051489340195942535 0.015637838783646996
-0.01175836165276713 -0.05149745806498779 0.014047534993935684
-0.011784939828438541 -0.051505612632721964 0.012450041873828088
-0.01182301720185561 -0.05119444461935796 0.0105461429003183
-0.011861534641826611 -0.05087584900529818 0.008624806310829791
-0.011900303869010876 -0.05055517074240967 0.006690910008476991
-0.01163421604432143 0.027981273698895415 0.03895797132669726
-0.011547062798693523 0.02407769834270923 0.04009088974046415
-0.011461205594175643 0.02023217239248537 0.04120696071694335
-0.011376615734326922 0.016443410540734393 0.042306557285574364
-0.011293265363680478 0.012710165147011843 0.043390041543844626
-0.011211095473110765 0.009030107084307903 0.04445855462715936
-0.01113011268277482 0.005403214454282601 0.04551163100825084
-0.011050322505968728 0.0018294249184716005 0.046548830435901245
-0.010971698808265987 -0.0016924253775646436 0.04757050062143925
-0.010894186030813074 -0.0051645133891511374 0.04857773503084001
-0.010841143403231284 -0.007778545840158524 0.048983291735819945
-0.010825355030813106 -0.009098183517166236 0.048458602020052755
-0.010809612577944041 -0.01041398310591618 0.047935438333323754
-0.010793915844583423 -0.01172596132637771 0.04741379402775542
-0.010778235088418783 -0.01303514894612795 0.0468944149041049
-0.010762629284076137 -0.014339529164153708 0.04637578990125496
-0.010747068605677774 -0.015640137619607197 0.045858664561100715
-0.010731523569864253 -0.016937989746564908 0.04534378576948894
-0.01071605264252285 -0.018231098626630415 0.044829640621412314
-0.010700626257791834 -0.019520484494911394 0.04431697575737048
-0.010685215187890769 -0.020807147679518523 0.0438065391010935
-0.010669877396515069 -0.022089130706671012 0.04329681599110824
-0.010654583574427081 -0.023367438636223592 0.04278855411900151
-0.010639333532825283 -0.024642087248822497 0.04228174721031086
-0.010624098379500381 -0.02591405707982941 0.04177714450245923
-0.010608935418653756 -0.027181429243825772 0.0412732291217458
-0.010593815677984961 -0.02844518891745257 0.04077075009058567
-0.01057871051321555 -0.02970630204491531 0.0402704575784249
-0.010563676741200729 -0.030962878193963872 0.03977083315123736
-0.010548685638575722 -0.03221588788362323 0.03927262677596716
-0.010533708805809042 -0.03346628268088292 0.03877658951045815
-0.010518802578593235 -0.03471220019442339 0.038281201441197954
-0.010503938479298654 -0.03595459650076288 0.037787213435747036
-0.01048911632958455 -0.037193486506273965 0.037294619567201426
-0.010474308051338647 -0.038429802936129964 0.036804172013190195
-0.010459569348242357 -0.039661720155106106 0.03631434900733771
-0.010444872065377177 -0.0408901753126385 0.035825902552850564
-0.010430188362157578 -0.04211608724093574 0.03533958561790718
-0.010415573475129588 -0.043337657412210184 0.03485387513804422
-0.01040099948785228 -0.04455580902026707 0.0343695239185865
-0.010386438794259498 -0.04577144720568721 0.03388728567794003
-0.010371946169607385 -0.046982800159808935 0.033405636128314986
-0.010357493932909355 -0.04819077732324245 0.03292532883657601
-0.010343081915571081 -0.04939539278779703 0.032446358199634096
-0.010328682819580047 -0.050597533747089196 0.031969478876411606
-0.010339981363701716 -0.05097238452188002 0.030772779292742747
-0.010362789318273391 -0.05098006723980031 0.02924968712799092
-0.010385698114959202 -0.050987783925776464 0.02771986082871336
-0.010408735976420334 -0.05099465591365654 0.02618247419743136
-0.0104318485965946 -0.051002439284148715 0.02463903912183596
-0.010455091886788172 -0.051009374530582685 0.02308794124496899
-0.01047841106278123 -0.05101722547070958 0.021530714972805454
-0.0105018344941069 -0.051025111510819454 0.019966526656040817
-0.01052539105492151 -0.05103214424516578 0.018394518459741382
-0.010549025232041365 -0.05104009922105951 0.016816259197973416
-0.01057279421424502 -0.051047197398924715 0.015230072996701094
-0.010596641994197931 -0.051055222236038145 0.01363755204378364
-0.010625562509205802 -0.05090809937462348 0.011893213207274878
-0.0106601293833426 -0.050589027401633235 0.00997900387228734
-0.010694921896092639 -0.05026787265550281 0.008052299350760517
-0.010251923430581242 0.022772769187185238 0.03944171862180296
-0.01017575593383828 0.018940276072329676 0.04056211894470296
-0.010100741064810759 0.015165461303608518 0.04166518547262965
-0.010026824109430985 0.01144589452378486 0.04275210757729164
-0.009953981139297428 0.007780371634462546 0.04382323711718272
-0.009882133037052035 0.004165533891919426 0.044880479365438264
-0.009811369786203662 0.0006046598646567425 0.045921022072708595
-0.009741639913224538 -0.0029045204371236366 0.04694600374270802
-0.009672894192892316 -0.006364172911964117 0.047956519038660494
-0.00960511193602558 -0.009775338750171947 0.048952872077450915
-0.00957871050985448 -0.011570911340417434 0.04878451142220647
-0.009564844305384807 -0.012877147060492478 0.04826325532514236
-0.009551018188502422 -0.01417960641636673 0.047743506194097285
-0.009537205962429452 -0.015479308637163014 0.0472260055966659
-0.00952345957591331 -0.016774259254736246 0.046709251188238154
-0.009509752758884394 -0.018065482308584735 0.0461939842766666
-0.009496059541607694 -0.019353981893330485 0.04568094751177709
-0.009482431426706597 -0.020637793041929697 0.045168636705107956
-0.009468842372082575 -0.021917924589991367 0.04465779426012284
-0.009455292210046687 -0.02319439233433407 0.04414841387303209
-0.009441755268968446 -0.02446818053927874 0.04364123956561844
-0.009428282465605524 -0.02573736290048534 0.043134764822369775
-0.009414848057177261 -0.02700292833266338 0.04262973343607157
-0.00940142659230316 -0.02826584648116759 0.04212689040360279
-0.009388068554802521 -0.02952421954988471 0.041624727564227026
-0.009374748423037153 -0.030779021768000014 0.041123989698501284
-0.009361440963048693 -0.032031208376145814 0.04062542273424424
-0.009348196231210186 -0.0332789096736002 0.0401275169473711
-0.009334988924183265 -0.03452308541943805 0.03963101806176361
-0.009321818883568192 -0.03576375053547798 0.039135920122748136
-0.00930866116094182 -0.03700184138432944 0.03864297023382873
-0.009295565251221218 -0.038235525093058 0.03815065670784784
-0.009282506137750817 -0.03946574245731954 0.03765972646044852
-0.009269459083116677 -0.04069341591994724 0.03717092742702227
-0.009256473167248673 -0.04191673976853588 0.03668274654081122
-0.009243523585344792 -0.0431366408162116 0.03619593156108081
-0.009230585808329472 -0.04435402778764741 0.035711231214276606
-0.009217708506337055 -0.045567121742096484 0.03522713112979242
-0.00920486708373435 -0.04677683571286473 0.03474437986941803
-0.009192061390776466 -0.04798318380652389 0.034262971803754705
-0.009179267172051917 -0.04918705676586432 0.03378365665342958
-0.009166532559312763 -0.0503867107495537 0.03330491842153599
-0.009182836311905068 -0.05053290602556437 0.03191321100319516
-0.009203073593499653 -0.05053961329556805 0.030394003660152935
-0.009223400270595017 -0.050546350194060785 0.028868085420641787
-0.009243841383572784 -0.050552237650758614 0.027334634035831806
-0.009264348746478484 -0.050559032465606224 0.025795154106705465
-0.009284947302423664 -0.05056585749594655 0.024248828350794283
-0.009305662435859906 -0.05057182784854347 0.022694815765456733
-0.009326445323027477 -0.050578711959299694 0.021134654712425094
-0.009347346246554368 -0.050584737862887974 0.019566702095550725
-0.009368315950361503 -0.050591681841700376 0.017992519208821056
-0.009389379951985924 -0.050598657046628304 0.016411257442389082
-0.009410564225457108 -0.05060476870466435 0.0148220435412868
-0.00943184430679902 -0.050610908003266175 0.013225642270712878
-0.00946215209510529 -0.05030302418621091 0.011329337501151726
-0.009492990449352841 -0.04998139698805071 0.009409791580214766
-0.00895981597814642 0.02146973631001392 0.03879490827016302
-0.008893352361153788 0.017652580231400317 0.03991797376828604
-0.008827867533338389 0.013891638232393255 0.04102450022737064
-0.008763340031253754 0.010185677618642641 0.04211485032488321
-0.008699749014449793 0.0065335014758926 0.043189376211242136
-0.008637025459889593 0.0029317674582362563 0.04424998523626733
-0.008575223924715306 -0.0006173304731483809 0.04529463601486983
-0.008514347944421298 -0.004113888978745206 0.046322911623369045
-0.008454330195278456 -0.007561152911737035 0.04733669057561768
-0.008395152655276576 -0.01096015740967321 0.04833627728714118
-0.008343370560367259 -0.014021216469809028 0.04910746547815126
-0.00833134732451369 -0.015318007233664666 0.048588103956464346
-0.008319358691027177 -0.016611065888265608 0.048070237135370564
-0.00830738194558384 -0.01790140029162235 0.04755460239500192
-0.008295462134911391 -0.01918703798958915 0.04703970601162727
-0.008283576481405474 -0.020468991590390506 0.04652628510481138
-0.008271724838455936 -0.021747276906984414 0.046014333341487856
-0.008259884752422304 -0.023022881929572192 0.04550458953193415
-0.008248100757706718 -0.02429387294096136 0.04499555751068818
-0.00823635033844898 -0.025561242590840028 0.044487975845057426
-0.008224611233611076 -0.026825964222670917 0.04398258436343705
-0.00821292759899985 -0.02808613268247412 0.043477885170342956
-0.008201277112137877 -0.029342725906542355 0.04297461786404433
-0.008189637702117237 -0.03059670280614618 0.04247352324636672
-0.008178053150951261 -0.03184618637708636 0.04197310177471508
-0.008166501327060002 -0.03309214005797845 0.04147409403334057
-0.008154960347234787 -0.03433550853858436 0.04097724175386924
-0.008143473624417143 -0.035574442558408303 0.040481043827577945
-0.008132019215481085 -0.03680989127021933 0.03998624178078436
-0.0081205969842625 -0.038041869360400826 0.039492829731530066
-0.008109185294070698 -0.03927130287948771 0.03900155058633342
-0.008097827073034762 -0.04049637893622188 0.038510901268432485
-0.008086500625533575 -0.04171802796011248 0.03802162449496038
-0.008075184497064625 -0.04293716225704103 0.03753446400427157
-0.008063921257395624 -0.04415199575987466 0.037047915335330084
-0.008052689393819791 -0.04536344509171358 0.03656272204873051
-0.008041488775412471 -0.04657152437385892 0.036078878488804644
-0.008030298186986116 -0.04777712789543659 0.03559712944169041
-0.008019159727498311 -0.048978504757793084 0.035115968714327817
-0.008010149501198681 -0.05008937837930444 0.03456103668099059
-0.008027747720349664 -0.05009509044894522 0.033052352040555844
-0.008045444600479342 -0.050099951881108495 0.03153626116906849
-0.008063198419141935 -0.050105712507855726 0.030014239398218234
-0.008081052117759167 -0.050110618975345855 0.028484711562869025
-0.008098963608758579 -0.05011642879740641 0.026949175000785808
-0.008116954677064973 -0.050122264431402164 0.02540681634529418
-0.008135047492719033 -0.05012724057709522 0.02385679860809309
-0.00815319941155791 -0.05013312639361872 0.022300652749464356
-0.008171432517139485 -0.050139038535210845 0.020737546832517217
-0.008189769285990777 -0.05014408579508878 0.01916662475176678
-0.008208166506294863 -0.0501500491330748 0.01758945184903593
-0.008226668695165619 -0.05015514395286497 0.01600435571889558
-0.008245232255981644 -0.05016115917246694 0.014412925059173631
-0.008267588126472193 -0.050017835861361326 0.0126758237113061
-0.008294494733754475 -0.04969574021371537 0.010763403406735206
-0.007613950891156887 0.016367898882353904 0.039275336533670935
-0.007557930088730588 0.012619634569394078 0.040386113966582926
-0.007502749101516127 0.008927246018970603 0.04147986423374006
-0.00744836803468202 0.0052883834564272925 0.04255775916421589
-0.007394748760065594 0.001700806116673781 0.04362092459891914
-0.007341875393852776 -0.0018365555134944866 0.04466966743448875
-0.007289813576351581 -0.005320540191748102 0.04570121952889733
-0.007238484908934716 -0.008755462355811539 0.046718244998186165
-0.007187874013225502 -0.012142351128970996 0.04772104854928716
-0.0071379659379583495 -0.015482207052173957 0.04870992642635963
-0.007108969234156827 -0.017736865198898 0.04891002436303077
-0.0070987856166555945 -0.019020639288115815 0.04839402710351631
-0.007088631133538332 -0.020300740618901914 0.04787950606421948
-0.007078486546567971 -0.021578160904270727 0.0473671948480498
-0.007068390012874872 -0.02285095902023343 0.04685560763145813
-0.0070583222409222 -0.024120131348376317 0.046345477760427634
-0.007048264157461385 -0.025386654927226693 0.045837539898944735
-0.007038253595305723 -0.02664861725093054 0.0453303064087488
-0.007028271428575082 -0.02790699995983814 0.044824511709917136
-0.00701829874689155 -0.02916276563285658 0.04432089148231
-0.007008373062864142 -0.03041402996822884 0.04381795635689201
-0.006998475414140729 -0.03166176008109828 0.04331644178232785
-0.00698858705113228 -0.03290690430172699 0.042817084410196216
-0.006978745170287443 -0.03414760612579387 0.0423183932226886
-0.006968930970689372 -0.03538481835536367 0.041821104652617236
-0.0069591258614919715 -0.03661947527919596 0.04132595628012348
-0.006949366726959207 -0.03784974779100225 0.0408314555187721
-0.006939634925552945 -0.039076574588034985 0.040338339742085616
-0.006929930342602847 -0.04029997012605491 0.03984660313966121
-0.006920234595764113 -0.041520850289268774 0.0393569844656268
-0.006910584159189059 -0.04273742188984303 0.03886798916090339
-0.0069009606006722604 -0.04395060513778204 0.038380355788772635
-0.006891345691970958 -0.04516130234478316 0.03789482393507826
-0.00688177560407394 -0.046367746816376676 0.03740989765205338
-0.0068722320594896405 -0.04757084512927878 0.03692631634621185
-0.0068627149479414395 -0.04877061118541737 0.03644407442971648
-0.006859698013004937 -0.04965244040964173 0.03569353620973614
-0.006874755184880247 -0.04965718826875026 0.03418869055179469
-0.006889878603744756 -0.04966195701701226 0.03267722402938317
-0.006905086896094099 -0.04966586871581574 0.03115832835736171
-0.006920344207766941 -0.049670677730617896 0.02963348263129756
-0.006935687443011873 -0.049674626099383556 0.028101107488522348
-0.00695108043349524 -0.04967947590916055 0.026562704103353985
-0.006966560415655755 -0.04968346144686203 0.025016669275517323
-0.006982090902858415 -0.04968835258941118 0.023464526587814005
-0.006997690788706831 -0.04969326558825271 0.021905448084164947
-0.007013379302708104 -0.049697308826724684 0.02033858174065889
-0.007029119472972337 -0.0497022639918544 0.018765485380410507
-0.007044949386280039 -0.049706345695458565 0.017184494585602894
-0.007060831741798821 -0.049711343589126045 0.01559719043915131
-0.007076804974694924 -0.04971546428940177 0.014001883364145151
-0.007099420038723391 -0.0494108988262853 0.012113151444818782
-0.006290965687157291 0.0113517263346955 0.03974840205623453
-0.006245087813190674 0.0076728381145783064 0.04084554285776426
-0.006199874238193111 0.00404721918180817 0.041926797362890955
-0.006155275950755921 0.0004715597635933655 0.042994077000616415
-0.006111331805548047 -0.003051961661762692 0.044045335640573835
-0.006068027525370778 -0.006524483224194522 0.04508092274601411
-0.006025349245514297 -0.009947110171551865 0.0461011776835315
-0.0059832671113836675 -0.013321928621656987 0.04710718132921965
-0.005941768718841363 -0.01664993333661119 0.04809923021289697
-0.0059008420055070634 -0.01993209167095772 0.04907761269443023
-0.005889149949252483 -0.021408620793561484 0.04871491562908614
-0.005880763483942806 -0.022679594261939773 0.04820223962471376
-0.005872385084398726 -0.023947918252906264 0.047691757450790184
-0.005864046265454415 -0.02521167291472287 0.04718199171825921
-0.005855731095265986 -0.026471843588742883 0.04667367167309211
-0.005847423821467274 -0.027729396518517302 0.04616752787721351
-0.005839155692214053 -0.028982440110639496 0.04566208112721959
-0.005830910911853615 -0.030231945153776585 0.04515806174023429
-0.00582267386193062 -0.03147886361572244 0.04465620129175857
-0.0058144755272893705 -0.03272133175417663 0.04415501884707518
-0.005806300246726147 -0.03396030601752581 0.043655245749480986
-0.005798132533992552 -0.035196724305259885 0.04315761454439987
-0.005790003113932052 -0.03642875032619347 0.042660642646938196
-0.005781896458077365 -0.037657326397000424 0.042165062382619745
-0.005773812470944772 -0.03888246698837877 0.041670867914290866
-0.005765735839934025 -0.040105091559979045 0.04117879301571342
-0.005757696948328963 -0.04132339980895294 0.0406873530221627
-0.0057496804420027695 -0.04253831552931581 0.04019728150348223
-0.005741671136697878 -0.04375074458207007 0.039709313105343536
-0.005733699163209032 -0.04495891320949874 0.03922196169505482
-0.005725749296261554 -0.04616373154609982 0.03873596172604066
-0.005717806478330745 -0.04736609204954062 0.038252048675456174
-0.005709900590853102 -0.04856424713028368 0.03776873501780442
-0.00571128888853838 -0.04921715649489555 0.03682475452328543
-0.0057238290104893175 -0.04922007088464114 0.03532299254883842
-0.00573640925838937 -0.04922387462189842 0.03381537645877636
-0.005749060057338683 -0.04922681667434031 0.032300357873845276
-0.005761751581908015 -0.04923065210767236 0.030779408718065948
-0.005774514529573201 -0.04923362219925598 0.02925095723380461
-0.005787318813789988 -0.04923748974241554 0.027716497333579115
-0.005800180008086147 -0.049241374475317456 0.02617521735396261
-0.005813113961409468 -0.049244388330413835 0.024626282026944835
-0.005826090189175782 -0.04924830581622591 0.02307121886106217
-0.005839140085998362 -0.04925134869035713 0.021508396067726143
-0.005852232897494409 -0.04925529936152406 0.019939363975817193
-0.005865384555650622 -0.04925926778930645 0.018363279747047823
-0.005878611277324711 -0.04926235595235379 0.01677927601816065
-0.005891881896784063 -0.04926635823769321 0.01518893799074894
-0.005907751737546196 -0.04912686933954191 0.013459052214252365
-0.005026938597077288 0.010086757599670204 0.03911216860772049
-0.004990306779501892 0.0064202051910259295 0.04021348426867688
-0.004954219023438544 0.0028077970328104773 0.04129807123417345
-0.004918635619095943 -0.0007538153429209604 0.042367869592085494
-0.004883546074865704 -0.004265688784337751 0.04342318675599649
-0.0048489805494594225 -0.007725727183137299 0.04446201658257948
-0.004814914157133592 -0.011136105246583927 0.045485484029407275
-0.004781323090603902 -0.014498898562806284 0.04649467111232369
-0.004748197470515958 -0.017815096151515664 0.0474898746399115
-0.004715527689413364 -0.021085659812782043 0.048471383252035705
-0.004690305331401233 -0.02377529933359085 0.04903294153734039
-0.004683655835347507 -0.025037256454386148 0.04852209819019898
-0.00467701265015858 -0.026296595125636146 0.04801343286587212
-0.004670400764483442 -0.027551416468201195 0.04750547651867698
-0.004663807546842909 -0.028802694941256868 0.04699895433822743
-0.0046572205074314485 -0.030051386147171844 0.04649459282792101
-0.004650664424373225 -0.031295619111509354 0.04599092112831554
-0.004644126773683962 -0.032536353925998684 0.045488665497173286
-0.004637595171260618 -0.0337745320979419 0.04498855344912778
-0.004631094187349185 -0.035008310157020106 0.044489112393098995
-0.004624611404091078 -0.036238634036398876 0.04399106961055399
-0.004618146745159268 -0.037465518221676986 0.04349441923762798
-0.004611687965286963 -0.038689885745075925 0.04299989007157834
-0.0046052593616323564 -0.039909929194408 0.042506007334434326
-0.004598848655726611 -0.04112657594481106 0.04201349960647488
-0.004592443704916664 -0.042340735403747054 0.04152309659700765
-0.004586068604487016 -0.04355062675586624 0.04103332198091303
-0.004579711178989748 -0.04475716369059213 0.04054490526235005
-0.004573359387098597 -0.04596124218622627 0.0400585770217729
-0.004567037124727182 -0.04716110764674969 0.03957285946301542
-0.004560732318155036 -0.04835766027251526 0.03908848297294404
-0.004564949485142981 -0.04878177949785134 0.0379532054818556
-0.004574963647238092 -0.04878373618877191 0.03645526350146133
-0.004585009813229389 -0.048786578365442035 0.034951486474177895
-0.0045951001970849425 -0.0487894330518695 0.033441090622493286
-0.0046052472267176 -0.048791419595773045 0.03192326936459666
-0.004615426980334525 -0.04879429761154208 0.030399498381040613
-0.004625664080873209 -0.04879630375227706 0.028868201723903364
-0.004635934396843133 -0.048799205400011925 0.027330877134860654
-0.004646262772915047 -0.04880123140842263 0.025785924845234343
-0.00465662486514371 -0.04880415699607865 0.02423486498748506
-0.0046670332797430335 -0.04880709566220559 0.022676871320591763
-0.00467750084713902 -0.048809152988920745 0.02111109355281443
-0.004688002899493937 -0.048812116076045575 0.019539086030267716
-0.00469856484907818 -0.04881419397832981 0.01795918780899647
-0.0047091618084938655 -0.04881718180838063 0.01637297647704583
-0.004719819422559693 -0.04881928057495033 0.014778765948336603
-0.0037384281055505278 0.0051715662041276755 0.039582078514633634
-0.0037114242484163665 0.0015722995546587626 0.040669988681030445
-0.0036847973495800703 -0.0019764139127793623 0.041743081086059564
-0.003658539576576496 -0.005475624781291988 0.042801663392922684
-0.0036326634479904355 -0.0089242811348334 0.04384449636746235
-0.0036071706361475294 -0.012322456428999873 0.04487115945402864
-0.0035820331308636317 -0.015673269589175143 0.04588351340391644
-0.0035572435554073337 -0.018977703928873935 0.04688185529764766
-0.0035327947358473723 -0.022236715728483347 0.04786647404844496
-0.0035086796941310016 -0.025451235157910812 0.04883765068098389
-0.0034971650459687227 -0.02737400910904736 0.04883912000713503
-0.003492226715650983 -0.028624471562944898 0.0483322594477138
-0.0034873115907027457 -0.029870467866006112 0.0478261004936506
-0.0034824102818675345 -0.03111296175034073 0.04732136432116141
-0.0034775135047377128 -0.03235289832813282 0.046818773418001225
-0.003472639679780355 -0.033588426955702966 0.0463168651791942
-0.0034677794972858295 -0.03482049717976726 0.04581636184607846
-0.003462932900053715 -0.036049123500802194 0.045317257528127874
-0.0034580907077419076 -0.03727523252071635 0.04482027604994254
-0.003453271136121507 -0.0384970097236616 0.04432395251271959
-0.0034484649799631653 -0.03971538606301428 0.04382901051104404
-0.003443663135839804 -0.04093127448984607 0.0433361748216598
-0.003438883668205335 -0.04214288713679032 0.042843978919528014
-0.0034341174490506473 -0.043351141245335845 0.042353147363357435
-0.003429355450899038 -0.04455693631161589 0.04186440584066525
-0.0034246155887630953 -0.04575851073866827 0.04137628627720663
-0.003419888810884399 -0.04695676825303874 0.040889514154172135
-0.003415175063159517 -0.04815172257016587 0.040404083899895527
-0.0034206563590318696 -0.04834717967209101 0.03907964209497922
-0.0034281445989134676 -0.04834905740094103 0.0375862511434516
-0.003435674701607178 -0.04835006613345183 0.03608555956832582
-0.0034432289124595784 -0.048351958471221146 0.03457901423135884
-0.0034508255013677124 -0.04835297805257155 0.03306507015004795
-0.003458446558847882 -0.04835488518461417 0.03154519583484017
-0.0034661013526442012 -0.048356800759018936 0.030018593455885534
-0.0034737993137540116 -0.048357837882626264 0.028484441951883988
-0.0034815315442062074 -0.048358879623256856 0.026943460800063268
-0.0034892889845245497 -0.0483608169128546 0.0253963922664992
-0.003497081071816588 -0.04836276285496449 0.02384241407707749
-0.0035049174108862952 -0.04836382262912381 0.022280680007314313
-0.0035127795342108155 -0.04836578404896369 0.02071273691048059
-0.0035206770089826803 -0.04836775428819373 0.019137743675196772
-0.00352861957352899 -0.04836883248972551 0.01755483468233493
-0.0035365885132186588 -0.048370818517888936 0.01596559163101985
-0.0035446031136683012 -0.04837190854750878 0.014368323840609598
-0.002489424003137098 0.003925794349788625 0.03895212259837211
-0.0024714556065372033 0.00033853429143893 0.04004413368055648
-0.0024537516293367326 -0.003196245372191875 0.04111970666542719
-0.002436285903593771 -0.006682841819244334 0.04218153671242497
-0.0024190670614974256 -0.010120154104988177 0.043228357450434796
-0.0024021097149259053 -0.013506172527593674 0.0442581993959702
-0.0023853884510489313 -0.0168450502994269 0.045273703729148795
-0.0023688983737810733 -0.020137765063740487 0.046275167795674366
-0.0023526347214930373 -0.02338526761578058 0.04726288077555274
-0.002336592862427604 -0.026588482818125425 0.04823712396148816
-0.002321150501793704 -0.02969012916036473 0.04915334264657384
-0.002317887266076219 -0.03093182266698241 0.048648274874382
-0.002314639324005053 -0.03216910039471499 0.04814390142682928
-0.0023114004715618637 -0.03340291550089808 0.04764093950905435
-0.002308170670642906 -0.034633282500855955 0.04713938320391414
-0.002304943803424017 -0.035861131563309834 0.04663995136720156
-0.002301732009023648 -0.03708464107442394 0.04614118897170022
-0.002298529153035699 -0.03830474556292229 0.045643814630161206
-0.002295329168882482 -0.039522361520652805 0.04514854819057312
-0.002292144094863062 -0.040735694033829706 0.0446539329204817
-0.002288967848021132 -0.04194566389316279 0.04416068843696791
-0.002285794412382893 -0.04315317410980268 0.04366953553836228
-0.0022826357266776346 -0.044356456091387386 0.04317901586494455
-0.002279485758752961 -0.04555641708784075 0.042689849996002116
-0.0022763444725678113 -0.04675307082878871 0.04220203233462877
-0.0022734365738003776 -0.04791330363372215 0.041687906876131
-0.002278404036019 -0.04791335493853133 0.04020406975141838
-0.002283387286855359 -0.04791428214200355 0.03871447272682754
-0.002288392383879583 -0.04791521341027899 0.03721834542358976
-0.002293425490352951 -0.04791526925375289 0.035714895016859094
-0.0022984747394750957 -0.04791620679834413 0.03420557204643632
-0.0023035523432619167 -0.0479162650829395 0.0326888274275951
-0.002308646331296293 -0.04791720897867452 0.031166133419964825
-0.0023137690251119856 -0.047917269745554714 0.0296359174964555
-0.002318908349318101 -0.04791822006851665 0.028099673960129634
-0.002324076736451841 -0.047918283359656755 0.02655580648005651
-0.0023292620047678384 -0.04791924018721161 0.02500583173232035
-0.002334476699319409 -0.04791930604541694 0.023448129213680613
-0.0023397085306018 -0.047920269456240616 0.02188423830895242
-0.002344963864830435 -0.04792123719500602 0.020313321939914974
-0.0023502491819947084 -0.04792130799927474 0.018734518623210183
-0.002355552028295399 -0.04792228245093455 0.01714940244578972
-0.002360885236842464 -0.04792235594222338 0.01555629081881671
-0.0023662362424560586 -0.04792333718897923 0.013956781404857066
-0.0012343209043053252 -0.0008913351214974718 0.03941891070010822
-0.0012254855511501601 -0.004414381059504757 0.04049852941606602
-0.0012167757871395667 -0.007887349052946746 0.04156280201186702
-0.0012081856124188462 -0.011312327196219552 0.04261282429415192
-0.0011997224656316052 -0.014687262312062965 0.0436465993140418
-0.0011913803087403732 -0.018014249254326486 0.04466523763288427
-0.0011831533635363151 -0.02129528791442442 0.045669807762767634
-0.0011750392596430385 -0.024531323636757085 0.046660599143971915
-0.0011670356912657192 -0.027723276009552045 0.04763789333089563
-0.0011591404150065507 -0.030872039736097923 0.04860196425880553
-0.0011538597921487287 -0.03321799489719557 0.04896079668278552
-0.001152246988664415 -0.03444758254951885 0.0484589164394264
-0.0011506417177709037 -0.035672822924651126 0.04795771712573044
-0.0011490409134711627 -0.03689465412378157 0.047457912376476785
-0.0011474415436625012 -0.03811399617669636 0.046960217114697
-0.0011458496251607027 -0.03932904712879021 0.046463184393037815
-0.0011442621176784627 -0.04054073131714503 0.04596752889076616
-0.0011426760144001963 -0.04174995526512476 0.0454739665207784
-0.001141097282385661 -0.04295494339050315 0.0449810486304868
-0.0011395229067345935 -0.044156606463762293 0.044489490901038875
-0.0011379528694403815 -0.0453549582286924 0.04399928771033357
-0.0011363841969083328 -0.04655088750120778 0.043511156228093706
-0.0011357077492232075 -0.04748119528259881 0.04280656684493023
-0.00113818409636942 -0.047481177335914726 0.04132722341569278
-0.0011406742442165965 -0.0474802832902253 0.03984067956974158
-0.0011431723208670736 -0.047480263267650036 0.0383483574522
-0.0011456843673562614 -0.04747936328651159 0.036848738475037
-0.001148204460779803 -0.04747934115214786 0.03534326609816718
-0.0011507386960551333 -0.047478435165429655 0.033830398741849066
-0.0011532810986066226 -0.047478410882669575 0.03231160149705814
-0.0011558347602272218 -0.04747838649238478 0.030786078235110925
-0.0011584028271940717 -0.04747747235058064 0.029253009613004755
-0.0011609792461690863 -0.047477445764363635 0.027713893770194953
-0.0011635702499670107 -0.047476525445308004 0.026167130092982382
-0.001166169731866202 -0.0474764966248179 0.02461423916824007
-0.0011687839811656152 -0.0474755700542967 0.023053596125279907
-0.001171406837053968 -0.04747553896042367 0.021486744335616703
-0.001174044646088774 -0.04747460606296544 0.019912034294148173
-0.0011766911926505833 -0.0474745726558119 0.018331032500549682
-0.0011793496979285154 -0.047474539097721036 0.01674288677381025
-0.0011820234410104254 -0.04747359759352254 0.015146720061806174
-0.0011847061227062414 -0.047473561670076825 0.013544134210444758
-0.001187401009154573 -0.047473525583213994 0.011934257459167874
0.0 -0.0021184072610144766 0.03879510975649392
0.0 -0.005628701805188652 0.03987796965094498
0.0 -0.009090195810983692 0.040946234766645884
0.0 -0.012501846101989955 0.041998661525399106
0.0 -0.01586573451324208 0.04303635468718797
0.0 -0.019180874976965467 0.04405811067960275
0.0 -0.022450280802705336 0.04506577084681762
0.0 -0.02567489191806882 0.046059624882942796
0.0 -0.02885562266967784 0.04703995459779947
0.0 -0.03199336268754932 0.048007034183329855
0.0 -0.03508806181101265 0.04896041331441192
0.0 -0.03670617813875582 0.04877118200466257
0.0 -0.037922946103724486 0.048271733746142576
0.0 -0.0391363432006025 0.047773669132022745
0.0 -0.04034727946216432 0.04727769919351371
0.0 -0.04155397232184965 0.04678238497777465
0.0 -0.0427573360678859 0.046288437271576166
0.0 -0.04395738445819963 0.045795850427663765
0.0 -0.04515500978429049 0.04530533678596654
0.0 -0.04634846412840238 0.04481545513483154
0.0 -0.047049854534023106 0.04392323961252742
0.0 -0.04704889692614905 0.04244764568268533
0.0 -0.047047058767738126 0.04096487706416335
0.0 -0.04704609084955913 0.0394763489318124
0.0 -0.04704511868641165 0.0379812925910229
0.0 -0.047043260091019834 0.036478916918152915
0.0 -0.04704227740819045 0.03497066904381735
0.0 -0.04704040432344342 0.03345500329330203
0.0 -0.047039410972461615 0.031933388499371385
0.0 -0.04703841321665653 0.030405026375048994
0.0 -0.04703651904361156 0.028869095339292217
0.0 -0.04703551040064202 0.027327097382680965
0.0 -0.047033601280030646 0.025777427591417434
0.0 -0.047031683607755004 0.024220816237489284
0.0 -0.04703065733397799 0.022658016787275415
0.0 -0.04702872441508621 0.021087387667610147
0.0 -0.04702768685144393 0.019510487815692923
0.0 -0.047026644603794965 0.01792646913751189
0.0 -0.04702559764034753 0.016335283317692295
0.0 -0.047023635698594524 0.014736050857623029
0.0 -0.04702257713554864 0.013130377802913873
0.0 -0.047021513750138966 0.011517389962816316
0.0012404325007084704 0.00020340712686983675 0.037072518550618605
0.0012333592173950606 -0.002774637646953959 0.037748987509659104
0.0012227212988775032 -0.006840283482350551 0.0392588096442521
0.0012140472702179953 -0.010289306239610663 0.04033027084023472
0.0012054954424010524 -0.013689738716230748 0.041386637151682726
0.00119706653087999 -0.017041597823300614 0.0424274610143644
0.0011887611408400935 -0.020344935952951948 0.043452318453280236
0.0011805702042773474 -0.02360275201401757 0.04446305271471235
0.0011724913715208086 -0.026815980551121943 0.045459953740221215
0.001164522356779109 -0.029985530701794383 0.046443303588840745
0.0011566609359842728 -0.033112287054056444 0.047413376703143884
0.0011489079659002162 -0.03619619845284322 0.04836972221833136
0.001142233887569822 -0.0389451463857477 0.049080733961854806
0.0011406563761688132 -0.040153542571505385 0.04858302531043862
0.00113908321608348 -0.04135860558753579 0.048086689509597436
0.0011375114277811698 -0.042561235608941594 0.047592433739023055
0.001135946924630518 -0.04375966919084784 0.04709882695636142
0.0011343867191215989 -0.04495481071281354 0.04660657609623442
0.001132830793570456 -0.04614667372101677 0.0461156755792923
0.0011336891128002743 -0.04662015223694144 0.04503864755258946
0.0011361596096630569 -0.04661738541304211 0.04356607505592058
0.0011386379298640639 -0.04661548321913844 0.04208779848657129
0.001141130066097921 -0.046612694071921756 0.04060232527693314
0.0011436301418351253 -0.04661077325996654 0.03911107418203852
0.0011461442030030256 -0.0466079615032533 0.03761253000574177
0.0011486663220051938 -0.04660602181854867 0.03610813280025105
0.0011511995654589224 -0.046604073578379646 0.03459710006572286
0.0011537470538090417 -0.04660122834443853 0.033078626454442706
0.001156302781622755 -0.04659926084954985 0.03155418455525261
0.0011588729310497978 -0.04659639227740736 0.03002220107547049
0.0011614514439048345 -0.046594405261558725 0.028484170702482492
0.0011640414568214604 -0.04659240938371645 0.026939280777086683
0.0011666461620933092 -0.04658950623933028 0.025386694906545437
0.0011692625502906586 -0.0465865900734409 0.023827145198174138
0.0011718875569347149 -0.04658456319745419 0.022261387032371238
0.0011745275338522665 -0.04658162276514366 0.020687774389473834
0.001177176260381251 -0.04657957553995212 0.019107870263243232
0.001179836960421741 -0.04657751906033941 0.017520824214251607
0.0011825097153466738 -0.046575453263408395 0.015926587705427153
0.0011851978223160998 -0.0465724654091651 0.01432427878136594
0.0011878949487426572 -0.04657037870400477 0.01271550770382629
0.0011906043787407055 -0.04656828247986905 0.011099397841635938
0.002478008667660107 -0.00103423468202557 0.036450738197259136
0.0024450936181204664 -0.007679804780876709 0.03836254677763057
0.0024253785568717724 -0.011485734100345757 0.039715684906207804
0.002408313008503672 -0.014873971377560802 0.04077520229134107
0.002391485936783482 -0.01821486089597346 0.04181991381443978
0.0023749117413878933 -0.02150644063063295 0.04284785655729412
0.0023585656997245946 -0.024752709797663697 0.043861649052245766
0.002342443132987588 -0.02795459759227753 0.044861581481989043
0.0023265394894349 -0.03111300797519595 0.045847936148622204
0.002310850340104266 -0.034228820523501735 0.04682098773936311
0.002295371374701 -0.03730289124729336 0.04778100358158682
0.0022801043472159602 -0.04033515918683994 0.048727532408976704
0.002271456829323427 -0.04236486541091511 0.04889162713768347
0.0022683376178461822 -0.04356169272537591 0.04839700892630061
0.002265221089173472 -0.044756114425641313 0.04790445626385531
0.002262118968588619 -0.04594638592683231 0.047412545935713535
0.002265367902822627 -0.046190340910397254 0.04615135824984229
0.002270300129248381 -0.04618664074696277 0.044682516847810105
0.002275247955437345 -0.04618380149452639 0.04320798981816476
0.00228021739502735 -0.04618094983950233 0.041727021668139574
0.0022852145662122206 -0.04617720478753218 0.04023883482778812
0.002290227685887384 -0.04617432614227279 0.03874485164585678
0.0022952688776430663 -0.04617055003322035 0.037243552917556544
0.0023003262558498098 -0.04616764403180268 0.03573638235844334
0.002305412052421209 -0.046163836462029706 0.034221797709864554
0.002310514277864892 -0.0461609027319656 0.03270126437178317
0.00231563913739382 -0.046157955987537636 0.031173985765060752
0.0023207929457550723 -0.046154101452824337 0.029639142033721366
0.0023259635551338164 -0.04615112641727864 0.02809823170879705
0.0023311634746813114 -0.04614723939032195 0.026549653335135537
0.002336380449272209 -0.046144235674225265 0.02499492794800523
0.002341627101621983 -0.04614031572596572 0.02343242976726817
0.0023468973711152996 -0.0461363781325696 0.02186289819810383
0.002352185085864736 -0.04613332962650052 0.020287096175196917
0.002357496681560394 -0.04613026735245668 0.01870417734564478
0.002362832320348995 -0.04612719121695302 0.017114093387795015
0.002368198584030431 -0.04612318807745491 0.01551596656574683
0.0023735828305641404 -0.04612008185088412 0.013911399384334944
0.0023789916157254797 -0.04611696146774663 0.012299519410606752
0.0023844251076492835 -0.04611382683104026 0.010680276538458322
0.002389890012304361 -0.046109756394929424 0.009052765957523634
0.0037397934190261948 0.0013068511443155573 0.034704410981342415
0.003717044624213036 -0.001827408190276103 0.03549917350393528
0.0036861030314873887 -0.005790361374413466 0.03693779062607416
0.003679924767675833 -0.007211108263284638 0.036474904197527525
0.0036339928885652678 -0.012680515156126781 0.03910325499499906
0.0036084616113223325 -0.01605557631412885 0.04016512415975981
0.003583276784485867 -0.01938453823824443 0.041212942671042696
0.0035584603914002103 -0.022665397421283318 0.04224472061430501
0.003533994899951651 -0.02590016236699627 0.04326155556400346
0.003509863526646849 -0.029090751063027442 0.04426450389274389
0.003486059473472709 -0.03223806232534798 0.045253848139600816
0.003462576125591561 -0.03534297075094078 0.04622986323051037
0.003439407045212766 -0.03840632752808154 0.04719281673297848
0.0034165548712716733 -0.041428070817817964 0.04814225684558626
0.003393995574309641 -0.044410801689702184 0.049079868783829195
0.00338788987372149 -0.04574585173434542 0.04870466219065411
0.0033950417125602696 -0.04576129107487714 0.04726209757233213
0.0034024181041569287 -0.04575753636393032 0.045797691749588476
0.0034098354894197746 -0.04575288790730858 0.04432618787370679
0.003417276376264248 -0.04574909846240666 0.042848980334735
0.00342475875727348 -0.04574441118625849 0.04136457994600612
0.00343226498894714 -0.0457405865414956 0.03987440206664861
