# .PCD v0.7 - Point Cloud Data file format
VERSION 0.7
FIELDS x y z
SIZE 4 4 4
TYPE F F F
COUNT 1 1 1
WIDTH 767
HEIGHT 1
VIEWPOINT 0 0 0 1 0 0 0
POINTS 767
DATA ascii
-0.06784424483721851 -0.07209668692853717 0.04606628040680588
-0.06701468913520525 -0.07210387074253456 0.0449966809900787
-0.06622134185745204 -0.07211689505341097 0.04390440100425336
-0.06546961837342274 -0.07213666506352019 0.042785691103166656
-0.06477748362342489 -0.0721661155050148 0.04162888176911994
-0.06412660649564922 -0.07220234327624275 0.04044484960544226
-0.06352940518135325 -0.07224739740641528 0.03922529807779873
-0.06297462171679524 -0.07229950495261757 0.03797679447531199
-0.06246357878643749 -0.07235892243863878 0.03669802366330571
-0.06201015011922595 -0.07242795106598675 0.03537958134960506
-0.06161014521079061 -0.07250596451570174 0.03402353313929224
-0.06126776861947286 -0.07259370319553257 0.03262654420629485
-0.06099006353423703 -0.07269237812597108 0.03118335808646433
-0.06079810116360124 -0.07280551115998932 0.02967938934281883
-0.06068797754365585 -0.07293254707006447 0.028116243747646874
-0.06068246336513905 -0.07307731945749087 0.02647784730726732
-0.060768142588192076 -0.07323772080047815 0.024771966674814183
-0.06101324240657591 -0.07342512708990864 0.02295168556455779
-0.0613952282742789 -0.07363596735477942 0.02103039911755239
-0.062019273840520306 -0.07388784456719913 0.018935033710696103
-0.06296175110669355 -0.07419371233329822 0.016610597321155218
-0.06450095978233816 -0.07460028953818229 0.013862155290109535
-0.06762935581328017 -0.07527396173648657 0.009997029337279917
-0.10631431718045953 -0.07390535058849235 0.055506564659875135
-0.09930830562804188 -0.07298347685378687 0.05774799944689857
-0.09572094512517643 -0.07257640799678224 0.05814932841350151
-0.0928733447654434 -0.0722801671819803 0.05815902991113081
-0.09041341606541214 -0.07204180317343802 0.05796582734895761
-0.08826011046519788 -0.07184928693692552 0.05761132543165737
-0.08628110479967116 -0.07168266676746315 0.05716704115076904
-0.08444369207021574 -0.07153708441921776 0.05664980939972347
-0.08274984381445966 -0.07141296178781803 0.05605713285077585
-0.08112594545883883 -0.07129911297693275 0.055429789364684956
-0.0795927365871143 -0.07119878855052492 0.05475515156564553
-0.07815764641154849 -0.07111321141767321 0.05402802394901146
-0.07676912542468622 -0.07103450203523563 0.05327749571785445
-0.0754595657586053 -0.07096771375517295 0.05248411527409225
-0.07423237656946913 -0.07091344384756518 0.05164508380137289
-0.07306538483116404 -0.07086831913175068 0.05077272903781194
-0.07196228369165975 -0.07083296736291012 0.04986424038961562
-0.07089423018312507 -0.07080294607863157 0.04893628102744513
-0.06990044822958025 -0.07078441623107569 0.04796481658776297
-0.06893674913071834 -0.07077052520954205 0.046975910709087854
-0.06803102289354779 -0.07076567566215604 0.04595222192964271
-0.0671801058586819 -0.07076942298470998 0.04489508774759987
-0.0663710958808793 -0.07077978529172028 0.04381190072104585
-0.06558840721206022 -0.07079434173937932 0.04271189815302723
-0.06487659024661507 -0.07082016106969319 0.04156696444777158
-0.06421027595962558 -0.07085329033760662 0.04039227907808135
-0.06358514161371759 -0.07089308639557963 0.03919007915627298
-0.06302197206964255 -0.07094289437726499 0.037946704809136256
-0.062494206147661324 -0.0709985405991104 0.03667845069158315
-0.06200875815629575 -0.07106116368721839 0.03538047593894761
-0.06158926298577516 -0.07113458644604027 0.03403702952738269
-0.06123295072130586 -0.0712184290343407 0.03264917417726576
-0.06092456241145133 -0.07131030250456673 0.031226170215084725
-0.06071160246489449 -0.07141790051086996 0.029736243248105698
-0.060569221817113106 -0.07153730972283207 0.028194737304127748
-0.06051449614814558 -0.07167136018727316 0.02658948961523211
-0.060570323013040384 -0.07182384725113082 0.02490418587926202
-0.0607557332868659 -0.0719979693821046 0.023124760864642102
-0.06111135091918929 -0.07220046103000029 0.021222260110761282
-0.06163477192413275 -0.07243110197555451 0.01919634863063918
-0.06246788143891696 -0.07271322119881667 0.016948105388446433
-0.0638028064172243 -0.07307855342171081 0.014341916507342012
-0.06623904534593689 -0.07362585139524583 0.010957723227101757
-0.102032009533221 -0.0719841579630397 0.0562592005671283
-0.09739374125965872 -0.07142942327512601 0.05722951504154855
-0.09413940488302491 -0.07107875830606157 0.05745872696286175
-0.09148019112470462 -0.070815591306117 0.0573722547718068
-0.08915605956700806 -0.07060153492008699 0.057109851745416995
-0.08706719814310404 -0.07042191494229437 0.05672445551443289
-0.08514390229712604 -0.07026646493051891 0.056253253292139815
-0.08338757489708581 -0.0701355332632962 0.05569383615525442
-0.08172246611607964 -0.07001784723767684 0.05508797386452541
-0.08013994233071192 -0.06991217924644906 0.05443975707221266
-0.07866054082798324 -0.06982170392917753 0.05373647443675933
-0.0772411376044177 -0.06973997409717536 0.05300225310815038
-0.0758910466256763 -0.06966845392093794 0.05223104220680286
-0.07462090969144214 -0.06960882076587352 0.051415876006100314
-0.07341135576166347 -0.06955819107802638 0.05056744604158536
-0.07228309540381506 -0.0695197790977703 0.04967278360794153
-0.071190072379405 -0.06948660969122286 0.048758705537095326
-0.07015741860022645 -0.06946256541683814 0.04780968380937839
-0.06917620969927579 -0.06944632870389694 0.04683051638645347
-0.068258736141798 -0.06943983614501414 0.0458131658390305
-0.06737511720848549 -0.0694385377804188 0.04477531850703981
-0.066551773246943 -0.06944654514914186 0.04370029966253941
-0.06575761520421036 -0.06945910095669988 0.042606784262941566
-0.06501206036413926 -0.06947924302267272 0.04148232886510472
-0.06431630224167323 -0.06950720136442436 0.040325661493882003
-0.06367574299752521 -0.06954386302477802 0.03913282965372883
-0.063088836745741 -0.0695890381939298 0.037904214401741854
-0.06254990304995312 -0.0696418893457896 0.03664285657410038
-0.06204077549662079 -0.06969961696055257 0.035359898974712034
-0.06159900777941002 -0.06976814274289501 0.034030731371096135
-0.061217632574667225 -0.06984643543655823 0.032659130241014855
-0.06089669545419285 -0.06993456039958139 0.031244384311388318
-0.060651631230094705 -0.07003501273970926 0.02977566116946423
-0.060482640079260075 -0.0701478978417799 0.028251964932034412
-0.06039279941496489 -0.07027377792592895 0.026670377448032245
-0.060418920869472814 -0.07041857671674046 0.025005380470135286
-0.060558933333963116 -0.07058207848532232 0.02325703272726032
-0.06084898132460631 -0.07077015881070713 0.021399584895926416
-0.06131179379095991 -0.07098659733045574 0.019415850800631906
-0.062074711154425366 -0.07125195058605821 0.01721679599953918
-0.06322577973232313 -0.07158063836475202 0.014738441165901284
-0.06525120705109128 -0.07205119393417837 0.01164031192673487
-0.09962168000051297 -0.07035360654074817 0.056004447740467034
-0.0957092677915834 -0.06991432117117977 0.056590379869406404
-0.09270028403803271 -0.06960556878656964 0.05669337341943631
-0.09017559558868216 -0.06936664612995354 0.05653920494638481
-0.08794240403175907 -0.06916963282020093 0.056231697805197156
-0.08592618842839445 -0.06900380124813 0.05581021442850981
-0.08410067053419285 -0.06886545464336662 0.055287606483203744
-0.082374700824289 -0.0687412863676334 0.05471423335729936
-0.08075108789974383 -0.06863179297497794 0.054087509404102785
-0.07921818332552166 -0.06853533129355717 0.0534131851083135
-0.07775598522998645 -0.06844900468914533 0.05270203203304569
-0.07636215738809138 -0.06837252362641608 0.05195472532979567
-0.07505593470447347 -0.06830881304604093 0.0511592411956136
-0.07381208413601409 -0.06825417654463571 0.0503296725348894
-0.07262143081187761 -0.06820729308300486 0.049470868883822405
-0.071524597344514 -0.0681743002098255 0.0485579112100506
-0.07044579813456325 -0.06814388991841724 0.0476355893475211
-0.06944837562307837 -0.06812561427311355 0.04666526420997269
-0.0685063890400241 -0.06811563056326105 0.04566193333885438
-0.0676096349556809 -0.0681124448900837 0.044631285800698695
-0.06674521691905932 -0.06811414388153059 0.043580813093524795
-0.06594375147607595 -0.06812540183063852 0.042491154336877224
-0.06518675614954661 -0.06814346480309746 0.04137318686495289
-0.06446985040222036 -0.06816770547944362 0.040229185343663765
-0.06380125177102974 -0.06819941448167723 0.03905352275414198
-0.0631877775110356 -0.06823967843395642 0.03784134064431732
-0.0626320814051487 -0.06828895454130168 0.03659033900294262
-0.062113179512232275 -0.06834407438931864 0.03531336622637554
-0.06165191554399985 -0.0684082792281617 0.03399653656075513
-0.061238521217420794 -0.06848011734529147 0.032645553620827494
-0.060900875274305155 -0.06856394008278106 0.03124165234300902
-0.06062653180492655 -0.06865789287595357 0.029792158531419977
-0.06042261130106297 -0.06876314045220334 0.028291641943232637
-0.060311705353622236 -0.06888326067578399 0.026724278014658154
-0.0603082384374648 -0.0690205885447633 0.02507935870558159
-0.06039459864193947 -0.06917248015151138 0.02336748425677626
-0.06063621022207022 -0.06934924990692275 0.021543388106456673
-0.06106703994735485 -0.06955636820497148 0.019582190234381236
-0.061720598181963016 -0.06979927795872032 0.01745879503842851
-0.06274892231875118 -0.07010210569366877 0.015066130903734543
-0.06449439363697052 -0.07051916761377046 0.012163264202330104
-0.1046363003717285 -0.06966288179717632 0.053247079536636766
-0.09768000340851563 -0.06879808636489439 0.05550029580180871
-0.09418429506599463 -0.06842624852838856 0.05586764334380834
-0.09136861945639502 -0.06815070229808268 0.055871454874973414
-0.08895562398980117 -0.06793207356202718 0.055661235526607955
-0.08681366591364958 -0.06775170205955564 0.05530760163652898
-0.08486174340298258 -0.06759810247554088 0.05485404558925494
-0.08308605053949991 -0.06746942890361868 0.05430661904295542
-0.08140621784310548 -0.06735416794758431 0.05370991034006373
-0.07983387505450962 -0.06725408613337695 0.0530562421449044
-0.07831540000504783 -0.06716146411774067 0.0523758226909849
-0.07688178588907596 -0.06708086533907137 0.05164995172653525
-0.07553340896045518 -0.067012413929998 0.05087756425399986
-0.07425355583238047 -0.06695373273357617 0.05006772384327968
-0.07303579370216945 -0.06690393446087671 0.04922358182286235
-0.071892291903213 -0.06686485918397977 0.048337207259157355
-0.07079687185643624 -0.06683271380041556 0.047423646461829616
-0.06975760345167337 -0.0668087292821227 0.046477508994368144
-0.06879237191714194 -0.06679559723527394 0.045487294132837086
-0.06787252867593585 -0.0667891373303174 0.044469825551053443
-0.06698655379653384 -0.06678767881643109 0.04343174377969994
-0.06614545664298321 -0.06679288809542765 0.04236585283974004
-0.06537697997350389 -0.06680893777805066 0.0412543436508776
-0.06465284987568698 -0.06683167064982291 0.04011420458043541
-0.06396312270626331 -0.06685963869128228 0.03895123921134136
-0.06332859987824557 -0.06689599035298145 0.037751852440647715
-0.06274355811262428 -0.06693991572482554 0.036519097787377386
-0.06221207689161201 -0.06699207347243084 0.03524980667340111
-0.06172990783629029 -0.06705187194418977 0.03394612937263053
-0.061298412882752173 -0.06711956229908354 0.032606626898675994
-0.06092734929840832 -0.06719666841695028 0.031224348680463976
-0.060627926142540756 -0.06728494648671146 0.02979124206053846
-0.06042400713422924 -0.06738808976026653 0.028290719344275406
-0.06026697649819229 -0.06749878468633923 0.026754007819927317
-0.0602382148120445 -0.06762949307207644 0.025126161293437366
-0.060296336945165896 -0.06777400841828633 0.023433527248477026
-0.060492599443743245 -0.06794026574654863 0.021640448706998883
-0.0608734087667559 -0.06813551952742974 0.01971378572012572
-0.061459286149018244 -0.06836310152358617 0.017637374378188686
-0.062401587978655915 -0.06864653411357542 0.015304814199006755
-0.06392881870117084 -0.06902144404858858 0.012554072153375284
-0.06732103007957302 -0.06968646460556566 0.00848895846914699
-0.10078483108405795 -0.06782933799225356 0.053782905020079486
-0.0959939729788098 -0.06728398702237293 0.05486070643319568
-0.09278937408060689 -0.06695981098992329 0.05507624110980858
-0.09014173270655756 -0.06671293807362044 0.0549934335593798
-0.08781498187038372 -0.06651046014843373 0.05474051771943739
-0.08573945569480851 -0.06634276998130063 0.05435403863659738
-0.08386147096492769 -0.06620245365313289 0.053862291227423365
-0.08210276734043942 -0.06607854924656545 0.05330843817272457
-0.08047453701112217 -0.06597274367240955 0.05268482286709042
-0.07893131143021626 -0.06587865640584883 0.052016668679098266
-0.07743292373144334 -0.06579061560155017 0.0513266971979765
-0.0760507183238312 -0.06571886938658565 0.05057238734127961
-0.07472740668940947 -0.06565529472842918 0.049786562869567175
-0.0734908933317876 -0.0656039488653814 0.04895198353911395
-0.07230327942208675 -0.06555944572083731 0.04809051726324276
-0.07119106095026817 -0.06552564731299794 0.0471856748654107
-0.07011112030347816 -0.06549638353595567 0.04626286261848406
-0.06909989021358887 -0.0654769570118411 0.04529950403970795
-0.06815685497768048 -0.06546735025592579 0.04429520214956689
-0.06725485364990719 -0.0654636718204114 0.043266019935668365
-0.06640064899903136 -0.06546694152382224 0.042207324504739574
-0.06560378094194974 -0.06547859249257135 0.04111264869656123
-0.06486817051781224 -0.06549924737770665 0.039978916039428214
-0.06414886048959662 -0.06552237175912012 0.03883387460549759
-0.06350161230546825 -0.06555616679064522 0.03764190846206383
-0.06288298244808332 -0.06559430483131898 0.03642999613231057
-0.06232913900763065 -0.06564214255949397 0.03517457297346843
-0.061831617446624076 -0.0656984874349512 0.03388039344781524
-0.06138479674040137 -0.06576255824270592 0.0325504815167354
-0.06100121458453289 -0.06583625999362094 0.031176069658736483
-0.06067533884913584 -0.06591882827850558 0.02976007861449298
-0.06043517411846777 -0.06601448497526922 0.028283338341829778
-0.060269771786862214 -0.06612167541503516 0.02675214988309821
-0.06019341129923239 -0.0662426030438324 0.02515610719144029
-0.06023740082810736 -0.0663820391857862 0.023473138995653953
-0.06038706258332749 -0.06653789287436299 0.021711776717128928
-0.0607081785396309 -0.06672015438660753 0.01982607936999614
-0.061253577146127225 -0.06693694297918207 0.01777795488458561
-0.06211326909411269 -0.06720205696666001 0.015502942899535133
-0.06348544027677971 -0.06754577075615521 0.012860443250476583
-0.06625054531771146 -0.06810202477807527 0.009232746422906501
-0.0986069393796834 -0.06624161569239255 0.05340680555028254
-0.09449239423037259 -0.06579948386503334 0.05412303987268563
-0.09150330878785895 -0.06551105883719846 0.05422684009895029
-0.08896908349896337 -0.06528445752633093 0.054086905372749794
-0.086732129586162 -0.06509819291720775 0.05378854143207973
-0.08475632610349071 -0.06494747967281193 0.05334952548654681
-0.08289550450321903 -0.06481218770270906 0.052851526053643905
-0.08117985421917584 -0.06469661274150998 0.05227592016053645
-0.07957797184877707 -0.06459648264918645 0.05163958412738551
-0.07806503601859038 -0.06450841344747985 0.050955949367451514
-0.07663264603249903 -0.06443129694805201 0.050229090053175884
-0.07526830760004466 -0.06436344153401569 0.04946561752471812
-0.07397695350722505 -0.06430559477812496 0.048661908353691385
-0.07275779310177233 -0.06425770310545212 0.047817701246610445
-0.07160583935227621 -0.06421911976168822 0.046935273522424714
-0.07049920938295451 -0.06418680171942236 0.046027224871642514
-0.06948417026000037 -0.06416734629910344 0.04506483837416203
-0.06849513486640862 -0.06415150987542927 0.044087442317072456
-0.06756569436510695 -0.06414409550471396 0.04307401939017136
-0.06669124793337317 -0.06414449623953669 0.04202680120879326
-0.0658658675004481 -0.06415191070639881 0.040948908906613124
-0.06511170423939389 -0.06416955199990759 0.03982590088234139
-0.0643725090881328 -0.06418941005593241 0.03869255478815259
-0.06370688957605847 -0.06421992312454775 0.03751146118608584
-0.06307273956963816 -0.06425508924748331 0.03630872839568783
-0.062489502479293246 -0.06429774211557156 0.035071510277204676
-0.06197102121409498 -0.06434992795495931 0.03379029541728146
-0.061506069450107836 -0.06441007679630029 0.03247166004718388
-0.06110857210837434 -0.06448025773527076 0.031105899806318782
-0.06075624274189351 -0.06455728859768402 0.029706902065886442
-0.0604784514961777 -0.06464549139687709 0.028254733445118585
-0.060314501205728566 -0.06475067337792169 0.026722419703331335
-0.060193411298897825 -0.06486254881370358 0.025156107191663946
-0.06020373008190155 -0.06499414259664527 0.023495769551457935
-0.06033782923490838 -0.06514445274360278 0.02174505150624939
-0.060606559525080206 -0.06531518986574303 0.0198951416126541
-0.061110402654552254 -0.06552130131178616 0.01787579961790242
-0.0618851624747368 -0.06576829432361625 0.015659694574509497
-0.06313481642091484 -0.06608663133834461 0.013102721650781579
-0.06553680303082865 -0.06657729551929428 0.009728664659191422
-0.09683724659313692 -0.06471573083917428 0.052810597284519534
-0.09314696988820076 -0.06433929564435999 0.05330142736000143
-0.09029177061359106 -0.06407448417339436 0.05333781655117931
-0.08786365133138407 -0.0638665941025632 0.05314394667709771
-0.08572740304117044 -0.06369757637071244 0.05279308348388129
-0.08378392724213263 -0.06355416089452884 0.05233946337343204
-0.08197829108590526 -0.06342900088805267 0.05181303198470544
-0.08031693867379669 -0.06332308163524313 0.05120867330318002
-0.0787453693622413 -0.06322905090066394 0.05055691882126362
-0.07725653981876213 -0.06314601077674631 0.04986103566824346
-0.07586088850282918 -0.06307545940493489 0.04911400768554852
-0.07452285807567455 -0.0630125719715237 0.048336118715045284
-0.07326323843791915 -0.06296026148939805 0.04751431415531687
-0.07206411113497146 -0.06291611201526721 0.04665861526518672
-0.070939090558372 -0.06288205678429402 0.045760140290975415
-0.06988468505366147 -0.06285766992881016 0.044820258746639974
-0.06887206781424565 -0.06283899924445133 0.0438559431097188
-0.06792630017735735 -0.06282956985358941 0.04285127986707837
-0.06702161076443569 -0.06282583816914294 0.04182157613714377
-0.06615915038777559 -0.06282799856671421 0.040765679065901284
-0.06536671845508485 -0.06283998164248196 0.039665672393161766
-0.06463838253467047 -0.06286101217965248 0.038524553793970184
-0.06395011489323266 -0.0628877629064086 0.03735689911507312
-0.06329479285461076 -0.06291926351294914 0.036166821208976574
-0.06268488352018337 -0.06295730313634591 0.034945942423976084
-0.06214260771778557 -0.06300506553165607 0.03367939736675396
-0.06166507874010552 -0.06306219912882509 0.03236831160267162
-0.061241097754500706 -0.06312716846207866 0.0310192798406424
-0.06087904983339554 -0.06320121413877039 0.029626183363140657
-0.060576205686199536 -0.06328400107750994 0.02819012120064751
-0.06037182396723928 -0.06338119350840707 0.026684319141158985
-0.06025221776637224 -0.06349091752947372 0.025116801959409296
-0.06021495309515151 -0.0636128992130528 0.02348822641516718
-0.06032939032981627 -0.06375718698161988 0.021750755014061984
-0.060559999696579436 -0.06391879585083883 0.019926784570305778
-0.06100981046314907 -0.06411270680878733 0.017944543819703562
-0.06173844248818372 -0.06434774154100956 0.01576051849495219
-0.06290519791870658 -0.06464724441445559 0.01326138627803064
-0.06501241346222802 -0.06508458089460169 0.010093017948559158
-0.10138091281296469 -0.06390832255261253 0.05026745164856844
-0.09531836520031223 -0.06322763294467294 0.052078890133377354
-0.09190734842299769 -0.0628955135840488 0.05242285241187533
-0.08918715784097997 -0.06265379568519266 0.052389983832041964
-0.08682338909349535 -0.062458540456360144 0.05216506663970999
-0.08476615142461608 -0.06230336827439071 0.05177333609480517
-0.08287521821503147 -0.062169796372119515 0.05129304476974228
-0.08113297329923919 -0.0620555932947678 0.05073282223500741
-0.07948745973501303 -0.06195391050709231 0.050121666412233035
-0.07796044784573025 -0.06186774177542036 0.0494457783894901
-0.07648965991455442 -0.061788802249004154 0.04874092408816577
-0.07511896445494598 -0.06172304384710807 0.047980369206575224
-0.07382711607994791 -0.061667675012670266 0.04717585382058559
-0.07260040661566464 -0.06162090199095448 0.046334854172630446
-0.0714225230892136 -0.0615805641700082 0.045466612443010423
-0.0703327416399675 -0.06155203151430675 0.044546647098026915
-0.06929350838904602 -0.06153026424087227 0.04359710885399026
-0.06831290112206972 -0.06151640285646587 0.04261248363272174
-0.06739050287229181 -0.061510436684524335 0.04159241624944632
-0.06652031589884078 -0.061511591339170626 0.04054003924195476
-0.06567396122324826 -0.06151601791216381 0.03947262807827595
-0.06492139477616554 -0.06153334540567383 0.03834572308125278
-0.06420900718840822 -0.06155627119388765 0.03719238117024548
-0.06354084560858947 -0.06158538650260583 0.03600957672550048
-0.06292515781379543 -0.06162186767644328 0.0347915224910213
-0.06234645133573474 -0.06166361340523205 0.033547651224972386
-0.06185492290110889 -0.061717618757060215 0.03224492196462131
-0.06140442227376863 -0.06177754164372397 0.030912529451818715
-0.06102008268019965 -0.06184691798017423 0.029533485227395073
-0.06071313397092187 -0.061927371531901865 0.02809961619205903
-0.0604739231465371 -0.062017618821871415 0.02661645716057648
-0.060336254080884444 -0.06212245518322025 0.025060633530976373
-0.06027949645421765 -0.062239071916152404 0.023444845966150818
-0.06034486190034477 -0.062373337734153926 0.021740298417807002
-0.06056141045657337 -0.0625294556773978 0.019925825790598428
-0.0609772340307429 -0.06271435093381987 0.017966806391102486
-0.06162312870664721 -0.06293255674204258 0.01583976051104502
-0.06275033899496218 -0.06321990728937668 0.013368392608861135
-0.06472531845347179 -0.06362889995180478 0.01029249562139034
-0.09897962007762917 -0.062295769078275776 0.050017533383312995
-0.09394737686464366 -0.061761995375991266 0.051267505478785336
-0.09076037493974065 -0.06146558845446774 0.05149376818741008
-0.08815406245768825 -0.061243533929974184 0.05140257036064649
-0.08587312734168717 -0.06106300754124055 0.05113530531261412
-0.08385548686008165 -0.06091614647639178 0.05072474089521023
-0.0820018788041682 -0.0607901675815257 0.05022614077839982
-0.08030944408672558 -0.06068481625502767 0.04963955441833656
-0.07870289083138438 -0.06059033087906672 0.049007788137865715
-0.07720416065769209 -0.06050965890652812 0.04831697270836144
-0.07579306630152449 -0.06044022079678904 0.04757807289014898
-0.07445416603856159 -0.06038004345462641 0.04679947511168342
-0.07317089147115907 -0.060326989546456704 0.045990452985689656
-0.0719597696809241 -0.06028329020890523 0.04514041007591524
-0.0708314651295397 -0.06025041560643663 0.0442420950384112
-0.06976254098488 -0.06022531148639279 0.04330904522150164
-0.06874968145746257 -0.06020758133933385 0.04234269251927675
-0.06779105431052262 -0.060197023660472165 0.04134358923296316
-0.06690037661456366 -0.060195515724299965 0.04030259455148094
-0.06605052119481852 -0.060199474223870855 0.03923603093341976
-0.06525390034814438 -0.06021059850631729 0.03813561835890805
-0.06451306332163192 -0.06022927391409588 0.036999163020913106
-0.06382498222331817 -0.06025513677640797 0.035827994058787005
-0.06320627193415146 -0.06029047451013622 0.03461085554173832
-0.06260921002247877 -0.060328882743319726 0.03337782769286285
-0.062068691429636724 -0.06037511311343536 0.03210598263026315
-0.06161398843421556 -0.06043319078679074 0.030775555106434038
-0.061205935961844427 -0.06049785272258443 0.029411327495199535
-0.06088651136407447 -0.06057486644025775 0.02798501954398047
-0.06061386138312963 -0.06065858333985879 0.026523444797894313
-0.06045536008507685 -0.06075827419747366 0.024981025124643452
-0.06038757850284143 -0.060870818816205215 0.02337220258551892
-0.06042645713398381 -0.06099848737711896 0.021685151565525806
-0.060622081639019554 -0.06114827463374021 0.01988459248457819
-0.060997062593766416 -0.06132343721074854 0.017953255650046962
-0.06160889658369123 -0.06153208591086943 0.015849540626667658
-0.06266721840019329 -0.061803494176355625 0.013425828303541165
-0.06449793381782465 -0.06218332909699056 0.010450485682426125
-0.09724160262343101 -0.06077518281634997 0.04940185814288334
-0.09276843254888312 -0.06032323534259399 0.05034983665624809
-0.08970222196026506 -0.06004829193104557 0.05051545118333617
-0.08719045982091561 -0.05984286573290631 0.05037603073476088
-0.08498998902121374 -0.05967634924546582 0.05006702122102502
-0.08300544595985149 -0.059536782332436394 0.049640934601939024
-0.0811930753777742 -0.05941871909462003 0.04912128513168995
-0.07955140962733592 -0.059322094986846055 0.04850722046044398
-0.07799791517915833 -0.05923642882138023 0.047845995836981625
-0.07651979705803391 -0.059160136672884264 0.04714436823875051
-0.07512905052706192 -0.05909481997841822 0.04639438433869064
-0.0738102696091939 -0.05903855136255445 0.04560446098691462
-0.07257266650098637 -0.058992576204604456 0.044768274828201726
-0.07138689083014421 -0.05895314659766684 0.043902917027710875
-0.07027519431832657 -0.058923193153603885 0.04299419123746784
-0.06923551286758 -0.058902502390045006 0.042042603466585615
-0.06825030684492106 -0.05888883967782773 0.041058296441476905
-0.06730930642977662 -0.05888090344612302 0.04004711375753972
-0.06644743524292868 -0.05888330254849056 0.038986645078240845
-0.06563611900269412 -0.05889234707195971 0.03789410076925914
-0.06486246700261417 -0.0589063808096707 0.03677712792530918
-0.06414033474658026 -0.058927259130580646 0.03562646229849831
-0.06349895077724121 -0.058958881916100984 0.03442275615479273
-0.06289888297126855 -0.05899609597994401 0.03319060920760686
-0.06235123663636105 -0.05904040672377213 0.03192234173972275
-0.061867128211892386 -0.059093332984165484 0.03061010064916786
-0.061440920495906715 -0.05915417592087575 0.029256876750353766
-0.06109642324265957 -0.059226158067491416 0.027846274825073902
-0.06080712123663751 -0.05930580313236318 0.026394991302809034
-0.06062081336818209 -0.05939955694078476 0.024870438993575883
-0.06053364314322218 -0.05950698699405292 0.02327403060040989
-0.06055453778501363 -0.059629375813476534 0.02159858713734286
-0.060719472413513276 -0.05977165958066876 0.01981840383543143
-0.06106789335085061 -0.059939282826207134 0.01790485026399463
-0.06166155998869838 -0.06014075181519612 0.015813351072119453
-0.062650024905542 -0.060396539283475235 0.013437708876725463
-0.06441254323209006 -0.0607584761799035 0.010509816269181405
-0.09578943027490366 -0.059294479953706035 0.048628862846219145
-0.09170054178737141 -0.058899755365400805 0.04937038322485071
-0.08877291976189783 -0.05864788352216951 0.049463943905805885
-0.08631234051684644 -0.05845321928649854 0.04930039721213114
-0.0841765677416561 -0.05829834177653493 0.048958022954005365
-0.08222161160527458 -0.05816547755110287 0.048518025896399364
-0.08047196501371906 -0.05805782122218755 0.04796415615367983
-0.0788425523868786 -0.05796484090815297 0.047344827555372004
-0.07729819593288051 -0.05788219796719053 0.04667982864187725
-0.07586085982985064 -0.057812719368146366 0.04595512517478734
-0.07450327488108865 -0.05775303923975733 0.04518609433633991
-0.07321160375128244 -0.05770146442453757 0.0443803284983641
-0.07200229092679389 -0.057660125904260826 0.043527114863102234
-0.07084743929201126 -0.05762554139424399 0.04264273812470515
-0.06977923729361046 -0.05760184510430877 0.0417067549715428
-0.06876578181492427 -0.05758503437295912 0.04073807764654719
-0.06779534669159387 -0.057573652032471355 0.03974345785533606
-0.06687892370934173 -0.05756913647863032 0.038715535701516535
-0.06604153217879122 -0.05757473587434772 0.037637926948496214
-0.06525742980203153 -0.05758720295473991 0.036526141436895254
-0.06452356065583192 -0.057606184960882136 0.035381554817559724
-0.06383972551515554 -0.05763169477651702 0.03420374640809726
-0.06321697688074174 -0.05766519939004197 0.03298502197500702
-0.06266076908280793 -0.057707452561621485 0.03172116043222273
-0.06214717609200965 -0.05775540228789917 0.03042705881181379
-0.0617055754293232 -0.05781290153378876 0.029082924231493723
-0.06133736666238887 -0.0578801897109439 0.027687019297144344
-0.06104121895899167 -0.05795715178444664 0.026239394213801337
-0.0608355256795195 -0.058046251263249894 0.024726928974567797
-0.060731826832203295 -0.058149073362182266 0.02314082871039197
-0.060730593409138334 -0.05826576265088155 0.021479598404007927
-0.060863519734790705 -0.05840057281355275 0.019720506497022117
-0.0611897751292273 -0.058561413950911786 0.01782155686465886
-0.06176550005954068 -0.0587558600236541 0.015741924910765315
-0.06271737366979513 -0.05900088330657931 0.013391171396195223
-0.06446319473172935 -0.059352206521007436 0.010474622890803864
-0.09464889444131408 -0.05785447824862224 0.047680931862485953
-0.09075197084225783 -0.057491659690172135 0.04832327274094517
-0.08792049949995101 -0.05725699518628839 0.048368078316105345
-0.08550132192599769 -0.05707165660070946 0.048185524246192435
-0.08339695968213301 -0.05692403033674104 0.04782865826588911
-0.08149927473493701 -0.0568011103000244 0.04735811413835106
-0.07978255947831048 -0.05669988932117662 0.046787071237739175
-0.07817249795810266 -0.056611370437320195 0.04615805513543142
-0.07666463788020317 -0.056535079552725374 0.04547266769164765
-0.07525038767898107 -0.05647002885190296 0.04473506302167024
-0.07394010930610267 -0.056417562913735106 0.04393799858861497
-0.07267814764827424 -0.05637087033019555 0.04311439406523376
-0.07148829900614789 -0.05633293411708764 0.042249144206479516
-0.07037129317696789 -0.0563038960467342 0.04134105303157565
-0.06931085758294009 -0.05628178346813476 0.04039947050607179
-0.06832496597963666 -0.056268877754600856 0.03941257575488244
-0.06738478978520596 -0.05626163193610462 0.03839769398103304
-0.0664999104959374 -0.056261278530752974 0.037348285338944576
-0.06568832470837332 -0.056270115037005526 0.03625232121995908
-0.06493981589082032 -0.05628691204698442 0.03511553934583039
-0.06423303330292068 -0.05630902865959791 0.03395097462255059
-0.06357765782195285 -0.05633771766095847 0.03275191032355196
-0.06299880430095417 -0.05637619259205932 0.03150145368435714
-0.06247528000879554 -0.056421827705972635 0.030212607112531542
-0.06201263354392378 -0.05647536986143498 0.028881100929801673
-0.06163610685164167 -0.05654007596003479 0.02748956204096925
-0.061324709296001145 -0.05661333852645007 0.0260509674715122
-0.06110948005038075 -0.05669917149020332 0.024543822581064967
-0.06097100731490307 -0.05679516734246265 0.022980072330718138
-0.060958969530680474 -0.05690775493689986 0.021325248404901964
-0.06107976615455851 -0.05703785640755082 0.019573541258459726
-0.061381236173416565 -0.05719173431918974 0.017690713342162767
-0.061933615566410194 -0.05737859005011615 0.01562639828833301
-0.06286647310041837 -0.05761536620644233 0.013288144831021365
-0.06461811474707618 -0.05795911732200752 0.01036698227291144
-0.09359409185080564 -0.056425898581507705 0.04668515156576786
-0.08987491486239096 -0.05609230447891342 0.04723501971168287
-0.08714757273676838 -0.05587530657296691 0.047225552472494214
-0.08477199968374999 -0.05569936273550023 0.04702216690691646
-0.08269246919773476 -0.05555806110672237 0.04665421154502636
-0.0808264410392619 -0.05544173564032302 0.046167680659957244
-0.07913207342723422 -0.05534551974767767 0.04558539140735535
-0.07756443191862006 -0.05526413822881906 0.04493257784106225
-0.07608402432915029 -0.05519292937838148 0.04423179733629673
-0.07469404701429389 -0.05513233727118224 0.0434802269268697
-0.073425063742873 -0.055086112249533456 0.04265827992638438
-0.07218974659941912 -0.05504377846007519 0.041818339303978325
-0.07102634634127775 -0.05500999287900639 0.04093643883939624
-0.06992564209622654 -0.05498368620289474 0.040017559516320245
-0.06889420394566864 -0.05496570139086981 0.039056941702061865
-0.06794000539037298 -0.054957059034710126 0.03804884535961861
-0.06703138788967156 -0.0549539484527201 0.03701245364271627
-0.06618925824478339 -0.05495896012324278 0.035933993647291995
-0.06539915607209551 -0.05497036940037455 0.03482198965627614
-0.0646692895856561 -0.0549892223687999 0.03367060061783134
-0.063993795605843 -0.05501484160394559 0.032482956367432814
-0.06339359302388775 -0.055049846947533086 0.03124485986882103
-0.06284743517087193 -0.05509166907082209 0.029969363119330406
-0.06235524371728213 -0.05514033896255558 0.028655909954241943
-0.061960547056127746 -0.05520129738866014 0.027275117935772086
-0.06163527948619102 -0.055271129407632236 0.02584454163771871
-0.06139784823422012 -0.055352180906173276 0.024351082242672906
-0.06125272642568852 -0.05544507762733669 0.022790725174028748
-0.06123135428681015 -0.055553822574608974 0.02114115478521361
-0.061330196593560204 -0.05567806851272757 0.019403343900969594
-0.06163961541396168 -0.055829254623253916 0.017514138258098277
-0.06217033229872798 -0.05600889316045901 0.015463729864300502
-0.063123329877884 -0.056242493535258925 0.013110658764084016
-0.06490217185006147 -0.05658136212398202 0.010169615379978847
-0.0927764449312472 -0.05502555540394898 0.04555287799621682
-0.08913416457841988 -0.05470860967216524 0.046067118969307874
-0.08641176721457866 -0.054497241550605535 0.046060406999726744
-0.08407641334276483 -0.054330081573179666 0.04583777977042769
-0.0820761590432641 -0.054201331070014375 0.04542615634769914
-0.08022501905017027 -0.054089495850494454 0.044933133888119925
-0.07857451989619868 -0.05400070168148378 0.0443262854657
-0.07700948424490955 -0.05392158184733166 0.04367309802923558
-0.0755693023629116 -0.05385681850354773 0.04294879430181986
-0.07420763429978544 -0.05380104247653269 0.04218039292108855
-0.07295521235820729 -0.05375792937339656 0.041348216653696146
-0.07174493667454585 -0.05371962694574917 0.04049257891619512
-0.07061212832919889 -0.053690343807875414 0.03959110661937959
-0.06954754050978329 -0.053669036290320986 0.038648766661012524
-0.06853924398877598 -0.05365433382475793 0.0376723365637458
-0.06760384578384998 -0.05364825240277886 0.0366507270521072
-0.06672954175806156 -0.05364943479529626 0.03559066039680436
-0.06591598078824346 -0.0536578819629784 0.03449170343015501
-0.06515862575398967 -0.05367309356880356 0.03335611313283876
-0.06446710900578867 -0.053696265576458534 0.03217704924645587
-0.0638313455941622 -0.05372623277312618 0.03096034160438632
-0.06327653507448627 -0.05376607145224749 0.02968889952598658
-0.06278706484615121 -0.05381395592428038 0.02837208235997013
-0.062351627198205584 -0.053868566623925744 0.027016627064515575
-0.061999803865950054 -0.05393352895507449 0.025602254221196774
-0.061761302780212635 -0.054012512670750586 0.024108155470197346
-0.06158984999568501 -0.054099971560406676 0.022564139944315886
-0.0615578089293749 -0.05420477952231106 0.02092051755988661
-0.061643277685556 -0.05432436562254134 0.019190567951088255
-0.06195092085663312 -0.05447163188482384 0.01730139367152289
-0.06249158563529017 -0.054648076741678764 0.015242969069480139
-0.06347249763880486 -0.05487934793996393 0.012869386514238634
-0.06534346412028802 -0.05522117808017201 0.009862999268871464
-0.09222865333685104 -0.05365518845477759 0.04426264188557022
-0.08852164202919938 -0.053338534202788314 0.0448229187779261
-0.08576694334546675 -0.053128592909840365 0.044840483445229395
-0.0835082137272295 -0.05297416202818121 0.04457644196313981
-0.08151382085998343 -0.05284920975403666 0.04416399162375301
-0.07969192205065395 -0.05274343772326601 0.043655579129719624
-0.07806149463486911 -0.05265912444724223 0.04303800031632238
-0.07653522981151811 -0.052586403930536894 0.04236230790052975
-0.075111711514189 -0.052525181268435944 0.0416283062769755
-0.07377233805702504 -0.05247338665395402 0.040846366251203914
-0.07253772995239155 -0.05243344850689178 0.040002885210160155
-0.07135088405399187 -0.05239886254028628 0.03913218333171892
-0.07025995926526962 -0.05237522473568061 0.038203679747563835
-0.06922420741808971 -0.05235788188041287 0.03724196582882472
-0.06823466475683115 -0.052345831233935304 0.036252123069686004
-0.06732365292800019 -0.05234286069521987 0.03521312135644322
-0.06648784994346113 -0.05234863705659117 0.03412624005502907
-0.06571695459781163 -0.05236201009596627 0.03299728530596813
-0.06498241098089519 -0.052379686193287714 0.0318440044950149
-0.06433772996800591 -0.052407959697991446 0.03063121594535806
-0.06374597188383513 -0.052442557681689865 0.02938207136478488
-0.06324793955470714 -0.05248831693993098 0.02806915841520452
-0.06280546501528372 -0.05254080612643486 0.026716655472702244
-0.06243265971509304 -0.05260173192630564 0.025314549114930418
-0.06218184744255445 -0.052677336039969755 0.02382707064506323
-0.0620151568441385 -0.05276321678628927 0.022278285561733613
-0.061955572124379854 -0.05286216658007718 0.02065168582573329
-0.06204767671139172 -0.05297957142330632 0.0189157305717218
-0.062331047794634775 -0.05312026365800442 0.017041616818354643
-0.0628991727128752 -0.0532955579285361 0.014962880936640555
-0.06392305489339895 -0.05352614388679626 0.0125580549004225
-0.06603909935065305 -0.05388872878790238 0.009379662071566097
-0.09179520583994516 -0.05229543227303501 0.042902901234212865
-0.08796590130897347 -0.05197312512241996 0.04354324962343048
-0.08526385821077304 -0.05177421107026954 0.04353472450043211
-0.08300319971616671 -0.051623425291826584 0.04327514725899295
-0.0810171981491758 -0.05150254150590761 0.042860099120433925
-0.07923000975746014 -0.051403299047819415 0.04233256880257985
-0.07761781586232025 -0.051323169777247483 0.04170498938459183
-0.07611979717062167 -0.05125547544633866 0.04101270550950609
-0.07474168402654652 -0.05120092948270193 0.04025102741207248
-0.07340982393569978 -0.05115135460637002 0.03946420892892649
-0.07217694964523552 -0.05111270108207593 0.038619022182188545
-0.07101048863934228 -0.0510813683470555 0.03773478304883704
-0.06996561895025716 -0.05106361942391738 0.03677612807410313
-0.06895715509624178 -0.051049912792919754 0.035795593480557
-0.06801615851246473 -0.05104378750321841 0.034773055747458814
-0.06712939326994649 -0.051043787504633065 0.03371625013469909
-0.06631498671631214 -0.0510520086289934 0.03261294090417888
-0.0655725801928837 -0.05106845882343456 0.03146257230959737
-0.06489480592127134 -0.0510923465920298 0.030269143180640667
-0.06428145885866449 -0.051123692803320075 0.029032072215672
-0.06375218561753354 -0.05116479191179635 0.02773772732634633
-0.063304059261649 -0.051215366382138194 0.02638710138063899
-0.0629229285971965 -0.05127384591975021 0.024988683446015625
-0.06264423364736205 -0.05134436096564795 0.02351801965200334
-0.06247812426277771 -0.051428155620355444 0.021967119009650038
-0.06239379256473554 -0.051521746360183474 0.020355510708473412
-0.06250688573240681 -0.05163859632839949 0.018603643262271985
-0.0628160456816294 -0.051778688584944485 0.016710171681793007
-0.06339500113548086 -0.05195074410168983 0.014622154587024039
-0.06454351606829539 -0.05218991212097934 0.012129320978326918
-0.0671686285498142 -0.05260258427244674 0.008594849207630761
-0.09170062236480381 -0.05096943078666529 0.04134002129937392
-0.08760164269358622 -0.05062639040822818 0.04214759234319815
-0.0848604058286232 -0.05042836716819614 0.04216678777047095
-0.08258662395444338 -0.05028005971444941 0.04191807137577008
-0.08063947816670125 -0.050166520083631205 0.04148167400945252
-0.0788466163912463 -0.0500692661998703 0.04095889318331619
-0.07725811234916286 -0.049993831624879755 0.04031757837119149
-0.07578505277066272 -0.04993066737819013 0.03961022633955674
-0.07441142916199522 -0.049878099577756026 0.038845535954577626
-0.07312594896545738 -0.049834956504450384 0.03802949323045551
-0.0719146992309378 -0.04979977043669534 0.03716987329846683
-0.0707870001752699 -0.04977361035993905 0.03626004440258024
-0.06973924562691752 -0.04975613310692496 0.03530140352512806
-0.06876080224925041 -0.049746219044433104 0.03429985797569152
-0.06784547936354413 -0.04974322986542695 0.03325862230452292
-0.06699715342588902 -0.04974763510013963 0.032174524725846754
-0.06623251891429338 -0.049761327770744955 0.03103604740176502
-0.06552708109880573 -0.04978164457535057 0.029858194511522718
-0.06490190776485866 -0.04981096779466339 0.02862654117674207
-0.06435254844586846 -0.04984885528960774 0.02734312056473931
-0.06386330013082131 -0.04989360507821416 0.026017461902790417
-0.06347524092132184 -0.04994985370620705 0.024621579533201876
-0.06317993341030437 -0.05001672443189136 0.02315996713659968
-0.06301307866858985 -0.050098291075305966 0.021607569047219055
-0.06294100453777574 -0.05019085260415505 0.019985672710616353
-0.06305547955111235 -0.050304824304573705 0.018230808319957104
-0.06339800759081426 -0.05044502566529566 0.016312461816171298
-0.06404583306450173 -0.05062036195675733 0.014174911998098172
-0.0653468950728498 -0.050870522762770855 0.0115741922362112
-0.09205602051422929 -0.04968596199303953 0.03950457252639772
-0.08747002988135605 -0.04930103142724973 0.04060939381138251
-0.08460468130177123 -0.04909526341136867 0.0407067582922685
-0.08225405323133811 -0.04894284429125246 0.040506956515534154
-0.08034228855359427 -0.04883608892879855 0.04005075936304775
-0.0785771152563407 -0.04874439938571191 0.03951211189443754
-0.07698101267411078 -0.04867024189301582 0.038875709043407036
-0.07552673875207827 -0.0486108309173447 0.03815662990326979
-0.07416310440645707 -0.048560815610648976 0.03738520071423562
-0.07290930425156267 -0.04852229384275856 0.03654848921035664
-0.07172669852222868 -0.048491212867207235 0.03566962066479035
-0.07062179983467742 -0.04846831230691454 0.03474373224860772
-0.06959537563059576 -0.0484537225676084 0.03376951273148976
-0.06865970732693977 -0.04844881010742113 0.032738275129107874
-0.06778706689991865 -0.04845065216510763 0.03166686165517024
-0.06697424447893713 -0.048458943153680024 0.03055666285008901
-0.06623091473469572 -0.04847476531600743 0.029400736261971705
-0.06557956303031376 -0.048500594518819336 0.0281836195419502
-0.06501282304342137 -0.04853569249516197 0.02690913496733921
-0.06452202385396955 -0.04857917348221173 0.02558206759151388
-0.06411849285481352 -0.04863231971447733 0.024194031040446873
-0.06381650687193652 -0.04869674512281493 0.022734492374533954
-0.06363620630981259 -0.04877471688265654 0.0211887566819835
-0.06358944558038893 -0.04886761375156697 0.019547418160745955
-0.06371987083243624 -0.0489803112029909 0.017779275188155863
-0.06408056177735733 -0.049118760430017165 0.015846007690007213
-0.06484724527443592 -0.0493024620213612 0.01362419274849569
-0.06641382186350114 -0.04957514027783193 0.010836953991415044
-0.08751880671010437 -0.047989748726046166 0.03895759182841535
-0.0844895356436125 -0.04777291114573604 0.03915739782215688
-0.08210698432392693 -0.04762144742053852 0.03897928129996203
-0.08016133893567601 -0.04751421481711902 0.03854468486418583
-0.07839672456426339 -0.047425172056752285 0.03800622766139433
-0.07679695838685824 -0.04735275885411739 0.03737203879003026
-0.07534796062851284 -0.047295619746222504 0.03664915482710096
-0.0740361719995562 -0.047252442482688554 0.035844473371417995
-0.0727948602166314 -0.047216396541018835 0.034998481865606224
-0.07162619653660357 -0.04718774925409381 0.03410907073323438
-0.07056406800630782 -0.04717006829615054 0.03315393906710423
-0.06956881901968553 -0.0471592864229094 0.03215729078231122
-0.0686586072435153 -0.04715734022216398 0.03110673847510642
-0.06782145928388145 -0.04716302957333946 0.030009099561453367
-0.0670684299909407 -0.04717755861533458 0.02885639134357404
-0.06637632657106529 -0.04719854415667355 0.027662847656889755
-0.06575636036580107 -0.04722720455869197 0.026420422407082977
-0.065248296005887 -0.04726777869272242 0.025102026031947555
-0.06484347863568868 -0.04731942351860567 0.023712156736238554
-0.06454481951556951 -0.0473825137152101 0.02224770071978177
-0.06434824161455305 -0.04745668565492849 0.02071018829505661
-0.06431565090770403 -0.047548586275014765 0.019056605938938764
-0.06451114129169344 -0.047665149076260974 0.017241512519358904
-0.06493957851964322 -0.04780704261468591 0.015258959933531435
-0.0658791699713232 -0.048004171188362 0.012915068545405861
-0.0682190280887684 -0.04835214211636859 0.009589570308980055
-0.0879687672954878 -0.04671289579125252 0.03705698884721692
-0.08456379167063521 -0.04646495446011887 0.03748757081848375
-0.08215809701277255 -0.04631554455519698 0.037325338277050424
-0.08013265091137223 -0.046203486908210044 0.036940081611583464
-0.07837215620372168 -0.0461174754558662 0.036399068309283966
-0.07673416324477794 -0.04604339666544233 0.03578803031642663
-0.07529577288931827 -0.045989057045273306 0.035057531888078364
-0.07398453266878069 -0.045947288219964445 0.03425099640049184
-0.07277870887468862 -0.04591597480204029 0.03338081741900828
-0.07164832268962973 -0.045892152548438 0.03246492917575555
-0.07061580081329327 -0.04587813382748617 0.03148819804230907
-0.06964726734552912 -0.045870543929660536 0.03047134454938527
-0.06876671812747004 -0.04587185738760777 0.029398169443156708
-0.06797651832060558 -0.04588236775074284 0.028266177297891326
-0.06728198903012644 -0.04590267222004705 0.027070898449990943
-0.06665272873144479 -0.04592972404564042 0.025831256986974194
-0.06611864434157083 -0.04596662435683282 0.024526754942006124
-0.0656882149061106 -0.04601430167789534 0.02315068820363131
-0.06539728518571858 -0.04607650387939317 0.02167792731571
-0.0652361036841686 -0.04615231434330351 0.020113444403790703
-0.06520948367868773 -0.046242311674497896 0.018452501243270192
-0.06544793407537136 -0.046360072775351466 0.016604850071561594
-0.06603937035726326 -0.04651487219187402 0.014507367678010141
-0.06729070991989972 -0.04673879007446135 0.011945078056581349
-0.0850540580418937 -0.04519164129291831 0.03555688157824455
-0.08234273938259473 -0.0450171746054766 0.0355827215500516
-0.08025259352164765 -0.04490223484132858 0.03523755704914333
-0.07846284896630151 -0.04481601940325666 0.0347141514847249
-0.07688595895739286 -0.044750178207035404 0.03406405578515731
-0.07537376291021053 -0.044690386336852767 0.03337812638379939
-0.07407863996257019 -0.04465156444766446 0.03255941265679263
-0.07288468916682328 -0.04462249226503138 0.03167925700368951
-0.07180834814344683 -0.04460483943073844 0.030726079001093365
-0.07079509081505558 -0.04459331568402833 0.029733659212582808
-0.0698661163317118 -0.04459004459526493 0.028687617535043675
-0.06903819355115848 -0.044596729509551014 0.027576139101654407
-0.0682848912483659 -0.044610817057528854 0.02641539245353025
-0.06765482101232623 -0.04463716614189467 0.02517260130223309
-0.06712898239172294 -0.04467396444704486 0.023858955340983645
-0.06666842781720289 -0.04471740162851336 0.022499172785027555
-0.06637243247374486 -0.0447774092677363 0.02102615562656629
-0.06624565636538365 -0.04485455231110632 0.01943491063594205
-0.0662946098113138 -0.044949585351320966 0.017719109256097154
-0.06667410870799167 -0.04507813539960659 0.015771518136652674
-0.06752633997662466 -0.045254687085865566 0.013491180057881969
-0.07044088446162744 -0.04563951744468409 0.009780322219033466
-0.08635682831877117 -0.043986557123738716 0.033117406664992244
-0.0829643867403248 -0.04375366295747472 0.033562532665910694
-0.08068202187293366 -0.043624293792546745 0.03333557654849073
-0.07876012616242428 -0.04352839735931144 0.032893161153102424
-0.07714178712367403 -0.04346079513741979 0.03226725557297527
-0.07571070992934686 -0.043410648513137536 0.03152813487947281
-0.0743810417270333 -0.04336992007329202 0.030728371818881384
-0.07319981580069423 -0.04334313384959806 0.029836836310249748
-0.07212339704470638 -0.043326218687373866 0.02887998087753263
-0.07116255057913401 -0.0433202599330533 0.027849719287898367
-0.07029329927165534 -0.04332303124456765 0.02676038032483219
-0.06953540635590938 -0.043336477132417714 0.025598044424229416
