# .PCD v0.7 - Point Cloud Data file format
VERSION 0.7
FIELDS x y z
SIZE 4 4 4
TYPE F F F
COUNT 1 1 1
WIDTH 757
HEIGHT 1
VIEWPOINT 0 0 0 1 0 0 0
POINTS 757
DATA ascii
0.004385731098500101 -0.016167990493531834 0.02965644996982869
0.006495975518852781 -0.0161118995357472 0.02971914494205391
0.008590570117787577 -0.016056241809592593 0.029780582054322158
0.01067179216367542 -0.01600092221616802 0.029842417508887942
0.012738722316285978 -0.015945982506153613 0.029903828335122673
0.014790477025400317 -0.015891463242031684 0.02996400351159456
0.01681599637926995 -0.015837845444938593 0.03001401903350248
0.018814735513975167 -0.01578515852544331 0.030053172720333254
0.020801223871717456 -0.015732777406410218 0.03009287365570562
0.022773577432381398 -0.01568078606931916 0.030131507868792373
0.024733923946455627 -0.015629094220510214 0.030170688931823675
0.026681388327566058 -0.015577742057194222 0.03020961252212012
0.02861512831319557 -0.015526768686855104 0.030247485276022557
0.03053721486676192 -0.015476085649475937 0.03028590417930077
0.03244679395930089 -0.015425732418325275 0.0303240730818487
0.03434304338112626 -0.015375747407801782 0.030361206571796473
0.036227979177970826 -0.015326043935688741 0.030398885386788255
0.038100767796097945 -0.015276660769955291 0.0304363213864004
0.039960606535126564 -0.015227635649411857 0.03047273695424879
0.04354948912489737 -0.01510147817225449 0.03199307441005722
0.045376151515161334 -0.015053329837405413 0.03202873647498167
0.04719031572984511 -0.015005527194172117 0.03206340748113956
0.04899387414179396 -0.014957987797250015 0.03209862085205034
0.05056697737178678 -0.014920580232006816 0.03194288500048548
0.05187625204688162 -0.01489487322608925 0.03156388394574172
0.05318102292360688 -0.01486925465018148 0.031186186623758216
0.05448131320111188 -0.014843724048778865 0.030809786318983956
0.054715050618342975 -0.014866374670172943 0.029490349426914475
0.05391769913365335 -0.014935921390712908 0.027244667817256818
0.053913664939468975 -0.014969696434287973 0.025697387892624213
0.053910481825734824 -0.01500358494428336 0.024143879489819775
0.05390728426743713 -0.015037627236531266 0.022583321440291237
0.053904072166030825 -0.015071824360182028 0.02101566564915669
0.05390084542207263 -0.015106177373951236 0.01944086358304603
0.05389672658956485 -0.01514072770667458 0.017858057133670113
0.05389346824094143 -0.015175395900676777 0.016268809039605314
0.05389019493664271 -0.015210223220711257 0.01467226634156743
0.053886906573459625 -0.015245210764874267 0.013068378700987981
0.05388360304723633 -0.01528035964138877 0.011457095315066668
0.05388028425285257 -0.01531567096872176 0.009838364911401998
0.05387606048743687 -0.015351187365984443 0.008211289291331969
0.05387270876307276 -0.01538682718479982 0.006577502738209728
0.05406495804755623 -0.015413467153792108 0.005124184253850694
0.0546595565866842 -0.015421334781337745 0.004054022885638997
-0.13293083507836134 -0.01825541455076237 0.02747049374720173
-0.12358127841253397 -0.01795864541809693 0.031102231396897606
-0.12306829245464712 -0.017974591651066543 0.029697024745915623
-0.13206513739257497 -0.018328998904467073 0.022775533985658736
-0.08230647031095156 -0.016589995973392946 0.05004852552858052
-0.07480458108931887 -0.016353768381250463 0.05286827826238194
-0.07196300157310936 -0.016283422443689573 0.05298385882503365
-0.06979691948982347 -0.01623702802127164 0.05271208376152986
-0.06795092488787519 -0.016201954704059166 0.05225817370817465
-0.06628607317897922 -0.016173266539574575 0.05170226826628277
-0.06490020773734739 -0.0161545293001644 0.05098345721236269
-0.06374304653844798 -0.016143983814551708 0.05012939386882814
-0.06267105532393086 -0.016136481035002332 0.0492253566364132
-0.06149066261893038 -0.016125016757537785 0.04838934742387402
-0.06045778549680081 -0.016118869489835687 0.047464442887880265
-0.05968964315418335 -0.016122339146056073 0.046376276111430303
-0.058944279281781864 -0.016126653515428444 0.04527320316849831
-0.05838185599564927 -0.01613767306591405 0.04405434522055929
-0.05846321593839271 -0.01617231867233009 0.042426538519886314
-0.05841938298027516 -0.016202505476078575 0.04087150601789996
-0.058419122405173385 -0.016234413626037832 0.03928270700592068
-0.05880130799797095 -0.0162805403103837 0.037441846012951474
-0.05910168612480693 -0.016323829000514732 0.035644774999695705
-0.06073217739388581 -0.01641649619869581 0.032974652924091685
-0.07572371122906363 -0.017004798648735886 0.021553312167678584
-0.014925025640526446 -0.015361124588183821 0.03092355068698044
-0.012676201754116934 -0.015305965817679424 0.03098948471471219
-0.010492692269993498 -0.015253109662896754 0.031018625928320553
-0.00941077683081143 -0.015242821509251159 0.030241426185033393
-0.008091692227140013 -0.015223259161133653 0.02964327794626198
-0.005896299219467105 -0.015169435407889403 0.029706427036061078
-0.003716375695448637 -0.01511599091506506 0.029769131155891526
-0.0015506538481607213 -0.015062878412556524 0.029832232647463208
0.0005988072017040769 -0.015010180815173203 0.029894057714031308
0.0027343658166204543 -0.014957807984257374 0.02995628315587845
0.0048464723517620545 -0.014906138384754354 0.030011448615573866
0.0069259220613404615 -0.01485554006137137 0.030052201453407146
0.008990246089992493 -0.014805325892203807 0.03009185596456876
0.01104170850549141 -0.014755408516873058 0.030132063013874666
0.013078346405298313 -0.014705867859840694 0.03017118300521654
0.015102382739815456 -0.014656617778265815 0.030210855192309427
0.017112907294142943 -0.014607696473535315 0.03025026254127544
0.019109044367710548 -0.01455914109367881 0.030288599325114907
0.02109295696467589 -0.014510867274741773 0.030327487680109066
0.02306276393333362 -0.014462952418213455 0.03036531618483651
0.025020589436386298 -0.014415313315154638 0.030403695764708916
0.026965559632843805 -0.014367987015906518 0.030441823339803775
0.028896833435789915 -0.014321009567255943 0.030478906755520452
0.03081647835331358 -0.01427429944860202 0.030516540404791903
0.03272364156262825 -0.01422789304344652 0.03055392935654988
0.034617501993279176 -0.01418182576013252 0.0305902893852531
0.03650007236226377 -0.01413601771502375 0.030627198688041257
0.03837052028418125 -0.014090504641945384 0.030663870320472963
0.04022804416272591 -0.014045321326906439 0.030699527830375772
0.04376146408270465 -0.013931121641685643 0.03217378321212627
0.04556575652135514 -0.013887578442839334 0.03219122931379648
0.04735880508893631 -0.013844306593639643 0.03220856669594552
0.04914159345730584 -0.013801267235547714 0.03222655756496401
0.050693563208691894 -0.01376759913585099 0.03205309649356031
0.05200212220752776 -0.013743887643479651 0.031674049685216255
0.053306181577900014 -0.013720257685763619 0.03129630627225838
0.05460576448869714 -0.013696708842875518 0.03091985954341514
0.05481040614569266 -0.013718821652353495 0.029575131642578356
0.054012868363984945 -0.013783017485624133 0.027329728782720886
0.05400991737338723 -0.013814140002125023 0.025783868480017513
0.05400695302580577 -0.013845403388087386 0.024231011168889593
0.05400397523034883 -0.01387680860210419 0.022671109235872233
0.05400098389529845 -0.013908356611485593 0.021104114634516502
0.05399710410740449 -0.013940085456626946 0.019529176274746762
0.05399408340867928 -0.013971922163524322 0.017947844393603585
0.05399104888092948 -0.014003904622185233 0.0163592730101772
0.05398800042897317 -0.014036033835806119 0.014763412295614231
0.0539849379567513 -0.014068310816811199 0.013160211962718271
0.053980976419111426 -0.014100774510639813 0.011548787940196203
0.053977883561879214 -0.014133350276555646 0.00993074936232502
0.05397477638130388 -0.014166076904785574 0.008305217451930469
0.05397165477765703 -0.014198955445754271 0.006672140034406637
0.05396851865027669 -0.01423198695966121 0.005031464449640144
0.0547584873722497 -0.014230789442372528 0.004149632645175205
-0.13647981608219606 -0.016849235650699228 0.025448743347562974
-0.12465072334679328 -0.016496843269587308 0.030489423021094086
-0.12253445957353815 -0.016459329100506025 0.03000471148547401
-0.13305201653073984 -0.016833773239791433 0.02220339772408808
-0.08501818308937481 -0.01529611831532559 0.04846725509965705
-0.07555840494569255 -0.015015637349726973 0.05242614390582656
-0.07195452321292761 -0.014926192428097255 0.052988860473889066
-0.06975905915191394 -0.01488269790214756 0.05273454831828611
-0.06779350100215242 -0.014846607408483902 0.05235212249301363
-0.06605057414567161 -0.01481772374003355 0.051843623545692996
-0.06477327093022534 -0.014804121993428988 0.051060088847047214
-0.06361789518490607 -0.014794506316801776 0.050205382564522893
-0.06254489130809454 -0.014787587120751606 0.049302400352371545
-0.06094584578117568 -0.014763148715673939 0.04872395512218447
-0.05987228260803418 -0.01475612289257039 0.047826097164608505
-0.058913665621738665 -0.014752906845199556 0.046858322000739805
-0.058088135738164626 -0.01475412968449367 0.04580808280826504
-0.05738145543306755 -0.014759340344040498 0.044682908888206696
-0.05677425694344673 -0.014767911948981891 0.043493763524787454
-0.056421711639813354 -0.014785085061354107 0.04214096358577041
-0.05641347245485895 -0.014813932827878299 0.04056445405150855
-0.05713110321576853 -0.014867412767616444 0.03851525634999259
-0.05817446404036769 -0.014932128449869096 0.036244047782569844
-0.058582022146967616 -0.014975539482966333 0.03437215114719716
-0.0721393523763138 -0.015465939132921363 0.02389608166076934
-0.0723448942739141 -0.015503706961126145 0.022089907747424087
-0.014415000743694895 -0.01406298406751503 0.0312958288468716
-0.012170877762731569 -0.014012551151107316 0.031360343603617336
-0.010197544738665576 -0.013971530274891439 0.03123641569576624
-0.009114360731987625 -0.013962032481053885 0.030461342086536725
-0.007600582149826063 -0.013937131787775024 0.03000962040053118
-0.005437733536040157 -0.01388892032380042 0.030050349532377396
-0.0032886842822925644 -0.013841001395924774 0.03009163678634258
-0.0011555157483637557 -0.013793451574198099 0.030131804195089207
0.0009641390195799238 -0.013746188025335256 0.03017252951764765
0.003069317309048636 -0.013699247269485954 0.03021297670086126
0.005159093510644308 -0.013652664794644538 0.030252321529055715
0.007235769754917187 -0.013606359520138361 0.03029222383218111
0.00929735235371787 -0.013560405549104648 0.0303310351352446
0.011346101463550862 -0.013514722938075124 0.030370403530594448
0.013380057213404739 -0.013469384836195732 0.030408692051761665
0.015401438741136364 -0.013424312413193957 0.03044753721877491
0.017409337143051817 -0.013379540634649472 0.030486123278644417
0.019402877955186915 -0.01333510350285145 0.03052364574995864
0.021384220511650953 -0.013290923814002877 0.030561724091977438
0.023352477898022805 -0.013247035896379543 0.030599550957190746
0.025306796572484913 -0.013203473142623509 0.0306363300394088
0.027249278062801974 -0.01316015992508388 0.030673664090044628
0.029179056830883787 -0.013117129951310676 0.030710753997203744
0.031083810625882557 -0.013074842849213453 0.030737322960573188
0.03296777936073403 -0.013033145608018389 0.03075662789578909
0.03483882867634347 -0.012991748595860695 0.030775024485571845
0.036698962870887364 -0.01295057883118927 0.03079408764826913
0.03854641977522505 -0.012909703846689321 0.03081224982931574
0.04038225137976026 -0.01286908607195157 0.03083029772304291
0.04390203324031566 -0.012764903641086263 0.03229361851881768
0.045705141242560754 -0.012725022060038537 0.03231068301120027
0.04749790299063955 -0.01268535542535517 0.03232840418776883
0.0492786444528962 -0.012645968596018518 0.03234525466166138
0.05081918067302904 -0.012615528839860782 0.03216246487662239
0.05212789671683454 -0.012593776718622286 0.03178413170746597
0.053430383101580214 -0.012572165254953615 0.03140558379851566
0.05472926421545554 -0.012550595061525683 0.031029091142416088
0.054904847984970584 -0.012571967932162358 0.02965910148269041
0.05410884699120344 -0.012630746977702037 0.027415513176129003
0.054106113523007315 -0.01265925928986008 0.025870298497269684
0.05410336768602181 -0.012687900619125704 0.024318091781812434
0.054100609396106614 -0.012716671843180673 0.022758845464101007
0.054096966258273926 -0.012745607649049391 0.02119171540979703
0.054094180812522374 -0.01277464148190659 0.019618239460066966
0.05409138264764607 -0.012803807891895025 0.01803757855028515
0.05408857167632697 -0.01283310778917273 0.016449683354831712
0.05408574781044595 -0.012862542092247983 0.014854504095549226
0.05408202858183975 -0.012892146311146954 0.013251163946521038
0.054079176618387736 -0.0129218523747802 0.011641259155750316
0.0540763114816567 -0.012951695651910384 0.010023918150248057
0.05407343308016038 -0.012981677095430308 0.00839908928848393
0.0540705413215688 -0.013011797667076313 0.006766720449650154
0.05406674342913059 -0.013042093729745644 0.005125900774636649
0.054857358563027314 -0.013040961274535145 0.004245184810472147
-0.126757527628228 -0.015059367200366136 0.029282191803774782
-0.12197756437631757 -0.014946543955766944 0.03032569071618868
-0.13344818992926022 -0.015315178163426693 0.02197371897377548
-0.08742432742514256 -0.01397704907337871 0.047064169597333505
-0.0770691977164637 -0.01369555121012129 0.05154003054665707
-0.07221608472584012 -0.013577066676985796 0.05283455718721325
-0.0696174895630805 -0.013525495072178378 0.05281854910219114
-0.06754991973425578 -0.013489623276579698 0.052497489023787314
-0.065975820224494 -0.01346841558184653 0.05188849362972969
-0.06474016881180072 -0.01345729785196804 0.05108007256574876
-0.06315503259368138 -0.013435613142894112 0.05048642087212124
-0.062010857816973575 -0.013427148627602836 0.04962851492893616
-0.0598384959694388 -0.013387569377302927 0.04940405115823371
-0.05883309157184913 -0.013383181526933312 0.04846798619672871
-0.0578458959691433 -0.013379329152572818 0.04752163240631496
-0.056880815854606914 -0.01337613418487055 0.04656236149110393
-0.05622945531518575 -0.013382484657659725 0.045406724374033036
-0.05549147310210534 -0.013386215809963372 0.04430433322805394
-0.05505650085670982 -0.0133992296028583 0.04300851227871433
-0.05488954181250405 -0.013420508362635301 0.041538349619981485
-0.05483925016884472 -0.01344545363996949 0.03998818875789967
-0.05527524773294973 -0.01348545964786287 0.038117839891125216
-0.05629048987975871 -0.013543481623245316 0.03586153768158967
-0.06016088236674977 -0.01368992962958051 0.031725318426719995
-0.07033544279864823 -0.014032083589495778 0.023410680956285734
-0.07061942805336541 -0.0140688636600914 0.02155188770170713
-0.016257904201359696 -0.012817310301821656 0.031533885152297325
-0.014031598120852584 -0.012772197896304308 0.031575682681097894
-0.011819758506371791 -0.012727364861136058 0.03161803114568279
-0.009978187240820946 -0.012694305692692918 0.0313982798937425
-0.008894618184971004 -0.012685644129372021 0.03062437263891754
-0.0072723522089855885 -0.012659473442690382 0.030254462784441938
-0.005111328435603413 -0.012615681909441193 0.03029515210049294
-0.0029652039098038707 -0.01257219229832091 0.030335560882686186
-0.0008349258369706458 -0.012529037426307801 0.03037485748698554
0.0012818685758064774 -0.012486142121391604 0.030414716806723807
0.0033831367877861784 -0.012443574973346689 0.030453475508308903
0.005471198236273733 -0.012401261875127394 0.03049279653350717
0.007545107331456691 -0.01235923556440564 0.03053185105066414
0.009603954719972496 -0.012317527861215944 0.030569821862673874
0.011649996657275397 -0.012276066213791204 0.030608354296481843
0.013682310567730616 -0.0122348827554889 0.030646628194823777
0.015700008974376956 -0.012194008728767481 0.03068383479358866
0.017705287094211375 -0.012153373088182406 0.03072160217512443
0.019681127375855922 -0.01211354471990701 0.03074622592571319
0.02163806764702203 -0.012074176746553473 0.030765869934359424
0.023582329348886655 -0.012035063829313656 0.030785386673898907
0.025514035295943538 -0.01199620349751543 0.030804777377161086
0.027432333525942487 -0.011957626038504272 0.03082324801350156
0.029339298432244976 -0.01191926338264542 0.030842392883009606
0.031233109916851187 -0.011881178400132315 0.030860625241736772
0.033114857559965016 -0.011843336024234362 0.030878741457758485
0.03498559669470591 -0.01180570204407484 0.030897527584702822
0.03684355193890432 -0.011768338179873116 0.030915412287582766
0.038689783801952427 -0.011731210075291707 0.03093318414098034
0.04052531961730044 -0.011694284205145396 0.03095162160416215
0.044042485959441435 -0.011599651660772205 0.03241335456161781
0.04584530325001429 -0.011563395052994481 0.03243080284844674
0.04763600078104091 -0.011527394804522317 0.03244738005027564
0.049416460430130926 -0.011491587793930896 0.03246461429349623
0.05094557456116339 -0.011464299078988723 0.03227250925020625
0.052252709259233865 -0.011444569433034103 0.03189337178437168
0.05355535262319344 -0.011424907578434673 0.031515537040430974
0.0548535277617756 -0.011405313166391571 0.031138998315640987
0.055000093308385456 -0.011425744148912008 0.029743785714167914
0.054204769636972905 -0.011479148554560774 0.0275012475340784
0.0542022534376852 -0.011505053704968278 0.025956677988725974
0.05419885801647428 -0.011531106474048857 0.024404337550716915
0.05419631700106914 -0.011557246930476208 0.02284574044794424
0.05419376443882129 -0.01158350617446905 0.021280060761993236
0.054191200250844895 -0.01160988501756366 0.019707250105870155
0.05418862435753419 -0.011636384278705541 0.0181272596508133
0.054186036678554594 -0.011663004784334201 0.01654004012123933
0.054182557307867585 -0.011689778644985587 0.014944721871596733
0.05417994378456137 -0.011716644293238427 0.013342888373301276
0.054177318220746395 -0.01174363371212142 0.0117336751929214
0.05417468053302654 -0.011770747758930283 0.010117031215179095
0.05417203063723147 -0.01179798729889653 0.008492904851635952
0.05416847837900868 -0.011825385211646507 0.006860392724905795
0.054165801734807006 -0.011852878514824909 0.005221138477969844
0.05495528028342961 -0.011851881779954974 0.004339819378342269
-0.13011980383124588 -0.013642822766076075 0.027355555889228056
-0.12178242292425956 -0.013446691496055553 0.03043816493660706
-0.12094958046638882 -0.013450095084316377 0.02921970018502751
-0.088018040624809 -0.01259521955662918 0.04671795994955513
-0.07929516059103808 -0.012385630345896079 0.05023445411133359
-0.07262954026875051 -0.012230457849881792 0.05259064687925158
-0.06957265429766396 -0.012171739799679566 0.0528451522552596
-0.06735385422161894 -0.012135377966002078 0.05261449869215179
-0.06577106662749965 -0.012116046302678547 0.0520113943546579
-0.06423321513823904 -0.012097855427898563 0.051386120036101546
-0.06264657984966099 -0.012078272020441193 0.05079514035255095
-0.06039332762394706 -0.012040511329632596 0.05061628101992066
-0.05900822213293716 -0.012026223364966008 0.049913976693105544
-0.05778798894980308 -0.01201637414259547 0.04911352670580976
-0.05676312126690264 -0.012011822496814865 0.048194264115920094
-0.055610447431968746 -0.012003755476246464 0.047356030040423214
-0.054741101900661615 -0.012003425692783355 0.046341874668805516
-0.05388780822595146 -0.012003535619036158 0.045317662302610806
-0.05332754441362836 -0.012011712420400892 0.04410720994570927
-0.052966425508362946 -0.01202541424076148 0.042767352039256246
-0.05283534296216036 -0.012045527524268459 0.04127606359399599
-0.05317763318655255 -0.012078828549974883 0.03947354887143606
-0.05399431554170092 -0.01212542400090732 0.03735394134033726
-0.05622326651312459 -0.01221146697924795 0.03429897990325059
-0.06897668403721546 -0.012591025214290518 0.024303766552776107
-0.0691604538136587 -0.012621254624948711 0.02251622079302401
-0.015914997449434864 -0.011525672372221454 0.031782820479174634
-0.013690643786290146 -0.011485107246748246 0.03182455259522632
-0.011483040859846194 -0.011444859972145985 0.03186514930035994
-0.009760214923573818 -0.011418538472199532 0.03155912196505939
-0.00867625842882952 -0.011410718594618773 0.030786377276366184
-0.006943544435829452 -0.011383927502330795 0.030499736201064997
-0.004785471401157981 -0.011344581386519956 0.030539543621225962
-0.0026433736525863782 -0.011305538821470796 0.030578240690625758
-0.0005148705333262726 -0.011266731783936074 0.030617505469267947
0.0015990701066249668 -0.011228190250679004 0.030656501611864673
0.0036975177556609062 -0.011189943349624493 0.030694404618771653
0.005782787807274092 -0.011151924499483648 0.03073287461410079
0.00783484798322892 -0.011114728593500146 0.03075629758329146
0.009869059880139475 -0.011077904822194494 0.030776289915723176
0.011888795235668492 -0.011041355247267837 0.030795334234943683
0.013896279976455539 -0.01100501525713553 0.03081506654337024
0.015890593750804483 -0.010968913691127933 0.03083466938944729
0.017871865755569594 -0.01093304821049131 0.030854144043099274
0.019839217003955245 -0.010897446707365118 0.030872686628210688
0.02179479502201298 -0.01086204630677577 0.03089191130939828
0.02373671952063472 -0.010826904968839146 0.030910211677664
0.025667100119223407 -0.010791960660315679 0.030929191200768535
0.02758408766557935 -0.010757270623121814 0.030947254034508875
0.029488790642771046 -0.010722802888969846 0.030965201116721353
0.03138228259006037 -0.01068852627412894 0.030983822952687923
0.03326275991273964 -0.010654496967766785 0.03100153928378163
0.035131301398147186 -0.010620683653514635 0.03101914316504978
0.03698802032617776 -0.010587084281448136 0.031036635663724332
0.03883395232048115 -0.010553668502332008 0.03105479707938591
0.0406673524707894 -0.010520491145702459 0.031072067465018505
0.04418372160235262 -0.010435336807411637 0.03253375804750103
0.045974648811415775 -0.010403063262399974 0.032541652914497954
0.047746574050569146 -0.010371234910536998 0.03254264261801182
0.04950856685356936 -0.010339573535812132 0.032544385804839315
0.05102833221376474 -0.010315297829061152 0.032344561895901514
0.05232720518478973 -0.010297792697879301 0.03195857308930822
0.05362167723149702 -0.01028034687870097 0.03157389211459305
0.05491177068330089 -0.010262960070588783 0.031190512336082
0.055095283352563806 -0.010280185620130982 0.02982842079593917
0.05429977293570876 -0.010328248756293729 0.027586160192135833
0.05429747179819677 -0.010351549906092163 0.02604222948506174
0.054295160254246855 -0.010374956431210247 0.024491316624980997
0.05429283823310738 -0.010398469048079749 0.022933374141230922
0.05429050566338417 -0.010422088479641734 0.02136835413184346
0.05428816247303242 -0.010445815455420683 0.01979620825863465
0.054285808589352114 -0.010469650711599526 0.01821688774223046
0.05428256665368869 -0.010493622994718227 0.016629530053165476
0.05428018914524585 -0.010517677175792318 0.015035705994790094
0.05427780071204624 -0.010541841887419998 0.01343455820934858
0.05427540127861663 -0.010566117893198465 0.011826036101080073
0.054272990768787166 -0.010590505963774864 0.010210088607095436
0.05427056910568334 -0.010615006876927834 0.008586664191974236
0.05426724667688354 -0.010639650206080126 0.006954860043272559
0.054264800399627 -0.01066437930064047 0.005316318840748402
0.055054922375476156 -0.010663453861709934 0.004436116566379378
-0.13352853068241943 -0.012207511135630034 0.025402303039727958
-0.1217651610325301 -0.01195220594120533 0.03044811422106064
-0.11975435551864555 -0.011927285950172312 0.02991262346903717
-0.08610964308091662 -0.011150391657483027 0.047830796318804325
-0.08127237098385237 -0.011056533728177685 0.04907477650573627
-0.07311048822502009 -0.010882993155653735 0.05230692069359821
-0.06959927416505568 -0.01081996061688925 0.05282935726887317
-0.06704550092012379 -0.010779617235501665 0.05279852043601585
-0.06537868361405952 -0.010760402809974255 0.05224691723439823
-0.06357232186393919 -0.010737758988355182 0.05178510070301651
-0.0611471864485707 -0.010700121138309194 0.0517055336136516
-0.05960587489204694 -0.010683670069550604 0.05109714938959775
-0.05805448814703046 -0.010666911411273126 0.050499727190722155
-0.056511978668745466 -0.010650302601688899 0.04990169459387228
-0.055164898571483545 -0.010638373658411051 0.049187097862150864
-0.0538354423229776 -0.010626826795083885 0.04846497269421002
-0.05281198309583096 -0.010622692845814314 0.047553963142809075
-0.05161766516425348 -0.010614370121293574 0.046752127820954836
-0.050974370337689534 -0.010619497699934902 0.04560257836728682
-0.050431906633722656 -0.01062711758567085 0.04438708238105771
-0.050032283343236394 -0.010638276523175519 0.04307753919887847
-0.050479770706080396 -0.010670330600843818 0.041217204014704245
-0.051201199778929396 -0.010709267951937728 0.039169333192156264
-0.05296966418826188 -0.010774234272914733 0.036425563926356985
-0.06785779187049118 -0.01116431733172833 0.025039192521307707
-0.06806008982044431 -0.011191592383091703 0.023243524526202708
-0.06821992741132221 -0.011217920828248174 0.021467941818686
-0.01557267917731503 -0.010236251088479918 0.03203132859541291
-0.01335258797572203 -0.010200284712056907 0.03207130681424708
-0.011148043297867838 -0.010164570195614455 0.03211100507950204
-0.009541344947159303 -0.01014415620019238 0.03172062642030493
-0.00845927725364326 -0.010137242340242967 0.03094735912229052
-0.006615290211478553 -0.01011052894711431 0.03074459669920554
-0.004483618785248611 -0.010076223340854373 0.030765931920514633
-0.0023674714545118825 -0.010042178600861998 0.030786287917190902
-0.00026557571147017844 -0.010008363141502543 0.0308065068225592
0.0018222119306592344 -0.00997477465434967 0.03082659001687238
0.0038949547130591733 -0.009941439137620234 0.030845712475732534
0.005954958401095889 -0.009908297604416952 0.030865531126212875
0.008001272956067618 -0.009875376303275564 0.030885218077767396
0.010034034376614487 -0.009842673046237118 0.030904774638798815
0.012052335668950809 -0.009810213208441516 0.030923386840436218
0.014058400701134344 -0.009777939409937876 0.030942689212857366
0.016051309843152783 -0.009745877264866755 0.03096186499914777
0.018030177710241235 -0.009714051695047222 0.03098010832942405
0.019996163492673913 -0.0096824333041369 0.030998232898744038
0.021950389546461446 -0.009650993427798892 0.031017041637211973
0.02389097711894478 -0.009619783543409957 0.031034929495332264
0.025819054003070663 -0.009588774864647749 0.031052702032952906
0.027734740792023316 -0.00955796545204846 0.031070360361672933
0.029639119775201672 -0.009527327421689071 0.031088696883920575
0.03153037378442031 -0.00949691098756636 0.03110612749925573
0.03340959039147218 -0.009466688147138424 0.031123447172628882
0.03526655649209354 -0.009436937316570883 0.03113203675294829
0.03710350824735831 -0.009407600775500903 0.031133541540319887
0.03892999761609761 -0.009378420901896518 0.0311358158117635
0.04074427590580315 -0.009349446493465988 0.031137299621682712
0.044214292163111846 -0.009275018057190419 0.032559819472258555
0.045997831316857696 -0.009246531313936445 0.03256152048654004
0.04776956413146788 -0.009218243331419289 0.03256244934117575
0.04953224314239607 -0.00919007957750392 0.0325648913599591
0.05107013092278023 -0.00916799921064666 0.032380953788089695
0.05236876971673626 -0.009152443008571329 0.03199495174628536
0.053663008931940426 -0.009136939508399718 0.03161025741710005
0.05495287088817841 -0.009121488442766428 0.0312268641662915
0.055190418165618704 -0.009135291766828747 0.029913006770782458
0.05439558426865271 -0.009177989711613658 0.027671795060193682
0.05439349989633241 -0.009198689759161181 0.026128508511938986
0.05439140610061599 -0.009219483391596362 0.02457824476717757
0.05438930281745458 -0.009240371245002781 0.023020956402865944
0.0543871899822187 -0.009261353961241569 0.021456595565215286
0.05438506752968575 -0.009282432188017328 0.019885113964784207
0.05438293539404293 -0.009303606578944497 0.018306462871518825
0.054379916743096 -0.009324902670983267 0.01671978028747828
0.05437776302643793 -0.00934627148918313 0.015126636108011626
0.054375599416305154 -0.009367738469305463 0.013526173503385308
0.054373425844369494 -0.009389304289296916 0.011918341929541998
0.05437124224167417 -0.009410969633361384 0.010303090375915036
0.05436904853861896 -0.0094327351920326 0.008680367360026253
0.05436595566421604 -0.009454627236598302 0.007049270633842919
0.05436373947743367 -0.009476595440754269 0.0054114419147386905
0.05501489488121519 -0.009479782494690576 0.004397432762553777
-0.12426831831096852 -0.01051004058754561 0.029005362511940302
-0.08725910272341042 -0.009761855612958517 0.048751518460405596
-0.08427900544773043 -0.009718520705588542 0.04889828885653352
-0.08155453048100747 -0.009680346345679101 0.048909283722951724
-0.074265204922973 -0.009546725870906228 0.05162571733271554
-0.0696539247572045 -0.00946860866401275 0.05279693015921494
-0.06676252127161703 -0.00942623461628832 0.052967399472315324
-0.0645464559869029 -0.009397877657961257 0.05274645121174587
-0.062289113399863816 -0.009368542736183089 0.052559772482404954
-0.06037213249327822 -0.009346268705065825 0.05217612651967252
-0.05859753594994094 -0.009326915406608792 0.051712904829295525
-0.05685169240788496 -0.009308095333423071 0.0512384428212298
-0.055019746329609376 -0.00928737643003303 0.05082341883755204
-0.053173469486391456 -0.009266272259482901 0.05042419579886015
-0.05164171685965646 -0.009251780209487895 0.049835512826546746
-0.04990684080015989 -0.009232899468753464 0.04937929887801912
-0.048757905619824626 -0.009226465271874273 0.04855916215568523
-0.04769237415440131 -0.009221791485778206 0.04768818414648074
-0.046651230212643724 -0.009217622462006855 0.04680319234694774
-0.04619159318715699 -0.009225936452082476 0.045545881140440614
-0.045960384114216046 -0.00923920308945837 0.04413812816571677
-0.04681693743698967 -0.009275996389197514 0.042018894330251244
-0.04919126421298242 -0.00934575462447059 0.038895160459078204
-0.05248254046877776 -0.009435657081318062 0.03514504497948079
-0.06711603745178674 -0.009772148698292146 0.02386751151257721
-0.06729495701254412 -0.009795560232454672 0.022082739348627145
-0.015309039521807066 -0.008950795525999294 0.032222719471950934
-0.013117909019939644 -0.008919964811060898 0.03224260403986601
-0.01094067617969513 -0.008889319920482005 0.03226319246888398
-0.00939101327778713 -0.008872737571006113 0.03183155636494983
-0.008308327573585017 -0.00886666686868766 0.03105935113319469
-0.006436168166082834 -0.008842645865818009 0.030878212384884196
-0.004308313040758516 -0.008812706793388018 0.03089741055365841
-0.002193711853634539 -0.008782944547235126 0.030917313343243658
-9.334544214567586e-05 -0.008753382650396577 0.030937082153958795
0.0019929294470411585 -0.00872401908663356 0.030956718334116118
0.004065254151490227 -0.008694851866671014 0.030976223213996623
0.006122700184236107 -0.008665903582491759 0.030994775263628593
0.008167550349355068 -0.00863712302509504 0.031014024250285488
0.010197813660763055 -0.008608557233461144 0.031032328511785168
0.01221573203709786 -0.008580155700445853 0.031051326642534738
0.014219347821567696 -0.00855196487034266 0.031069388012142096
0.016209840623058802 -0.00852395868032259 0.031087331086033065
0.01818733894716501 -0.00849613532231475 0.031105157022607632
0.020152974393766232 -0.008468469563012804 0.031123670708610662
0.022101865592093206 -0.008441076581559301 0.031138859852300305
0.02402139935705716 -0.0084142537667707 0.03114037633938399
0.02592975186468588 -0.008387577876290625 0.031142679233028048
0.027825071383048183 -0.008361093451346814 0.03114417407901232
0.02970942219857714 -0.008334753039083907 0.031146450504728085
0.03158098280495514 -0.008308600640579054 0.03114792413230677
0.03344178188202329 -0.008282589417590951 0.03115017457068553
0.03529096634265 -0.00825674054978834 0.03115241096236976
0.03712771368100343 -0.008231074674235887 0.031153852311712915
0.03895400056517373 -0.008205545852390472 0.031156063430295866
0.040768993954924504 -0.008180174897094194 0.031158260875589705
0.04423766592896938 -0.00811508091618752 0.03257974562425148
0.046021010633482684 -0.008090158449629445 0.03258138532574334
0.047794319154376375 -0.008065367325087147 0.032583776620876304
0.049555916069880857 -0.008040748813828767 0.0325853940038886
0.051111919108033976 -0.008020989450347195 0.03241733651780343
0.05241032380163829 -0.008007381197453225 0.032031321259662626
0.053703469506176105 -0.007993839935201544 0.03164585626752009
0.054993104862853415 -0.00798032357144762 0.03126244984330695
0.05528464146854978 -0.007991082890136898 0.029996782306524306
0.0544904773533863 -0.008028422068806046 0.02775660921047285
0.054488607544317946 -0.008046524139902152 0.0262139605356288
0.054486729284345725 -0.008064708026699325 0.02466433957108327
0.05448484251604874 -0.008082974285125905 0.023107698940922072
0.054482947181479835 -0.008101323476158412 0.021543990839033578
0.05448104322216912 -0.008119756165878744 0.019973167024223137
0.05447913057911202 -0.008138272925532526 0.018395178815247326
0.05447720919276422 -0.008156874331588116 0.016809977085785188
0.05447527900303595 -0.008175560965796401 0.015217512259340649
0.05447333994928716 -0.008194333415251418 0.013617734304075924
0.05447139197031442 -0.008213192272452001 0.01201059272756494
0.054469435004354694 -0.008232138135363871 0.010396036571490852
0.05446746898907201 -0.008251171607482998 0.008774014406253583
0.05446460539441095 -0.008270315662025185 0.007143624547696126
0.054462619022010605 -0.008289526289506008 0.005506507751649958
0.0549321404237072 -0.008296902418061924 0.0043174563048953285
0.0552512009073875 -0.008308126669000737 0.002979308583126561
-0.08811339657005879 -0.008366557078627783 0.04984407511866512
-0.08526815087581235 -0.008331881543787065 0.04990575883594961
-0.08296114474484206 -0.008306668281772785 0.04966676779556384
-0.0808453757803595 -0.008284774070825637 0.049325218632172485
-0.07658938286254191 -0.008224497780093883 0.05025461234520606
-0.06970718674765325 -0.008116905208218495 0.05276532698096953
-0.06657822118519158 -0.008076319028671272 0.05307738766810843
-0.06388042662370935 -0.008043336536096183 0.05314622680915437
-0.06160538895088946 -0.008017850069058563 0.05297253630864729
-0.05961463223962815 -0.007997401223118547 0.05263606126775372
-0.057367325431489646 -0.007972228818687685 0.05246414906580954
-0.05537334786729209 -0.0079515534357594 0.052146391015482185
-0.05322734697920184 -0.00792803480168165 0.05193055067774721
-0.0509644494668644 -0.007902295885890174 0.05179646364849838
-0.048840769168987164 -0.007878996262605142 0.05158541785469295
-0.04713821226350734 -0.007863303488609523 0.05111886138172317
-0.04570167804641134 -0.00785242154865032 0.05049034135942859
-0.04415283408245185 -0.007839435732534119 0.049937451000395816
-0.04305432842427076 -0.007834679558091634 0.04910185779442228
-0.042264559787686895 -0.00783559285823525 0.048069714319350865
-0.04175523560560246 -0.007841686970377269 0.04685595714266577
-0.04195247934961954 -0.007860874817977018 0.045180559769625595
-0.04291892099938266 -0.007894395181027698 0.042994820938034806
-0.045197788157354146 -0.007952421818008983 0.03993317039805955
-0.06643101960743458 -0.008363380712445764 0.024320285357017524
-0.06652751925518557 -0.008381885555588829 0.022592830091240024
-0.034273028642400116 -0.008004336258624649 0.021744620306532902
-0.015127261525289815 -0.007668609292368017 0.03235468235902772
-0.012936599028554707 -0.007642184758706596 0.032374946108619906
-0.010762125911893128 -0.007615963833350433 0.03239423107987338
-0.009249897463882883 -0.00760246872324009 0.031935685917227785
-0.00816542995352415 -0.007597224969571776 0.031165369190456316
-0.006259460750561441 -0.00757597176603433 0.031010026882855313
-0.0041320507598697764 -0.007550311200009378 0.03102960658541687
-0.0020201088671846223 -0.007524845476743104 0.031048220672385607
7.873011344444736e-05 -0.0074995295030236865 0.0310675401900814
0.002163494122793097 -0.007474383300119299 0.03108673014958302
0.004233247867090895 -0.007449426334983328 0.031104966937691547
0.006289225793646602 -0.007424635477822926 0.031123082345757835
0.00833262267235313 -0.007399988186707772 0.031141896919526235
0.010346769805551215 -0.007375815273781039 0.031148337891552635
0.012341563540616218 -0.007351923482941812 0.031149853053130394
0.014324506579387941 -0.007328165487714958 0.031152169787387385
0.016293653134150432 -0.007304580901236779 0.03115366285961635
0.018251178707302584 -0.007281127411171518 0.031155952490590777
0.02019516956977302 -0.007257844141796914 0.0311574239134475
0.02212776324005722 -0.007234689339942343 0.03115968694239768
0.024047077419678375 -0.007211701649889714 0.031161137144473383
0.025955212460378796 -0.007188839866518308 0.031163374060184268
0.027851287790609025 -0.007166122573176947 0.031165596838183818
0.029734454662839915 -0.007143567870747311 0.031167014738213816
0.031606759155939745 -0.007121135356099214 0.031169212129428858
0.033467341489970714 -0.007098843287359896 0.031171395763121335
0.03531537276666841 -0.00707670945337624 0.03117278231175713
0.0371528465076682 -0.007054694229609432 0.031174941258283073
0.038978000165721005 -0.007032834424696477 0.031176308224186378
0.04079279314677764 -0.007011090920538038 0.031178442925587413
0.04426103647001933 -0.006955303808210485 0.0325996690270936
0.04604507808784669 -0.006933926295982954 0.0326020113053056
0.04781818660726839 -0.0069126797910388 0.03260433922933953
0.04957958563673931 -0.006891581210035831 0.03260589373724754
0.05115282651274439 -0.006874286465520833 0.032452952399178225
0.052445809645946195 -0.006862732915268298 0.03206237964759978
0.05373015082764421 -0.006851307665416768 0.03166933157378776
0.05501107855560339 -0.006839902547773927 0.031278347005596785
0.05537966645996095 -0.006847513660351638 0.030081270637082547
0.054586177567151006 -0.006879500070781912 0.02784214476171748
0.054583660158480596 -0.006895025218662756 0.02629936311270059
0.054581997184921405 -0.006910602379553325 0.02475038444387967
0.054580326680454816 -0.006926250083294403 0.023194391058299735
0.05457864859380984 -0.006941968810164788 0.021631335197472512
0.05457696287324737 -0.006957759044813094 0.02006116866838137
0.054575269466556664 -0.006973621276307514 0.018483842838530218
0.05457356832104976 -0.006989555998186331 0.016899308630921817
0.05457185938355735 -0.0070055637085090616 0.015307516518969333
0.05457014260041737 -0.007021644909908487 0.013708416521330535
0.05456841791747852 -0.007037800109643061 0.012101958196684859
0.05456668528008862 -0.007054029819650377 0.010488090638424208
0.05456494463309003 -0.007070334556601214 0.008866762469276757
0.05456319592081399 -0.007086714841954366 0.00723792183585481
0.05456143908707628 -0.007103171202012196 0.005601516403128781
0.0549152284618275 -0.007111997225166708 0.004301112063824553
0.05535000493025033 -0.007119104784741761 0.003075292159171794
-0.08642634290977957 -0.006947164926075886 0.050816446919954406
-0.08392650954358455 -0.00692334240946401 0.05068356599237295
-0.0819680599040657 -0.006907471206094859 0.05024586146087634
-0.08013399823641093 -0.006893390596940448 0.04974245728812943
-0.07802718442464968 -0.006875188709363014 0.049406408402086044
-0.07028405912579544 -0.006772706542299148 0.05242303784686675
-0.06630689618465946 -0.006726204274486563 0.05323931134302856
-0.06343522638794918 -0.006696103199554965 0.05341345255031987
-0.060872248575525034 -0.006670524621541813 0.053415132484580685
-0.05840934372808526 -0.00664635375815913 0.0533678815744143
-0.05605872777693871 -0.006623783083809836 0.05326326143816579
-0.053556475809160065 -0.006598832734353549 0.053262251127298155
-0.050834075314792004 -0.006570451236502009 0.053408830203625524
-0.048209896957827514 -0.0065434494179140955 0.05350762235909301
-0.04613720587214615 -0.006524726586246741 0.05327448153225245
-0.044281232124964875 -0.0065092317379771445 0.05291393625617519
-0.042359447687519314 -0.006492671602295345 0.05260224095072885
-0.040854554768591955 -0.006482421945623161 0.05203340419906466
-0.03997349336940531 -0.006481691065630963 0.051070721418355336
-0.03908386473444503 -0.0064808257629358846 0.05011388937231853
-0.03823570910674845 -0.006480595054701847 0.04913066184908266
-0.03766590636309758 -0.006484654074165592 0.04796662749215985
-0.03787800655476303 -0.006500805706614084 0.04628960839188456
-0.038629540979480015 -0.006525369746879425 0.044250350986144826
-0.04312418804436485 -0.006608074610035515 0.03972532015361235
-0.06617276362954722 -0.006979392593943908 0.022828624536838815
-0.06635084437889283 -0.006996134100487199 0.02104058473816811
-0.044375469463282635 -0.006789904826097805 0.019491541478113106
-0.0382855923292475 -0.006706854968714496 0.02215667104228336
-0.03417514636264407 -0.006655039934545526 0.0234488711136408
-0.02918900740275021 -0.006602582260435302 0.02377424333670264
-0.014944485715340239 -0.006387574096137925 0.03248736961508103
-0.012756608188946195 -0.006365592378228535 0.03250632530007308
-0.010582594419771663 -0.006343743012240494 0.03252598981452032
-0.009106609512561703 -0.006333076430720185 0.03204141829267948
-0.008023769525641322 -0.006328728161163311 0.031270469354815866
-0.006082913615834962 -0.006310446591024813 0.031141721819729018
-0.0039626333178610085 -0.006289172673771612 0.031156669014379634
-0.001874270705368719 -0.006268329479550569 0.031158191616092845
0.00020139021329834694 -0.006247606115907914 0.03116053419892051
0.002262286563052829 -0.006227037075402705 0.031162034045046416
0.004310733202504635 -0.006206585395958605 0.03116434862692463
0.0063447016344718166 -0.006186285135545203 0.031165826181316525
0.008365408191608303 -0.006166117236828969 0.03116729410170349
0.010374030574870685 -0.006146063117998145 0.031169569005886577
0.012368590568916149 -0.006126156200235967 0.03117101529003452
0.014351302162307289 -0.0061063607531782246 0.031173263474387647
0.016320219836081284 -0.0060867097831468035 0.03117468855654837
0.018277518762643108 -0.006067168035156871 0.031176910517921097
0.020222289858543296 -0.0060477513655120265 0.031179118257415928
0.02215365717174478 -0.006028475213253178 0.031180511043836512
0.02407373921241801 -0.006009305018804175 0.031182693298867303
0.025980669425662684 -0.00599027278394648 0.03118406593647921
0.02787652956274994 -0.005971344401170233 0.031186223173214067
0.029760446160062737 -0.005952535263421105 0.031188366819731805
0.0316315772538619 -0.0059338603653805696 0.031189708731040933
0.033491950913512536 -0.005915286261128975 0.031191828052763326
0.035340714273318585 -0.0058968280749454784 0.031193934148076363
0.037177045037222856 -0.005878500543697653 0.03119524623645603
0.0390029192843907 -0.005860270863819026 0.03119732867493963
0.040801945800810036 -0.005842419512069078 0.031186204505158466
0.0442412616067 -0.005796424847904714 0.03258281094207033
0.04600852985918841 -0.005778898619340201 0.032570689213407555
0.04776602740115182 -0.005761462861746447 0.03255940232978921
0.04951207466402108 -0.005744147103804566 0.03254742384855863
0.05111627143894104 -0.005729203050947511 0.032421125858691335
0.05240513011220144 -0.005719647848571606 0.03202677557040251
0.053689696809741116 -0.00571012446558587 0.03163373849189449
0.05496999293472549 -0.005700632743313785 0.031242008074473304
0.05547549169830157 -0.0057045924799599265 0.030166470480750218
0.05468096062956457 -0.005731262268358954 0.02792686057554139
0.05467952114931446 -0.005744177312872836 0.02638549199752921
0.05467807516690143 -0.005757150695352508 0.02483716097288946
0.05467662263817036 -0.005770182811966415 0.02328182022020525
0.054675163518564884 -0.005783274062478277 0.021719422028975532
0.05467369776312392 -0.005796424850287954 0.02014991825473733
0.05467222532647792 -0.005809635582472864 0.018573260314121598
0.05467074616283785 -0.0058229066698300925 0.016989399179834386
0.054669260226000105 -0.005836238526918814 0.015398285375583354
0.054666888225069876 -0.005849647235832172 0.013799045317657355
0.05466538657515263 -0.005863101963465384 0.012193269718574318
0.05466387800149641 -0.0058766187280148464 0.010580090226234018
0.05466236245610501 -0.00589019795953073 0.008959455515622772
0.05466083989053927 -0.0059038400920472835 0.007331313786238691
0.05465931025590515 -0.005917545563629203 0.0056956127565658266
0.054937480680998685 -0.005926262407873504 0.004322617294091835
0.05544874940366157 -0.005930799527250588 0.00317121788565633
-0.08546538936598136 -0.005546355354290763 0.05137031438151679
-0.0829783656300831 -0.0055274275965439875 0.051233245779008674
-0.08118571939913771 -0.005516679575649506 0.05070206460880372
-0.07963033076537634 -0.005508715405324829 0.05003786939447352
-0.07793869008018794 -0.005499095262286687 0.049458613973351495
-0.07114578110917369 -0.005428465007562881 0.05191173225709694
-0.06620592514439616 -0.005379754235817706 0.053299569711656114
-0.06309883340795197 -0.005352846301078725 0.05361536812938322
-0.06013071445513146 -0.005327505106996804 0.053862795956732434
-0.05715050124457216 -0.005301920135217227 0.05413221848088873
-0.05435724285610999 -0.0052784921812946035 0.05430229558810734
-0.05129731787220182 -0.005251748674235978 0.0546497479611347
-0.048389491202569135 -0.0052267437709374275 0.05491880447697145
-0.046266962642802834 -0.005211174106541611 0.05471459480429436
-0.04378145481810547 -0.005191128734495537 0.05474624790199195
-0.04171716924116936 -0.005176138126715258 0.05452496770757487
-0.039974577161344615 -0.005165016739311516 0.05410920083939491
-0.03822951880988307 -0.00515382144773834 0.053701532332166235
-0.03693318045782723 -0.0051480827460481625 0.053013688630289324
-0.035846786028890465 -0.005144900097277954 0.05219430117653823
-0.03470151403311844 -0.005140980245882829 0.051414847000124775
-0.03417728047188423 -0.005144703205781392 0.050234067711203645
-0.0336694726924352 -0.005148643907099426 0.04904034433891097
-0.034258287925346576 -0.005166177123950436 0.0471234902453499
-0.03545811733338006 -0.005191360038906105 0.04479233605134614
-0.04127485593815555 -0.005274031949507258 0.03937744833659668
-0.06607326251965429 -0.005593450019472977 0.021226115682562885
-0.04665411841237305 -0.005438668614968663 0.02119980388470366
-0.04242251787534962 -0.005396082560593536 0.022516983913459687
-0.03871664374884659 -0.005360004168150279 0.023488784350658376
-0.035379948341918765 -0.005328479709126348 0.024220427261850253
-0.032082272487822694 -0.005297323899363467 0.024943514288849555
-0.029352322394456343 -0.005273299919677881 0.025278055413108735
-0.023373073886569506 -0.005207540561081676 0.027973390634904838
-0.014811874650846046 -0.005108356495264519 0.03258363945666948
-0.012647078528191302 -0.005091064587832478 0.03258627335910441
-0.010496888734899679 -0.005073889352494195 0.03258888948998856
-0.00901795989406129 -0.005065315756083842 0.0321068329675388
-0.00793769012798401 -0.005061868034729732 0.03133433305321748
-0.006036835316764855 -0.005047759440263132 0.03117609382297154
-0.003934782804988102 -0.005030976043842788 0.031177556791762706
-0.001845558029010097 -0.005014289497577327 0.031179842740025
0.00022875897320012717 -0.004997727567901943 0.031181283657817527
0.0022905035615698455 -0.004981260486402368 0.031183542268763076
0.00433763041877705 -0.004964915668640816 0.031184961587162774
0.0063724334285159 -0.004948663750538716 0.031187193378762024
0.008392901300188105 -0.004932531803291632 0.03118859153737269
0.010401287356293587 -0.004916490858894043 0.031190797014384153
0.012395613656317916 -0.004900567650524412 0.0311921744412047
0.014378093850700602 -0.004884733598213092 0.03119435409558735
0.016347804260519516 -0.004869001538061967 0.031196519710065096
0.018303855014235038 -0.004853383966087265 0.03119786551871767
0.020248401860580134 -0.004837852869858701 0.031200006042154838
0.02218054309130907 -0.004822420857286063 0.031202132909648184
0.02409940978848013 -0.004807100205655025 0.031203448051046967
0.026007101663286958 -0.004791863453178921 0.031205550531560378
0.027885266263359854 -0.004776958003309293 0.031193362375360134
0.029751782752603206 -0.004762144994928954 0.03118124980832171
