# .PCD v0.7 - Point Cloud Data file format
VERSION 0.7
FIELDS x y z
SIZE 4 4 4
TYPE F F F
COUNT 1 1 1
WIDTH 755
HEIGHT 1
VIEWPOINT 0 0 0 1 0 0 0
POINTS 755
DATA ascii
-0.006848881599671508 -0.004984499723718298 0.025267300854767805
-0.008111809119001334 -0.004978365789849993 0.02467830234795204
-0.008820144714920708 -0.004979585693387029 0.023651948964013736
-0.008709528608088657 -0.004991732142427244 0.021969710322673308
-0.008598371541329364 -0.005003937992786911 0.02027924481641097
-0.008486669536632907 -0.005016203681280775 0.018580491947981392
-0.00837441857688176 -0.005028529649017113 0.016873390625509632
-0.008261614605385215 -0.005040916341450387 0.015157879155181242
-0.008148253525374682 -0.005053364208435132 0.013433895233796678
-0.008034331199523737 -0.005065873704280193 0.011701375941241987
-0.00791984344942892 -0.005078445287804214 0.009960257732820943
-0.007804786055114699 -0.005091079422391519 0.00821047643149908
0.0802362275759465 -0.007015726343114831 0.035247665990310095
0.07678115075792369 -0.006976985203292532 0.03575884114971273
0.07395331672816396 -0.0069476289100313645 0.03589623758554478
0.0710240762225689 -0.006916612883926179 0.036111086679668725
0.0688900813899816 -0.006897613106698824 0.03583797623627005
0.06707107036047233 -0.0068833557229627815 0.0353736296669776
0.06548238887398555 -0.006872571576410651 0.03476879822179785
0.0639843261336438 -0.006863136177273269 0.03411081421182899
0.06250854240366438 -0.006854006195368029 0.03344289016827695
0.06105616003289549 -0.006845200746704515 0.03276407968154005
0.059621356901706 -0.006836631841773014 0.03207795716970757
0.05818186727573488 -0.006827956313856546 0.03139898878064684
0.05673367170900223 -0.0068191111974277106 0.030729907420221747
0.05547923854971992 -0.006813241339720346 0.029936260428891637
0.05439870936161839 -0.006810055436247926 0.02902918638300267
0.05348512444366971 -0.006809461064389843 0.02801143365024683
0.05257984514537062 -0.006808994130751818 0.02698835290395274
0.05194175048655003 -0.0068127101495618556 0.025783912991217073
0.0513897102010753 -0.006817791726671312 0.024518872348963827
0.05096832487961478 -0.006824948534575656 0.023161592516533214
0.041339432308490576 -0.006687043468830177 0.028163165224321607
0.03749852159663253 -0.006639970045778697 0.02921005918050107
0.03415578951146736 -0.006600587303111859 0.029931780007434794
0.031088807736700752 -0.006565415833813261 0.0304789660646827
0.028331024691743423 -0.006535012822838146 0.030824907399486512
0.025752031975155465 -0.006507331557831717 0.03105872967261597
0.023327381205412834 -0.006481998788254685 0.03119589225695102
0.021037379921381938 -0.006458714216831819 0.031248805984898487
0.018876249503835207 -0.006437397937428808 0.031220131318015154
0.016770435167771658 -0.0064168815414259225 0.031161810053331407
0.014817788552391464 -0.006398743808048048 0.031001825347866607
0.012874993042020277 -0.006380689683743135 0.030843591154515793
0.011051021052475463 -0.006364479648238162 0.030606634355333617
0.009279614458977181 -0.006349052883651294 0.030338737671689153
0.0075179067681039324 -0.006333719087037235 0.03007129191501806
0.005890672989309342 -0.006320506650656727 0.029710646687008846
0.004273568705589981 -0.006307403856141448 0.029348973356387198
0.0026676004119569607 -0.006294427819513545 0.02898542640199142
0.001179805177625115 -0.006283329849571944 0.028538321988394677
-0.000303851758767848 -0.006272252936522977 0.02809363353721922
-0.001781194123037011 -0.006261232955329312 0.027649668305420205
-0.0031609742951699826 -0.00625177202445297 0.027135698482659454
-0.00452793862943679 -0.006242482344528229 0.02661654098802163
-0.0058908465713975455 -0.006233220231223753 0.02609892406496178
-0.00718868157512198 -0.006224996488335914 0.02553479398400571
-0.008448985852412716 -0.006217360603187495 0.024945154282667636
-0.009707263188514004 -0.006209725776631445 0.024357803715434778
-0.009672474433580547 -0.00622361319879102 0.022739999980652736
-0.009563952559501099 -0.006238792016203927 0.021055772587955712
-0.009454900041635572 -0.006254045054098652 0.019363309759918734
-0.009345312978383924 -0.006269372858187682 0.01766255094478897
-0.009235187429794511 -0.006284775979546656 0.015953434995732152
-0.00912451941710879 -0.006300254974680125 0.014235900163518223
-0.009013304922265597 -0.0063158104055888505 0.012509884089071166
-0.008901539887430587 -0.006331442839837559 0.010775323795934544
-0.008790307532880737 -0.006347134409235942 0.00903306323640074
-0.00867743211635752 -0.006362922483603909 0.007281230428585028
0.08271162765294016 -0.008463857462708264 0.0337186572669817
0.07743409510358062 -0.008384271455744824 0.03535322484690534
0.07426599812637774 -0.008342859315114241 0.03570088843541075
0.0714312748562343 -0.008307379024099336 0.035855238896079666
0.06880591066494662 -0.008275594073795212 0.035891162312845504
0.06684568831750715 -0.008255890698955182 0.03551685289609896
0.0652440587134469 -0.008242703485647698 0.034921107441608146
0.0637190626513664 -0.008230876130190036 0.0342812942433498
0.06222775254977864 -0.008219623858630221 0.03362436742163927
0.06077525511345372 -0.008209044919869991 0.03294665446368383
0.05933202545495325 -0.008198595739671546 0.03226706683051184
0.057892465259998915 -0.008188173126891842 0.031589207073389636
0.056438738626117035 -0.008177445351734865 0.03092484830664033
0.05515398916545161 -0.008169825310692758 0.030152443042224142
0.05404990598347342 -0.008165550044231485 0.029262320566673217
0.05293883419610934 -0.008161126804168615 0.028378602582501078
0.05226372622808945 -0.008164863365571451 0.027202004638951283
0.05163134056411528 -0.00816941795049603 0.025994873562734278
0.05105103474384454 -0.008174971742382207 0.02475032146695383
0.05046452842633947 -0.008180430979414826 0.023507794385260627
0.04235246238698864 -0.008043608020294975 0.027463169195032944
0.03812832579314973 -0.007979897490591048 0.028772462316644654
0.03453806931776304 -0.007927962877588377 0.029664699650753357
0.031350330484504474 -0.007883474494041328 0.030295245162640982
0.028539092384522458 -0.00784598197834348 0.03067793395588919
0.025834849132284454 -0.00781037992217826 0.030999908143255483
0.023410592783505213 -0.007779991393093857 0.031136466020716513
0.021021850505634265 -0.007750159183176425 0.03125995726685327
0.018859669913833033 -0.007724558849148834 0.031232101905431464
0.016712900532028507 -0.007699149696457272 0.031203577686296058
0.014724585879144214 -0.007676693715795504 0.031069855986976536
0.01278250713789264 -0.00765503890209771 0.030911466854519953
0.010893795160879016 -0.007634328445873722 0.030722651555996572
0.009123474550019994 -0.00761583107932754 0.030454580397422437
0.007362843291683296 -0.007597445149999541 0.030186961165443893
0.005679244806003569 -0.007580484692720921 0.0298692170101319
0.004063455887322376 -0.00756477841260852 0.029507411344237344
0.0024543487473541736 -0.0075491370827428916 0.02914710185478042
0.000920291124119399 -0.007534902835182017 0.028736134888907083
-0.000560810857680949 -0.007521650056000827 0.028290556803741818
-0.00203780312999724 -0.007508422308585763 0.0278473841585416
-0.0034607740450237623 -0.007496205489372507 0.02736793725870157
-0.004826215995541505 -0.007485075449641512 0.026848844074877865
-0.006187609259745208 -0.007473978411709047 0.026331290059677492
-0.0075267991904722775 -0.007463275424697581 0.025800962746556688
-0.008786620786477128 -0.007454107636332777 0.025212368851333433
-0.010042291820842209 -0.007444983487261471 0.024624376398825143
-0.010631536667181474 -0.007449151149243974 0.023507183035342438
-0.01052456622040232 -0.007467293428093057 0.021828305572114293
-0.010418137412822825 -0.0074855029184586145 0.020142090605381857
-0.01031118826900268 -0.007503801436022288 0.01844763164105151
-0.01020371496366701 -0.007522189635272182 0.016744868072938346
-0.010096786356831033 -0.007540646486399831 0.015034619943922911
-0.009988256056438882 -0.007559215931328424 0.013315070088861458
-0.009879189907441632 -0.0075778770595192795 0.0115870302685947
-0.009769583931540038 -0.007596630551656869 0.009850437451029481
-0.00965943411094733 -0.0076154770951806965 0.008105227978558394
0.0789070576093645 -0.009812940738989568 0.03443820412615939
0.07487513522534195 -0.009746301292396805 0.035320327214700076
0.07212504683473353 -0.009706737983578826 0.03541933364409633
0.06916706737163958 -0.009662577106160298 0.035662953416582266
0.06689103008133124 -0.009632843269494894 0.03548803962533659
0.06507216708531399 -0.009612799873649458 0.03503095791002414
0.06345831689129033 -0.009597084097214235 0.034448870816706445
0.06196683782103979 -0.009583941723345946 0.033792999185494166
0.06049192939901832 -0.009571104859841473 0.03313080264696083
0.059036163862261515 -0.009558630946034971 0.03246044465399722
0.05761031974137132 -0.009546755676130832 0.03177465581230704
0.05616747554144985 -0.009534464001423102 0.03110414411727086
0.054752876046734955 -0.009522737617416038 0.030419049795196718
0.05353453367539762 -0.00951524193662037 0.02960678656057697
0.052679757269093186 -0.0095156564092259 0.028552731626702466
0.051885800676937266 -0.009517403511135808 0.02745742892800812
0.05129567542953423 -0.009523627217702847 0.026222998063633596
0.05056426876745107 -0.00952677180008959 0.025082974906990574
0.05007664534173295 -0.00953529633693694 0.023774342210013066
0.049804253924403574 -0.009548603654417785 0.02231403828767503
0.03876130516526277 -0.009323872937166248 0.028332659295873697
0.03495394615956132 -0.009258502024208843 0.029374146675121837
0.03172950152561621 -0.00920580296617153 0.030028875807446564
0.028747370670390515 -0.00915827801468549 0.03053081175497596
0.02601033746296927 -0.009116020980048723 0.030875266192799178
0.023492631745996195 -0.009078488759569809 0.031077877217605354
0.0210863651299783 -0.00904329611325661 0.031213630941513304
0.01884427580506659 -0.009011640119393066 0.031243216566569643
0.016697639020327615 -0.008981998375172308 0.031214656877308122
0.014630262653655524 -0.008954018773894727 0.031138704541308015
0.012690064435109394 -0.008928792855776285 0.03097931084891964
0.010760767641661784 -0.008903708674958523 0.03082081274455145
0.00896745888199102 -0.008881601296338111 0.030570330946800117
0.0072067724023072155 -0.00886014242151994 0.030303381893291126
0.0054680463789736344 -0.008839093532940595 0.030027615016933018
0.0038535709231160564 -0.00882078942590706 0.029665677516111322
0.002245768201845799 -0.008802560970967637 0.029305235927031936
0.0006622295010176305 -0.008784811414098922 0.028932840683784544
-0.0008185210440516122 -0.008769345453127074 0.028488055673915824
-0.0022929771742233873 -0.008753958909444018 0.028043994380631043
-0.0037611846026018303 -0.008738651233856835 0.02760064919470584
-0.005125101769438034 -0.00872568671862002 0.027081620999256373
-0.006484977962456395 -0.00871276061426958 0.026564130565293442
-0.007840831113807345 -0.008699872750354127 0.026048171068870862
-0.009122585368548652 -0.008688651789162309 0.025478261452565654
-0.010377777018621748 -0.00867800141733758 0.024891312358263473
-0.011584631468596118 -0.0086684334683514 0.024269592559500952
-0.011481306382569723 -0.008689466434872728 0.022597723458437136
-0.011377478663903762 -0.008710601717847601 0.02091772142386178
-0.011273144636018695 -0.00873184006568543 0.019229526966179078
-0.011168300586381907 -0.008753182234112799 0.017533080014174307
-0.011062942766083661 -0.008774628986262719 0.01582831990790129
-0.010957067389373965 -0.00879618109276598 0.014115185391439189
-0.010850670633225312 -0.008817839331843068 0.012393614605568704
-0.010743748636856731 -0.008839604489398209 0.010663545080313142
-0.010636297501282421 -0.008861477359114061 0.0089249137273954
0.08176136548232277 -0.011284086737782792 0.03266507627199511
0.07608215430741616 -0.011167991517556273 0.034566236458979716
0.07241124863660725 -0.011100390504395137 0.03523950962059835
0.06963614669742568 -0.011054400682248135 0.035366550018241016
0.06703845395680608 -0.011012571063316979 0.03539435636993027
0.06485678431457848 -0.010980776398052757 0.03516860218340173
0.06323846181318155 -0.010962695222521909 0.03459016769000467
0.06169926473496984 -0.010946490141794142 0.033965934311395884
0.060222827588407246 -0.010931768686372556 0.03330570597205912
0.05877933442423128 -0.010917802881855832 0.03262831070677352
0.05733540359548206 -0.010903770669706209 0.0319553528257176
0.0559416786516066 -0.010890928146216101 0.03125338829641139
0.05454987109817078 -0.01087808198412049 0.03055398053579983
0.05331054269691843 -0.010868982632123844 0.029756498281246158
0.05236954186060061 -0.010867292980487485 0.028761231523622977
0.0515909604120347 -0.010869658640645794 0.027656699299694942
0.05089707084885081 -0.010874156233336143 0.026493897426291768
0.050288919004501165 -0.010880824924651504 0.02527114756140908
0.049764950599702595 -0.010889638774289591 0.02398853447250693
0.04943565399602118 -0.010903396520407276 0.022568738016479073
0.03962072372148928 -0.010677566964238702 0.027735523127165318
0.035578682442113985 -0.01059696048692495 0.0289376737397794
0.03210811642361627 -0.010530521918298095 0.0297628971452798
0.028955859869228606 -0.010471902947362579 0.030383540570791567
0.026216484760427927 -0.010423560389389233 0.030728848472964143
0.023574703834509325 -0.010377510438457143 0.031019264757271736
0.021167635080762026 -0.01033727406083438 0.031155273038655562
0.01882888287560619 -0.010298622789970813 0.03125433037624015
0.01668120484938762 -0.010264718956911957 0.03122658736771683
0.014548784783624091 -0.010231067566565537 0.03119817699395805
0.012597664903403527 -0.01020195196176493 0.03104712315992797
0.010669076861906601 -0.010173297694073737 0.030888471496464343
0.008810429867789682 -0.010146335283798663 0.03068683331410499
0.007051955849537994 -0.010121859787883193 0.03041886695157614
0.005300823350725015 -0.010097472919351532 0.030153031644027828
0.003643913442536062 -0.010075439112849666 0.02982377215133969
0.0020374132592424488 -0.010054629142802838 0.02946319895981281
0.00043753557915493513 -0.01003390495805246 0.029104112165273754
-0.0010747897357687997 -0.010015389235977714 0.028684449839734005
-0.002548897924123106 -0.009997799569705635 0.0282411799354067
-0.004016755151025786 -0.009980300076555412 0.027798625982169256
-0.005422439043278993 -0.00996436704879751 0.02731319192752596
-0.0067808067163402375 -0.009949617578691778 0.02679576528677563
-0.008135158963075984 -0.009934911709013661 0.026279868193976152
-0.009457947276997558 -0.009920981341890732 0.025743677079539895
-0.010711603774899325 -0.009908831299835014 0.02515692874331693
-0.01196219336897425 -0.009896710981241185 0.024571615808794134
-0.01243209424051811 -0.009905405425531106 0.023362354455370382
-0.012330839522971426 -0.009929436418054296 0.021688517074097968
-0.012229092312984358 -0.009953584294842664 0.020006538320659406
-0.012126849008645357 -0.009977849910744735 0.018316358652056608
-0.01202410597284076 -0.01000223412896526 0.016617917943244798
-0.011920859532807748 -0.010026737821168 0.014911155479990168
-0.01181710597971286 -0.010051361867579147 0.013196009951648269
-0.01171284156819341 -0.010076107157093131 0.011472419443810555
-0.011608062515913398 -0.010100974587379396 0.009740321430859566
-0.01150276500311187 -0.010125965064990796 0.007999652768412968
0.07764827083898007 -0.012606849280437826 0.033587797910349826
0.07307175104934005 -0.012506050226361861 0.03482450803566739
0.07026836558728988 -0.012453570160519952 0.03496706145170214
0.06737335138730505 -0.012398361407632069 0.03518153954215869
0.06489899990986892 -0.012354537835981495 0.03514162354012812
0.06312371910034503 -0.012329861051512844 0.03466391075155695
0.06144731584955321 -0.012307824682278706 0.03412877136223791
0.05994159108146996 -0.01229043660770723 0.03348849627023903
0.058506263071860465 -0.012274936583407484 0.03280679262224373
0.05708552785876819 -0.012259781385416517 0.03211959126723185
0.055675126931919616 -0.012244854213058485 0.03142957005263852
0.054379710104768775 -0.012233083237129442 0.030667080975093963
0.05313693825340127 -0.012222740443363321 0.029872532507853156
0.0520949165392931 -0.012217993184603966 0.028945810850171005
0.05134646542146892 -0.012221486809291315 0.027821943377405012
0.0506703957288035 -0.012227035142591706 0.026647950210748006
0.05006107535081744 -0.012234491515701449 0.02542685477773915
0.04953450435862011 -0.012244320412761755 0.024146893902759536
0.049112128276175004 -0.012257144537619965 0.022792291812236853
0.040627599522239266 -0.01204088003273791 0.027035931579287964
0.03620401616285418 -0.011939389793533692 0.028500783403356378
0.03248867619164453 -0.011857697433080128 0.0294955522032046
0.029320297083976765 -0.011791312232011013 0.030126111886351614
0.02642283995399275 -0.011732418430352262 0.03058228309330424
0.02370632972175779 -0.011678478643845476 0.03092526304201143
0.021250133597572052 -0.011631806982672358 0.031096032933506268
0.018859669913933008 -0.011586838273726134 0.031232101905359244
0.016665945757778244 -0.011547367976980307 0.031237664801848086
0.014533656855293509 -0.011509513048570027 0.03120921919475428
0.012505308512542612 -0.011474516636660477 0.031114903809732586
0.010577428771873565 -0.011442295613462125 0.030956098747572713
0.008659209319762384 -0.011410221930482727 0.03079902628633968
0.006896133389122205 -0.01138254347334874 0.030535102364400935
0.005147194934446153 -0.011355162925166518 0.030268252364507586
0.003433369691209942 -0.011328697047288573 0.029982535089220275
0.0018292835537160324 -0.011305343796595082 0.029620991230473404
0.0002306976036789421 -0.011282054259794703 0.029261773067688512
-0.001331807961689524 -0.01125973094450918 0.02888141841885128
-0.0028033880186438265 -0.011240001298339438 0.02843726317794426
-0.00427090074919928 -0.011220308656407114 0.027995498937150365
-0.0057193087827402955 -0.011201099672824406 0.027544398732694264
-0.007076170995850395 -0.01118453258056401 0.027027036323555964
-0.008429025376999466 -0.011168014423355518 0.026511202073662588
-0.00977788965720694 -0.011151544984705651 0.02599688922230131
-0.011044832961222606 -0.011137457922884389 0.02542206965907956
-0.01229389737187181 -0.011123846946753377 0.024836955930925997
-0.01337802831219409 -0.011115137029410024 0.024123081999598173
-0.013279321683384027 -0.011142033892181165 0.022455368279094667
-0.013180136187170954 -0.011169061242966292 0.020779563776610666
-0.01308046833030474 -0.01119622003365277 0.019095609471294017
-0.012980314585466834 -0.011223511225409257 0.01740344576682379
-0.012879671390871539 -0.01125093578879859 0.01570301248439332
-0.012778535149826298 -0.011278494703893355 0.013994248855562552
-0.012676902230320752 -0.011306188960392113 0.012277093515032589
-0.012574768964574545 -0.011334019557738407 0.010551484493285912
-0.012472131648613327 -0.011361987505240465 0.008817359209145503
0.07400783597639171 -0.013924130644185826 0.034236354652927736
0.07076850742754087 -0.013852567675655243 0.03465103016881699
0.06801615850689113 -0.013795618243942608 0.03477305575100065
0.06515246069811892 -0.013735031974634054 0.034979644817738964
0.0630481890436615 -0.013697526304181444 0.034712452549823414
0.061290166488480846 -0.013670525614084673 0.03423033854502744
0.05970634725627694 -0.013648788391470872 0.03364139352180956
0.0582734539000363 -0.013631626948783717 0.032958958810917316
0.056907218738604215 -0.013616460388720268 0.032236790369428225
0.055560404384789375 -0.013601835660677693 0.03150539781265438
0.05431168275768111 -0.01359020075037145 0.030712296524708527
0.053109825037263025 -0.01357997848224284 0.029890654515571935
0.052032734310736295 -0.013573607912602747 0.02898760435200698
0.051154844149107925 -0.013573439237429647 0.02795145229023649
0.050543668897882255 -0.013581624834218734 0.026734076209775415
0.04997620084864113 -0.01359121536986207 0.025484857589130272
0.049255871256225714 -0.013596036873283705 0.02433836666941186
0.048809262235187056 -0.01360950442780028 0.02300156992805774
0.048454597107669806 -0.013625930223313014 0.02159762294981754
0.03691166939208429 -0.013288381627592405 0.0280063804195812
0.033048261860045614 -0.01319296298168593 0.029102440764021353
0.02969652790878302 -0.013113412108144117 0.02986035251174285
0.026629403358314263 -0.013042597098671165 0.030435569830336573
0.02391057880932318 -0.012982603654430857 0.030779396868017395
0.02133146943903197 -0.012926830215747307 0.031037627716215044
0.018941396853383863 -0.012876882866705257 0.031173094446620142
0.01665068783118967 -0.012829919067881345 0.03124874139022521
0.014517366527625697 -0.01278782381389141 0.03122110985586879
0.012411841589000994 -0.012746450110048583 0.03118349948301341
0.010485823341751521 -0.012710702845836955 0.031023694519874412
0.008568305798134668 -0.012675081983472013 0.03086646908039814
0.006741563170670872 -0.012642256934363378 0.030650403670157256
0.0049925679850630345 -0.012611821784292106 0.030384221980969517
0.0032530860268931705 -0.012581569052901535 0.030118480060365327
0.001620273444055409 -0.012554671049898358 0.029779450974174837
2.4082644483502946e-05 -0.012528857785388025 0.02941926397739303
-0.0015666494846455215 -0.012503114670409656 0.029061391651989343
-0.003058623276755823 -0.012480506724764884 0.02863392056500197
-0.004523626435868622 -0.012458690878690133 0.028191271962895448
-0.005984590161153769 -0.012436915764981047 0.027751004027275317
-0.007372139534359612 -0.012417474897970333 0.027258780496781265
-0.008723493669625382 -0.012399150255367817 0.026743009756848624
-0.010070865257295558 -0.012380879616938133 0.02622875903406774
-0.011378517873181004 -0.012363852209412718 0.025687573182672396
-0.012625008859982245 -0.012348790909162454 0.02510182208245576
-0.013869508758945492 -0.012333731441313497 0.024518334400889463
-0.01422296249870858 -0.012348441895312852 0.02321830523934376
-0.01412631389520258 -0.012378319011355813 0.021548633925753458
-0.014029196473892225 -0.012408341053706194 0.019870863460315302
-0.01393160681531408 -0.012438509079428731 0.018184934769361893
-0.013833541466661103 -0.012468824155893522 0.01649078820332306
-0.013734996941391908 -0.012499287360901355 0.014788363529704474
-0.013635969718800212 -0.012529899782812031 0.013077599925934658
-0.013537518467274468 -0.012560626410397213 0.011359327283660459
-0.013437518051739372 -0.01259154039611032 0.009631708127890715
-0.013337024183368296 -0.012622606927144222 0.007895564020902524
0.07597383489609488 -0.015382430641117058 0.03300109396058032
0.07133609378145145 -0.015256883407440767 0.034292381823210816
0.06833111971377709 -0.015185776933854304 0.03457290776891342
0.06556565258694408 -0.015122464393155071 0.03471558703303951
0.06310273596361832 -0.015069121409785786 0.03467739623316135
0.06109284425365358 -0.015030899881956267 0.034357869852545186
0.05950865908583408 -0.01500696329363928 0.03376988139138032
0.058123429066296695 -0.014989691948484703 0.03305701640451503
0.056790710104911823 -0.014974139703464045 0.032313369218868515
0.055520811723120456 -0.01496066854358197 0.03153156723551431
0.05429671958096355 -0.014948709344747865 0.030722242058206894
0.0531016917297934 -0.014937697756223048 0.029896090678511456
0.05191923000215776 -0.014927073266593623 0.0290638921055833
0.051069883210554834 -0.01492786146525972 0.028008873883620056
0.05045204032551448 -0.014936629985798356 0.026796348755196597
0.04979174726703356 -0.014943968192639026 0.025610912246654738
0.04905956320595539 -0.014948848838557306 0.024473266812928107
0.048432954636339454 -0.014957409281799611 0.023261595598149443
0.04800427641927274 -0.014972880129131545 0.021910512133570093
0.037907690264381844 -0.014651889666755014 0.027310508951995327
0.033667313676555455 -0.014533851391968614 0.028667554089363445
0.03007220493349455 -0.01443788344316637 0.02959498432668345
0.02693045421894591 -0.01435740023947921 0.030221746117333914
0.02411382274455265 -0.014287996644764123 0.030634248531871633
0.021418822291150386 -0.014222585090189232 0.030974901835257695
0.019023157039680383 -0.01416745225487552 0.03111406298341096
0.016649514192822346 -0.014112869532146072 0.0312495934004261
0.01450224099014824 -0.014066070990770198 0.031232150311529816
0.012384156168559757 -0.014020113465823865 0.03120381790137222
0.010393116276406711 -0.013978479146522092 0.03109210319031519
0.008477444461471584 -0.01393935506171179 0.030933880576748563
0.006585988546524091 -0.013900931840611915 0.030766454210076233
0.004839183327875363 -0.013867519878019714 0.03049925988306973
0.0030996436741717037 -0.013834228324548729 0.030234185031707106
0.0014125943115955164 -0.01380268167889314 0.02993690164560492
-0.0001834068956475532 -0.01377427823239266 0.029577421530731174
-0.0017717625854581365 -0.013746030760091581 0.029218582200950083
-0.003312432167703161 -0.013719386966265755 0.02882947894386756
-0.0047770929415006935 -0.013695382529721288 0.0283876188613314
-0.006235565486264694 -0.013671500836947126 0.02794646754336233
-0.007666576467804109 -0.013648516201948305 0.027489325419061794
-0.00901643880024422 -0.01362839065796187 0.02697361839529938
-0.010362326090464058 -0.013608324379195508 0.026459430013165086
-0.011704255871064884 -0.01358831710424982 0.025946753574433823
-0.012956574434322632 -0.013571510412418141 0.025367051471373858
-0.01419851743970224 -0.013555012854683544 0.02478292574317853
-0.015161798942160576 -0.013548707696261554 0.02397735784782168
-0.015067662689532302 -0.013581405210331222 0.022313779047547444
-0.014973070973928415 -0.013614260926029843 0.020642151290485022
-0.014878020481805476 -0.013647275994291237 0.018962416019611905
-0.01478250786740598 -0.013680451577240372 0.017274514108518435
-0.014687580780383847 -0.013713749716698599 0.015579258483966796
-0.014591136596625642 -0.013747249669432601 0.013874850607836942
-0.014494220071308406 -0.013780913690343656 0.012162095284257879
-0.014396827725933592 -0.013814742987692074 0.010440931039454593
-0.014298956047754774 -0.013848738781631766 0.00871129579453872
0.07242915357015989 -0.016683913339093418 0.03360169558283893
0.06888514864419576 -0.016586636977827335 0.03422083973635276
0.06605173864350111 -0.016515110147762545 0.03440494490588486
0.06328605537159943 -0.016445796585674945 0.03455958017275723
0.0610067444323249 -0.01639416640071296 0.03441351701669121
0.05946030075945896 -0.01636944368922964 0.03380131199402098
0.05799963221338761 -0.0163478023135683 0.033137931151684785
0.05673453388225608 -0.01633333864741573 0.03235029275286372
0.05551125594477807 -0.016320373694344328 0.03153788328484408
0.054299440082486716 -0.016307784369416337 0.030720433829944827
0.05311524741098589 -0.016296176784446694 0.02988703029416051
0.05196786745300097 -0.01628590089904778 0.0290312022287762
0.050890630377894985 -0.01627821512076792 0.02813002347830601
0.050252747247594876 -0.01628701391660893 0.02693179217558589
0.049517377501504756 -0.016292176255329527 0.0257984151757244
0.04878019920949472 -0.01629729120844968 0.024665241839749108
0.04819943657970105 -0.016308342358517247 0.023422954787657824
0.04748924281062006 -0.016314533490492136 0.022268364769632842
0.04710655192296631 -0.016333186003926876 0.020883710537909272
0.03428821035446589 -0.015878735838120946 0.028231371391306048
0.030538099816040054 -0.01576818188996006 0.029265888663980943
0.027301869466530848 -0.015676808703768315 0.029957945551749132
0.024319693016431887 -0.015594787023363303 0.030487224575700855
0.021619996958709253 -0.01552326502280304 0.030830443378058903
0.01910376484307358 -0.015458501179852722 0.03105586354923745
0.016730511417040794 -0.01539897778634755 0.03119079295285898
0.014487116603622341 -0.015344220902165789 0.031243189927086412
0.01236800813018124 -0.015294044614999665 0.031215668998239077
0.010301596609121888 -0.015245702566015987 0.031159635678101816
0.008386625280417115 -0.015203041573697278 0.031001260797170638
0.006481214810006408 -0.015160574826994651 0.030844609942470902
0.004684801624653956 -0.015122181976506967 0.03061504556585498
0.0029474337587377386 -0.015085936197251308 0.03034896066953363
0.0012172714782195393 -0.015049820554193108 0.03008498446402008
-0.00038957572152248376 -0.01501839318463943 0.029734572378211865
-0.0019777444870321403 -0.014987568063291571 0.02937643856437161
-0.003558324678599567 -0.014956911887945006 0.029018937794684785
-0.005029143780525658 -0.014930461473711349 0.028582869118825294
-0.006487277311518491 -0.014904401027895262 0.028142504657302003
-0.007939265086293501 -0.014878473620463973 0.02770284135139056
-0.009308925742082919 -0.014855708433766683 0.027203866344051975
-0.010654385269023625 -0.014833810178330239 0.02669057454102608
-0.011994835847852325 -0.014812018232608505 0.026177959736168266
-0.013286503783205783 -0.014792084542325574 0.025630971993775786
-0.01452797856642124 -0.014774077631588852 0.025047880946032552
-0.01576540080919897 -0.014756156039271431 0.024465372107230876
-0.01600421944334407 -0.014778366965481083 0.023075029113175327
-0.0159121289818569 -0.014814027116328907 0.021409503320136025
-0.015820633063631906 -0.014849817719105894 0.019736774669077306
-0.015727651141491383 -0.014885823944453154 0.018055082595917427
-0.01563421721850705 -0.014922005202167781 0.01636521553235093
-0.015540327990765657 -0.014958362771652653 0.014667113723112468
-0.015445980122083702 -0.014994897944809854 0.012960716829144736
-0.015351170243595447 -0.015031612026194388 0.011245963920437696
-0.015255894953368432 -0.015068506333168767 0.009522793468789925
-0.01516015081598071 -0.015105582196061246 0.007791143340436069
0.07443365695915571 -0.018153786634904297 0.03233508334089169
0.06989818576376583 -0.01800913736791041 0.03357708637616558
0.06624278710917769 -0.017898980809441734 0.03428285191233593
0.06346111899081047 -0.017823268038177 0.03444706995813962
0.061472358756260614 -0.01777897065600829 0.03411258588451288
0.05955288166386724 -0.017737274401755113 0.03374113882764629
0.05801200877204449 -0.017710616178630102 0.03312984172056421
0.05675645460327822 -0.017695332223312158 0.032335884691061134
0.05556313517696759 -0.017682496456545137 0.031503592850516404
0.05436610294264638 -0.017669459422953747 0.03067612521010238
0.053165410759132004 -0.01765622205369661 0.02985350197433051
0.051986784955078136 -0.017643826595158497 0.029018487524331837
0.05085156483101133 -0.017633145377320737 0.02815642626983189
0.05004153520585913 -0.017635663884144698 0.027075335953717694
0.04930242881415997 -0.017641086589307138 0.02594531003638495
0.04853739259545459 -0.017645471010178715 0.02483209514523299
0.04781213995497763 -0.017651503148392263 0.023690573790506486
0.04715325791907721 -0.017660284533246216 0.022501811824535534
0.0466514441240386 -0.017675562985966526 0.021201672280236117
0.03521287653912575 -0.01724007951295727 0.027581789253767863
0.031152197596982845 -0.01710756248709068 0.028832106444525496
0.027675187458744033 -0.016998660965622598 0.029692793547007268
0.0245585209088795 -0.016904257905666378 0.030316663662407983
0.02182257112029945 -0.01682528939346235 0.030684979979477278
0.019183218857146023 -0.016750018508108658 0.030998497159543392
0.01681036689432086 -0.01668555841304671 0.031132821363708096
0.014471993367912439 -0.016622273559179453 0.03125422870263772
0.012353014704071685 -0.016567920043980052 0.03122667272147933
0.010248992078716046 -0.016513968847307398 0.03119845263310783
0.008294713778907059 -0.01646609419154042 0.031069451427818917
0.006391131940740258 -0.016420157592631938 0.030911807055580554
0.004531660146865901 -0.016375892892293943 0.030729901084342204
0.00279423409379731 -0.01633661061974502 0.030464482639362078
0.0010662256104331247 -0.01629756311936033 0.030199498970210514
-0.0005955226121814872 -0.01626116888049729 0.02989155405701671
-0.002182415843535568 -0.016227810900129737 0.0295332905780063
-0.003762811733280136 -0.016194589499962664 0.029176493965247075
-0.005281933911845282 -0.01616384947747359 0.028778692066382228
-0.006737584076883685 -0.016135700883193684 0.028337447488582412
-0.008189236161821378 -0.016107604477355614 0.02789856938559393
-0.009602012818545835 -0.016081062560310937 0.027434586723352583
-0.010944935131197653 -0.01605742201391602 0.026920524549936986
-0.012283914816990038 -0.016033850872767784 0.02640797158912317
-0.013616886652758842 -0.01601043909214991 0.025895255301157383
-0.01485581508799555 -0.015991011452081972 0.025311529628782303
-0.01609277224680067 -0.015971585991413816 0.024730053080563197
-0.016937049927676417 -0.015969206025352303 0.023833250400382477
-0.016847439273110443 -0.01600764149226451 0.022173792899999323
-0.01675739621925476 -0.016046262422283263 0.020506327999939344
-0.016666917628844924 -0.016085070161031167 0.018830797602732208
-0.016576000334200702 -0.01612406606717956 0.0171471430475183
-0.016484641136841227 -0.01616325151260773 0.015455305103190486
-0.01639283680712511 -0.01620262788256314 0.013755223961460616
-0.01630058408385482 -0.016242196575825332 0.012046839229799211
-0.01620787967390558 -0.01628195900487087 0.010330089924296848
-0.01611472025182009 -0.016321916596042034 0.00860491446239614
0.07085231205901199 -0.019435312165796973 0.032970768999692424
0.0666126087880532 -0.019291692777103277 0.034046510648388706
0.06392815943836261 -0.019214366693914145 0.03414691152872967
0.061887368462781145 -0.019164460307687613 0.033844361015929525
0.05983500850201823 -0.019113856807771033 0.03355776985669806
0.05818810616269493 -0.019080586779069417 0.03301474286702383
0.05682360040789708 -0.01905942119049196 0.032291751065084306
0.05562595277817978 -0.01904541593342748 0.031462072520741236
0.054411009792035725 -0.0190306022889701 0.030646277098077934
0.05317897040174224 -0.019014984076010173 0.02984443894223604
0.05196516508721183 -0.019000099677145332 0.029033018524721066
0.05075595128143534 -0.0189853564160804 0.02822104752354232
0.04992323887214889 -0.01898706546174446 0.027155732424204715
0.04902465573228593 -0.01898588677755112 0.026135138774867506
0.04822656988662283 -0.018989128513309445 0.025045688158722712
0.04755388269607519 -0.0189979162336281 0.02386902757939563
0.04669897438168147 -0.018998683333768248 0.022817454451823982
0.04627470237469994 -0.019018531422868842 0.02146488346516684
0.045706759969048605 -0.0190320826218296 0.020209789128130207
0.031765619464571127 -0.018450815393208763 0.028398801672154583
0.028049185368322294 -0.018322920693289998 0.029427158625673855
0.02492640230047971 -0.018221016851727986 0.030053938126074153
0.022026548680000035 -0.018128671799077466 0.030538508836091938
0.019346969384411883 -0.018045825505368922 0.03088026805973776
0.016890254282186046 -0.017972653162752355 0.031074826608865957
0.01453365685552832 -0.01790368696445284 0.03120921919458286
0.012338022415039451 -0.017841698864437778 0.031237675610214954
0.010232984797094336 -0.01778355027159337 0.03121026442813163
0.008203979347127688 -0.017728605146824075 0.031136768771381995
0.006301090729890435 -0.01767915786998482 0.030978973093688578
0.004408787373474221 -0.017629985655133004 0.03082205519111786
0.0026422648217430122 -0.01758634315947868 0.030579076817279727
0.0009141972272336818 -0.01754427476499712 0.030314758364486938
-0.0008023416175773623 -0.01750255739913716 0.03004920049961124
-0.0023868674468118245 -0.017466722102856422 0.02968997418147956
-0.00396599831940464 -0.01743098357400828 0.029333048131814754
-0.005533312602666929 -0.017395638351803272 0.028973421646736996
-0.006988625826714001 -0.017365315479253823 0.028532962737281897
-0.008437812691367896 -0.017335147264636166 0.028093205486488748
-0.00988197303517474 -0.01730508368880936 0.027654973538592642
-0.011235031928439054 -0.017279125827217173 0.027150115989463208
-0.01257254367599675 -0.017253781059596015 0.026637625302343593
-0.013906137485172443 -0.017228510533744655 0.026126635840822088
-0.01518410348811905 -0.017205733471907337 0.025575541715778916
-0.016418530605911863 -0.017184899293880194 0.02499342987419051
-0.01765099710035878 -0.017164067346671787 0.024413559420468356
-0.01777696901038739 -0.01719523756497363 0.022933358895388556
-0.017689392008412685 -0.017236618190044847 0.021271964927043974
-0.01760139247864745 -0.017278198461891263 0.019602555324574555
-0.017512967355874542 -0.017319979828843746 0.017925071938833803
-0.0174241135451646 -0.0173619637532759 0.016239456056864
-0.01733482792149843 -0.01740415171177543 0.01454564839503264
-0.01724510732941703 -0.017446545195316507 0.012843589092095375
-0.017154948582633667 -0.017489145709436164 0.011133217702130938
-0.01706434846367272 -0.01753195477441177 0.009414473187398409
-0.016973303723470667 -0.01757497392544265 0.007687293911063153
0.07299239054766704 -0.020921734537631805 0.03161081614947442
0.06720331660824536 -0.020696825615667037 0.033669008082091834
0.06465097786588614 -0.020620114938727653 0.03368236922818352
0.06244704569554527 -0.02055918040619591 0.0334826360975754
0.06031434103183947 -0.020501298160786406 0.03324622660433896
0.058608280528766044 -0.020462954619131637 0.03274011308606456
0.05703750734027102 -0.020430739517631302 0.0321511542161696
0.05574344266196102 -0.020411268385702105 0.03138441564391525
0.05447089993726584 -0.020392722663511532 0.03060647008003292
0.05319117480093849 -0.020373767242531097 0.029836281731549175
0.05192598455359221 -0.020355416019515196 0.02905935228183737
0.05068325932613438 -0.02033804450988786 0.028270177017291287
0.04984530616278987 -0.020339622513364748 0.027208696996913306
0.04887585191978305 -0.020335015431749183 0.02623683055802456
0.04805661080384027 -0.020337476490523206 0.02516248166070939
0.04713704328848578 -0.020335204723933877 0.02415706041904858
0.046380213635837 -0.020340632566059967 0.02303893392667261
0.04560967283876516 -0.020345431676169437 0.021929507342065502
0.04514056879809525 -0.020364587501742717 0.020607540962451265
0.03254029409145953 -0.019805651663579265 0.02785159227092282
0.028655916858381814 -0.01966067666017975 0.02899622287040654
0.025296165815951954 -0.019540213212438075 0.02978986845542142
0.022229530208403903 -0.019433310637809974 0.030392752917670962
0.01954768616967062 -0.019344457968637686 0.030735349046448146
0.016970173599769822 -0.019260262343694757 0.03101680867444251
0.014613964408432156 -0.01918639667810664 0.031150600981616927
0.012323031262957418 -0.019115381087362486 0.03124867766453915
0.010218122059490076 -0.019053083740514683 0.031221231662558024
0.008128021630576021 -0.018991246163587546 0.03119312303074201
0.0062110911485619424 -0.01893757606301329 0.031046108078349066
0.004319474282207025 -0.018884915868507598 0.030889039665561724
0.0024904152209286323 -0.018835091572359783 0.03069358075572215
0.0007633894977847056 -0.01879005373700603 0.030429092327544927
-0.0009553967160767507 -0.018745230773764457 0.030165865753624954
-0.0025910996505948414 -0.01870430381496052 0.029846489645879104
-0.004168967309436444 -0.018666053571872933 0.029489434641768952
-0.005740394669713267 -0.018627959452770994 0.029133837010040575
-0.007238266700190454 -0.018593343222698365 0.028727386961524604
-0.008687119923114384 -0.01856101043353754 0.028288413729199935
-0.010129888686666144 -0.0185288422845107 0.027850134628044088
-0.011525725336758552 -0.01849887386115869 0.027380179605164978
-0.012861766789838858 -0.018471761169434973 0.02686775184710971
-0.014193897662474642 -0.018444727836299395 0.026356823960118403
-0.015510774103448144 -0.018418342885794307 0.025838252767650005
-0.016743711064384548 -0.01839606015877701 0.02525633943309319
-0.017974691832715106 -0.01837377976976516 0.024676664283304228
-0.01870179149955603 -0.018376819511249778 0.02368907835908385
-0.018616656731793524 -0.01842093138604527 0.02203371527149911
-0.018531112264181637 -0.018465255543446732 0.020370385966337945
-0.018445155132151503 -0.018509793519523258 0.018699032800339355
-0.01835878234245497 -0.018554546865200104 0.017019597572751843
-0.018271990872833155 -0.018599517146437903 0.015332021518590477
-0.018184777671648056 -0.018644705944416133 0.013636245301769434
-0.018097139657540784 -0.018690114855717612 0.011932209008161054
-0.01801011722264101 -0.01873569193056239 0.0102207417260759
-0.0179216230253475 -0.018781545658321394 0.008500010297398275
0.06895756196836333 -0.022162632650918362 0.032547925708163616
0.06562356742445702 -0.02204257390761397 0.033057303549415884
0.06304736375077985 -0.021959345202434546 0.03309464461462064
0.061061726098053326 -0.02190491694158887 0.032760462005012314
0.05921861114034199 -0.021857316581885736 0.03234119545637393
0.057597941139977515 -0.021820542813808918 0.03178279202524137
0.05616062979933728 -0.02179272088166396 0.031108668923449156
0.05463159541098034 -0.021760227315950176 0.030499661061665517
0.053299688371164555 -0.021737424505045195 0.02976375312604551
0.051916528240939064 -0.02171197169873018 0.029065707995188317
0.05076672253265957 -0.021698088966951006 0.02821376767919781
0.04980903671263526 -0.021693779499538716 0.02723334641492553
0.048646814091721 -0.021679180443376727 0.02639335386716768
0.04778388590721255 -0.021679583840410667 0.025349894391083316
0.04679828876437203 -0.021673803259893695 0.024391137201975666
0.045934210257079 -0.021674139256410443 0.023348823382622785
0.04513780857557537 -0.021677903122912283 0.022259176013134374
0.04460772023480414 -0.021695193358758306 0.02098186946550351
0.0335209175600793 -0.021175880578046015 0.027158906125705207
0.02926444203801759 -0.021002387455462526 0.0285640131331803
0.02566660024482048 -0.020861803174654765 0.02952531964642169
0.02256868645085991 -0.020746212721073427 0.03014921337002796
0.01974979276058131 -0.02064444765795511 0.030589426583130686
0.017090112486220388 -0.020550440095549568 0.03092973828070933
0.014693139832930524 -0.020469564780913167 0.031092809133564103
0.012353014704241438 -0.020391286207984204 0.031226672721354765
0.01020326044529335 -0.020322521251241253 0.03123219806802041
0.008112153594258598 -0.020256507449421864 0.03120489578372565
0.006120008956266132 -0.020195354231977724 0.03111405063421835
0.004229086720877906 -0.020139209606659526 0.030956829988413426
0.002348649153500193 -0.020083376288569602 0.030800481089809262
0.0006127001944162824 -0.020034854425508376 0.030543336506590024
-0.0011050534428615477 -0.01998708075767967 0.030279940620887846
-0.0027961973991803557 -0.019940501295231595 0.03000366842950164
-0.004371719052727818 -0.01989980161938317 0.02964565376428363
-0.005941893584572477 -0.019859211328456465 0.02928992740499098
-0.007487576330813206 -0.019819741523793025 0.028921553208642148
-0.008935036750341019 -0.019785298922198748 0.02848253328137823
-0.010377475124878022 -0.01975097582114088 0.02804503655829399
-0.011813870560409723 -0.019716827210662247 0.027608226509921507
-0.013149496955326467 -0.019687896370786186 0.027096690495646614
-0.014480173096009574 -0.019659105593713914 0.026585824387710344
-0.015806963066546165 -0.01963039889860307 0.02607645023750721
-0.017069341473579525 -0.019605019326436754 0.025519612778757528
-0.018297813528503626 -0.019581350639770075 0.024939303371777743
-0.02017504797411801 -0.019522673540554297 0.024892951108591133
-0.020831908078699835 -0.019529545633019132 0.02385354992498201
-0.02073189171872153 -0.019577347450283417 0.022187950707081905
-0.02063240191918192 -0.019625328751289882 0.020515022508310332
-0.020530382932838875 -0.01967365655579886 0.018832170947830074
-0.02042786025820048 -0.019722222964440025 0.01714101080923569
-0.020324830155819873 -0.019771029748641488 0.01544148040856197
-0.02022128884914165 -0.019820078697409965 0.01373351744972895
-0.020117232524041573 -0.019869371617549324 0.012017059016930953
-0.020012657328357053 -0.019918910333882493 0.010292041566909993
-0.019907559371412642 -0.019968696689476616 0.008558400921115095
-0.019801934723537307 -0.020018732545871634 0.0068160722577429445
0.0668975417995466 -0.023486738865078093 0.03223854331239662
0.06402757049307417 -0.023383074287356684 0.032461127324529326
0.06201837446559538 -0.02332411118900923 0.03213868625384597
0.06006786265092434 -0.023267995624654446 0.031786116957627286
0.058321191206122225 -0.02322238234258593 0.031307413882285806
0.056685632373811745 -0.023182445323071357 0.030761659811284092
0.05500928544591638 -0.023140194016565648 0.0302486228653418
0.05355354955602398 -0.023109451278937123 0.029594076672759373
0.05210843676800275 -0.023079148678216047 0.028936723724853786
0.05089332481334996 -0.023060947953337883 0.02812820242053843
0.04968549754505541 -0.02304306186474563 0.027317306016451715
0.04861334938105505 -0.02303234352322474 0.026416223483498202
0.04752618424783933 -0.023020778908297103 0.0255269833631655
0.046478695628272726 -0.023011293179718527 0.02461197361246914
0.04551966046156164 -0.02300651761540293 0.02363685844404967
0.044750461617527604 -0.023011934825889094 0.022529796542943015
0.044043102632259856 -0.023020707560485125 0.021378515860967062
0.04329951436172169 -0.023027559221909175 0.020251567334700515
0.029892162338702233 -0.022349012064898758 0.028118169912078328
0.026179491809892375 -0.022193483083933225 0.029159033896200726
0.022933732245414618 -0.022062690341816796 0.029887083187693564
0.019950911734157695 -0.021945678456975752 0.03044421718688145
0.017288993153207977 -0.02184569587376287 0.03078535960175871
0.0147711817569679 -0.021753180272546253 0.03103584465191722
0.012431454441341638 -0.021670039930654292 0.03116910554812946
0.010188399954381144 -0.021591862814652484 0.03124316364460966
0.008097420141868095 -0.021521728442843682 0.031215826770529587
0.006030093066887676 -0.02145260584893065 0.031181123189057525
0.00413985645236592 -0.021392979710404852 0.03102375234610988
0.0022600982959662397 -0.021333684107217307 0.03086725388266298
0.0004610305536776882 -0.02127861702223134 0.030658323922451214
-0.001255684072484109 -0.021227897579857206 0.030394757839258657
-0.002963150647761259 -0.021177479732678126 0.030131614780520788
-0.004575330631586272 -0.021132169713873744 0.029802535385456186
-0.006143177380982634 -0.02108914873061909 0.029445851159224323
-0.007705716923701589 -0.021046242920192942 0.02909144452074003
-0.009182625411310097 -0.021007966826343955 0.028676395878481475
-0.010623681539101482 -0.020971546746578223 0.028238852123147307
-0.012059749792474261 -0.020935252726292427 0.027802822821828832
-0.013436780156016515 -0.02090214240760953 0.027325273507100678
-0.014766004474365768 -0.02087159967314842 0.026814469602057023
-0.016091349868868454 -0.02084114606806983 0.026305156317792622
-0.01779657496058379 -0.020788938317530727 0.026107583643260157
-0.01971845647642506 -0.02072414649800029 0.02609402734652616
-0.0211018961083157 -0.02068985562088609 0.025650325829801146
-0.022251010193422516 -0.02066884085886334 0.025019345945740457
-0.022170952222169416 -0.020718307877914115 0.02337643219052571
-0.02208950091934725 -0.020768070314833197 0.021724797648219274
-0.022008669269386938 -0.020818014022317765 0.020066054593945393
-0.021927447909311115 -0.020868198521253625 0.018399314312989357
-0.02184583401397111 -0.020918625557224926 0.016724518830567803
-0.021762804822641424 -0.02096935609345158 0.015040744713640808
-0.021680394561743976 -0.021020273795955557 0.013349655764183788
-0.02159758311023041 -0.02107143937665651 0.0116503342342682
-0.02151436753133107 -0.021122854650056717 0.009942719860279392
-0.02142971402000715 -0.021174581813590082 0.0082258589996978
-0.021345678492951103 -0.021226502283521676 0.0065014686638684704
0.07045952744235817 -0.02506519255493345 0.029949319709321853
0.06567463735722429 -0.02484976724179895 0.031396611757197934
0.06311674624224939 -0.0247570683913638 0.03142479705520168
0.060907841808262086 -0.024683405783124966 0.031237098953156794
0.059028822766198585 -0.024627828852971507 0.03084230147832978
0.05711148919926862 -0.024569891480453732 0.030480182717463833
0.05541497037453563 -0.02452407396945321 0.02997897738006039
0.05388523541628831 -0.02448742081551444 0.029372383543871006
0.05233434881996912 -0.024449432780460998 0.02878488523373246
0.050970130279411 -0.024421796332373485 0.02807629277456586
