# .PCD v0.7 - Point Cloud Data file format
VERSION 0.7
FIELDS x y z
SIZE 4 4 4
TYPE F F F
COUNT 1 1 1
WIDTH 778
HEIGHT 1
VIEWPOINT 0 0 0 1 0 0 0
POINTS 778
DATA ascii
-0.07840219894890577 0.0775742204683629 0.02238756578218637
-0.0786691077496296 0.07768791920915233 0.0210991421605371
-0.07902418746517198 0.07777959318597637 0.01989360550815511
-0.07909842783762283 0.07794372247070935 0.01840440800719706
-0.0790984672552475 0.07812770097682221 0.01683424142473755
-0.07898172833767114 0.07834264058851759 0.015139015842661474
-0.07894401426032549 0.07853818899529381 0.01351510163015568
-0.07893899031314167 0.07872620380967787 0.011916522443784217
-0.07885231809417126 0.0789363035727527 0.010226769273587788
-0.07873368338207898 0.07915572160059539 0.008495583062944456
-0.07855433146312418 0.07939202281190899 0.006692671392642624
-0.07802131687438796 0.0797218995940556 0.004512640605609797
0.10249768532879916 0.10146947638366578 0.021497176356546577
0.09765012805272533 0.10065234014329875 0.022794799926302622
0.09393368677894992 0.10006932724880764 0.023413408958446125
0.08988079848519531 0.09941330323504412 0.024263182001749317
0.08584998112946696 0.098759353566634 0.025121298604215414
0.08200957234279832 0.09814301743239358 0.02588067954549894
0.0787785697538555 0.09765311901559985 0.026271632224459496
0.07467387407781051 0.09697616948457706 0.027240835521889495
0.07180699937650625 0.09655932922942638 0.0274332056708238
0.06822207214530257 0.09598809372997354 0.028106579039029467
0.0663020896711442 0.09576945785726157 0.027711369568769018
0.06523192447275827 0.09573144333886092 0.026765123877022512
0.06456610263851864 0.09577980303555865 0.025552932991732114
0.06427639370590943 0.09590900140966256 0.02408907951620609
0.0640015670042598 0.09604191436567909 0.022610801362398125
0.06388993867622356 0.09621049350055226 0.021018219787961534
0.06379791658989287 0.09638397943919547 0.019406521205699745
0.06357253402084911 0.09652933878965851 0.01787940812763844
0.0637605340803124 0.0967648156714591 0.01606471302171053
0.06427472093677311 0.0970720334848736 0.014017623457072914
0.0033356540692844328 0.08719650207743838 0.026895040183171237
0.0008976588850831968 0.08682882889479515 0.027172843412449688
-0.001122258584965674 0.08655435688264151 0.0271419620342917
-0.003201192322422941 0.08626531958013346 0.027166853229881938
-0.005217800545946172 0.08598924203591217 0.027153816259030406
-0.007225816245571781 0.08571395111020222 0.027144208962406213
-0.009223134618094264 0.08543993292656923 0.02713633091769968
-0.01119721886835967 0.08517006730525024 0.027120189582212018
-0.013204698295733452 0.08489138166568595 0.027140612620561055
-0.015144358634148591 0.08462710276547815 0.027117126603747987
-0.017076075904624344 0.08436351988581908 0.027097080661516226
-0.01899376625226351 0.08410204308289057 0.02707551706673833
-0.020928809707540408 0.08383542057164131 0.027077824081608637
-0.022829656012601174 0.08357558020474128 0.027062166267888432
-0.024747470632279556 0.08331066840283866 0.027070194588277474
-0.026636475884481314 0.08305132006337448 0.027064388446584542
-0.028492336064649015 0.08279858407967272 0.02704083367792104
-0.030348523451787235 0.08254466938537894 0.02702709416539878
-0.03219814931840237 0.08229118411053477 0.0270174564799347
-0.03403644998276861 0.08203925091823204 0.02700787780567032
-0.03585505231934527 0.08179085269436713 0.026991169136204918
-0.03766267518093536 0.0815439541288065 0.026974561342188175
-0.03945571164670464 0.08129941865826955 0.026954877400423183
-0.04126099875492262 0.08105089736680247 0.026955102713064227
-0.04303796825884132 0.08080800610480852 0.026940331169704013
-0.04479889588155517 0.08056785816466808 0.026920926077133034
-0.04655207781732679 0.08032849122631155 0.02690399006716765
-0.048307322432937505 0.08008756365467774 0.02689810772135426
-0.05004854189127139 0.07984892294254577 0.026889140412401646
-0.05181527603153768 0.07960308134954541 0.02691211068996502
-0.053526061501461164 0.07936961343485929 0.02689462742089921
-0.05524146877514374 0.07913397954881046 0.02689038895221052
-0.056941600267919945 0.0789009796172993 0.02688155082730731
-0.058634289017201524 0.07866873186819465 0.026875070267548373
-0.06030444705163929 0.07844090874605726 0.026857132609169165
-0.06194913240123662 0.07821825708379712 0.026824777920324616
-0.06358533387558035 0.07799666402591279 0.026793368585867616
-0.06520983100529498 0.07777692494493926 0.026759856323379294
-0.06681462495879625 0.07756101454427426 0.026716676903909053
-0.06840084719345674 0.07734868096457682 0.026664662492356106
-0.06998321403414476 0.07713632257017515 0.026617457604333816
-0.07158949772013734 0.07691708005326875 0.02660135205516434
-0.0731732749892729 0.07670239775994565 0.026572586462727144
-0.07470051705994912 0.07650075053002972 0.026498340087806382
-0.07619722989150596 0.0763057614163467 0.026402831466426746
-0.0775336214851085 0.07614983034626481 0.026160224024687928
-0.07822530738873867 0.07615425469173968 0.0252975992015661
-0.07844309573828645 0.07627738038264811 0.02397203426321909
-0.07858520781869904 0.07642007825214617 0.022567202026117394
-0.07880820358788776 0.07654309397691225 0.021236383207457188
-0.07919958382423004 0.076624221090662 0.020067560711779953
-0.0792300459227061 0.07679696840268428 0.018535621446442607
-0.0791838459034328 0.07698995676845372 0.016919798689567167
-0.07918719855744161 0.07717127248172477 0.015345982491447752
-0.07921707104941245 0.07734669649049929 0.013791571210459985
-0.07923692423702694 0.07752551150403521 0.012219741353073188
-0.07914329612240184 0.07773420801800038 0.01052444098251809
-0.0789225774786309 0.07797648981330509 0.00868982182790029
-0.07861359724263389 0.07824261788267052 0.006753929113122503
-0.07832154527726337 0.0785056619259344 0.004824563386966019
0.10121498213312141 0.09973471547621891 0.022289478333855417
0.09742876255948829 0.09914792864179642 0.022932314637216622
0.09330282362136999 0.09848860505731996 0.02380754363479115
0.08883981573570043 0.09775686765892141 0.02491724394398931
0.08460758768154436 0.0970701637020433 0.025906346291883375
0.08122819624024946 0.09655813864213178 0.026377219585215606
0.07804078238531165 0.09608410381489296 0.0267431286487258
0.07351223038765842 0.09532815697310226 0.02798740286396334
0.07068222320662282 0.09492459163146982 0.028160159608557334
0.067503397279491 0.09444630195001383 0.028573683379240156
0.06579593450823612 0.09427517576743838 0.028042197179269535
0.06483371751134448 0.0942602205137782 0.027026857535531468
0.06417254504781772 0.09430869277348015 0.025813061373524626
0.0638669355308682 0.09443249295824958 0.024361232954804912
0.0636941666832409 0.09458491555429305 0.02281626245420848
0.06360059282719421 0.09475475138918639 0.021212692976737557
0.06328565508010803 0.09487821122896929 0.019752737627291406
0.06334813952193896 0.09508256398270597 0.018031910957973574
0.06343094024152401 0.0952920777061376 0.016289955806960632
0.06369503898541584 0.09554121351352773 0.014415972777562847
0.0008755448803322574 0.08556551116389713 0.027189790709003347
-0.0011650160946870547 0.0852903957335813 0.027174906464466075
-0.0032642196705365834 0.08500099018620001 0.02721567713380524
-0.005283524442805609 0.08472827900755517 0.027205003059826094
-0.007303798311693976 0.08445419108342545 0.02720526913295984
-0.0093046900640259 0.08418330191668558 0.027200531986018517
-0.011289637208605041 0.08391485600176866 0.027193332271057025
-0.013298398689814916 0.08363987464204914 0.02721516733939644
-0.015235213125293856 0.08338002563231023 0.027189803874948015
-0.017175383759777008 0.08311829800347678 0.027176944811709014
-0.019099352438627093 0.08285913268962675 0.02716088387449006
-0.021031489041272444 0.08259698569008496 0.027161283678930448
-0.022928485838848323 0.08234174074069718 0.027142925142335517
-0.024846452282872522 0.08208058449296265 0.027151508267675317
-0.02673070413460893 0.08182603724984987 0.027142209031768894
-0.028600385929953842 0.08157373584119929 0.027130543464902845
-0.03046050334423095 0.08132254033903227 0.027120560603235644
-0.032304414741882115 0.0810739933126758 0.027106623761749438
-0.034147529730329806 0.08082454218557908 0.027101578806666415
-0.03597086642612102 0.08057858822984806 0.027089381130453116
-0.0377775386020513 0.08033542997454367 0.027072482490262118
-0.039578895003087367 0.08009243933294431 0.02706044641294658
-0.04138040583300545 0.0798483389229195 0.02705797590215031
-0.04315548794655816 0.07960934812776319 0.027042112595491385
-0.04492087917418042 0.07937157164502646 0.027027130381967635
-0.04667933961836307 0.07913436818296789 0.027015373816469734
-0.048429986651395196 0.07889794969988187 0.02700603266427093
-0.05015081498948304 0.07866752196687381 0.02697959773037034
-0.051931551027496026 0.07842187270068499 0.027015492759758508
-0.05363966299182549 0.07819236124288947 0.026996162890030095
-0.05535844247320404 0.07795927935737856 0.026995487116547978
-0.057063594355260816 0.07772839633571481 0.0269917344848008
-0.058754446868740706 0.07749988763358302 0.026984164153788848
-0.060417766542518514 0.07727693933635357 0.026960556560691906
-0.06207237614715827 0.07705507024664648 0.026937848100953954
-0.06370677650380174 0.07683705478271775 0.026905368966799348
-0.06533768941719786 0.0766188863504156 0.026878389872792063
-0.06693742030594779 0.07640725851931726 0.026831111163191923
-0.06851381925894462 0.076200314278312 0.026770491798337515
-0.07009851096923891 0.07599040613929736 0.026726028134906932
-0.07169752492518461 0.0757760460743341 0.026703607226052084
-0.07327415041706048 0.07556615923088537 0.026668569419579402
-0.07479124850567959 0.07536985798805465 0.026585120528029693
-0.0762934999705912 0.07517628593716673 0.026495388482914994
-0.07763698794451551 0.0750208166525357 0.026260120556101496
-0.07838921857601505 0.07501020976023462 0.025456831401356628
-0.07862024075863516 0.0751281906734269 0.02414501653238532
-0.07876028874024821 0.07526922884269356 0.0227390564240304
-0.07896800670827425 0.07539414853743208 0.02139405541258982
-0.07947039333408679 0.07544641666885124 0.020336145097930747
-0.0794465803210842 0.07563002348572018 0.01875149013278743
-0.07944976432897394 0.07580775545783708 0.017186273430508492
-0.07945606894646517 0.07598554738047841 0.015616811049650514
-0.07943594198692422 0.07617081442288025 0.014013177699121193
-0.07936733074344554 0.07636915615064457 0.012352461112289548
-0.07923807695501417 0.07658373112353473 0.010621402160615023
-0.07913715960713863 0.07679217056036931 0.008910475455429057
-0.07893086896422236 0.07702829992581357 0.007081864434281271
-0.07855940141847562 0.07730750360244659 0.0050716844068928735
0.10706703717241861 0.09926235217027958 0.02039791116516948
0.10029828036525995 0.09808199883722085 0.022855708016393472
0.09645270050836124 0.09749140863236812 0.023538655258928343
0.09198170080505697 0.0967710949099225 0.024632921226370674
0.08844113395071845 0.09623788538224991 0.025167740489438817
0.08430679117880058 0.09558114045569106 0.026096414582514216
0.08070973964046968 0.0950319194540299 0.026706682515814928
0.07680647378304117 0.09441765892882689 0.027531935989735523
0.07364703627162261 0.09395400694202227 0.027900765566020558
0.06951251582404017 0.0932875130976845 0.028916153032433445
0.06692696071549853 0.09293832108403173 0.028948339616303553
0.06524545166663687 0.09277484651324318 0.02840199776306962
0.0642745801455783 0.09275808979401372 0.027394367605750924
0.06374425567651598 0.0928328067501968 0.026096146298648926
0.06342845383506779 0.09295248650700709 0.02465267737708976
0.06330199208434528 0.09311214545902395 0.023078385216482478
0.06303154829868685 0.09324234702907662 0.021595155363482
0.06297231441770207 0.09341731157580331 0.01996451165443408
0.06296276505449039 0.09360340852053595 0.018293818880450397
0.06286888861339152 0.09377252212002177 0.01667405908583358
0.06360024663163166 0.09411622018793703 0.014481112755837355
0.00085896104849148 0.08430355287356167 0.027202499900276844
-0.0012055720621793053 0.08402719997023232 0.02720615461825021
-0.0033131057908372674 0.08374019438954239 0.027253546587497623
-0.005339533318796663 0.08346989664288802 0.027248623650130976
-0.007381748020183931 0.08319495377750259 0.027266303967399208
-0.009378800502913676 0.08292886362718503 0.027258872288077163
-0.011367317078744277 0.082663536433915 0.027254810485835945
-0.013389970953686992 0.08238946541506333 0.027288028766000116
-0.01530538813762955 0.08213817355084815 0.027245939001992348
-0.017263384833132223 0.08187627077331662 0.027247715959960672
-0.01919270455949701 0.08161967388957898 0.027236359396714926
-0.021125057693801907 0.08136128814296036 0.027237337951764307
-0.023025266515515397 0.0811090276413178 0.027222009552504478
-0.024932521840441146 0.08085408318566932 0.027222214629593178
-0.026818997876534856 0.08060273379976085 0.0272151284657548
-0.02868697294426792 0.08035448628156484 0.02720243344447476
-0.030557945181697133 0.08010447504400532 0.027201892539224226
-0.03240678986042406 0.07985841109380457 0.02719252668997313
-0.03424810504825837 0.07961298813326947 0.02718641882631284
-0.036077196669993705 0.0793692842284413 0.027179550675341557
-0.03789232564352524 0.07912770944113395 0.027170338524637072
-0.039687186299658006 0.07888972673544029 0.02715325282429587
-0.04148413037463883 0.07865021270765346 0.027147338061878523
-0.04326200533298913 0.07841403902806202 0.02713436515055445
-0.04503284558641707 0.07817844432143829 0.027124613526753327
-0.04679665777033293 0.07794343091253628 0.027118054554296667
-0.048546345619354836 0.07771065140352679 0.027108409992662064
-0.050318195610551786 0.07747167129172677 0.027127640591362856
-0.05204861773763453 0.07724128930837401 0.027119578756049312
-0.05375405246389586 0.07701571791693781 0.02709840264650737
-0.055477910234315864 0.07678481304994723 0.02710282613889714
-0.057176975486360915 0.07655869231639756 0.02709413901921448
-0.05886268191242544 0.07633469567872214 0.02708243306748631
-0.060536876011578034 0.07611240175849232 0.027069264884902744
-0.06218221644800781 0.07589592430747803 0.02703862126850548
-0.06382069986669181 0.07568008779061938 0.02701043471041492
-0.06543760958720035 0.07546839375166657 0.026971022748737083
-0.06704874816469841 0.07525710680767912 0.02693485875094015
-0.06863074054438889 0.0750518098693188 0.026880020631324608
-0.0702089241967977 0.07484648171911754 0.02682999987265139
-0.07180071619071787 0.07463694519114812 0.026801284847967788
-0.07339228025426925 0.07442649702877177 0.026780969944825816
-0.0748959925192198 0.0742362419556288 0.026685303342627198
-0.07638272872707103 0.07404920480724302 0.026581175755172326
-0.07777341706278812 0.07388454709434632 0.026391969859806408
-0.0785445020771392 0.07386944505587825 0.02560768219980447
-0.07880717460470155 0.07397790644817165 0.024327557598529115
-0.07897212161396927 0.07411069521177827 0.022946985481345217
-0.07914151543897241 0.07424302004160338 0.02156525046881136
-0.07965451458401213 0.07429182102541143 0.020518753503797504
-0.07966512129895648 0.07446417264827519 0.018969359229610794
-0.07964328934496323 0.07464531937461073 0.01738020331105916
-0.07963918749461268 0.07482295057798713 0.01580126324074188
-0.07961796410927757 0.07500565704373233 0.014197474818930578
-0.0796231328722598 0.07518269222123321 0.012612800859712003
-0.07958223668527675 0.07537201331732997 0.010973478967497119
-0.07940633391424645 0.07559585352317987 0.009187265921223653
-0.07913807964858827 0.07584381488612972 0.007296039533104592
-0.07882061463071022 0.0761052781243399 0.005343072293271578
0.10495894685822482 0.09736022601960347 0.02169262747894951
0.09990185046173611 0.09653884016569791 0.023100575416338087
0.09575907518652882 0.0958973834651269 0.023969543037414553
0.09085535210685436 0.09510070752562204 0.025336612786551027
0.08723678369193932 0.09455932918232217 0.02592444819643641
0.0837992171472755 0.09405229339571308 0.02641714214304297
0.07948153642316702 0.09336559531336316 0.027487167191901474
0.07591978743321653 0.09282909223038582 0.028098589013645647
0.07259853220229562 0.09233921133952486 0.028574620124717953
0.06930206121794102 0.09185242563502004 0.029052171921092662
0.06594342714785328 0.09135106233944949 0.029587589463550112
0.06466230699420106 0.09127125924307947 0.028783146416082706
0.06375359968315092 0.09126721497778596 0.02773679788863359
0.06333517005508715 0.09136350800471245 0.02636653818850504
0.06302620617656252 0.09148263667656742 0.024920038221502072
0.06295160763676244 0.09165040575314314 0.023312576159794207
0.06265109900042104 0.09177232870366814 0.02185086039069961
0.06263383186171195 0.09195318350041284 0.0201932780502449
0.06241866688327963 0.09209385170913388 0.018663598494000677
0.06280319390126632 0.09235932260719071 0.016718954524382046
0.06337491731886319 0.09266472581308442 0.01463595590459782
0.0008567499790275712 0.08304481256813183 0.027204194376258373
-0.0012198194112203464 0.08276997401057395 0.0272171321236922
-0.0033456895460253766 0.08248326204675978 0.02727878747388074
-0.005397678805176553 0.08221141862402268 0.027293908266088296
-0.007451128078333036 0.0819381014471662 0.027320628742238673
-0.009446532901180471 0.08167631079526197 0.027312191747971615
-0.011453356862054453 0.0814109009537055 0.027322904990479013
-0.01347733853707711 0.08114058869112545 0.027357544648818233
-0.015382755998634923 0.08089520667593189 0.027307827907489146
-0.01734214057777783 0.08063687028906266 0.027311051942892295
-0.019269785413371432 0.08038443596109819 0.02729867954161891
-0.021202491916762045 0.08012979171998026 0.02730027787192435
-0.0231200013029062 0.07987741951062455 0.02729942216255532
-0.025013607012929484 0.07962927063522887 0.02728882630640539
-0.026901365896244422 0.07938134762578151 0.027283154004652033
-0.02877935061587722 0.07913452928668575 0.02727913119156189
-0.030653405218889374 0.07888751449205071 0.02728157032277473
-0.03250432546748061 0.07864461074918909 0.02727436878570466
-0.034336297912390235 0.07840490368653616 0.027260813662737193
-0.036169359537778334 0.0781638989823543 0.027257706085703493
-0.03798652461370877 0.07792542425729003 0.02725064321361581
-0.03979171052082425 0.07768860956211507 0.02724283082523138
-0.04159237729432791 0.0774517736249765 0.027240596401467365
-0.043367546421355097 0.07721968572000992 0.027225772153599948
-0.045133010699416 0.0769887790335731 0.027211821913785517
-0.04690226362223321 0.07675598008762172 0.02721048429862777
-0.04865729973840088 0.07652539709852646 0.02720603191627574
-0.05040270287557058 0.07629599348278818 0.027202384592240392
-0.05216734709519949 0.07606113922451842 0.027225143040349176
-0.05386576543793775 0.07584048995568629 0.027198250185399397
-0.05557840192389857 0.07561556483614482 0.02719311559953186
-0.05727750325761055 0.07539275837843334 0.027184934546746975
-0.058965776206782394 0.07517145705242648 0.027176034584795006
-0.06062573139680971 0.07495573728358074 0.027150361040413462
-0.06228034339499944 0.07474028346713162 0.027128647999987654
-0.06392547057683162 0.07452606470753728 0.02710705942628283
-0.0655497401282078 0.07431575166446118 0.027074975479147056
-0.0671559388076699 0.07410871728100454 0.027034750824337317
-0.06874113115742925 0.07390567438005968 0.026983431699489746
-0.07031366468850042 0.07370468296003267 0.02692862982103089
-0.0719173193190375 0.07349541461410561 0.02691165771938614
-0.07349537329679828 0.07329124292718181 0.02687906296182574
-0.07500378883761416 0.07310265481984625 0.026788405545941696
-0.0764843086894273 0.07291982875801517 0.026678837856834836
-0.07786661203863693 0.07275957177875106 0.026482036356094307
-0.07877943220447331 0.07271077023881707 0.025835906042203982
-0.07900002174906295 0.07282756266287314 0.02451587300569208
-0.07916290356412148 0.07295875734532553 0.02313425155743154
-0.07932098477997857 0.07309172241024675 0.02174232665281639
-0.07982995357841521 0.07314066580386414 0.02069275099245138
-0.07985791711231333 0.07330614840988253 0.019161562312695335
-0.07991303798216554 0.0734658300336104 0.017650516276666806
-0.0799010660492323 0.07364256734598311 0.016065049043371304
-0.07986963469821351 0.07382488183659151 0.014452290904370946
-0.07987150297403817 0.07399993465253346 0.01286557674497918
-0.07980942332621677 0.07419146884686798 0.011205891827210268
-0.07968990202409337 0.0743980067420252 0.009478857455543443
-0.07951396096479141 0.07461940487480256 0.007684554335273264
-0.07915163111901208 0.0748878006418064 0.005686982405429475
0.10380507751097684 0.09565834338603475 0.022401294208165945
0.0986955392593627 0.09483863681343457 0.02384569147600868
0.09425596316519597 0.09414788894579172 0.02490329297315369
0.09073660646340093 0.09363631816798251 0.025410799676667484
0.0865638627170478 0.09299335178452268 0.026347252512862573
0.08274492556286372 0.0924180648705529 0.027083331402052824
0.07923607770398189 0.0919021651184128 0.02764314851993982
0.07529274043070733 0.09129768123490843 0.028499314794724673
0.07154611807466549 0.09073007460734647 0.029250987607007617
0.06845358406997121 0.09029103454099173 0.029600551074482395
0.06558387464041937 0.08989490562480555 0.02982128142182716
0.0640015457469173 0.08975569039354409 0.029215025967195607
0.06332837306869138 0.08979882937511167 0.028016291037379015
0.06284356178240152 0.0898801112908938 0.026691474786022518
0.06274195457426207 0.0900391206401386 0.025108970951897513
0.06251263161685566 0.09017291778216414 0.02360598018757687
0.06232936005391981 0.0903165907290379 0.02206710541059337
0.06217386542241854 0.09046648553808932 0.020504150391075837
0.06211301709420325 0.09063625540736549 0.018871323987058042
0.062388051603611994 0.09087523914312332 0.01700266069966294
0.06366918253387527 0.09132087392466964 0.01443374096902944
0.0008357460907744696 0.08178208289129207 0.02722029092353756
-0.0012362573389203546 0.08151237395157956 0.02722979745815285
-0.0034010690975579405 0.08122166694586351 0.02732168704024779
-0.005450424958854505 0.08095448186220408 0.027334987797127452
-0.007506613674921059 0.08068469321794089 0.027364074115763748
-0.009518471672935125 0.08042330098707455 0.02736882249711947
-0.011518384889480038 0.08016337065880241 0.027374370151653393
-0.013535560651304124 0.07989859575600712 0.02740387031690905
-0.01545081279057997 0.07965477343996988 0.027362268605608142
-0.017411662909848025 0.07940000129439677 0.027366962343551682
-0.01934480644745351 0.07915016250544506 0.02735933431488413
-0.02127386294568606 0.07890013738868129 0.027358289519623435
-0.0232037252746517 0.07864885525597952 0.027367837275473705
-0.02509070274019093 0.07840587850457968 0.027352160643748957
-0.026975856525296826 0.07816224713447657 0.027344673817826515
-0.028858076701742896 0.07791820106377119 0.027344494534431385
-0.03072665259495827 0.07767609912933843 0.02734270782855952
-0.03257887491246131 0.07743655274119958 0.02733692320041503
-0.0344168652908271 0.07719910884966179 0.02732877604267514
-0.036260533763222136 0.07695936251847145 0.027335023113431445
-0.03807694453776439 0.07672462431436378 0.02732772626308677
-0.039882308328111404 0.07649131373294847 0.027320473790425293
-0.041680391979037 0.07625859869193621 0.027316423994335426
-0.043453932107475945 0.07603034847000521 0.0273005890500011
-0.04522770685523925 0.07580103257986247 0.027294268773378094
-0.04699796752528368 0.0755714869891289 0.027294247528896365
-0.04875576530691034 0.0753437272255698 0.027292665907787284
-0.050496842688718624 0.07511872704540463 0.027285648277025065
-0.05226331589912103 0.07488696946883648 0.02731047053060831
-0.05396875129591222 0.0746680223195588 0.027290297546483766
-0.05567883197002199 0.07444703386081744 0.027283349674943058
-0.05737882015952339 0.07422734962278357 0.02727644280802427
-0.05905445241145996 0.07401223701007778 0.02725654560976265
-0.06072877581937386 0.07379644991877757 0.027244407186237773
-0.0623742561750687 0.0735863026510545 0.027214808436985316
-0.06402193077598156 0.07337469466358967 0.027196019779066438
-0.06565116229989937 0.07316637367142124 0.027169000814053323
-0.06726305674873156 0.07296110664799067 0.02713457514606976
-0.06884822455247291 0.07276108915272103 0.027083754019204154
-0.070425523584423 0.07256197992430556 0.02703396288708093
-0.07201719533755524 0.07235861051318689 0.027006197232249063
-0.07360861776772842 0.0721543612648074 0.026986815061672442
-0.07508965943291318 0.07197496777626049 0.026870536807074963
-0.07656103058833125 0.07179700864115857 0.026752600651353486
-0.07795590257033602 0.07163618667135385 0.0265683294772478
-0.07888526251116518 0.07158418280791717 0.025938715330691697
-0.07920105972875163 0.07167668639391377 0.024712186770802058
-0.0793580531878908 0.0718071747831245 0.023325804816342277
-0.07949178421992198 0.07194378862192823 0.02191084854566905
-0.08000903040498597 0.07198992879251231 0.020870356422791614
-0.08005354684863997 0.07214886198915263 0.019356590606154245
-0.0800789768589838 0.07231310148579426 0.017816802306385326
-0.08012384870289835 0.07247346642058829 0.016289454211616483
-0.0801449059673287 0.07264030358760072 0.014731002642308588
-0.08008295839771012 0.0728278887367972 0.013080783130653362
-0.08003081722145944 0.07301400481236198 0.011432378684463285
-0.07990809195699733 0.07321805983091369 0.009703220968573734
-0.07970861274589847 0.07344167656888297 0.007885748422259253
-0.07941498073648429 0.07368921879766475 0.00596058991346099
-0.07878985715233339 0.07401860285122532 0.0036783009765370966
0.10229623133289922 0.0938947594762575 0.023327975455448624
0.09757048336001395 0.09316149206141436 0.024540617641812756
0.09328170619976156 0.0925102346117127 0.025508512255520366
0.08994908190721318 0.09204250333832896 0.025902809286576456
0.0854991452484804 0.09135507989462216 0.027016227263660264
0.08172858349858847 0.09079768721944857 0.027725540992559805
0.07849529775734243 0.09034327601887016 0.028113890974086786
0.07405403059576049 0.08965014312420054 0.02929093482345141
0.0708703714480135 0.08920142592506543 0.029685277714423308
0.06736245328064 0.08868708268802773 0.030305759670756993
0.06484526334667068 0.0883661758993507 0.03030134348807051
0.06348787094603825 0.088273282137896 0.029550768481354184
0.06280114477301896 0.08831287060065335 0.028362827899029663
0.06241077103792009 0.08841143819652579 0.02697753496800559
0.06230003464318157 0.08856601404185636 0.025402700656565858
0.06208863814136861 0.08870114922082875 0.02388937014014847
0.06191758939586184 0.08884488299872227 0.02234386193979726
0.06172900054071928 0.08898568502636094 0.020804816212129595
0.061789344090157405 0.08917696068570471 0.019091298404701085
0.0619921766447904 0.08939763238538526 0.0172731996717006
0.06404007790869393 0.08999059611611604 0.014178866860587835
0.0009164577913978178 0.08054082831708052 0.027158436675913777
-0.0012285864823558534 0.08025994998250108 0.02722388710462398
-0.003419525358267561 0.0799682147890888 0.027335984114877143
-0.005504232377627094 0.07969766903273899 0.02737689385805281
-0.007561016318493541 0.07943188092222099 0.02740667153412274
-0.009566062980813361 0.07917592966523065 0.027406286737227226
-0.011561374793614687 0.07892095435387758 0.027408393670938058
-0.013606234273573437 0.07865433909047213 0.027460103293184324
-0.015525027832199334 0.07841348000157328 0.02742163547497145
-0.01748320240922896 0.07816316553008514 0.027424494965865298
-0.019410677777868923 0.07791835212393956 0.02741259152014547
-0.021343196550115018 0.07767139957059518 0.027414645112284475
-0.02326848495265571 0.07742493551690027 0.02742075570003999
-0.02517171630022169 0.07718216099689415 0.027418713490743873
-0.02705521355580437 0.07694259792906669 0.02741021266147714
-0.028923169372156443 0.0767053590569317 0.027398538559200936
-0.030793127133119935 0.07646665102862156 0.027398192238780206
-0.03266007859323622 0.07622755384656132 0.02740506118218694
-0.03449834263822321 0.07599366457613568 0.02739750602430674
-0.03634226781872757 0.07575751156227065 0.027404334744049297
-0.03815707103098498 0.07552669749093996 0.027396034155460824
-0.03996454449765585 0.07529647457474607 0.027390950772604117
-0.04175919994301641 0.07506805399468437 0.027384319689549685
-0.043537547952796185 0.07484221699324899 0.027373007043279107
-0.04531694319923307 0.07461514629813774 0.027371962067893163
-0.047083786337541456 0.07438984510229807 0.027369358999833338
-0.0488382188475745 0.0741662938393486 0.027365211869285644
-0.050587412933156606 0.0739429089360807 0.027365754791278507
-0.052351383695391274 0.07371522961725588 0.027388773101040764
-0.054063026347912324 0.07349821996431459 0.02737455930749999
-0.05577148196388315 0.07328094785289309 0.027366593553200758
-0.05746986643333246 0.07306495653522298 0.027358674756048196
-0.059138860831505824 0.07285460030753634 0.027333181821681152
-0.060813340293795315 0.07264205484269462 0.027321587131499125
-0.06246230137258696 0.07243431083180087 0.02729558565056711
-0.064118332674582 0.07222402050777933 0.02728492636420804
-0.06575170255072776 0.07201791530612735 0.027262208547609357
-0.06736037366892705 0.0718164874311928 0.02722526579466994
-0.06894961415010326 0.07161856772019554 0.027178733169179126
-0.07052532999617633 0.07142283048395992 0.02712794660893625
-0.07212809350681831 0.07121999643601525 0.02711116996799806
-0.07362040930140634 0.07104158672058206 0.02699803470448392
-0.07510448677752679 0.07086424821165993 0.026884718477856895
-0.07659744067339469 0.07068404043992758 0.02678760642755701
-0.07801129800203765 0.07052128356696584 0.026621865329350125
-0.07904693324470707 0.070445420948178 0.026095771032449366
-0.07940030039929585 0.07052768695189746 0.024906745461941604
-0.0795705883014532 0.07065296424185788 0.023534423172091534
-0.07968696790399254 0.07079140976135884 0.022103429527810525
-0.08016487778073161 0.07084593481300512 0.021024923268579188
-0.08029657656730338 0.07098189486299339 0.019598873155733387
-0.08031098628388794 0.07114606317800126 0.018049297107268214
-0.0803015303532465 0.07131663077842083 0.01646842990826214
-0.08029280292736668 0.07148783542679485 0.01488074808759382
-0.08031118533806475 0.071653437054133 0.013313058539315303
-0.08026433314214354 0.07183530615241386 0.011671266423153248
-0.08015093759502356 0.07203387056452687 0.00995293780814771
-0.07997976658637518 0.07224715990038297 0.008166015826221229
-0.07970696921463444 0.07248575960136734 0.006263951811789958
-0.07912410986362495 0.07279978378724453 0.004027367302837703
0.10094575805507927 0.09217045968807186 0.024157389533367823
0.09740721831594978 0.09167468980294328 0.024641463431917032
0.0928880819121583 0.09098950499088711 0.02575303604884943
0.08875952475120186 0.09037646273328533 0.02664599062320261
0.08518861980229547 0.08986805473841053 0.02721133412450427
0.08091659243749194 0.08922281455705927 0.028238624594205286
0.07738263304289733 0.08871725850220166 0.028820954550384692
0.07385921078081714 0.08821174507372656 0.029415437966278768
0.07000182207789468 0.08763962868956825 0.03024347865005156
0.06647854036550932 0.08713001173166397 0.03087704131013802
0.06400330301440249 0.08682192767709081 0.030848577493594764
0.06296412488893294 0.08679208742852909 0.02989309366003201
0.06225128164267091 0.08682576186169293 0.02872424219544023
0.06207020525237428 0.08696346872848844 0.027202637542015518
0.06186039775900909 0.08709610094543835 0.025694912894727584
0.061734516479857005 0.08724572747063475 0.024126058973025166
0.06154185979082033 0.08738282887085894 0.022596394798502895
0.06139805475183746 0.08753010278544932 0.0210284888179742
0.06144347820020796 0.08771531403483618 0.019326355535735196
0.061597004758302265 0.08792264985129404 0.01754325816761282
0.0009164577912415539 0.07928237787459387 0.02715843667603357
-0.001257076682311009 0.07899999268755882 0.027245838649725407
-0.0034227821592740515 0.0787180360658874 0.027338506983825284
-0.005558024462488875 0.07844121436677792 0.02741878797668812
-0.0076122044090082275 0.07818009773176254 0.027446751948666304
-0.009632670440336166 0.07792490505386747 0.027458720636772682
-0.011622172789883034 0.07767509906838674 0.02745651105663932
-0.013684151774090048 0.07740903442528808 0.02752210001582689
-0.015590971603451409 0.0771744186976803 0.027474385903561438
-0.017551649712582718 0.07692745867846965 0.027479540820062154
-0.01947855094850831 0.0766865605823061 0.027467467220358033
-0.021419533246510858 0.07644164661981005 0.0274766929432404
-0.02333720433985742 0.0762006124408565 0.027476909804259764
-0.025233933518651608 0.07596298022858657 0.02746982509498702
-0.02712376521607912 0.07572578385507411 0.027466827639583136
-0.028996005924475432 0.07549130641103469 0.02745901204127882
-0.030874018806467673 0.07525457294025972 0.02746571022253147
-0.03273074292603323 0.0750213642507581 0.027464355600544554
-0.03457315455324289 0.0747902061311488 0.027460613399662603
-0.036407063987656085 0.0745598622381206 0.02745928280821247
-0.0382287806148931 0.0743311335732165 0.027457166626668472
-0.04004304786843882 0.07410300596698802 0.027458228719696
-0.04183156124459242 0.0738794469542911 0.027446661369616432
-0.04361476513247242 0.07365605017077477 0.02743988328159641
-0.045394423380687 0.0734324330677985 0.027439419902754614
-0.04716241508299002 0.07321036436191147 0.02743817748581784
-0.04891265805781436 0.07299118314987259 0.027430706498582702
-0.050671783507735435 0.07276907780549151 0.027440377893788725
-0.05244985942190966 0.07254181933697904 0.027476329538673627
-0.05414342016267454 0.07233212882211434 0.027446414207210557
-0.05585207909456619 0.07211816700409976 0.02743900821244566
-0.057549809012008235 0.07190565511233268 0.027430877974252976
-0.05922491211915526 0.0716971931718352 0.02741130962827404
-0.06088865739450072 0.07149030779714789 0.02739032722300283
-0.0625411687287139 0.07128498216498326 0.02736794263822878
-0.06419574157249885 0.07107826286907007 0.027356316667441538
-0.0658325789343589 0.07087456392410421 0.027337186522642776
-0.06744871789592494 0.07067456959801108 0.027307594697294713
-0.0690348594907238 0.07048039267295463 0.027258588797179406
-0.0706226796164881 0.07028494663550229 0.02721961686816482
-0.07218826225629049 0.07009361583056764 0.027168123822878254
-0.07377675864120309 0.06989622356482587 0.027146801081635696
-0.07522305415072761 0.06973013357570058 0.026998122697966587
-0.07668262195646802 0.069560260269744 0.026869502334331108
-0.0781312524490354 0.06939208731055989 0.026737793003098975
-0.07920231213738088 0.06930926525747776 0.02624671449941207
-0.07956944962305512 0.06938701445812157 0.025071919828660916
-0.07976827777121254 0.06950370261854272 0.023728469470789493
-0.07990260720054498 0.06963575510656149 0.022316193354439462
-0.08032976309689488 0.069700998935916 0.021188453793967332
-0.08047936067820677 0.0698306139341323 0.019781095316281472
-0.0805041843854743 0.06998970818002963 0.01824289938949375
-0.08052757962380619 0.07014988656563241 0.016696125484003344
-0.08052326490167022 0.07031726605776405 0.015114090483235587
-0.08051428167111546 0.07048652919109308 0.013519757554268486
-0.08048506346350354 0.07066132517481334 0.011897074441619582
-0.08042221393372906 0.07084483001579032 0.010231889781521897
-0.08029341701359277 0.07104469023903486 0.00849020814019813
-0.07999211836291448 0.07128608990896912 0.0065602079773658395
-0.07948762550693239 0.07157656645312735 0.00440699345357809
0.10085178173112619 0.09068982305669444 0.02421510654810477
0.09644588923221303 0.09003900862426639 0.025235258579894893
0.09178782113865308 0.08933820681789012 0.026436530300758765
0.08776096234354874 0.08875366328889665 0.02726984710716729
0.08444991173277805 0.08830204116751211 0.027675473261229988
0.0803233333095697 0.08769429723916457 0.028613495137302603
0.0762251145849186 0.08708954159969007 0.02955652127583569
0.07306407965438555 0.08666047661718054 0.029923580961021656
0.06881064836559819 0.08602174307083363 0.031009024402054886
0.06581787918390719 0.08562096760616726 0.03130403315112196
0.06367500744848192 0.08538105190855569 0.0310619539326612
0.06249211889662154 0.0853240375795178 0.030201601062546934
0.06189761237481961 0.08537970635830713 0.028956702097819254
0.06165716004159716 0.08550367520316823 0.027475646587769742
0.061458159148586766 0.08563612556705047 0.02596226772517546
0.06136688347686692 0.08578990261730188 0.024371778554349965
0.06111323080335013 0.08591288650116098 0.022884482034849274
0.0610520790678617 0.08607367657740936 0.02126231950986851
0.06101614240493081 0.08624001138175777 0.019616781186095555
0.061354279832062875 0.0864798156976966 0.017709135171372237
0.0010149056551895241 0.07804393398385777 0.027082990135970153
-0.0013206164238512286 0.07773308475563898 0.027294795677206884
-0.0034683715045442653 0.07745923956950446 0.02737382260283855
-0.005588141334658292 0.07718995645163722 0.027442243468677963
-0.0076719062101940905 0.0769269080964445 0.027493498621895762
-0.009701367524152515 0.07667389256082786 0.027512799504480656
-0.011709142208710943 0.0764242608008362 0.027525341303140938
-0.013716348074569618 0.0761736787275536 0.027547717689619278
-0.015664100290008254 0.0759343119487218 0.027532883764464056
-0.017606797543143815 0.07569496415952393 0.027523891134707157
-0.019539311389749292 0.07545670011441433 0.027516592253517824
-0.021479776301468967 0.07521575410712884 0.027525659574844763
-0.023404902113449644 0.07497696453531753 0.027532229096071614
-0.02528625823450642 0.07474628577489205 0.02751280998303557
-0.027194247955154627 0.07450902846752683 0.02752503744389151
-0.029062989093155467 0.07427897516878053 0.027514625676489768
-0.030952948657455792 0.07404345622451441 0.027531590728842537
-0.03279756133520645 0.07381646570261492 0.02752042290565715
-0.034640363180021616 0.07358886349219097 0.027517307043130546
-0.036473713026553334 0.07336226315511828 0.027515802132214162
-0.03829580675752742 0.07313705406347208 0.02751430646086428
-0.040109516740471696 0.07291263467390902 0.027515193015767325
-0.04189656864144159 0.0726929044289922 0.027502667414948334
-0.043691039373220664 0.0724706167048437 0.02750594285957031
-0.045464665364050694 0.07225180409296479 0.027500575827084817
-0.0472276132757925 0.07203430883795603 0.027495241106660295
-0.04898175049372905 0.07181773826649453 0.02749149681947516
-0.05075611126737645 0.07159584235066442 0.02751496312784174
-0.052508219991103555 0.071377758346585 0.027528218909968483
-0.05421686401839387 0.07116810327620833 0.027512057327924277
-0.05592406848040293 0.07095781744555951 0.02750368901187905
-0.05762886251002114 0.07074710767540036 0.027502278185022044
-0.05930417380965963 0.07054187045620773 0.02748327301423964
-0.060968956834471566 0.07033800321737724 0.027463614574740947
-0.06261584938222159 0.07013712687629296 0.02743645852857668
-0.06426570663251846 0.06993468624826683 0.027420841896258374
-0.06591504670459719 0.06973143629532423 0.027413639822609692
-0.06752243530182966 0.06953650363461493 0.027376292713438277
-0.06911523721462043 0.0693439003688935 0.02733388456786051
-0.07070482102308384 0.06915112538840992 0.027296966158402547
-0.07230457522148431 0.06895520630109919 0.027278222034964217
-0.07388351958621497 0.06876301241569328 0.02724838410738667
-0.07530880255126426 0.06860418859695892 0.02708013708544943
-0.07674531608603902 0.06844211922069149 0.026929778399745807
-0.07817890045540232 0.06827995322751042 0.026783841504635475
-0.07935141821808311 0.06817564311452137 0.026391564217279895
-0.07974452318565484 0.06824623667057762 0.025242879317501687
-0.07994200096423487 0.0683612850936377 0.023898991161423855
-0.08007964703353304 0.06849039982691453 0.02249087242701342
-0.08047379482137584 0.0685619941322909 0.021331302072546743
-0.08067418946817584 0.06867793640076374 0.019975325125807353
-0.08070405005052428 0.06883325405568884 0.018443183184078005
-0.08071556796484813 0.06899349293870666 0.016885482934439644
-0.08072713963010841 0.06915447961178946 0.01532051333320178
-0.08072174730088594 0.06932012172496908 0.013730903371950487
-0.08069228772390707 0.06949208527964015 0.01210906570467557
-0.08065179491157898 0.06966741248529663 0.010467966643684046
-0.08059238277007524 0.06984794884390523 0.008799222227166503
-0.08025871437493104 0.07009284497143557 0.0068371883322231874
-0.07980774582233957 0.07036614104474773 0.0047413010558757795
0.09972045626528825 0.08901846587992211 0.024909927603423365
0.09535510041522799 0.08838523186439635 0.025909018604377387
0.09142011252709747 0.08782919744445299 0.026664954987367484
0.08705863598183095 0.08719188317545841 0.027708628750917286
0.08337957878786917 0.08667889762554666 0.02834797628313912
0.07904437228075811 0.08604171693494643 0.029421649269123606
0.07582681040680206 0.08561055727773993 0.02980963110575774
0.07196947407610721 0.085058096737123 0.030623108545993427
0.0685582588319103 0.08458701969099516 0.031171230580188503
0.06472390584819254 0.08403466326037322 0.03201107891317401
0.06301003418858575 0.08387888618812413 0.031494154793715035
0.06200010701600739 0.08385513409377364 0.030523184495315325
0.061592113310396324 0.08394493489517449 0.029157500666278924
0.06110622398567522 0.08402035741266775 0.027839796862302313
0.06109031266791304 0.08418516942078147 0.026206763233371677
0.06084395001203763 0.08430686978926695 0.024721298295487137
0.06075010801120195 0.0844580857964916 0.023128541687141457
0.060660154398224087 0.08461065106363758 0.021527205225588986
0.060636193600933086 0.0847764409619842 0.01987500172302281
0.06120536949131239 0.08505646802673943 0.017810899755402343
0.0011909101475824357 0.07682035154992757 0.026948107270520827
-0.0013326646786227525 0.07647691128551187 0.027304078792398323
-0.0035280552810875165 0.07619791320353356 0.027420056421314842
-0.005653736454837521 0.07593175850852604 0.027493329976177094
-0.0077454412504529 0.07567132380793891 0.02755107675906432
-0.009781658218361522 0.07542099247519253 0.027576004950608746
-0.011804447425530051 0.07517231194356738 0.027600768754019178
-0.013774494906752699 0.07493327098125556 0.027593983457944726
-0.015731023569022562 0.07469595480468426 0.02758641773110898
-0.017679281405678926 0.07445930495064516 0.02758218322122097
-0.019613209211007565 0.07422456328535892 0.027576338905214326
-0.021534981470969994 0.07399129706965506 0.02757053132312337
-0.023470584410404838 0.07375418536331627 0.0275859014394787
-0.025355342899106903 0.07352649860846744 0.027569563211891412
-0.02725687584637343 0.07329436741763111 0.027576760139971568
-0.02913770850713926 0.07306550008326755 0.027576662428622556
-0.031008755727892412 0.0728376594847537 0.027578171306533672
-0.03286244624223911 0.07261242240180052 0.027574867809760928
-0.034702815557174305 0.07238896726574225 0.027569988565930847
-0.03654971796033196 0.0721631705653069 0.02758025538689024
-0.03837304067743258 0.07194130252265031 0.027580148432432672
-0.04018057300337946 0.07172175961474794 0.02757608873844497
-0.04197527682811791 0.07150393626217204 0.027570477148680883
-0.043757297484102176 0.0712878133492818 0.0275633276699499
-0.04553667806959155 0.07107128721418196 0.027563273424162482
-0.047302604539045945 0.0708566375678953 0.027560875947579166
-0.04905878142944847 0.07064309333988415 0.02755927175372136
-0.0508184511499285 0.07042785452169116 0.02757010078062383
-0.0525743951003792 0.07021244351479212 0.0275870563213082
-0.05428509419715499 0.07000570079160372 0.027573040534985882
-0.05599345681948786 0.0697985268007114 0.027566032830918574
-0.05769683480002252 0.06959148510443082 0.02756366997608184
-0.05936991469536396 0.06939000371952156 0.027542960572018882
-0.061029155147621195 0.0691905837474634 0.027518556115447068
-0.06268303221818161 0.06899141373477749 0.02749809553368704
-0.06433564099222966 0.06879161142300756 0.02748533881173676
-0.06596728131731361 0.06859543465278657 0.02746206490434916
-0.06758883248183717 0.06840054914442815 0.027438168935045026
-0.06918432915115552 0.06821043372183354 0.02739860810514244
-0.07077018427564624 0.06802154580763746 0.02735851612939605
-0.0723575597396483 0.06783145675513405 0.027328375521365134
-0.07397609069856981 0.06763367270358352 0.027336465509149255
-0.0753929454212508 0.06747921248747214 0.027160615857062753
-0.07680643749852811 0.06732477588345502 0.026988542406561677
-0.07827184803856507 0.06715818069627927 0.02687366891300863
-0.07948128877389316 0.06704734963332525 0.026517727505053434
-0.07990947303824647 0.06710897112430365 0.02540395299455883
-0.08013309590031359 0.06721627648669164 0.02408656445549534
-0.08027178070305635 0.06734297827152928 0.022680444065418803
-0.08062380968376243 0.06742270822392747 0.02148008432819537
-0.08089402893231656 0.0675210969422136 0.020194488716840875
-0.08090825488088599 0.06767729585179627 0.01864781522173714
-0.08092177788768551 0.06783439177152353 0.017093194673512113
-0.08092226187148643 0.0679951676280808 0.015518074303438767
-0.08090729604097707 0.068160193566147 0.013919743520989902
-0.08087676532328414 0.06832952599344806 0.012297787040784214
-0.08083287888508617 0.06850269497948107 0.010654174301887143
-0.08076462451875649 0.06868223039611214 0.008977253073684854
-0.0805842650374533 0.06888816252677331 0.0071754197159089594
-0.08010203806733174 0.06916400924331283 0.005048635923620759
0.10363309688176514 0.0880976304534352 0.024211347103384684
0.09881919773188463 0.087395677837924 0.02546344948921475
0.09413190734091603 0.08671400075661674 0.026664562283284177
0.0908220446920564 0.08628047466978628 0.027036481390331157
0.08630014331771207 0.08562412709584948 0.028182500551942047
0.08233678639600822 0.08506731034918479 0.029003175245374213
0.07920105723927479 0.08465989509027312 0.0293226426584709
0.07500436524975224 0.08405617194029992 0.030332269243287413
0.07095093361525084 0.08347641287106286 0.03127402533549084
0.0677684992629789 0.08305483990534422 0.031678794738848326
0.06460534761846987 0.08263515915685882 0.032087704266960226
0.06249964649743389 0.08240941465384671 0.03182588241780265
0.061401629398831814 0.08236953789338725 0.030914354900237473
0.06110809906222614 0.08247890272246024 0.029475633778503485
0.0607788336611787 0.08258205404156586 0.028056190897986222
0.0606978667283663 0.08273191286286094 0.02646760919621277
0.06045395847178242 0.0828519302326615 0.024981961938882358
0.06044655457014375 0.0830167022551693 0.02333256398725242
0.060202845302308294 0.08313781159042992 0.021836281577657213
0.060309027244731195 0.08332517153957866 0.020097350290182614
0.060917758970210734 0.08360793354415182 0.018007451350779025
0.008208957767962599 0.07443207826231962 0.04655216317712185
0.006265344962543273 0.07421356494719969 0.046411512373094876
0.004330923871753101 0.07399591313597578 0.046273238150322527
0.0024067312860696632 0.07377932659258439 0.046136547305046516
0.0004948463075152842 0.07356421068652463 0.045999881499634354
0.0013914639183394972 0.07560044328907758 0.026794410811364633
-0.001353473509006331 0.0752190904342166 0.02732011188375577
-0.003538904860351799 0.07494662433156908 0.027428461008077
-0.0056881378930859205 0.0746801670130852 0.027520122355370213
-0.007808296190791542 0.07441834391962633 0.027600292348853916
-0.009852412165607394 0.07417051984272822 0.027631702996877394
-0.011872492632367393 0.07392642556568782 0.027654621802860824
-0.013862718510926908 0.07368724655207258 0.027664180451973774
-0.015819530751536914 0.07345372634004002 0.02765721731873161
-0.01781192383625113 0.07321207037386138 0.027688855296464865
-0.01971641339164215 0.07298703375924577 0.02765977985285001
-0.021627286987181527 0.07275974109156842 0.027645558896185918
-0.023545194266418656 0.072530046665561 0.027646868945171432
-0.025454975189697082 0.07230100027133157 0.02765141139371291
-0.027358599163513075 0.07207220704588997 0.027660770700031645
-0.029229851338972324 0.07184899241529041 0.027653165196972362
-0.031101087185143206 0.07162480771778502 0.027655237753207218
-0.032943518574788666 0.07140551850564876 0.027642895577280224
-0.034785104942369804 0.07118544156924385 0.02763940353970834
