# .PCD v0.7 - Point Cloud Data file format
VERSION 0.7
FIELDS x y z
SIZE 4 4 4
TYPE F F F
COUNT 1 1 1
WIDTH 777
HEIGHT 1
VIEWPOINT 0 0 0 1 0 0 0
POINTS 777
DATA ascii
0.017941743259599095 -0.011884072778823696 0.07746752140517954
0.01792559772418857 -0.010760547274234977 0.0767715724863405
0.017909823821968856 -0.009646553469539132 0.0760721821788174
0.017903072035501757 -0.008731332397743485 0.07525036113882844
0.017888948977100465 -0.007655708578740317 0.0745309511562732
0.017877822610371585 -0.00664661157901858 0.0737714771573221
0.017857703526024882 -0.005442846677297997 0.07313815502676052
0.017836998543248505 -0.004228085939768089 0.0725150628312933
0.01781280651028777 -0.002939543643104503 0.07194291804184377
0.017785011177380974 -0.0015751541984077577 0.07142388880262601
0.01775484898378545 -0.00016206555870623696 0.07094108579635588
0.017700517706945744 0.0017690173757216598 0.07080353008980023
0.017677933939042746 0.003012992831111394 0.07022044653658405
0.017643239910920917 0.004514838470930205 0.06981235398182178
0.017544243127232295 0.007390465004472435 0.07032800380879789
0.017454157104317088 0.010067205033578608 0.07072579337372081
0.01741255922750863 0.011702224346634482 0.07043394647441237
0.017355885948883026 0.013654512416239328 0.07036439319957238
0.0172614426676645 0.01640414393970302 0.07084884828095006
0.01720321800618796 0.018377982640585044 0.07081539808199483
0.017155258606581385 0.020129686145480385 0.07063784933759665
0.01711234553917865 0.021770748530662243 0.07039118004090078
0.01708081328829461 0.023168365623447262 0.06998137998850396
0.01704509575859482 0.024651275042562648 0.069636617326151
0.01701562176142967 0.026000121636454154 0.06920296676233151
0.016993252578027522 0.027197673578131853 0.06866666260790638
0.01697164531136037 0.02837738715985999 0.06812127294726916
0.016954828859402034 0.029455344020476226 0.06750635106377578
0.01694067271028688 0.030476497219182108 0.0668531747211426
0.016925316185149548 0.031521366245118476 0.06621954168277927
0.01690732635420662 0.03261949405817355 0.0656273125351467
0.016889809991283426 0.03370628779192403 0.06502973426957115
0.01687450204958848 0.03474600033615499 0.0644003115952852
0.016859568800016864 0.0357766836488011 0.06376672688544599
0.016846047522706107 0.036777066207632436 0.06311301936087343
0.016830472982871485 0.03781840358838989 0.06249227795471601
0.016814884071751093 0.038858700311165006 0.06187334911859532
0.01679936707432533 0.039896192166418765 0.06125489893053543
0.016785641195656544 0.04089584748168734 0.06061020666571687
0.016770306838502273 0.041927041586126035 0.059991987939098046
0.01675328722113115 0.042991126086722786 0.05940168991327022
0.01673754166895186 0.04402794766555096 0.05879314107458439
0.01672553847007442 0.04498778443753054 0.058127294486119085
0.016707842809730453 0.04606139682152627 0.05755256598249042
0.016692692719464084 0.047082263183910344 0.05693931670573199
0.01667663643681137 0.04812002934559517 0.056342017470049244
0.016662220635285375 0.04912354543888248 0.05572020132845573
0.016647068559876514 0.050140548844326005 0.05511163481961745
0.016627892961629535 0.05123653710611037 0.05456918049410697
0.016613813967943578 0.05222940511968149 0.05394664039033625
0.01660030540599602 0.05320973326842371 0.053316326443744344
0.016581614900971698 0.05429163551970495 0.0527713396425063
0.016567656015894064 0.05527833446910041 0.05215136805608456
0.016553302496697658 0.05627162686751441 0.0515392555869954
0.016534217038765515 0.05735689130673283 0.05100599147787338
0.016520421096370645 0.05833656224540923 0.05038790613196037
0.016507230230500474 0.059303184835415856 0.04976127315087764
0.01648895603733234 0.060368146706150816 0.049219894912966466
0.016471425995352285 0.061417012846176566 0.0486680619180524
0.016458147896305293 0.062381539606929215 0.04804740085117942
0.0164440659349199 0.06336055489409942 0.047441488026421064
0.016429184290822827 0.06435387429559364 0.04685037675818304
0.016414370669133045 0.0653446017974727 0.046259645308449115
0.01639958373706545 0.06633354431105049 0.04566997817627305
0.016384618606095375 0.0673246530360268 0.045084826490013774
0.016370375889958783 0.06830059073499722 0.044488983706871155
0.016355912993884232 0.06927953130252479 0.04389833123643816
0.016340660724217047 0.07027234041703134 0.043322588836592235
0.01632714508350264 0.07123067885253731 0.04271876321086454
0.016320598827838474 0.0720550669009235 0.041997007498090044
0.01775085361408088 0.045564198264913924 0.016605605295230808
0.017732122538797267 0.04668015521998725 0.0160216493296228
0.017712760707444115 0.047806443939553134 0.015450501234973879
0.017474770626858673 0.053059258643508356 0.018668740691296815
0.016243015252022586 0.07701358019671806 0.03917754836107101
0.016192928377374564 0.07865109162596362 0.03922081878780764
0.01616030607451648 0.07995678579180182 0.0389639815287256
0.01614203606443251 0.08099114113297434 0.03845891224377063
0.016123807317743395 0.08202316034999635 0.037954983673678666
0.01611235104337186 0.08292747930976713 0.03733351873029894
0.016123212185072372 0.08341610867083304 0.03631862961080318
0.01611793825478379 0.08420480336195957 0.03558873940785362
0.016110014054250076 0.08504206689418142 0.03490651800713046
0.016101662467768736 0.08588653813801661 0.03423272806357547
0.016088104692514364 0.08682614391435256 0.033652905290999346
0.016074569729492588 0.08776416871558712 0.033074058124761
0.016064679541231617 0.08863424252856322 0.03243103330542474
0.016074254200112905 0.08914760690868584 0.03143790219594239
0.017456059976580573 -0.05909360650125778 0.10341475185713944
0.017374297480605264 -0.05622507154825823 0.10348506457725759
0.01732160301320457 -0.0540975902436458 0.10319816343643409
0.01727830053847155 -0.05221152791704786 0.10279820678612464
0.017252909414990684 -0.0507797987341177 0.10217540471035327
0.017230504554267466 -0.049425349572324584 0.10151727401286204
0.01721493808707566 -0.04824427202578635 0.10077395720534948
0.01720041538724168 -0.047090724243904925 0.10001891030783794
0.017185965456161516 -0.04594032633110734 0.09926451215414528
0.017170720325736615 -0.04477144362962554 0.09852201679185713
0.01715569468297115 -0.043609419084934986 0.09777832886897986
0.01714083941329604 -0.0424530033301691 0.09703405522490868
0.017130518370268008 -0.04141029325965068 0.09623180990976854
0.017115084067765407 -0.04024207778865896 0.09549818193937096
0.01709222352828571 -0.03889196646862764 0.09486466529349794
0.017078193142828865 -0.03776151706474851 0.09411613837358965
0.017066375874738932 -0.03668678253880042 0.09333957351756611
0.017048633119696104 -0.0354676814976449 0.09264380692061744
0.017043360177370157 -0.03455573096914172 0.09178198633116616
0.01702604435012781 -0.03334975639419918 0.09108364574111891
0.01700890556171552 -0.0321496932117003 0.09038479562301463
0.016994869914025566 -0.031026806039600785 0.08964550559507037
0.016987365364968976 -0.030064025851045173 0.08881833390117078
0.01696940979956454 -0.028848274972757715 0.08813564077651631
0.016954922248135246 -0.027718186878523843 0.0874070523080358
0.016943556499931296 -0.026664912690260056 0.08663679603615712
0.016927707531994903 -0.025504486097620627 0.08593014482474992
0.016914600635320916 -0.024411564909768813 0.08518693598426846
0.016902494808493113 -0.023343914734289373 0.08443112712656922
0.016886396196926872 -0.022181566022573262 0.08373283782916371
0.016878567935949825 -0.021218769751052913 0.08291946017081062
0.016864513993377222 -0.020107873629142847 0.08219524123183203
0.016847837914616658 -0.018935708874565416 0.08150989485795043
0.016837125027177657 -0.017907071957881215 0.08074114183135733
0.016826055463130544 -0.0168709418923102 0.07997867863709193
0.016810379251266872 -0.01572655701899789 0.0792837735404657
0.016796992076249746 -0.014637803278698291 0.07855749112259769
0.016785606688984676 -0.013597578109513508 0.07780362413976286
0.01677267284460648 -0.012521881758925102 0.07707355876340741
0.016758519130007008 -0.011418661359686444 0.07636274482403413
0.01674796535028983 -0.010401305917204007 0.0756006472474629
0.0167346773590728 -0.009320816360175732 0.07487998143134578
0.016725434017697608 -0.008336187559185415 0.07410096798855495
0.016710492452348406 -0.007219336680944544 0.07340752842613557
0.01669616999492235 -0.006118287454042026 0.07270650247015847
0.016679552114949585 -0.004965159086219417 0.07204135943431716
0.01665670546541887 -0.003668953914705786 0.07147149313826967
0.01662763610847782 -0.002230670344207264 0.07099783475861038
0.01659704665250623 -0.0007599061318900313 0.07055033190740079
0.016545552742139223 0.0011904729880822251 0.07042326429947687
0.01650875650251642 0.0027976120363087387 0.07007808714098346
0.016479845599640778 0.004220121965812118 0.06961646567675012
0.01637782746828713 0.007317043879435825 0.07027893046771116
0.016289895805695 0.010082103516391216 0.07073580690851261
0.016251117385548644 0.011716035673565162 0.07044328104743697
0.016183697608863762 0.013999489505813867 0.07059884631179436
0.016085852088448732 0.016969125778480698 0.07123495405142805
0.016030079607266594 0.018974287789656097 0.07122517062757794
0.01598404329787493 0.020753664490728463 0.07106901359042278
0.015939101294961785 0.022504062354435805 0.07090069683734607
0.015903957749666017 0.02402915752221485 0.07058277349588316
0.01587090404645261 0.025503948547694277 0.07023562424843227
0.015844551621218023 0.02682505502767052 0.0697856775761384
0.015818082030006723 0.02814637025668748 0.06934048174802421
0.015793984164506943 0.029412154641800192 0.06886026063853168
0.015775328232364993 0.030554137369032508 0.06829536680059134
0.01576223839777379 0.0315702995148584 0.06764290805601841
0.015749373022708065 0.03258026519707918 0.06698825601720493
0.015733088130530277 0.03366498059883383 0.06639043562438146
0.015717321504551917 0.03473671620825236 0.06578596891223143
0.015703198842793975 0.03577065041910665 0.06515640223648467
0.015690067397429557 0.03678141416371 0.06451215266157645
0.0156759133003193 0.03781349248395638 0.0638861391439805
0.01566054166392438 0.03887102729926212 0.06328174162161904
0.015646320694596212 0.03990191677887717 0.06265999843689724
0.01563384356492856 0.04089333853456767 0.06201087933113181
0.015620548567692068 0.041901475079151373 0.06137673970930674
0.015604170585674922 0.0429755751735425 0.06079554245041213
0.015586794160608713 0.04406988356194602 0.06023286665203764
0.015576355112074256 0.04501205412891135 0.0595554754811049
0.015562167777392506 0.046034432450911544 0.05894244029803697
0.015546386065760712 0.04708995984219794 0.05835793357405883
0.01553071519637262 0.04814164803314214 0.05777327246492103
0.015514761062855239 0.049197992085442344 0.05719514994197766
0.015502257054396526 0.05017879488258764 0.056559833011171956
0.015489773184594333 0.05115801802235853 0.05592553930645705
0.015474529363462629 0.052195099188336425 0.05534006353107285
0.015458299722923218 0.05325181092012293 0.05477325906111863
0.01544311775555195 0.05428473058569977 0.05419010340542535
0.015431780019711771 0.05523460070489228 0.053541884375258475
0.015417388375774558 0.056248157671236754 0.05294808024591696
0.015402015140481451 0.05728115298719538 0.05237299608068885
0.015388182184211854 0.05828023168028296 0.05177260662190181
0.015374721851098182 0.05927019368054931 0.051167181741662515
0.015360744977956316 0.06026977293506869 0.050572336852475974
0.015345099467837891 0.061303052645237555 0.050008532074105216
0.015329216874643297 0.062339855381792264 0.04945064534166943
0.015317048389790443 0.06329767240034251 0.04882840466045435
0.015304133348649352 0.0642699211705447 0.048220821345980325
0.015290666691227526 0.06525244763822152 0.04762452768311032
0.015275659454681225 0.06626568294428753 0.047057375020406744
0.015262166675660787 0.06724620595705116 0.046464583631860235
0.01524820354316576 0.06823520003376948 0.04588176737570543
0.015234455650111172 0.06921847837586664 0.04529657834582862
0.015220391658757798 0.07020699086091092 0.04471863980687196
0.015206467021076118 0.07119135425995549 0.04413969957210867
0.015196531029394228 0.07209282929366972 0.04348934152368494
0.015195889169658692 0.07280365601492433 0.04266959749147231
0.016518159446024593 0.04656844870855609 0.017512632697780917
0.016510847067858592 0.04747546013234061 0.01674372366414595
0.016495441023636807 0.048545914180371075 0.016125397776570627
0.016476379201740575 0.049688913374806576 0.015576612392345979
0.015197210281454019 0.07626545914766841 0.038487594434690076
0.015137935867952338 0.0781569479940642 0.03876271378729457
0.015093819840727512 0.07973841337682008 0.038760478128335885
0.015044000768086345 0.08143015834107104 0.03887017221870559
0.015015932845055336 0.08268227570182601 0.038575646329892466
0.014998921606015514 0.0837111744554751 0.03807533999239676
0.014981178293671068 0.08475308638149731 0.037590763616530964
0.014978683590169288 0.08549047620303263 0.036818426031066664
0.014977729915995865 0.08619709725941044 0.03601699965282923
0.01496874982814082 0.08706232746524228 0.03536904700503274
0.01496230545297111 0.08787671386321022 0.034673485731592124
0.01495506216765154 0.08870623104002207 0.03399398276043519
0.014947752834470935 0.08953637988522195 0.03331654534068046
0.014974539560542417 0.0896979786241866 0.031980934913325154
0.015223382906396661 0.08552255276973664 0.02633856509699317
0.016189978312244557 -0.05776883933304516 0.10271920801362519
0.016159163706351197 -0.056130886500870725 0.10218320990835636
0.016082888514046177 -0.0532627614543868 0.10227022620506737
0.016052252990211704 -0.05163800005780639 0.10174171961360093
0.016026797314867395 -0.050156270868892905 0.10114563961481171
0.01600967609764018 -0.04890191339530775 0.10043753251937076
0.015997320971780696 -0.04777759721693309 0.09966538366243913
0.015983005709376247 -0.04660181436264499 0.09892197450168702
0.01596898542256324 -0.045435361495100746 0.09817612920813051
0.015956424032665333 -0.04430936596200963 0.09741145756055533
0.015941376439257082 -0.04311815226220478 0.09668331188137758
0.015927027095166052 -0.04194705745174615 0.09594705591211697
0.01591631546229509 -0.04087426397829114 0.09516078507119385
0.015898895293150233 -0.039624194548534775 0.09447152622811547
0.0158811135643549 -0.038366254209796946 0.0937895021680625
0.015870507924167693 -0.037300126974716186 0.09300630511329244
0.015858765087789727 -0.036204986750150214 0.09224078996399834
0.015849162176638766 -0.0351674708678647 0.0914456116117979
0.015834404399615122 -0.03399514552918009 0.09072665815059622
0.01582029096533085 -0.03284121719693994 0.09000001953817405
0.015807478379364946 -0.03172281516968972 0.08925594089533226
0.015796004313060146 -0.03064073301463116 0.08849363682475844
0.015784283699730475 -0.029553341196659755 0.08773633466760844
0.015770960048668493 -0.02842528696593266 0.08700423826296902
0.015757484006640753 -0.027294582129129608 0.08627598590503474
0.01574573316441886 -0.02621004785402342 0.08552347837565952
0.015733999834934315 -0.025127129902260792 0.08477209233719651
0.015722893292312645 -0.024061600452631948 0.08401262601201176
0.015714062803099775 -0.023055986305769993 0.08321997116171623
0.015705893650129636 -0.022068302721244104 0.08241829435769465
0.015695911033015198 -0.021034743398020583 0.08164528015455924
0.015676070416369734 -0.019748886523789977 0.08102459983837706
0.015666168872542966 -0.01871986800987474 0.08025327156310563
0.015656970356215733 -0.017709822239774797 0.0794722474948977
0.015639682298485603 -0.016494038899052543 0.07881777835547463
0.015624667117969067 -0.015337913396295089 0.07812995981316528
0.01561899549429746 -0.014421029762490267 0.07729788871304377
0.01560680693491108 -0.013339198660020812 0.07656871742844848
0.015596093293696243 -0.01229595792871796 0.07581775858615561
0.015584111472744794 -0.011221694556921624 0.07508810580928274
0.01557253229859132 -0.010158782213020412 0.0743534776019184
0.015557986635760438 -0.009022262766826161 0.07366744865913602
0.015546063271941503 -0.007953131043843209 0.07294122524338967
0.015535475329579464 -0.006918697465814083 0.07219498606790911
0.015523119742093172 -0.005841030467891972 0.07147845294412913
0.015502105328754378 -0.004548105230125055 0.0709032891383013
0.015478785121645636 -0.0031997247546826646 0.0703679958537467
0.015448808867199404 -0.0016879001906802138 0.06994378674162666
0.015405314987790622 0.00015691023936242887 0.06974392388139483
0.015357537781695296 0.0021036602439332697 0.06961940840695602
0.01530267251597072 0.004221142434323033 0.06961714401702529
0.015217517057886163 0.0070815006172990635 0.07012149749574942
0.015132054238861424 0.009941015762345906 0.07064098004014924
0.0150953765432208 0.01159169571785601 0.07035924488448314
0.015013101525753983 0.014358440300768938 0.07084279622194561
0.01491979480349627 0.01738739872605305 0.071520799715112
0.01486738468924536 0.019406913770551315 0.07152246516027569
0.014823770796118997 0.021206550026589832 0.07138195404238734
0.014778566068381552 0.023040623345846334 0.07127350700679014
0.014740212884364784 0.024703673164539308 0.07105402484153428
0.014706359816387 0.026253760064533727 0.07076237017545178
0.014676415322485013 0.027705872783134522 0.07040786360033896
0.01464904793388902 0.029092760082161606 0.07001266242772791
0.014627506146426439 0.030336479495630286 0.06952037482749479
0.014607267215804331 0.03154671978350038 0.06900811515605404
0.014592593343267946 0.03262132942138701 0.06840175941242249
0.014578285674443426 0.03368571272060383 0.06779076257546995
0.014565275857550665 0.03471764521910781 0.06715879814722919
0.014552326524500527 0.03574684780567222 0.066527307656914
0.014538209304953163 0.03680258236637041 0.0659178661739741
0.014524268011276016 0.03785274000962974 0.0653069865827528
0.01451046463994638 0.03889824810467413 0.06469531008586693
0.01449772355539354 0.03991725103277638 0.06406640533053054
0.01448245638435733 0.04099465164990357 0.06348398767004748
0.01447031737871953 0.04199682045185599 0.06284747736747104
0.014459302904862718 0.042971342388411105 0.06219223904686161
0.014445843122050387 0.04400216234064935 0.06158227809765493
0.014432041657238909 0.04503965306060187 0.06098006875767542
0.014418339740754684 0.046073452574880935 0.06037768382768732
0.014404042803150571 0.04711977298135028 0.05978772044297831
0.014391925434233193 0.04811395988518635 0.059159728341791396
0.014379537193885739 0.04911323843296084 0.058538115775944755
0.014365353398511202 0.050152897840764266 0.057950891384928205
0.014353808831496848 0.05113012990732885 0.05731678298158366
0.014337901998755847 0.05220686973688027 0.0567645476341625
0.014322680461592135 0.05326625878745117 0.056201498351956425
0.014310951941591165 0.05424389455316314 0.05557536215519426
0.014300034636782638 0.05520177387050457 0.05493549252794705
0.014286150902070327 0.05622643053085968 0.05435235888258266
0.014270106763500138 0.05729902655364599 0.05381137165798422
0.014258714715119407 0.05826407967132735 0.05318476881697087
0.014244982511613493 0.059281190050590016 0.05260366509237957
0.014234593665611663 0.06022112455669254 0.051960896700878834
0.014220658625432269 0.06124027403855764 0.051386683953274115
0.014206715307220055 0.06225823239410888 0.05081427114575504
0.014193402236767091 0.06326061315030806 0.05023146085324037
0.014182238514981942 0.06421336132631073 0.04960903007201267
0.014170137774718377 0.06518602280502345 0.04900592691385236
0.01415569351933913 0.06620993669811792 0.048449436458911366
0.014141806821862344 0.06721997134603835 0.047883864859313674
0.01412952889735604 0.06819278668522283 0.04728872060615552
0.014117517898285262 0.06915845353485028 0.04668982941224964
0.01410475667811414 0.07013957457066489 0.04610699599940876
0.014091668884011487 0.07112666180740118 0.04553205959726575
0.0140788845345091 0.07210575357771837 0.04495270745526536
0.014067725945155615 0.07304775847725808 0.04434284420225193
0.014057385190116772 0.07397067986776767 0.04371814136504143
0.015326577485408749 0.04682538213678661 0.017744692072003687
0.015279081141884036 0.04862271409901919 0.017785340028129815
0.015266391218104901 0.049655294959601304 0.017137902641068625
0.01524442889334534 0.050888640244761085 0.016677303727783366
0.014123169025139102 0.07601603524247447 0.038257563533691086
0.014088837034446787 0.07745895876270231 0.038115629914883375
0.014016415686873895 0.07972269629329076 0.038745831305199485
0.01395858022225067 0.08166437184762093 0.039089577419731736
0.013930473120519852 0.0829599809229879 0.03883715031899221
0.013899893259998334 0.08430595130125873 0.03863833713394449
0.01387900457893772 0.08544110858520093 0.03824541663898745
0.013862135777566762 0.0864882085170664 0.037772710873918924
0.013851622006812201 0.08739801022269122 0.03717159423231847
0.01383653850397131 0.08840407422700641 0.03666575229804153
0.013835392502769654 0.08911256852846527 0.03587406174514568
0.013837853083260708 0.08974451224905844 0.03500786520620913
0.013851013748641278 0.09015045264923605 0.03391930150091538
0.013889967103381829 0.0900135994274121 0.03229234707198114
0.014150049362951967 0.08522683232106182 0.026045274596318668
0.015030281349135782 -0.06029613177418436 0.10146542906091913
0.014960544547301195 -0.05743787964314029 0.10153080263806663
0.014943445542864175 -0.05613400852143291 0.10082814626841718
0.014851631030351609 -0.05264024555381536 0.10123524295066602
0.014826263945590189 -0.051101945153995854 0.10066481478874711
0.014806960861807047 -0.04974359564280584 0.10000695940014998
0.014791212350191743 -0.04849101359320762 0.09929819539106377
0.014779662477187048 -0.04736238300925999 0.09852813003027078
0.01476821382510488 -0.04623793189460135 0.09775800648797583
0.014755993780828187 -0.04509232697991383 0.09700107507723149
0.01474628205309171 -0.04402067028150308 0.09620740011831402
0.014735754727778454 -0.04292647855606463 0.09542747188628722
0.014722223963096392 -0.041746758893591696 0.0946951357572268
0.01470764522614791 -0.04053830865010161 0.09398073110066302
0.014695278031389898 -0.03939499108690364 0.09323385127566527
0.014684247572445235 -0.03829135133748035 0.09246771086826866
0.01466765086205413 -0.037029487507167225 0.09179011123953779
0.014657768174828936 -0.035961317598910525 0.09100910259469627
0.014648799177620672 -0.03492027470547132 0.09021493640944192
0.014639677635910868 -0.03387584861838505 0.08942433242362535
0.014627750916236398 -0.03275266634560264 0.0886795207502033
0.014617147570200974 -0.0316683059959334 0.0879150936911027
0.014606600278556536 -0.030586668847953302 0.08715112146465201
0.014595621227619359 -0.02949395884193412 0.08639544741354052
0.014582752065995597 -0.02834910616969777 0.08567172760780328
0.014569419722814447 -0.027192590918283965 0.0849571674721945
0.014558819887314481 -0.02611429357821632 0.08419979128790661
0.014548760279172035 -0.0250522844659809 0.08343493250386314
0.014536295998433015 -0.023924033942684886 0.08271084219174762
0.014528964538829934 -0.022940537719894794 0.081903735913406
0.01452240471903855 -0.021979346396979238 0.08108479700883026
0.014510065850972293 -0.02085800134794763 0.0803626929117067
0.014498068653195757 -0.019747470057548677 0.07963646677087552
0.01448881347536927 -0.018714252818495813 0.07886587384813193
0.014476331740700772 -0.017592736231756834 0.07815067767076805
0.014459603227585075 -0.016355260106455327 0.07750870384166134
0.014452269228015761 -0.015378550877653996 0.07670981246544367
0.014440645787684581 -0.014284611820572335 0.07598475342443464
0.014430907647742958 -0.013243687325852072 0.0752290186990772
0.014423404322361704 -0.012265053183652785 0.07443626286618543
0.014412381884585547 -0.011190966929379043 0.07370494375476438
0.0144039480119799 -0.01018872615455485 0.07293038011111541
0.014392441644894352 -0.009103678159440076 0.07221008878823534
0.0143799675659833 -0.007993549172198522 0.0715080827461817
0.014365782921653976 -0.006838335084871527 0.07083750352942653
0.01434989789294764 -0.005638586527216938 0.07019850051097787
0.014330090956497408 -0.004334526873151556 0.06963042887439491
0.014301087508425557 -0.002784491377981979 0.06922704498204607
0.014258383455182003 -0.0008686905169527637 0.06906981672483925
0.014214237861610567 0.0010812699780325952 0.0689436428852534
0.014149866149593347 0.003568898503438833 0.06918361898450737
0.014077149120276636 0.006272977540650038 0.06958109473141705
0.013978738393467983 0.009655533468446276 0.07044910370086005
0.013941233504776272 0.011404041464576797 0.07023241720746726
0.013839298785427577 0.014862520947800995 0.07118537916160012
0.01376051524336097 0.01769544285679986 0.07173131556849932
0.013723236680024693 0.019420238220793806 0.07153162160299817
0.013676591553823265 0.021388707978208743 0.07150782383908386
0.013620807800464447 0.02359333215485493 0.07165753690611099
0.013583225534092634 0.02531265143102257 0.07147948840964893
0.01354805530222523 0.02696455375163337 0.07126170590679964
0.013516655015235935 0.028513812178315334 0.07097857031210286
0.013489251192161123 0.0299551036407813 0.07062514860343105
0.013468321327267793 0.031224357384033785 0.0701544601190528
0.013449146587624071 0.03244561846222399 0.06965359159397921
0.013429131981768315 0.033686672950775154 0.06917094530886919
0.013416348351195017 0.03473786978495147 0.06855458259389147
0.01340495983378487 0.03575155520652751 0.06791347126146235
0.013391880085326482 0.036807743132380166 0.06730590205754555
0.013379098961853856 0.03785482561351883 0.06669431784443258
0.01336634221138465 0.03889991135758941 0.06608389989357383
0.013353745811183126 0.03993951077941227 0.06547203756795134
0.013342734923659639 0.040937110986556835 0.06483129630914425
0.013329505149231686 0.04199030110135488 0.06423476853776144
0.013317417790600642 0.04301290676093661 0.06361781696576674
0.013305352333872972 0.044033659492239974 0.06300198328992035
0.013293544658105038 0.045046565830066665 0.062382667465220976
0.013281354176729359 0.046067919146493774 0.06177234215953398
0.01326885021416909 0.047095902850042615 0.061169721121351384
0.013255397827009855 0.048146507322016474 0.060587357176220324
0.013244113520595097 0.04914101392776332 0.05996391439866511
0.013233683438343935 0.050112822648562205 0.059324996027825094
0.013223336472642703 0.05108142755245887 0.05868575802683179
0.013208378744307941 0.052164419086396296 0.05813973718415666
0.01319405245199653 0.05323002516094888 0.057583000720453636
0.01318413202015637 0.054184205955465636 0.056939718563322195
0.013174193391389739 0.05513777686392224 0.05629806914333735
0.013157893454564178 0.05624826461752447 0.05578609884282604
0.0131441377314505 0.05729395749229843 0.055224689356040746
0.01313406186991798 0.05824718245198213 0.05459028410429523
0.01312232621471564 0.059240281841421716 0.05399098795786872
0.01311077543909395 0.06022757215953489 0.05338941092872351
0.013100194161225038 0.061189807452102174 0.05276942876376395
0.013087930810813556 0.06219214243642707 0.05218539635905506
0.01307578823065122 0.06319020962810551 0.05160043780562101
0.013063830914851589 0.06418245437570208 0.05101319515088959
0.01305303276113733 0.06514518943730263 0.05040341414750871
0.01304157115835014 0.0661228889112343 0.04980882777825091
0.013029514407681488 0.06711379018428199 0.04922813640228885
0.013017382967448012 0.0681052067026881 0.04865054926123741
0.013005661229598415 0.06908543401177508 0.048065900670085426
0.012993863971344626 0.07006622446546362 0.04748434059134732
0.012981863083286594 0.07105064456088284 0.046908592193463716
0.012969852257479788 0.07203401728245912 0.046334586744322726
0.012957895661232486 0.07301480588489623 0.04576096122096751
0.01294634469937885 0.0739846308437791 0.045180207945116124
0.012935931312172052 0.0749261247078225 0.0445765864160913
0.012924132722591311 0.07589942017652856 0.044004024823542764
0.012912133033968527 0.07687621969506347 0.04343729859766149
0.01290059999283509 0.07784069451983194 0.04286202923697674
0.012889341030968822 0.07879746478040117 0.04228229731998023
0.012876583532815795 0.07978831818484466 0.04173654841732627
0.012862588894062211 0.08080687226849431 0.04121937577873841
0.012853507083387318 0.08170876028351115 0.040596664748092315
0.012843651457828821 0.08262777372951069 0.03999206729927107
0.012831141206903695 0.08360767683957404 0.03944705974906276
0.012813110356017284 0.08471476682675089 0.03902530913901475
0.012790853575306602 0.0859180842125623 0.03869925890302478
0.01276652864801477 0.0871669449312103 0.03842189091072207
0.012749360834942448 0.08824772243766005 0.03798853365953786
0.012734280166523471 0.08927851636651274 0.037510840077901786
0.012719235132263975 0.0903068746291546 0.03703427523989339
0.01273817838614168 0.09055325094075478 0.03579759921654374
0.012782495707624268 0.09022042793626872 0.033987987310666934
0.012842423914121203 0.08953559960183965 0.031820721365561355
0.013063568701337035 0.08518157002754939 0.02600038430503171
0.01379515922977387 -0.06004990729660281 0.10022696572694542
0.013712385116904528 -0.056590095516867445 0.10059907724100753
0.013686222105805938 -0.05495156919637734 0.100067234153317
0.01363121689873754 -0.05239480691122267 0.1000074636710373
0.013610140010800319 -0.05092624789336836 0.09940195877366184
0.013596509545369301 -0.04969713966729067 0.09867741432962912
0.013583290249460492 -0.04848268615093537 0.09794800459325786
0.013571016281789652 -0.04729975280800969 0.09720481954859114
0.013560218211863224 -0.04616496664829023 0.09643885992621512
0.013550086734288331 -0.045052501402662315 0.09566329954122527
0.01354019926542385 -0.04394891466580175 0.09488506834822721
0.013528421892486013 -0.042786998581207714 0.09413996128255356
0.013517995643659757 -0.041668906697916286 0.09337370400831549
0.013509939624495279 -0.04062635948593851 0.09256875315739008
0.013498063166415603 -0.0394651748829527 0.09182989904653868
0.013484012986591134 -0.038237468285508114 0.09112981923392846
0.013471842170453144 -0.03707000774667879 0.09039947198719195
0.01346120128066841 -0.035951587752314496 0.08964448059902216
0.01345189486027052 -0.034875868025544265 0.08886790404466938
0.013444744811293508 -0.03386809983958905 0.08805519914306367
0.013434860197336963 -0.03277653475929743 0.08729113981362932
0.013425215116926155 -0.03169352425103755 0.086524266663142
0.013416707424249627 -0.030646709231632485 0.08573875951015844
0.013406078627628465 -0.029535613933851734 0.08499184062438508
0.013393488127646395 -0.02836550625454959 0.08428113119527958
0.013383753251562878 -0.02728441486038502 0.08352142186974867
0.013375037447850081 -0.026235643317321533 0.08274488529549848
0.0133630996287056 -0.0250894896310061 0.08202727685838426
0.013354596236851863 -0.024049418251582078 0.08124957292218365
0.013345251297385691 -0.02298473803761253 0.08048824472858701
0.013337029671511753 -0.02195525917114083 0.0797078621073865
0.013329890260206893 -0.020959539167174523 0.07890893800784288
0.013323607980008381 -0.01999057999522824 0.07809535650433866
0.013312019851951308 -0.018862174055369663 0.07737990775388154
0.013299421305489806 -0.017704677413336534 0.07668466463015408
0.013288756985745118 -0.01660682046569051 0.07595545188157685
0.013278073069964456 -0.015509621688054753 0.0752280877518898
0.013267845844016059 -0.014427352027775953 0.07449371319932621
0.013260085130157901 -0.013420019763413116 0.07371469235134229
0.013252150779048795 -0.012408413339274671 0.07294000778622939
0.013241926945509373 -0.011329552331607817 0.072209511286117
0.013232921142710682 -0.010288088526010819 0.07145743330206136
0.013223636498208345 -0.009239405770708864 0.07071189566119152
0.013213456596705938 -0.008165303871514595 0.06998468496791166
0.013202748288489639 -0.007076778997628486 0.0692689827625308
0.013181492180647313 -0.00567846896712898 0.06875693092422125
0.013159403545599052 -0.004258141967998286 0.06826385381816263
0.013123971633267431 -0.0024484853866896805 0.06803144866759736
0.01307904148349927 -0.00036454797925650206 0.06798800589688109
0.01302929407683414 0.001855065163582248 0.06804449036782889
0.012952044223468774 0.004871829085311419 0.06864459141990598
0.012837494656909318 0.008966392143862856 0.06998592281365068
0.012784529192100717 0.011256748296167574 0.07013286791784296
0.012673278335153753 0.015232404003521993 0.07143675884544504
0.012607419272492705 0.01788040342202668 0.07185771674208546
0.012578481144277419 0.019453545224139168 0.07155450977397831
0.012529129496395272 0.02161214343904372 0.07166221607353088
0.012468798645826042 0.024081033080362968 0.07199639841627245
0.012430710773627004 0.02590386133272804 0.07189253808517543
0.012396946656064316 0.027598275331711553 0.07170689814692646
0.012366037617850482 0.02920705445324967 0.07146825806504775
0.012341427465117068 0.03063236705274297 0.07110618018959775
0.012317357012397112 0.03203942477542637 0.07073654720115558
0.012295990798280532 0.03336677040492514 0.07031504753660989
0.012276956194478493 0.03462545246449261 0.0698487510592593
0.012262797078020712 0.03574383812621085 0.06928487162186531
0.012250481446745573 0.036808469988756365 0.06868493606768394
0.012240372380740255 0.03780943137561721 0.0680410441978948
0.012230311108359496 0.038807866206652775 0.06739756775292671
0.012218619739058075 0.03985090785334994 0.0667894595367689
0.012206454642750211 0.04090586048477041 0.06619288389873462
0.01219449939288634 0.041953522197585746 0.06559360074398901
0.012183401386086055 0.04297586058208713 0.06497794094785697
0.012172261902832495 0.043998057157975834 0.06436470269405214
0.012160927366344672 0.04502437311838292 0.06375714825641615
0.012149644633352887 0.046047927637172414 0.06315007139899803
0.012138382816698526 0.04706958465380551 0.06254411996239834
0.012127141858272225 0.048089349439883855 0.06193929081999733
0.012115921700179676 0.04910722724749966 0.06133558085674634
0.012104691797072797 0.05012406176613621 0.06073364348297261
0.012093665281553026 0.05113400227408971 0.06012887634756614
0.01208311450409987 0.05212962620713091 0.05951533429793454
0.012071338879489319 0.053157487500010814 0.05892989320980907
0.012062068080898151 0.054115671571212276 0.058291456181805645
0.012051119047254493 0.055118435827315515 0.05769103344922388
0.01203961679281256 0.05613494091909099 0.05710427977519028
0.01202702275953621 0.05717968072751628 0.05654317045162566
0.012015716637885105 0.058188131241441954 0.05595536413169133
0.01200491152643258 0.0591817453701709 0.05535802988402927
0.01199493408068278 0.060151818305578864 0.054743801434641026
0.01198452490982636 0.06113232076972264 0.05414059002388477
0.011973537149398328 0.062127113088955854 0.053551771123436454
0.011962539742335557 0.06312087924555093 0.05296469905911605
0.011951592239465366 0.06411202852879216 0.052378035433656434
0.011940635088431609 0.0651021552675572 0.05179311441537893
0.011930112598698478 0.06607945400189158 0.051199875300604936
0.01191975645186206 0.06705111354452042 0.050604322839644944
0.011909152667994482 0.06802811269183673 0.05001585575556505
0.011898302616180469 0.06901037189999198 0.04943449449192572
0.01188741351035176 0.06999239147234798 0.048855539797002745
0.011876779115201274 0.07096644607945007 0.04827224435875166
0.011866134431969893 0.0719395275643192 0.04769066738151645
0.011855187122690462 0.07291928095461819 0.04711757439376646
0.01184425999388798 0.0738972282490637 0.046545537856379327
0.011833236446568519 0.07487640929698147 0.04597726736687885
0.011822233399407038 0.07585376939154692 0.045410053672764183
0.011811947493004677 0.0768112525806352 0.044827581319567655
0.011801534569453702 0.07777081900376626 0.04424952441677921
0.011791168917446119 0.07872794854454479 0.0436718044233515
0.011780879214504221 0.07968191108790301 0.0430937340152624
0.011767782994942562 0.08070677055835174 0.042583590438698304
0.01175462960986637 0.0817315647243389 0.04207662928571598
0.011749026027006264 0.08256174941297262 0.04139157413313804
0.011741161320183612 0.08344897115908023 0.040761343751004264
0.011730214234992091 0.0844137396613242 0.04020609695985583
0.011718801753413059 0.08538904885217152 0.03966356338199156
0.011704731264307888 0.08643037662527786 0.039186705078094464
0.011670878563705802 0.0879701736490594 0.039190142070297806
0.011658562959708362 0.08896279396260598 0.038676025404830616
0.011647515226107798 0.089922070130943 0.03813279025366473
0.01163761550854221 0.09085123344244977 0.03756309486068582
0.01164994323550938 0.09122250367761575 0.036451125090277814
0.011738866525640355 0.08968118318446416 0.03345868034685323
0.011790849818449496 0.08907118290540722 0.0313624976604121
0.011872083481259321 0.08773974466010281 0.028537539211895835
0.012573717116188104 -0.060395652182821224 0.0986877415619623
0.012483899351994164 -0.05642574923241733 0.09932226915906281
0.012437203642405905 -0.053982564303782454 0.09920017386875088
0.012414374510616255 -0.05238244367089401 0.09865702350467612
0.012396762343226703 -0.0509678946680886 0.09802336940151582
0.012386183867150407 -0.04980139493766228 0.09726513895319824
0.012375833759083051 -0.0486442205389544 0.09650437939404127
0.012365570928365276 -0.04749141530459605 0.09574361289445874
0.012355534744972333 -0.04634780566969127 0.09498026546777025
0.012350365622177279 -0.045374309291717485 0.09412889482943257
0.012343143113731327 -0.04433038391916139 0.09331625864665505
0.012335859388382425 -0.04328527148752909 0.09250586486085549
0.012323263926192998 -0.04205787223902108 0.091795551205616
0.012309861714708667 -0.04080431603984769 0.09110225980865669
0.012299881093453245 -0.03967006732458245 0.09034674907057724
0.012290746391644711 -0.03856611771960161 0.08957681251297755
0.012284387780093161 -0.03755838718794208 0.08875570283108278
0.01227224185599173 -0.036353706384888995 0.08804560877243262
0.012263698892070275 -0.03527347805515413 0.08726859195599102
0.012260051052078048 -0.03436099794206404 0.08639905687244889
0.012251181507070951 -0.033271554296199046 0.0856305675079112
0.012241295773640701 -0.032148786323584366 0.0848830704678836
0.01223050151044281 -0.030996534360116956 0.08415471100090036
0.01221600213424173 -0.029720485550067788 0.083500158229361
0.01221241674507542 -0.028814349658483618 0.08263445312875448
0.01220743486956398 -0.027861671180403835 0.08179670629364438
0.01219646188150175 -0.02670836695067158 0.08107776976562339
0.012189418204380659 -0.02568822256539205 0.08028279143947528
0.012180310950226774 -0.0245999249012383 0.0795298685043922
0.012172777168957484 -0.02356535405461363 0.07874697603560007
0.012165625313007777 -0.02254448396729447 0.07795759542856678
0.012159632356352054 -0.02156309303998838 0.07714603205625478
0.012146752353154775 -0.02035376435127545 0.07647425257275792
0.012136798359159573 -0.019243071636476816 0.07574522420080113
0.01212995811095426 -0.018236660965749607 0.0749544603495815
0.012120939456854109 -0.017159208221596 0.07420916899542135
0.012111128421608813 -0.016056804854608198 0.07348147920115722
0.012105021329684827 -0.015077474578297834 0.07267919004546455
0.012095236036027647 -0.013978200571034272 0.07195369189631745
0.012089245308544102 -0.013004488847666473 0.0711511471133463
0.01208105534746807 -0.01195964501586333 0.0703952117697863
0.012074611459185303 -0.01097282832063734 0.06960412075295513
0.01206884116409982 -0.010008776037984501 0.06879991910827615
0.012056385560467118 -0.008828183706284354 0.06813703289123935
0.012040901955287304 -0.007550972980242987 0.06753989303279406
0.012024829225848133 -0.006256681143909926 0.06695759077128116
0.011995611008669391 -0.0045397437859888146 0.06665690568308846
0.01195366764440712 -0.0024162494012571756 0.06663190031067023
0.011898359340854717 0.0001319366690173407 0.06689918356797953
0.011823656785094602 0.003295872944999112 0.06759124967742408
0.011722302040767253 0.007304446886209959 0.06886890759810427
0.01162066082489412 0.011309154408316369 0.07016828710940082
0.011523045926516642 0.015172263583387247 0.07139588633149321
0.011461801249995641 0.01786411897205964 0.07184658810067374
0.011434952775788399 0.01945449666615756 0.07155516366019163
0.011383054827076805 0.021836243988767712 0.07181706787914194
0.011324694140981455 0.02441596707596516 0.07222911532139586
0.011287158242614736 0.02633009304092554 0.07219032551997975
0.011256739716789862 0.02801493138513439 0.07199960090873553
0.011226484703367819 0.029690713012923253 0.0718099015225529
0.011199319261775718 0.031265565844195264 0.07155591454189225
0.011178573649459947 0.0326357007908859 0.07116238264094171
0.011158816677967316 0.033972243967182514 0.07074982283178483
0.011137425709487475 0.03535725382491672 0.07037711706777794
0.011119171921698683 0.03664178570051768 0.06993674230366592
0.01110489979325946 0.03780019201698731 0.06940881528614296
0.011092522660274466 0.038897975134480234 0.0688399298666697
0.011082786974099194 0.039912391301582306 0.068212598262887
0.011072591300671338 0.04093976693393325 0.06759730164496142
0.011062106270985153 0.04197475274956802 0.06699022160676343
0.011052004508653969 0.04299659909453296 0.06637590433667762
0.01104197699120106 0.044014867360518295 0.06576141590029355
0.011032023364805346 0.04502958270466084 0.06514674745356835
0.011022004250265116 0.04604502062199595 0.06453513012209883
0.011011753528192838 0.047066236581284615 0.06393046294405691
0.011001411047443337 0.0480889282939535 0.06332951866830244
0.010992111108784411 0.04907861777325395 0.06270562384771156
0.010982274745405895 0.05008337390348727 0.06209581911424977
0.010972015092127233 0.05109967072803029 0.06149754790724782
0.010961664581547103 0.05211739135512289 0.060903007667395315
0.010951882608515094 0.05311665525148396 0.06029649908440765
0.01094315952291336 0.05408283271469616 0.05966616383518858
0.010932890714386452 0.05509425201660606 0.05907425239183561
0.010921849332591866 0.05612747451833311 0.05850251015923985
0.010911783970226685 0.05713012780611787 0.05790889185935649
0.01090198196567124 0.05812363861975528 0.05731043624299054
0.010892632042382673 0.05910244559460859 0.05670249681541151
0.010882972832534995 0.06008922808549977 0.056103529211070424
0.01087306014130354 0.06108227412308004 0.05551223989497245
0.01086273335175405 0.06208628018829315 0.05493262701678814
0.010852453115831594 0.06308758626649985 0.05435345076803827
0.010843187918041385 0.06405771236467966 0.05375079536863192
0.010833535571948917 0.06503801084718891 0.05315914509965386
0.01082395402504464 0.06601499493289187 0.052567215263618405
0.010814523252113857 0.06698634115554963 0.05197299719486115
0.010804788245622851 0.0679653461167028 0.051387826606682285
0.010794884047231241 0.06894802216105383 0.05080838846178842
0.010784971366966553 0.06992967119239651 0.05023068097413985
0.010775927295189605 0.07088488570383628 0.04963258656835878
0.0107664208023313 0.07185230234880802 0.04904757510167801
0.010756904583691539 0.07281877734411851 0.04846426687054478
0.010746374219656827 0.07381320922755558 0.0479082256065787
0.01073575893160129 0.07480872544916745 0.04735596541648601
0.010725743839751488 0.07578568457622686 0.04678996521103834
0.010716851361229962 0.07672927145147057 0.04619667199425531
0.010707632459714215 0.07768102346673317 0.045613148341753285
0.010698219834578589 0.0786371021328281 0.04503604137383943
0.010688536103127122 0.07959966680014668 0.044467400491815356
0.010678504483322786 0.08057083991028235 0.04390928320012988
0.010667475806365543 0.08156889925161454 0.043378687992469134
0.01065537834513218 0.08259567488393016 0.04287771884238972
0.010643775007701351 0.08360699538108624 0.04236564963280259
0.010632869666589178 0.08459723410406134 0.041837006658637266
0.010627670925232946 0.08542627521152918 0.04115956128113801
0.010623613738696379 0.08622275565998017 0.040452724108562765
0.010605922634799063 0.08739873746708765 0.04010810023454764
0.010581187241164539 0.0887683401155347 0.03995355142038898
0.010573709736299392 0.08965594633853519 0.03934244340877752
0.010568594234415878 0.09047720982973412 0.03866929436569233
0.010582827370442832 0.09076347916916083 0.037477845713312086
0.010599541235966682 0.09098322933330277 0.03621747360993982
0.0106892413257309 0.08919890636879446 0.03298529146214679
0.010734096059804202 0.0886559270772152 0.030952779273941466
0.010802168613296456 0.08748349504920672 0.028283395227506003
0.011299923316744748 -0.05813805923684312 0.09708732662967257
0.011241741286364161 -0.05506368978122661 0.09728539828074478
0.011213242053351578 -0.05315223382893097 0.09689911177610627
0.01119950902218965 -0.051818170475675496 0.09622079408271814
0.011188769632555724 -0.050602087933646955 0.0954843705512477
0.01118495044403413 -0.04965523895972224 0.09460946268592235
0.01117728818084655 -0.048560545319967785 0.09381345341689545
0.011160917999285402 -0.047131334776665534 0.09319679073858336
0.011153446794637076 -0.0460468019365991 0.09240020870128454
0.011148292414181986 -0.04505229792879861 0.09155713426604606
0.01114608029918227 -0.04417129743568898 0.09065402834993389
0.011137777096201331 -0.04305759675512083 0.08987791127260056
0.011123882009691353 -0.04173156251326421 0.08921991918568861
0.011116051758066297 -0.04063865857891458 0.08843719347583734
0.011114229373982251 -0.03977541839924387 0.08752938419853573
0.011108012796549199 -0.03874559284852286 0.08671472101201169
0.011095287469796591 -0.03746998565370352 0.08603918005040473
0.011089686260412535 -0.036465678267581014 0.0852140817553991
0.011082310084921086 -0.035395156542678885 0.08442788979485968
0.011079999189624665 -0.034516567926413944 0.08353421504985645
0.011077907717177869 -0.03364656242719605 0.08263620456492843
0.01105849844993746 -0.03212672734663308 0.08211326629489829
0.011050853113174422 -0.03105045488896485 0.08133808710965607
0.011043311382865052 -0.029979149183588627 0.0805619499560484
0.011042473987529543 -0.02915917207686386 0.07964031871677493
0.011047034236909671 -0.02854040585440737 0.07860020002772786
0.011033271626651103 -0.02723967184467191 0.07796356628335319
0.011023250244487515 -0.02607975014385272 0.07724641339045979
0.011015375823849921 -0.025000785742122 0.07648323208154786
0.011009793332641384 -0.024007678048085734 0.07567023865912861
0.01100464764739993 -0.023031485137533725 0.07484840948063406
0.010988441105196397 -0.021648690676355054 0.07427620162863643
0.010981658971209682 -0.02061460936224907 0.0734940068537969
0.010977336256631602 -0.01967171817545016 0.07265723854444667
0.010977826530726821 -0.018905660429047677 0.07171173877080636
0.010992434198685418 -0.018655398752875085 0.07044386584551648
0.01098936205394396 -0.01775827212637443 0.06957862812368304
0.010962309886198906 -0.015988751507959587 0.06926544175241856
0.010959346187101988 -0.015098154674635933 0.06840078761737955
0.010947964800228471 -0.013902793773470534 0.06773167350126708
0.010937428376228728 -0.012739632784130095 0.0670448473704589
0.010940440974650497 -0.012067267910260582 0.0660435812583628
0.010952386160936625 -0.011716414148150611 0.06483255576969915
0.010922359358440646 -0.009854129719484905 0.0646062662131775
0.010901465550556037 -0.00832399411781215 0.06416959236931685
0.010864807945973396 -0.0062320739596438135 0.0641097686480478
0.010806790597973893 -0.003381660677265419 0.06456381097857256
0.010746892384628786 -0.00047241759133365147 0.06507258956532558
0.01060807632563396 0.005238747669856769 0.06748052403292082
0.0104699006130335 0.01090732561030483 0.06989670771931478
0.010381391968596288 0.014794482194443015 0.07113913892610357
0.010322146988641942 0.017633107916295465 0.07168871639425867
0.010292912032820152 0.019403106177488083 0.07151984891092286
0.010243761673087864 0.02187105810707779 0.07184112423286668
0.010181457256848603 0.024794804114808944 0.07249233667639324
0.010146332187882029 0.02675530852064134 0.07248740296520123
0.010123788232079748 0.028269936537033413 0.07217874320789874
0.010092710528108992 0.03007976888103092 0.07208472018495254
0.010065428853488332 0.03175268632998074 0.0719018956605516
0.010042934775199196 0.03325496884101614 0.07160463802919123
0.01002299304152854 0.03466532986257931 0.07124751032341298
