# .PCD v0.7 - Point Cloud Data file format
VERSION 0.7
FIELDS x y z
SIZE 4 4 4
TYPE F F F
COUNT 1 1 1
WIDTH 782
HEIGHT 1
VIEWPOINT 0 0 0 1 0 0 0
POINTS 782
DATA ascii
0.03218001548656561 0.09100897259221619 0.04926362615692126
0.032232857519192123 0.09119781568905427 0.048020257786363096
0.03230643506180837 0.09120154862098773 0.04659790347983245
0.03238042669423297 0.09120460098286998 0.045168380362464455
0.03244185362766738 0.09132369624236297 0.04384269557444709
0.03251646757630031 0.0913270423591826 0.04240082977880222
0.032591503954368994 0.09132970200515383 0.0409516414924897
0.032666808659570244 0.09133307746977376 0.03949642921976576
0.032742462163043176 0.09133646856907068 0.038034476657249294
0.03281854641506814 0.09133916864713948 0.036565046710135385
0.03289490519511729 0.0913425897073259 0.03508946712624744
0.032971620131068004 0.09134602672428416 0.03360700508054937
0.033048774361460836 0.09134876811048698 0.03211690645667786
0.033126209503820815 0.09135223571867407 0.030620528927058466
0.0332040083681141 0.09135571961474148 0.02911712273677708
0.033282173523040144 0.09135921991371898 0.027606638247592297
0.03336070756154325 0.09136273673172235 0.026089025352749096
0.03343969566103919 0.09136555010957365 0.024563500621881118
0.03351897573588211 0.09136909861998466 0.02303147316473747
0.03359863262428935 0.09137266399638122 0.021492164070442243
0.033678669019119666 0.09137624635929459 0.01994552130153615
0.033759171783946655 0.09137911890839018 0.018390737086856568
0.03383997577667853 0.091382733879669 0.016829263153323337
0.03392150733505597 0.09138344459300235 0.01525722953898867
0.034012142404972995 0.09130945819329223 0.013598783736793907
0.034130849434868334 0.09099904727273977 0.01168112615345468
0.04235786217054815 -0.10037987942159049 0.05400690324870422
0.042102884839170074 -0.09656788895900043 0.05454137406442555
0.041944439397098784 -0.093864341686207 0.054474572989707204
0.04181477695861905 -0.09149421507849881 0.054231964228601104
0.041715897404622865 -0.08947831089780445 0.053798514235945116
0.041625414359857366 -0.08756156811849097 0.053316038469452265
0.041545196816154005 -0.08576453629671055 0.05277180924487307
0.041477228336465714 -0.08410889514621905 0.05215216426433161
0.04143710404761831 -0.08276916083491176 0.05135453422734543
0.041406603897017995 -0.08153912387030338 0.050495988584839446
0.041381112499207715 -0.08036648224314275 0.049606103526389944
0.041361916627633895 -0.07926529579870056 0.04867601108847819
0.041347433564397344 -0.07821750431576058 0.04771570498515221
0.04082470441788494 -0.07151163053689885 0.05013318745829981
0.04104278891385951 -0.07306034440552472 0.04763610129960805
0.0449391082583275 -0.11539476976962348 0.020499943487636674
0.04502122636170946 -0.11534090116817863 0.018800505758658215
0.045035148143489294 -0.11453007513463254 0.017556971314969638
0.04513672822568489 -0.11468523031286315 0.01571908727148469
0.04534974069312533 -0.11606237137934694 0.013118528943340813
0.03790998916756255 -0.019565379948546957 0.04626745831041218
0.03774709995138355 -0.01702679060789236 0.04648573679507095
0.03756212365474671 -0.014261572947535328 0.046873755632269365
0.03750934506840649 -0.012899665536275806 0.04630168905919574
0.03723718561758373 -0.009229094324144704 0.047346849125755486
0.0370929217282576 -0.0069146783596679695 0.047461396381581755
0.036943939179298675 -0.004556940995107783 0.04761827904260779
0.036931031603940574 -0.003630234766678897 0.04677090384005844
0.0366816389184384 -0.0002332505022603626 0.0476887520087792
0.03650876379909063 0.002355219398876174 0.04804643699860828
0.03638340451497128 0.00444186493023363 0.04805597849390292
0.03628791403179002 0.0062129848230548235 0.047846764037984435
0.03617464394216391 0.00816425286002953 0.04777690706527593
0.03605166396637325 0.010211077087579179 0.047786526018479436
0.03594745131955341 0.01205896019565994 0.047659515338469904
0.03587670626492699 0.013557722810879469 0.047282121873909955
0.035881715096735024 0.014274951054731477 0.0463276190353748
0.03592626727994374 0.014586864579053727 0.04506871498481818
0.03598851034971634 0.014719640782207832 0.043671015499759214
0.036055233691278214 0.014809329665265991 0.04223544872364249
0.03612220490494863 0.014899351735745636 0.040794548926696206
0.03618892578479613 0.014994789484601534 0.039352179929394104
0.0362556930271028 0.015092615893503303 0.03790604100562023
0.03632260643464612 0.01519182326444457 0.03645534568580444
0.0364397440000596 0.014786366481104096 0.03460595965429075
0.03442722139853323 0.03586121203532283 0.049565793634724575
0.03431590713186164 0.0377189548056579 0.0495684490849026
0.03420531037372717 0.039564722953823406 0.04957108741847449
0.03409551290004201 0.04139774323649387 0.04957300172697371
0.03398641805954082 0.04321903336889088 0.04957490378500534
0.033878019129135156 0.04502870559000438 0.04957679370978507
0.03377030947123579 0.0468268707114492 0.049578671617041825
0.03366328253239859 0.048613638140076576 0.049580537621036036
0.03355684593083578 0.0503899674938012 0.049583087714915874
0.03345116564001572 0.05215425506426952 0.049584928053185096
0.03334614889454766 0.05390746502700944 0.04958675683621955
0.033241789464587175 0.05564970138662584 0.04958857417250906
0.03313808119803361 0.05738106684982447 0.04959038016918932
0.03303501801932111 0.059101662845595815 0.049592174932063304
0.032932593928232126 0.06081158954502147 0.04959395856562193
0.03283080299873283 0.06251094588071676 0.04959573117306537
0.032729557650449395 0.06420062567900914 0.04959817154319518
0.032629016058414506 0.0658791266022638 0.049599920313726564
0.032529090279048115 0.06754734678396307 0.04960165837300723
0.03242977467188714 0.06920538038933916 0.04960338581914647
0.03233114341451999 0.0708525504268393 0.04960443234253953
0.03223295175465967 0.07249125881697982 0.0496068092584831
0.032135433502890595 0.07411928630650921 0.04960850544199852
0.03203850353789405 0.07573749258809614 0.049610191393043845
0.0319421565523468 0.0773459662653389 0.04961186720393379
0.031846387302575316 0.07894479487922951 0.04961353296587606
0.031751113693632066 0.08053479766957466 0.04961584712381567
0.031656484892025806 0.08211458860913018 0.049617491091052235
0.03156241846357002 0.08368499094833604 0.049619125288192956
0.031468909409893504 0.08524608813304851 0.04962074980207526
0.031375952791684134 0.08679796262315598 0.04962236471851056
0.031283469062808614 0.08834139922824041 0.04962461875963886
0.031191603167373228 0.08987506612223872 0.04962621282602575
0.031127972224164687 0.09114004182286062 0.049385770999390344
0.031198953255490533 0.09114294059142641 0.04796885230896558
0.031270258742287504 0.09114585261041946 0.04654545685958428
0.03134181597050157 0.09114947588922079 0.04511620076899253
0.0314013591002588 0.09126779013708597 0.04378950101775747
0.03147359385976283 0.09127100829196116 0.042347235875862255
0.031546161718840754 0.09127424128697814 0.040898319948152906
0.03161906498687383 0.09127748922502582 0.03944270712469056
0.031692382623967674 0.09128004680432156 0.037979665599209234
0.03176596408013274 0.09128332331109013 0.036510513789012766
0.03183988800526857 0.09128661506776714 0.03503452412938052
0.03191423450178919 0.09128921185981798 0.03355094792175506
0.031988850940556444 0.09129253278480792 0.03206113329335897
0.0320638171078501 0.09129586927514932 0.030564335878142723
0.032139135468221475 0.09129922144052965 0.029060506468123026
0.03221488768632392 0.09130187240986593 0.02754887318843474
0.03229091829379588 0.09130525457472588 0.026030824861308588
0.0323673086310263 0.0913086527420155 0.024505594069290315
0.03244406125709667 0.09131206702557643 0.02297312971704124
0.032521259445453435 0.09131477377187508 0.021432635976396497
0.032598744809025484 0.09131821891795933 0.019885543647723047
0.03267660028859413 0.09132168052022654 0.018331061489484823
0.03275482854234774 0.09132515869686608 0.0167691364276204
0.03283458374908405 0.09131842364672171 0.015188976415132338
0.03292729658794416 0.09120026790511776 0.013483573856550024
0.04119702278550495 -0.10517046947194097 0.0545436981856432
0.04077529143898463 -0.09926908838617304 0.056198330763186755
0.04055914128649803 -0.09581346433340632 0.05653274967308719
0.04041476281221506 -0.09321315739451241 0.056408005960611296
0.0402951021248757 -0.09090996961510889 0.05612817097694606
0.04020023966133296 -0.08890320165992355 0.055690754291987166
0.040125382244699886 -0.08713504198320315 0.0551255977831524
0.04004725862545005 -0.08533200240374544 0.054586156501298055
0.039981798831880896 -0.08368024916468009 0.05396613763392244
0.03993454334282593 -0.08224349063520131 0.05322733250817835
0.03990385568631675 -0.0810014865476672 0.052379330880656716
0.03987773292055038 -0.07981382464977238 0.05150205542993519
0.039849638939674414 -0.07860448581498103 0.05063955326230468
0.03983723497140486 -0.07757780092231503 0.04967151678441534
0.039817830160902276 -0.07647087705859706 0.04875207192646125
0.03937264297528026 -0.07046077597179307 0.050760325468151124
0.04362526074082707 -0.11847423274928737 0.020377001387773874
0.04367021832804038 -0.11802309161095892 0.018913228359339895
0.0437035074285334 -0.11743633915969998 0.01752820980431119
0.043713307943398255 -0.11657965880714016 0.016305366391481946
0.04377795094594535 -0.11634812586892745 0.014697794479515636
0.043986008004306916 -0.11774645596575117 0.012078301394540802
0.0366345616623174 -0.019436173859517347 0.04635575716730955
0.03648140401012179 -0.016945009781917264 0.046541935499492315
0.03631702593424502 -0.014337867851774488 0.04682103652222158
0.036245860511963005 -0.012755825328538029 0.046401631328793824
0.03606407942791983 -0.009971549015377501 0.04682813221354293
0.03569547141286368 -0.004372410143031413 0.04774862674629615
0.03570975692124184 -0.0037359381373979206 0.04669582728891147
0.03541679329057517 0.00022204716781815126 0.048013906623858627
0.0352902322559289 0.0023721833110772472 0.04805861843062903
0.03518928098257155 0.0042410430319099746 0.04791098368933411
0.03507375306214379 0.0062620089320407635 0.04788235347092973
0.034954159115561385 0.008321440325576357 0.04789164164030646
0.0348353779754845 0.010366875030584533 0.04790086668356591
0.03473081947538424 0.012255211260482346 0.04780432932082013
0.034654067356435336 0.01384268346096712 0.04749353883464391
0.03463957197972234 0.01476489514492918 0.04669309174092939
0.03467863271206684 0.015118290595974582 0.045467282462460845
0.034733008966325585 0.015311275601622099 0.044117144546363174
0.034794147578970126 0.015435229422890828 0.04270997081950617
0.03485732372521007 0.015540412938021386 0.041283193660331785
0.03492140343279333 0.015638891340768013 0.03984579405601768
0.03498562257241215 0.015738746632278533 0.03840388124694111
0.035050078340333024 0.01583896986072858 0.03695665542077298
0.0351732595549024 0.015328147131702052 0.03502790692787788
0.03323015882204915 0.03637745646262719 0.049970014441774124
0.03312296088507621 0.0382298775425321 0.04997065136799411
0.03301636631385836 0.04007127919442349 0.04997199146616804
0.032910541097570196 0.041899981040379786 0.04997261797067076
0.03280539210215324 0.04371699752071523 0.049973240471696934
0.032700912866694416 0.04552244028257568 0.04997385900749968
0.03259709701232705 0.047316419555316125 0.04997447361584206
0.032493938240931663 0.049099044172944584 0.04997508433401343
0.03239134752656446 0.050871270727107176 0.04997638506680441
0.032289484863398984 0.05263149990864108 0.04997698593104849
0.03218826085583393 0.054380692855899915 0.04997758302789168
0.032087669516302736 0.05611895303652226 0.049978176392655005
0.03198770493185238 0.057846382628793824 0.04997876606021939
0.031888361262984714 0.059563082541669476 0.04997935206503257
0.031789632742519454 0.06126915243442177 0.04997993444111554
0.03169143440712049 0.06296549126853496 0.04998119208488955
0.03159391965269245 0.06465058853112754 0.049981765213605533
0.031497003163499356 0.06632534751100083 0.04998233482599318
0.03140067945073016 0.06798986305718974 0.049982900954314013
0.03130494309251221 0.06964422886200461 0.04998346363043599
0.031209865609153776 0.07128776961387812 0.0499833543473433
0.031115211080845962 0.07292288033828881 0.04998457875162443
0.031021204909280578 0.07454734776738187 0.049985131258513116
0.030927765054088514 0.0761620290039367 0.04998568043685869
0.03083488641319339 0.07776701221404492 0.04998622631664984
0.030742489354241148 0.07936312128392153 0.049987427447819865
0.0306507185238832 0.08094896269587493 0.049987964851956224
0.03055949396062235 0.08252536436566454 0.04998849905708558
0.030468810801438678 0.08409241032846959 0.04998903009168809
0.030378664240864148 0.08565018362494731 0.04998955798390614
0.03028904953013369 0.08719876631590212 0.049990082761549925
0.030199889994781102 0.08873894092147289 0.049991251340520626
0.030111253822008757 0.09027007476942511 0.04999241305988883
0.03009609079305168 0.09108457701805078 0.04933408286450014
0.030164660085530915 0.09108804485236938 0.047917427495246745
0.0302336146825674 0.09109083193197104 0.04649364617262136
0.030302812780883318 0.09109432996513589 0.045064001458118064
0.030360392911950244 0.09121256182356396 0.04373695137976885
0.030430246315107552 0.091215653519369 0.04229429168681409
0.030500495319172493 0.09121805703938057 0.04084430278050871
0.0305709956553787 0.09122117573736604 0.03938828413266299
0.030641822662420333 0.09122430888628508 0.03792551886681217
0.030713053064313642 0.09122674927712648 0.03645526929387871
0.030784540608493942 0.09122990999222474 0.034978864157704626
0.030856361717058994 0.09123308545549064 0.033495570042668066
0.030928594226962904 0.09123556351840462 0.032004632219937046
0.031001089860879728 0.09123876712771944 0.030507409387316997
0.031073926148064108 0.09124198579074888 0.02900315118121477
0.031147105495238855 0.0912452196138484 0.027491807896561193
0.031220630331851743 0.09124846870437758 0.025973329358958464
0.03129458040451354 0.0912510125286427 0.024446931493860014
0.031368803967675905 0.09125429077910957 0.0229140244874112
0.031443380450298104 0.09125758461718059 0.021373828788523952
0.03151831237547972 0.09126089415429511 0.01982629228871735
0.031593681069147124 0.09126349200442607 0.018270606545961354
0.031669331923189555 0.09126683154458082 0.01670822440635672
0.031748527739827004 0.0912409451487689 0.015107646458137891
0.0318441191591698 0.09106825112470945 0.01334427905280583
0.03956725073078231 -0.1035113850053756 0.05702957903845374
0.039266386065625006 -0.09891041886353763 0.05796549256438954
0.0390668831470524 -0.0955649932423902 0.05823508564868718
0.03891390792399141 -0.09279764446268252 0.0582009068140662
0.03881784287619372 -0.09073188150184164 0.05778863171033344
0.038724702440166056 -0.08870615558813422 0.05736167251321739
0.038642990615987506 -0.08682366222352711 0.05686157474309944
0.03857487655275369 -0.08510993838696296 0.056272492050228384
0.038512336047401584 -0.08346685276958571 0.0556486774176409
0.038463537821471855 -0.0819927793362078 0.05493308365455546
0.03842632617261065 -0.0806607592381613 0.0541395756947467
0.03839183690558532 -0.07936323557319669 0.05332909528928753
0.0383752173268177 -0.07828210483091602 0.05239524109892446
0.03835560549392921 -0.07716583630389023 0.051483352917943315
0.038339257567732606 -0.07608955339709977 0.05054948028071515
0.03789743713559436 -0.06992876864733405 0.05263385294813966
0.037943396218238716 -0.0696070180786374 0.05126983844689087
0.04226048227038537 -0.1201356159220498 0.019379777673348364
0.04229788827447535 -0.11960995686244935 0.017955239509794718
0.04233404204185011 -0.11906772860638548 0.016537672187274977
0.04236952394053077 -0.11851588734425922 0.015122983260623835
0.04240756432604022 -0.11799264364620088 0.013687788683485802
0.04258767358888487 -0.11914283230828104 0.011215785860947625
0.03535801077335639 -0.01928495679810127 0.04645909821027533
0.0352039632297809 -0.016724023187365544 0.04669379444238103
0.035031880205347574 -0.013965781049777082 0.04707814568523577
0.034957502565924004 -0.012320412048730245 0.046704162657977666
0.03479474087106214 -0.00968093174966217 0.04703117244060617
0.03462055019027683 -0.006920196137671364 0.04745752027034861
0.0344494529773293 -0.004202229871306473 0.047868837586170665
0.03451924680553744 -0.004194290155722591 0.046370279338481424
0.03416639608793499 0.0005481240135122301 0.04824677713475628
0.03408320042640259 0.0022618900518113216 0.0479794197114935
0.033967744422643935 0.004331491666096365 0.04797628834210477
0.03385353639058664 0.006381907916990226 0.04796939495991903
0.0337400007203924 0.008419615527048452 0.047963301899683675
0.033625098193901776 0.01046725464368603 0.04797453566639309
0.03351630062884413 0.012442117466632485 0.047942247720242526
0.033433495732264173 0.014125188541663114 0.047703133968887146
0.033412037037553105 0.015128987683675987 0.04696468578114338
0.0334472984652197 0.01550857038956871 0.0457599908337733
0.03349922959450369 0.015706990860106684 0.04441553821855654
0.03355721236372119 0.015841579109109882 0.04301804239128437
0.033616319916669024 0.015966548070726838 0.04160801242142692
0.03367554336069897 0.016092968108936456 0.040193780512501054
0.033735068873965296 0.016218822880948947 0.03877377742197857
0.03379489855445365 0.016344110426940173 0.03734796072362229
0.03391040236200169 0.015869353618591153 0.035449407033601776
0.032036735030862434 0.036891261376179985 0.05037232510298184
0.031933539672548805 0.038739290554924144 0.05037166518443553
0.03183092417284052 0.04057634342298422 0.05037171469006002
0.03172904834352011 0.042400744286273384 0.050371060950783364
0.03162782254598418 0.044213504326160946 0.050370411382648084
0.03152724057860118 0.04601473460198163 0.05036976594585979
0.03142729631837818 0.04780454476480123 0.05036912460113058
0.0313279837197191 0.04958304307966044 0.050368487309664756
0.031229217092199998 0.05135118312641329 0.050368545897491235
0.031131150483289072 0.05310736997733123 0.05036791442712285
0.031033697846767325 0.0548525617480804 0.05036728691012504
0.030936853434718865 0.056586861372924124 0.05036666330948786
0.030840611570752755 0.05831037050524951 0.050366043588661535
0.030744966648893913 0.060023189537429744 0.050365427711550004
0.030649836342101364 0.06172622259757521 0.05036549467864071
0.03055536923540084 0.06341795095317249 0.05036488429108704
0.03046148266024245 0.06509928307989615 0.05036427765445467
0.030368171281682045 0.06677031451657078 0.05036367473427178
0.030275429829944564 0.06843113963496189 0.05036307549649155
0.03018332756965736 0.07008107955004383 0.050361811200897055
0.03009163594775182 0.07172254267490813 0.05036188793401292
0.03000057329475549 0.07335330366296011 0.05036129954326646
0.02991006012160463 0.07497422449966451 0.05036071470281395
0.029820091469846363 0.07658539398159281 0.05036013338061868
0.02973066244050835 0.07818689984013177 0.050359555545028356
0.029641696371343264 0.07977956351397247 0.050359637880102004
0.029553332550993648 0.08136199512533315 0.05035906496794462
0.02946549400041052 0.0829350201325843 0.050358495461306274
0.029378176049854206 0.08449872216207588 0.05035792932990951
0.029291374084774117 0.08605318385182031 0.0503573665438386
0.02920501382370654 0.08759919213032147 0.05035745411931514
0.02911923061161523 0.08913541144556492 0.050356896036324594
0.029033880954248838 0.09066332646373249 0.05035698447751902
0.02906374807386308 0.09102978483255447 0.0492830215504661
0.02913004715332269 0.09103243318476045 0.047865332018335205
0.029196579720947437 0.0910357905061091 0.04644181594868113
0.029251871417864686 0.0911543610409804 0.04512082507290821
0.02931910281237523 0.09115661310676343 0.04368371627829282
0.029386573372047753 0.09115957664479862 0.042240656840694224
0.02945435518102057 0.09116255385408067 0.04079094040704573
0.029522521643179447 0.09116484050594026 0.03933384012682756
0.029590932777494004 0.09116784371822789 0.037870665644525126
0.0296596616998387 0.09117086088135495 0.03640069432497539
0.029728710629684223 0.09117389209275628 0.03492387869823116
0.029798154388929902 0.09117622657922492 0.033439469459033255
0.029867850415221057 0.09117928452791457 0.031948815750660164
0.029937873235088862 0.09118235681495684 0.03045117260411384
0.030008225152359 0.09118544354143471 0.02894649074533079
0.030078982448789843 0.09118782726687535 0.027433997667774712
0.030149999909060976 0.09119094149283263 0.02591508324993863
0.03022135351196338 0.09119407045928779 0.024388979446599235
0.030293045649723616 0.0911972142711463 0.02285563509304811
0.03036515410748046 0.09119964869445463 0.021314253703333563
0.03043753094264709 0.09120282079722936 0.019766267176017316
0.03051025362954361 0.09120600805798046 0.018210883615824958
0.030583324653079058 0.09120921058561399 0.016648049875840454
0.030663201167005695 0.09115098926550291 0.015013218848420551
0.03076359680571022 0.09090159292382693 0.013168433036821858
0.03810237596626326 -0.1037584657898622 0.058469250440008
0.0377868775370425 -0.09882819862198161 0.05957424770979575
0.03761266193359055 -0.09571119779828197 0.05971421274922495
0.03746656264606938 -0.09295968643942437 0.05966765452831374
0.03735645909479022 -0.09067157035459428 0.05937691397486239
0.03726806398790892 -0.08866345081866728 0.05893954310133237
0.03719344987809457 -0.08683363195999999 0.05840974679034411
0.037131752521157864 -0.08517023232681847 0.05779248739212961
0.03706431939314951 -0.08343758488951164 0.05721961034352774
0.03701315016099093 -0.08191244430491507 0.05653417823561202
0.03697173699669568 -0.08051205697202535 0.05578156022405523
0.03693272883381403 -0.0791437369704644 0.05501394593469694
0.03691123430492521 -0.07799601793477356 0.0541217300505199
0.03689703389343328 -0.07694025152208434 0.05317771067542465
0.03687984641262639 -0.07584799525174801 0.052256295754484317
0.0368639420775866 -0.0747724920657854 0.05132645572544203
0.03646093906865142 -0.06889978254502394 0.053244405213159096
0.036531169426754474 -0.06890057072721684 0.05169143818547861
0.0408968369270112 -0.12193405516652611 0.018300287822444472
0.04092592294544995 -0.12131886214712151 0.016923575217582976
0.04095519255264062 -0.12070454226888905 0.015543841126479274
0.04097211977473358 -0.11993731802422491 0.014254968156527381
0.041026980495478454 -0.1196340428520315 0.012679698206588486
0.04117030846449071 -0.12040993573187941 0.010433119798053447
0.03408064644053151 -0.019112940240371135 0.04657665352273671
0.03395576623364946 -0.016831033228955183 0.046620258728398034
0.03379932493649319 -0.014184169702494809 0.046927240899707345
0.03362724723856828 -0.011361369893801376 0.04737051867296166
0.03351241985967905 -0.00921683703004511 0.04735541292851708
0.03336852067155397 -0.006738199089415087 0.04758537406611535
0.03326088884002524 -0.004689169146168237 0.047524876863537346
0.0333119835934094 -0.004491707745370721 0.046159036297134526
0.03293485383099344 0.0006794666595381083 0.048340576631117405
0.03286200638031322 0.0023074996715684026 0.048012170900462836
0.0327511550570858 0.004371443523885465 0.04800513395253492
0.032640958756692436 0.006422551915774455 0.04799890079980268
0.03252800311073457 0.008500184063709337 0.04802211067724432
0.0324144014006351 0.010579861255127998 0.04805717808073867
0.03230318257446265 0.0126268067946112 0.048078530282425314
0.032223766549273156 0.014304556334750695 0.04783620989284876
0.03219650243488506 0.01538302299642802 0.04715418289555845
0.03222227009764054 0.015855905614386157 0.04602049094915267
0.032268985531072054 0.016091818411185344 0.04470572189092897
0.03232407170103851 0.01623497129831658 0.04331629031696127
0.03237996840436117 0.016371569082964388 0.04191673708393295
0.0324369506533539 0.016498562135539963 0.04050461172389208
0.03249413381058407 0.016626002940804185 0.039087507486605944
0.03255160876343675 0.016752883187707235 0.037664615071802965
0.03094678334968254 0.03554704206696002 0.05077469669581791
0.030846843844842757 0.03740354539672719 0.050773444900781006
0.03074754775011321 0.039248096566003476 0.050772201164666186
0.03064896850158452 0.041079922221675946 0.05077026229948045
0.030551019338748212 0.042900039458555195 0.05076833582674761
0.030453694239902046 0.04470856017350289 0.05076642162803424
0.030356987259832293 0.0465055948420503 0.05076451958641126
0.03026089252860317 0.048291252540894336 0.050762629586430075
0.03016540425036896 0.050065640969969794 0.050760751514100644
0.030070440050044746 0.05182971071171322 0.05075957512621948
0.029976148060783688 0.053581871202168896 0.05075771841442084
0.029882445565484774 0.05532307754870991 0.05075587331027981
0.029789327053283295 0.057053432155785566 0.05075403970528358
0.02969678708179203 0.058773036155377434 0.05075221749226727
0.029604820276040902 0.060481989426702853 0.0507504065653937
0.029513347489117138 0.06218119331464944 0.05074928393453271
0.029422511608238423 0.06386913317183995 0.0507474931880903
0.02933223315821023 0.06554671468018736 0.05074571343077533
0.02924250702356512 0.06721403289685446 0.050743944561744025
0.029153400199106762 0.06887040534533695 0.05074151760924234
0.029064763160045193 0.0705174839480876 0.05073977224844972
0.028976592287597965 0.0721553410804906 0.050738702294232385
0.028889025493708007 0.0737825337734323 0.05073697599420496
0.028801986355165028 0.07539992141494922 0.05073526009631879
0.028715470117018558 0.07700759236296983 0.05073355450683603
0.028629472081279146 0.07860563391695602 0.05073185913314188
0.02854391853883567 0.08019486507909473 0.05073082880149987
0.028458943448162684 0.08177389959749393 0.05072915164030478
0.02837447279561538 0.08334356048416885 0.05072748443515107
0.028290502102737827 0.08490393095922871 0.050725827097649945
0.028207026943931637 0.08645509326056933 0.05072417954045222
0.028123975895751423 0.0879978320205394 0.0507231869779724
0.0280414791286281 0.08953081512406136 0.050721556834437465
0.02796741930485287 0.09097176735704604 0.050642930456686996
0.02803108438047023 0.09097427811284053 0.049231294354711685
0.02809497306016747 0.09097749586623388 0.04781386825411621
0.028159220854046717 0.09098003119947062 0.04638930972515248
0.028212558231744463 0.0910985188043898 0.04506796665454732
0.02827734556024161 0.09110134269030734 0.04363112657944018
0.02834249922441504 0.09110347821338871 0.04218700137648934
0.028407885411726605 0.0911063265771036 0.040736881869706365
0.028473573988616836 0.09110918811367524 0.03928005603772727
0.028539567057625736 0.09111206291469609 0.03781647725091186
0.02860593610818081 0.09111424321739353 0.03634540722518648
0.02867254487084285 0.09111714318432124 0.03486817570152562
0.02873946455364858 0.09112005668799439 0.03338404867300243
0.028806767683458252 0.09112227101823117 0.03189227079756485
0.02887431610357054 0.09112521021705394 0.03039420179955299
0.028942182054065412 0.09112816323252781 0.028889090705947584
0.029010367779179175 0.0911311301623064 0.027376887744733513
0.029078875544347158 0.091134111104966 0.025857542673750955
0.02914777965655108 0.09113638495160198 0.024330270773472717
0.029216938726357045 0.09113939251573516 0.02279648330766626
0.029286426764688265 0.09114241438605336 0.0212554000842356
0.02935624612434434 0.09114545066487556 0.019706968923551282
0.02942647258451544 0.09114777337976654 0.01815038071187408
0.029497552148747795 0.09114499842162399 0.01658099202839114
0.02957831759033588 0.091049997116121 0.014907206345146973
0.029689235665755678 0.0906619181238445 0.01291554499496278
0.03667956690557462 -0.10451124567316117 0.05963314774569417
0.03635452478678435 -0.09929211292153883 0.060881658653682
0.03616816811069214 -0.09592555704991051 0.06115143481757235
0.036029821002752496 -0.09320278263533599 0.06108533283804407
0.035913861539854146 -0.09078220428700551 0.06086497731229257
0.03583342689811801 -0.08883515277978082 0.060392701819817096
0.035752113957521696 -0.08688053458199047 0.05993158921667985
0.03569437099305998 -0.08523914250731357 0.05930220196329161
0.03563793225688685 -0.08361768296831645 0.05866660237277471
0.035582006074808575 -0.08200571270359425 0.05803053480337589
0.03553770262727583 -0.08054811993753525 0.05731139373791144
0.03550005367808341 -0.07917935753764821 0.05654521739651136
0.03547222924527014 -0.07794012636868902 0.05570767425638867
0.03544865145389785 -0.07675735113355936 0.05483983837872819
0.03543516088391929 -0.07570632647030029 0.05389724448241007
0.03541936124496781 -0.07462613373161459 0.05297294448380396
0.03540412739151017 -0.07355401864063288 0.05204527110277857
0.03503732773827551 -0.06795751403881956 0.05380350331487488
0.035153342984946837 -0.06858171139394614 0.051881729844966695
0.03950375392005888 -0.12349338743987537 0.01736431884348133
0.03952464601973297 -0.12278411432163039 0.016039004059193562
0.03955547472660967 -0.12220072356418932 0.014635398421113277
0.039573939866663736 -0.12145820039984045 0.013326221577777131
0.03961271766851697 -0.12097320345743257 0.011857232213444702
0.03975286597334745 -0.1217735261026951 0.009590855548403276
0.03267895617674715 -0.016596376828853232 0.04678151136852493
0.03253034836700697 -0.013974875995816871 0.04707186129939378
0.03241172887372345 -0.011725955742885485 0.0471171993876755
0.03226544447783001 -0.009146649169123056 0.04740444984955572
0.03210821811628698 -0.0064418526578654545 0.04779355880206748
0.03208672371529074 -0.005387865251091917 0.04703133681546007
0.03180579657075701 -0.0012009217733529587 0.04849634227985494
0.031717169653363415 0.0006538457829923239 0.048322279349664654
0.03164154553279057 0.0023477967409653577 0.04804110728158001
0.031534734823943325 0.004412437984536333 0.048034732329849006
0.03142386110263371 0.006520478481389147 0.04806999127453976
0.03131376429555673 0.008613747519035098 0.04810500315264188
0.031204436265233493 0.010692399815241505 0.04813977055195923
0.031099444503387953 0.012714013489969478 0.04814288028862218
0.031023937751433465 0.014380080371825199 0.047892242466337887
0.030984842589582857 0.015610653485686632 0.04732398339466626
0.031000147256790657 0.01619557767260965 0.046275243719921144
0.031041062098624884 0.016478845290052835 0.04499756399127908
0.031093996100777253 0.01662250691943673 0.04361009812172939
0.031147196349512053 0.016765655116847966 0.042217126631480695
0.031201007440887687 0.0169042660841624 0.04081552717496856
0.03125595076000256 0.01703228000035495 0.0394005417943144
0.03131126053378506 0.01715872867954782 0.037979001822047054
0.029756345005205357 0.03606312565090075 0.05117663068950562
0.029660469602089092 0.03791431526718936 0.051173379114896944
0.029565133090118934 0.039754507497349156 0.05117085171996533
0.029470483941741517 0.041582022134008745 0.05116763947316283
0.02937643887368383 0.043397873003641396 0.05116444772779227
0.029282992121199135 0.04520217141373489 0.05116127628820882
0.02919013799265883 0.046995027259989164 0.051158124961249274
0.029097870868396863 0.048776549048629436 0.05115499355619263
0.02900618519957601 0.05054684391829661 0.051151881884721695
0.028915001906409377 0.05230685946830871 0.05114947764388367
0.02882446323992846 0.05405500948090608 0.051146402737961116
0.028734489792027404 0.055792246069473195 0.051143347028070885
0.02864507628632062 0.05751867111217718 0.051140310335016204
0.028556217511893047 0.05923438522305868 0.05113729248182419
0.0284679083222879 0.06093948777157748 0.05113429329371072
0.028380072731889402 0.0626348773323892 0.051131987798856526
0.02829284796060358 0.0643190433270685 0.05112902335732211
0.02820615770768047 0.0659928886567751 0.051126077081941446
0.028119997074790175 0.06765650790015199 0.05112314880624058
0.028034430409018003 0.06930922027702685 0.051119571360923544
0.027949314139497725 0.0709526728868552 0.05111668061123714
0.027864644802631414 0.07258693772175606 0.05111447034271316
0.02778055484646153 0.0742105756245579 0.05111161244109158
0.027696970895836105 0.07582444339771588 0.05110877173659106
0.02761388839717499 0.07742862896332586 0.05110594807445429
0.02753130285137195 0.07902321919168259 0.0511031413017754
0.02744914348559355 0.0806090306594226 0.05110100439505427
0.027367538955825114 0.08218468072659213 0.05109822901482025
0.027286418196893685 0.08375098996982533 0.05109547008759252
0.027205776919651845 0.08530804120554608 0.05109272746749832
0.027125610885506496 0.08685591627405537 0.05109000101038541
0.027045851512977517 0.08839539752169395 0.05108793413652013
0.026966623824473422 0.08992515625727016 0.05108523770081547
0.026936633729557225 0.09091705784987109 0.050592211069466986
0.026997963836872568 0.09091944451291673 0.049180194446212355
0.02705957385773855 0.0909218420689143 0.047761733311253496
0.027121400959897075 0.090924947980565 0.0463374401464392
0.027172782274083592 0.09104335362140786 0.04501574911387074
0.027235258977621517 0.09104535131324709 0.04357785088680555
0.02729795804205925 0.09104805984473663 0.04213399636085502
0.027360946455120407 0.0910507808758842 0.04068347862020405
0.027424292431427737 0.09105280962910961 0.03922557023079998
0.027487865890448902 0.0910555542932287 0.037761581815705936
0.027551734779088566 0.09105831171207868 0.03629079015985215
0.027615901161461037 0.0910610819747752 0.03481314773020239
0.02768043457049793 0.09106315374876855 0.03332790461404894
0.027745202526010905 0.091065948312054 0.03183641097187212
0.027810274286372907 0.09106875598382064 0.03033792123098722
0.02787572039879332 0.0910708604338501 0.028831668129784327
0.027941406539590936 0.091073692919595 0.02731903229331678
0.0280074029761382 0.09107653878588257 0.025799250893499825
0.02807371191235677 0.09107939812775051 0.024272273177907533
0.0281403355730894 0.09108227104113897 0.02273804791233769
0.028207346246202913 0.09108443271097677 0.02119577795223826
0.028274606449850297 0.09108733133756125 0.019646896295614114
0.028342188182973828 0.09109024382081315 0.018090610392635265
0.02841194124271328 0.09107418636420295 0.016507041790550958
0.028494541223625467 0.09092988655943962 0.014781125033134501
0.03525970668146272 -0.10529192143899646 0.060781166514952134
0.03494710322797875 -0.10006411700201168 0.06202084683293929
0.03476192213211467 -0.09661051466819387 0.06233006856607004
0.03462319412305545 -0.09380618322029272 0.06230302348179301
0.03450016487560972 -0.09122478406404066 0.062166522925939105
0.034416786290230594 -0.08919373834421696 0.06173842029362936
0.034339422622511974 -0.08724935321511379 0.06126986394258044
0.03427573792641652 -0.08549592526733746 0.060702010333251843
0.034217647832435076 -0.08382210137054141 0.0600953371589702
0.034167982264034655 -0.08226598690911485 0.05942763311302185
0.03412112518824962 -0.08075059926233741 0.05874135397485114
0.03407949950432657 -0.07930859141156721 0.05801751672226685
0.034048267210259504 -0.07800945597525871 0.05721558890475592
0.034021648157501916 -0.07677427366387601 0.05637963995794837
0.03400364292184448 -0.07565665279449513 0.05547796047296394
0.0339885120807382 -0.07457865688544202 0.05455481796728462
0.03396895720558268 -0.07344199031454202 0.053667470715612564
0.033951113212419906 -0.07232927559383778 0.05276778512421715
0.03363465178237384 -0.06722011032017633 0.05424104423944376
0.0380689741868749 -0.12560025654549645 0.017853716874793146
0.03807799856767584 -0.12474178601029129 0.01661498380446602
0.0381061610612108 -0.12413756279749533 0.015221928679716112
0.03813250141033426 -0.12350768709993531 0.01384184387123899
0.038149815362549015 -0.12275678768968679 0.012533222393033616
0.038186359480655165 -0.12225945116846948 0.011067263488309997
0.038320194075773195 -0.12304507989139402 0.008805440578860957
0.031685224847151534 -0.020757747348016553 0.04545260089729264
0.03140201875916366 -0.016341328186866844 0.04695677726922415
0.03127810632745768 -0.013961234169141024 0.047081287771140734
0.031144951917878194 -0.011470450131034815 0.04729472834570292
0.031001835473342166 -0.008860586978675478 0.04760430766671325
0.030889176822309707 -0.00664230555505313 0.04765273984382434
0.030947113205675215 -0.006577471825301773 0.0461910308243757
0.030565295258098844 -0.0009848117326001216 0.048649836165126636
0.030499151947074095 0.0006303569540128673 0.04830550468735201
0.030419987440990743 0.0024050463698720437 0.048082216866212224
0.03031714736882521 0.0044712863502850975 0.04807722135734899
0.030215668960894334 0.006515270792909422 0.04806621079747608
0.030115033686959815 0.008543552615031536 0.04805376646553383
0.030012922217373873 0.010584977915376714 0.048060933367428615
0.02990552253769958 0.012686638929299998 0.04812268064340919
0.029825659079126435 0.014442490202038416 0.04793854539910336
0.029779796449008567 0.015774933651588607 0.047446527870856625
0.02978117670468087 0.01652363024037734 0.046521281918925406
0.029817842516750532 0.016839067907565897 0.04526919403321822
0.0298665987396113 0.017008223684770563 0.04390252697210689
0.029917563142385584 0.01715288229703349 0.04251228806308194
0.029968783999058723 0.01729703200831012 0.04111652743848265
0.030020593087343703 0.01743665227285457 0.039712108473958896
0.030075396942199965 0.017542544004730654 0.038276322987198186
0.028569512313118103 0.03657677233625989 0.05157666678847472
0.028477596733147103 0.03842357769068572 0.05157213299389041
0.028386196917676878 0.040259428643271256 0.051568329504793675
0.028295455225037753 0.04208264966511571 0.05156385135946767
0.028205291827674544 0.043894251330261036 0.051559401753159595
0.02811570121494775 0.045694344360839245 0.051554980413918594
0.028026677946011488 0.047483038076658546 0.05155058707323823
0.027938216648712037 0.049260440417334794 0.051546221466002184
0.027850312018507222 0.05102665796400402 0.051541883330430416
0.02776288825100861 0.05278263534705885 0.05153825831323333
0.027676081747122133 0.05452679067746241 0.051533972214968915
0.027589816387755102 0.05626007308881997 0.051529712835765074
0.027504087128455937 0.057982583936520504 0.05152547992655254
0.02741888898727682 0.05969442332009928 0.0515212732413477
0.0273342170438086 0.061395690102629574 0.051517092537205544
0.027249998455030146 0.06308728010144432 0.05151361086949219
0.02716636480384935 0.06476768679096967 0.051509479354408916
0.027083242945179418 0.06643781030453816 0.051505373121841
0.02700069494015317 0.06809696626362555 0.0515006247761185
0.026918582267613258 0.06974681102370034 0.051496570436237066
0.026836967510794993 0.07138665143716971 0.05149254068099701
0.026755780614867698 0.07301733759722756 0.05148919643140121
0.026675148592718627 0.07463743414379387 0.051485213196600155
0.02659500109957801 0.07624779530551906 0.051481253897503965
0.026515333781125562 0.07784850857145448 0.0514773183190102
0.02643614233505985 0.0794396603854643 0.051473406248586207
0.02635735890807778 0.08102206490952157 0.051470168820952844
0.026279106881192955 0.08259434310173042 0.05146630121469409
0.026201318120883648 0.08415731311425007 0.05146245650528458
0.02612398852535483 0.08571105736236123 0.05145863448999494
0.026047114041092435 0.08725565729125973 0.051454834968481855
0.025970628912631397 0.08879189297137835 0.05145169957449075
0.025894591652246154 0.09031913303462824 0.051448582540087884
0.025905523330624847 0.09086163492633481 0.050540830296306904
0.025964455273026075 0.09086459031855182 0.04912907534557431
0.026023717954752792 0.09086686312366016 0.04771023055226459
0.026072916389005576 0.09098491079832116 0.046393904819976794
0.026132675789554933 0.0909874688952994 0.04496285047633464
0.026192709757681693 0.09099003874569334 0.043525221081261334
0.026253083289705256 0.0909919185321858 0.04208029988289186
0.026313672391971393 0.0909945105200769 0.04062937866562627
0.026374541806456226 0.09099711449977321 0.039171744839351874
0.02643569348294405 0.09099973055468746 0.037707351712776005
0.02649719366793397 0.09100165036762875 0.03623546040610437
0.02655891609030038 0.09100428918260223 0.03475740165855923
0.02662092673572251 0.09100694032007484 0.033272440871188524
0.026683292812443964 0.09100889050753075 0.03177982208796737
0.026745886299890116 0.09101156488352036 0.03028090606092676
0.026808774140487678 0.09101425183619305 0.028774941206873406
0.02687195841547509 0.09101695145447336 0.027261877686728164
0.026935507648512377 0.0910189437511188 0.025740936113698376
0.02699929142984829 0.09102166727234023 0.02421351835272617
0.027063378010471664 0.09102440372299425 0.0226788495161776
0.02712776955172094 0.09102715319536958 0.021136877846902158
0.027192468235553317 0.09102991578263564 0.019587551093994737
0.027257544285316914 0.09103196292523286 0.018030059471163762
0.027326828917028423 0.0909923812514914 0.016421611302373296
0.027412211634594275 0.09078474331224601 0.014628766622290734
0.033798802938031 -0.10546840060226309 0.0622489056721377
0.03356855182748467 -0.10124154914875716 0.06294284486939244
0.03336603007065757 -0.09742631499146809 0.06343710393593216
0.033217103030838725 -0.09439222097454297 0.06352823410009611
0.033107191884444505 -0.09192581665989225 0.06332474452029024
0.03301088708910359 -0.08966012871711027 0.06302177626283234
0.032934576714203814 -0.08768536338292465 0.06256782399206856
0.032863252466413376 -0.08578581476727004 0.06207939909930821
0.03281255407155136 -0.08418377038204455 0.061432116526716984
0.03276272840806603 -0.08259684479514778 0.060781128206815804
0.03271683034010379 -0.08106830130357717 0.06010195302884408
0.03267564206744466 -0.07960889893026823 0.05938794293221905
0.03263780783013704 -0.07819910034237437 0.058649561194746014
0.03260817129379401 -0.07690695453764718 0.0578473391131073
0.032587194390298675 -0.0757383058876635 0.0569767435364778
0.03257221292863677 -0.07465502367880089 0.05605864789000459
0.03255795285355236 -0.07358266094012678 0.05513560913365273
0.03254693764485267 -0.07255648231214029 0.05418684070725677
0.03227386189932726 -0.06786969990189351 0.05539862736274498
0.0322381411616329 -0.06650722586006835 0.054664036583323694
0.03663764360379285 -0.1268726802961746 0.017094349070422843
0.03665480517811117 -0.12612980446410116 0.015781843734058165
0.036678268271697054 -0.12547337149953441 0.014415502414070636
0.03670381690656412 -0.12484453910327553 0.013030141813296703
0.03672695689312977 -0.12418107450875848 0.011663463151709852
0.03675527877168289 -0.1235877940536586 0.010251441365208724
0.03688002687829547 -0.12431948702391316 0.008018263152491767
0.03055680427867349 -0.023421136610634052 0.045167070672520404
0.030362064085620106 -0.02001767285545425 0.045958364101050864
0.0304350318693717 -0.020171144670116936 0.04432498153955938
0.030003183327459243 -0.013646593325166156 0.04729870222346794
0.02987428046718719 -0.011142268067768413 0.047522753921271144
0.030324483128273683 -0.01627011039846671 0.0424276340530243
0.02978898692729973 -0.008421233067959555 0.04640303558755571
0.02945130506874672 -0.0031951269179899544 0.04858022831122649
0.029355333837584877 -0.0011503669819856177 0.04853224935898648
0.029304879457843575 0.000294793911091884 0.04806585968413973
0.0292128695467994 0.002278861964574941 0.047991607117761126
0.02911472440812866 0.004337800008152204 0.04798084331754732
0.02901844105754499 0.0063673151639260794 0.04795880156721072
0.028918405372016828 0.008440277037162547 0.04797838348604044
0.028815889149754415 0.010539944531238632 0.04802788330582741
0.02872802140655973 0.012445162873158444 0.04794449523837985
0.028642721976913817 0.014312613405083496 0.047842187794955304
0.02859546524565945 0.015686801428555053 0.04738078592669631
0.02859281406156376 0.016486653558887954 0.04649354963301616
0.0286244254857273 0.016848064300196586 0.045275977944063794
0.02866919102983221 0.017043248484662987 0.043929080885885374
0.028715276304176498 0.01722401879886687 0.04256651146988122
0.028761509979821506 0.01740537121991026 0.041199554381657066
0.02880797191917672 0.01758630459920346 0.03982741484427421
0.027474808067121093 0.035233636010258584 0.05198066028096476
0.027386188458843986 0.037088900439489536 0.05197552019185103
0.027298209760328006 0.03893133933082782 0.05196971175538756
0.02721072390554498 0.04076286656820405 0.051964639686723935
0.027123867172615165 0.04258181128203398 0.05195890307660522
0.027037563168337365 0.044389180809731144 0.051953202972324086
0.02695180663336164 0.046185085292056394 0.05194753902651916
0.026866592374852442 0.04796963347683281 0.05194191089622202
0.02678191526544041 0.049742932740897305 0.05193631824278816
0.026697702267819874 0.05150593317625285 0.05193144680251843
0.026614084756362233 0.05325704426462635 0.05192592196907453
0.026530989390526928 0.05499722062216705 0.051920431635074704
0.026448411294766 0.056726564352202635 0.0519149754783777
0.026366345654043492 0.05844517629081969 0.05190955318084434
0.026284787712900062 0.06015315602645721 0.05190416442827045
0.02620373277453431 0.06185060191914504 0.0518988089103275
0.02612311111994533 0.06353840704172187 0.0518941577183869
0.026043048725174725 0.06521506890544815 0.051888865709361354
0.0259635398691388 0.06688070210777058 0.05188293871789146
0.025884451115816044 0.06853697231440692 0.051877713110638934
0.025805842730148035 0.07018318270097967 0.05187251924246283
0.02572764722446501 0.07182018819511637 0.05186801812315395
0.025649986917641705 0.07344654567774556 0.05186288488814067
0.025572794042636765 0.07506311423139067 0.05185778254959278
0.025496064391954405 0.07666998196917335 0.05185271082940385
0.025419793808445154 0.07826723594986668 0.051847669452794065
0.025343978184554947 0.07985496219361965 0.05184265814826178
0.025268552569873943 0.0814339724585636 0.051838326216686825
0.025193635097801547 0.08300289128704857 0.05183337234070062
0.025119160549757144 0.08456253441760081 0.05182844775271833
0.025045125009361693 0.08611298386687893 0.05182355219377327
0.024971524606272475 0.08765432068745016 0.05181868540794271
0.024898296395193673 0.08918732268386798 0.05181448725002363
0.024825437631496434 0.0907120520780223 0.05181095188486595
0.024873962575366882 0.09080688414560734 0.0504900726457318
0.02493061774391586 0.09080902076944447 0.04907728959856117
0.02498747204277977 0.09081186347834719 0.04765870840203157
0.025034720340453575 0.09092982942033839 0.04634203697481787
0.02509211103262629 0.09093226172997426 0.044910593196557935
0.02514982577974757 0.09093400465956292 0.043471904751024915
0.025207746040998832 0.09093645779413073 0.04202725434295235
0.025265933699677473 0.09093892225406797 0.040575934493099486
0.025324451772915427 0.09094069271223515 0.039117217183173014
0.0253831800956745 0.09094317842963062 0.03765241401590447
0.025442181437704332 0.09094567570287265 0.03618080119561368
0.025501519726670502 0.09094747429130845 0.03470163389509351
0.02556107313989571 0.09094999326664888 0.03321625328635969
0.025620905352939878 0.09095252403471138 0.03172391885532233
0.0256810183282021 0.0909550666785025 0.030224581655842298
0.025741477238568962 0.09095690429975839 0.028717473799440008
0.02580215799780124 0.09095946926332277 0.02720397695959642
0.02586312552020154 0.09096204634842964 0.025683327685228297
0.025924381843348516 0.09096463564120849 0.02415547515513644
0.025985929024170507 0.09096723722860667 0.02262036806550216
0.026047833844282716 0.09096912571372473 0.021077208612346243
0.026109969298860457 0.09097175043046685 0.01952743089437914
0.026172597880876 0.09097220085462171 0.017967969680798723
0.02624209338803156 0.0908995646269487 0.01632468128936365
0.026332376228270494 0.09059980681735857 0.014434636788498822
0.03239375677729008 -0.10642253356358178 0.06330192420520031
0.0321760429560198 -0.10223381673599186 0.06396485640275701
0.03199797549837267 -0.09865407836352014 0.06432377464103722
0.03183759597275743 -0.09535006076961039 0.06455186153059911
0.031717911897750854 -0.09266533455878789 0.06446097615383067
0.03161960656126892 -0.09030732661900243 0.06420417163653475
0.03154268700695506 -0.08827434976469384 0.06377925431493481
0.03147688416757982 -0.08641146236202435 0.06326829851612448
0.03141901573896334 -0.08467036173764203 0.06269639584926029
0.031364296202838586 -0.08297928090425277 0.06210231578769321
0.031326750306679536 -0.08154593927008696 0.0613693328546982
0.031282573303829796 -0.08001654394339541 0.06069411255779816
