# .PCD v0.7 - Point Cloud Data file format
VERSION 0.7
FIELDS x y z
SIZE 4 4 4
TYPE F F F
COUNT 1 1 1
WIDTH 755
HEIGHT 1
VIEWPOINT 0 0 0 1 0 0 0
POINTS 755
DATA ascii
-0.03722282023692334 -0.06064460642531683 0.031744972172905284
-0.037198331525431644 -0.0615812614390554 0.031072028358653414
-0.03720620281164259 -0.062237961154331334 0.03014691029529093
-0.0371729165914907 -0.06324901744753958 0.029544559501390955
-0.03713739397131939 -0.06427797167701721 0.028961364254534716
-0.0371241980230115 -0.06511435071400834 0.02820349217327245
-0.03710146181273691 -0.06603172655400263 0.027521798912309714
-0.03707875343438265 -0.0669479794130336 0.026840940127819957
-0.037084761770436424 -0.06761911411031907 0.02593234404907674
-0.03709163082494918 -0.06828317929235544 0.025016591532275922
-0.037082186531627044 -0.06908562036213589 0.024231249058021542
-0.0371191325077495 -0.06949585855451068 0.023073514236599812
-0.037145335186478834 -0.06999806993875474 0.022000655595514618
-0.0371896002196901 -0.07034944224717637 0.020780577750159235
-0.037260528578242344 -0.07047888554093751 0.01934229929508252
-0.037340816306851786 -0.07053276737273995 0.017824639111853613
-0.03742145078519616 -0.07058688191149037 0.01630042439934598
-0.03755968380774677 -0.07016436374018037 0.01430153386087929
-0.037769453554728015 -0.06915275039487556 0.011709672618345657
-0.03999531673597031 -0.004919877959492169 0.025338649371204114
-0.039735355024116584 -0.008175637631422816 0.02631172918255209
-0.03951132892332231 -0.011082673960756018 0.027029530691318526
-0.03929003558360633 -0.013955040285262676 0.027737633249498905
-0.03909425929276133 -0.01657933691715846 0.028265004010660177
-0.038904645978602034 -0.019138124647364918 0.02875539057249582
-0.03871975812863645 -0.021645191375366468 0.02921919762402969
-0.038554047138690824 -0.0239662352002451 0.029546691381891088
-0.038389853919990766 -0.026266517113884336 0.02987059343046128
-0.038228098522970426 -0.028537597059967557 0.030183786105423882
-0.03808294320202067 -0.030648581507959738 0.030377871575952176
-0.037938886045294266 -0.03274359542466476 0.030570488704010412
-0.03779591463760687 -0.0348228193633045 0.030761654089796864
-0.03766192837082653 -0.03681370332667416 0.030890358194545553
-0.037534127757006576 -0.03874246692495814 0.030977616462169344
-0.03740729164265038 -0.04065726878748471 0.03106350774313249
-0.03728130985586777 -0.04255917315598168 0.031148820487834183
-0.03716447029940305 -0.04437271060821352 0.03116877140544233
-0.037051011683311125 -0.04615081428073797 0.03116783294754427
-0.036938243709536446 -0.04791809432715599 0.031166900202186154
-0.03682625709096071 -0.049673771240388076 0.031165208659501953
-0.03669788998946641 -0.0515728950272033 0.03129836586759216
-0.03644885741022496 -0.05455426884896314 0.032394413510928366
-0.03634841151246856 -0.05618959667558282 0.03232069834637091
-0.03624879965512866 -0.057813406510072385 0.03224513935345469
-0.03615646328722659 -0.0593680880568031 0.03211614042577271
-0.036078835222159766 -0.060787694307484874 0.03187353329472098
-0.036055109661194865 -0.061723839763574595 0.03120080342912296
-0.03603132242591243 -0.06265958042412217 0.03052970735871674
-0.03603624455059202 -0.06333968070145984 0.029627305633354084
-0.0360124821929792 -0.06427386658926953 0.028957598035897425
-0.035990418719108276 -0.0651920950588265 0.028275191823609824
-0.03596838226358156 -0.06610919909018287 0.02759362126784881
-0.03595413775469625 -0.06695692044588408 0.026849272367033494
-0.035967549482353464 -0.0675615048645008 0.025878377213112314
-0.035958391426852275 -0.06836412762316207 0.025092817330875483
-0.03596486633710057 -0.06902989838507723 0.02417850439234004
-0.03600524832921482 -0.06940058356577483 0.022982860120202953
-0.03601201839891244 -0.0700649906312315 0.022064662132696478
-0.036077624932463886 -0.07021954172015382 0.020655687418347612
-0.036153097471475444 -0.07029138576026595 0.019161093776305593
-0.03623104578004278 -0.07034489572524533 0.017642130471068163
-0.036309330937600186 -0.07039863693037712 0.01611660305602458
-0.0364535140967101 -0.06988946459321638 0.014031700832793925
-0.036648061378266684 -0.06895447256914827 0.011514038804145199
-0.03887011172290639 -0.002897503989145067 0.025346729565002946
-0.038616986432998476 -0.006173633211442375 0.02632034289143348
-0.03839857185515479 -0.009101256260013013 0.027040383023328174
-0.03818272169367911 -0.011994902794544293 0.02775149617723377
-0.03799239650517451 -0.014632097184335557 0.02827634788114214
-0.03780754718879899 -0.017208415956055434 0.028768223336010812
-0.037627832743393194 -0.019727492086017817 0.029229364328631824
-0.037466290211934344 -0.022064043346347706 0.029557840844491312
-0.03730623156478229 -0.02437963012323069 0.02988270607347443
-0.037149164876748575 -0.026659878148801164 0.030192028641091384
-0.037007667362582826 -0.02878458434644393 0.030386686739980795
-0.03686724365860319 -0.030893166365728808 0.03057986759841891
-0.03672788158746202 -0.03298580705994458 0.030771587968781655
-0.036597775227639295 -0.03498464840334403 0.030896728160634546
-0.0364733013039342 -0.036924647650974696 0.030983451515988525
-0.03634957366112961 -0.03885241890947527 0.031070366117509296
-0.036226779513401274 -0.0407662398773696 0.03115591673837309
-0.03611357257058583 -0.04258459129632575 0.031170489464843132
-0.036002984900012115 -0.044373610798380425 0.03116954287461554
-0.03589316756820831 -0.04615081428073187 0.031167832947538943
-0.03578392359361422 -0.04791809432714861 0.031166900202179715
-0.03568107557842049 -0.04962108066585008 0.03111933381666593
-0.03558236892316363 -0.05128119121007335 0.031043057078225855
-0.03531959089970095 -0.05446347428655757 0.03231452880182517
-0.03522232180488556 -0.056098653007514876 0.032240261571699236
-0.03513305833394168 -0.05765565803160316 0.03210488254389582
-0.03504506223516486 -0.059197250454378625 0.03196344813679869
-0.034957505834378455 -0.060731139864195316 0.03182272044765938
-0.034912901522007135 -0.061866291660126305 0.0313294643113351
-0.034889878060184544 -0.06280152378075993 0.030658580738058938
-0.03489122625393988 -0.06351262241325856 0.02978514529923476
-0.034878557347788795 -0.06435184517924974 0.029029139605029675
-0.034857193810859236 -0.06526980138819982 0.02834685641423823
-0.034835856428757785 -0.06618663376701373 0.027665408525173907
-0.034843384286380244 -0.06684064754817365 0.026740916474154386
-0.03483451251139572 -0.06764344972199215 0.02595514101412294
-0.034825734798798476 -0.0684450343261701 0.02516900393024557
-0.03485432339976964 -0.06890950371440985 0.024064542595049587
-0.034869308572125966 -0.0694974728858907 0.02307505027230833
-0.03490111619319 -0.06993515452240912 0.021940479919104194
-0.03496905843513349 -0.07005075199805377 0.020493407827320176
-0.03504433683570662 -0.07010366087629732 0.01897967071082235
-0.03512003110681665 -0.07015598678569812 0.017458614148894103
-0.035195870158638794 -0.07021016497408783 0.01593256007129995
-0.035283247420169396 -0.0701651787463351 0.014302333847278192
-0.03543769290008719 -0.06953051186115067 0.012082396679819973
-0.03773753486296084 -0.0008631758830298653 0.025355714246883543
-0.03749131944408368 -0.0041598394891608215 0.026329855969945692
-0.037278594282928894 -0.007108239386336146 0.027052141880456515
-0.03706837433199441 -0.010022314839842283 0.027765447159942058
-0.03688353876295397 -0.01267249579108315 0.02828776376589065
-0.03670351768099077 -0.015266516688181242 0.028781137168112758
-0.03652901168768859 -0.017797682241730006 0.029239595237463722
-0.03637169352311153 -0.020149890603589238 0.029569060414349146
-0.03621582464549865 -0.02248092932525575 0.029894894553781415
-0.03606336959333692 -0.024771375983612398 0.030201124024775206
-0.035925579318887055 -0.026909924944925445 0.030396354533707037
-0.03578883796993254 -0.02903219424836123 0.03059009885458125
-0.03565323059453338 -0.031137411923124192 0.03078158340187892
-0.0355271189762613 -0.03314330216059841 0.03090235026230226
-0.035405817134552986 -0.03509652350900999 0.030990107111309895
-0.03528543579641497 -0.03703552089268719 0.031076485192070957
-0.03516587028812843 -0.038961377602151126 0.03116227788459891
-0.035056298421361924 -0.04078454753760663 0.031171441888112328
-0.03494861861669634 -0.04258459129632214 0.03117048946484008
-0.0348415982903348 -0.044373610798375596 0.031169542874611378
-0.03473532345310544 -0.04615081428072576 0.031167832947533725
-0.03463582601759668 -0.04785787997977076 0.031114749786832874
-0.034539718265482924 -0.04952795326488768 0.03103825280890804
-0.034444051884618375 -0.05118965593980951 0.03096294239455355
-0.0342957080341422 -0.05335362298683344 0.03133803697371107
-0.03410341188517545 -0.05593278431620624 0.032093556002951884
-0.03401773487797321 -0.057483394151263634 0.03195171984785522
-0.03393248727967444 -0.05902623240687699 0.03181059456850749
-0.03384766587008474 -0.06056135736315288 0.031670174833957065
-0.03377170576012098 -0.06200861729679491 0.03145801115710173
-0.03375274724495112 -0.06291202042058208 0.03075890297727568
-0.03373381000342639 -0.06381440982166103 0.03006057927761857
-0.033745187173550656 -0.06442978562520452 0.029100646178871203
-0.03372452289173136 -0.06534746973000172 0.028418485970863938
-0.03371333307653492 -0.06617522471838438 0.027654831554450865
-0.033710731858310514 -0.06692196625898994 0.026816698205682388
-0.03370215068473936 -0.06772454131282779 0.026031105497229035
-0.033702497314432936 -0.06844341659982839 0.02516748058219026
-0.03373103201525088 -0.06889980348191471 0.02405536066097269
-0.033734157286702524 -0.06959349569397116 0.023166415938533857
-0.03378929184823332 -0.06980521063905148 0.021816194624169782
-0.03386130676514977 -0.06986317387085561 0.020313064490127097
-0.033934244275244434 -0.06991571048341266 0.018798029706630137
-0.03400758491355535 -0.06996766168041513 0.017275664994780948
-0.03408106602161996 -0.07002146563186384 0.015748295044065996
-0.03415495436293832 -0.07007468712460135 0.014213509896464083
-0.03432489696465984 -0.06925302798655625 0.011808613020114656
-0.036597735845138715 0.0011854242548720029 0.025363901998718796
-0.036358501855103885 -0.0021319738670592114 0.02633858368491976
-0.03615154268214547 -0.005101372329479603 0.02706313630344387
-0.03594702825629435 -0.008036093554699808 0.027778654031359595
-0.03576751827595893 -0.010701465682121325 0.028300079733669214
-0.03559249157178717 -0.013312310960145513 0.028794132839437492
-0.035423229433844225 -0.015855646759197317 0.029249890960640346
-0.035270192356626456 -0.018223663801945844 0.0295803507547982
-0.03511856924477039 -0.020570303422095315 0.02990715958584489
-0.034970850048637994 -0.022870016536605975 0.030209472866456866
-0.03483681561670015 -0.0250225500830637 0.030405282767101582
-0.034703804702101985 -0.027158646394884467 0.0305995974188919
-0.03457180562571968 -0.02927849303361807 0.030792433883773007
-0.03444979648150869 -0.03129049111558907 0.030908007368932122
-0.0343318080641677 -0.03325611808698109 0.0309960171079261
-0.034214717486111566 -0.0352073874909376 0.031082642105922653
-0.03409833111660118 -0.03714632312010091 0.031169459280094458
-0.033992397829373834 -0.038974300326705014 0.031173178808795
-0.03388766450617883 -0.04078546286920315 0.031172218101998328
-0.033783664662806814 -0.042584591296318586 0.031170489464837026
-0.033680211680657435 -0.04437361079837099 0.031169542874607437
-0.033584154360559025 -0.046083846048797006 0.031110137592344322
-0.0334905907867647 -0.0477648594268088 0.031034186587462542
-0.033397635122112274 -0.049435653118325484 0.030957892046961255
-0.03330510649505344 -0.051098070142073904 0.030882783487573562
-0.03321535291563481 -0.05272879028289934 0.03078828402078687
-0.03298413877620441 -0.05575907990857687 0.03193991999296031
-0.032901144356137 -0.0573117935366364 0.03179914687244828
-0.032818651553504274 -0.05885587327922165 0.03165832993367207
-0.0327375018063783 -0.060383059833794606 0.03150997866609184
-0.03266272951384832 -0.061843938383758346 0.031309275094290934
-0.03261858407419681 -0.06300102193118445 0.030839709333484067
-0.032600372128112114 -0.06390228957906569 0.030140784980465796
-0.0325841914851667 -0.06478291080254994 0.029424621378907667
-0.032592405555588476 -0.06542510011208291 0.028490080519172234
-0.03258687317580222 -0.06620130133650703 0.027679006368267478
-0.032578578126675986 -0.06700405570971907 0.026893198197553758
-0.03257037102415003 -0.06780559121312729 0.026107030925730412
-0.03259148336292028 -0.0683236586631546 0.025054709333288294
-0.03259659800478389 -0.06899677885483047 0.024147154489795264
-0.032617240565592655 -0.06952087882365837 0.023097321013401284
-0.03268202278736806 -0.06962262285733695 0.02164155788317479
-0.03275222644640071 -0.06967537076051855 0.020132504847276855
-0.03282281738863768 -0.06972753417502242 0.0186161703707885
-0.032893713277736956 -0.069779922931053 0.017093285458401886
-0.032964916093992616 -0.06983253849195514 0.015563807572248622
-0.033036427834882365 -0.06988538233377217 0.014027693805346186
-0.03321004227901181 -0.06897587559223933 0.011535156420436177
-0.03380394456256186 -0.06410898455051395 0.005100946563849296
-0.0356049874838726 0.006565033155631728 0.02603060917563388
-0.03555552285740739 0.005207557306959154 0.025468191710319443
-0.03545042891911608 0.0032462146398672953 0.02537300076110044
-0.035218251691849785 -9.208702654350809e-05 0.026348217272277652
-0.03501713862873521 -0.0030826792601347797 0.027075043930909926
-0.03481840852540583 -0.006038237055586593 0.027792781037418113
-0.03464447216491617 -0.008716794172716369 0.028311644329811814
-0.03447430499045317 -0.011346728807822504 0.028808035645889296
-0.03431041962128787 -0.013901269092340296 0.029260252116031726
-0.03416172117787697 -0.01628524833916689 0.029591712537561876
-0.03401440063981148 -0.018647639713431974 0.02991950189313064
-0.03387134598828653 -0.02095766730702947 0.030218680554755795
-0.03374111820977759 -0.023124309580595803 0.03041506964365709
-0.033611980339263256 -0.025273372226763624 0.030609155433579727
-0.03348373555541957 -0.027407020655606407 0.030802556598179043
-0.03336565428807383 -0.029427072256268116 0.030914492063316423
-0.03325111403762301 -0.03140425742688724 0.031001963890127104
-0.0331372677422554 -0.03336886128346206 0.03108962356863182
-0.03302428751710702 -0.035319119468477045 0.03117590159164474
-0.03292190640484401 -0.03715283868812458 0.0311749264896361
-0.032820246180085194 -0.03897430032670385 0.031173178808794
-0.03271912435079358 -0.04078546286920087 0.031172218101996385
-0.03261871070891725 -0.0425845912963152 0.03117048946483414
-0.03252600123812005 -0.04429887872479543 0.03110549697283138
-0.03243510716741064 -0.04599004578021826 0.03102932554674237
-0.03234480520675308 -0.047670900575868425 0.030952810747393922
-0.03225491962234919 -0.04934330186638658 0.030877486790317932
-0.032168407964392846 -0.05097675020111381 0.030776600279012023
-0.03208707143927429 -0.05255292706135761 0.030633552482657367
-0.03196349639461323 -0.05455942036121719 0.03087885937440693
-0.031783458616698075 -0.05713916525226942 0.03164566017869447
-0.03170528719871402 -0.05866852338481815 0.03149087918623983
-0.031632733323528534 -0.06013695236928451 0.03128885685448041
-0.03156034791109727 -0.06160033447391333 0.031089254900038166
-0.03148829302245279 -0.0630570345333954 0.03089056436117721
-0.03146747722299285 -0.06399094158819468 0.030221695498553303
-0.03144984180281661 -0.06489172182752084 0.02952445020970962
-0.03146310697409466 -0.0654798271492753 0.02854055247877102
-0.03145509800233671 -0.06628276311053927 0.027754527020951103
-0.03144709310692785 -0.06708529039920091 0.026968901628747932
-0.03144200120364817 -0.06785825130699147 0.026156361525481786
-0.03145995143877729 -0.06840054078894897 0.025127106149606948
-0.031462864219407735 -0.06909369437006735 0.02423889165922727
-0.031506296169788714 -0.0693836217774993 0.022966720984958444
-0.03157395095851128 -0.06943496605074112 0.0214620728550875
-0.03164181508705923 -0.06948734226203063 0.019951728509378486
-0.03171005376865884 -0.06953913154355762 0.018434092309410288
-0.031778587413209956 -0.06959114468521865 0.016909896099142174
-0.03184741793732902 -0.06964338314161672 0.015379097252802065
-0.031916547274273635 -0.06969584837998483 0.013841652774516322
-0.03208740809150253 -0.06875511978001936 0.01131734436105375
-0.03256860460692416 -0.06478990289648806 0.005776269926740685
-0.03444666918902882 0.008670607754942328 0.026033333443584272
-0.03424517391684744 0.005564133320067943 0.02678943509445314
-0.03419851360232841 0.004220507884157176 0.026220563514088968
-0.034070703316932134 0.001962144122761522 0.026357061234394352
-0.03387551531932323 -0.0010498694012632814 0.027086183217390536
-0.03368255101139577 -0.004027568400456094 0.027806998639259006
-0.03351422809926488 -0.006719402281372688 0.028323283047058834
-0.03334908753532398 -0.009367565526506472 0.028821199938989017
-0.03319051504327808 -0.011934431208990681 0.02927067932938643
-0.0330462136202562 -0.014334528158058135 0.029603146442896133
-0.0329031615156911 -0.01671384578734103 0.02993273515579753
-0.03276498235254909 -0.019032218071802054 0.030227137738672083
-0.032638611305579206 -0.021213114476870576 0.030424113102676398
-0.03251321131269507 -0.023377252546753824 0.030619574878411493
-0.03238877122414675 -0.025524824702500615 0.030813540445065624
-0.032274813862511444 -0.027551016185969 0.03092022263401728
-0.03216358475161203 -0.02954179801539797 0.03100873954325578
-0.032053206761649106 -0.031517950167414155 0.031095859651210755
-0.031944016264483455 -0.03347585269124914 0.031178454534237454
-0.03184484867721024 -0.035319119468478155 0.031175901591645683
-0.031746124033242444 -0.03715283868812452 0.031174926489636046
-0.03164809453079654 -0.03897430032670274 0.031173178808793056
-0.03155058419540829 -0.04078546286919871 0.031172218101994553
-0.03146122264055495 -0.042503784777730036 0.03110160186842892
-0.03137311677298736 -0.04420429088073208 0.031024434538989343
-0.03128542002970277 -0.04589619327099209 0.03094846849408822
-0.031198294703697487 -0.04757777619209019 0.030872157622276075
-0.031114935720538885 -0.04921480463507111 0.030765611177968777
-0.03103602151568558 -0.050800285351316976 0.030622152429784
-0.03095758782635331 -0.05237687646493455 0.030478656084568345
-0.030879468738057896 -0.05394638040977884 0.03033664508410866
-0.030666819556479052 -0.05694262037009534 0.03147090883797554
-0.03059634777556325 -0.058420350862245285 0.03126906601399709
-0.030526199137755262 -0.059891305331189304 0.03106814872525432
-0.030456292793683226 -0.061356360751368855 0.030868900695292578
-0.03038670589529738 -0.06281472141959754 0.030670563153838204
-0.030335601626232615 -0.0640754434621929 0.03029881828992298
-0.030321722258837277 -0.06494323792538104 0.02957171372752171
-0.030307855586014374 -0.06581023867231323 0.02884527420129207
-0.030323904688842933 -0.06636418300404101 0.027830008847510024
-0.030316189649980268 -0.06716648333552494 0.027044566149750704
-0.0303242944419763 -0.06780397062343724 0.026105512799660113
-0.03032710095681736 -0.06849679278457477 0.025217742795974663
-0.030337864077135977 -0.06910741923066438 0.024251883179304767
-0.030399234697051022 -0.06919611223281275 0.022788305722830582
-0.030464551356507875 -0.0692470843799598 0.021282372754840684
-0.030530070289553967 -0.0692990879694057 0.019770735086104607
-0.030595951002286424 -0.06935050218046829 0.018251795127660286
-0.030662116657329753 -0.06940213876443091 0.016726285564165833
-0.030728569107306983 -0.0694539991671061 0.015194163681706452
-0.03079531022093626 -0.06950608484686899 0.013655386395277525
-0.03089491536131431 -0.06922755368741335 0.011783478417759896
-0.03129056509512485 -0.06595393562886842 0.006930738012370263
-0.033280778983505586 0.010791277469039406 0.026035210432069744
-0.033052635285687464 0.007274491936767491 0.02708609035253723
-0.032897568593531525 0.00463009845707768 0.027497567754619423
-0.03285522751615792 0.0033189008761929095 0.0269078074100913
-0.032726498472231344 0.00099610562005098 0.0270973946456311
-0.03253947907505719 -0.00200287253197734 0.027820466781815767
-0.03237671665560478 -0.004709167321552077 0.02833499660030253
-0.03221667078750782 -0.007375739292174388 0.02883444845898958
-0.0320634476333741 -0.009955013567128801 0.029281173234457447
-0.031923602471907765 -0.01237138572331059 0.029614653159719395
-0.031784971886190165 -0.0147667713327439 0.029945236762876026
-0.031651508202205816 -0.017095567188184446 0.030236459856228637
-0.03152913363240276 -0.019289835548984335 0.03043321374033553
-0.03140761485736644 -0.02146820144991418 0.030629255977605463
-0.031287029195021174 -0.02362984021657527 0.030823792854888565
-0.031177117508423467 -0.025663169109353123 0.03092598922132317
-0.031069334920824705 -0.027666711826416668 0.03101476339747683
-0.030962379389297447 -0.02965548620522096 0.03110213465757844
-0.030857079698932085 -0.031620115336154775 0.03118023510236706
-0.0307609878486813 -0.03347490615179294 0.031177668657916935
-0.030665409837313466 -0.03531911946847932 0.031175901591646626
-0.030570341661640865 -0.037152838688124634 0.031174926489636157
-0.030475942881507876 -0.03897430032670163 0.031173178808792168
-0.030389928137998186 -0.04069665290147334 0.03109690601790399
-0.030304559248659074 -0.04240749324066756 0.031019513286238476
-0.03021958824650043 -0.0441096501949691 0.030943326819446837
-0.03013517235556176 -0.045801393894609466 0.03086679568394224
-0.030055043172967984 -0.04744110016907527 0.030753785312709114
-0.029978582327442247 -0.04903597612298005 0.030609914832679053
-0.02990250953164105 -0.05062275785337206 0.03046677451589347
-0.02982682183893009 -0.05220150682329516 0.03032435881789597
-0.029751594253153976 -0.053771421552823884 0.03018189955368661
-0.02966264154639396 -0.055489168589228255 0.03017862055976006
-0.029485633554821766 -0.058172641474854014 0.03104766678558163
-0.029417979995741486 -0.05964528423821658 0.030847104516452895
-0.029350636182514916 -0.06111118463657578 0.030647460503970325
-0.029285034350324632 -0.06255469262379115 0.030434477503649082
-0.029224009857766412 -0.06394498002907167 0.03017974750891056
-0.02919516850485806 -0.06498165970461528 0.029606963843944345
-0.02918181863750308 -0.06584853820279346 0.02888059590796982
-0.029173424977019198 -0.06666101072241615 0.028105188504380874
-0.02918579232200753 -0.06724844585244466 0.027120947850717503
-0.02919216747172989 -0.06790117651689503 0.02619657274034315
-0.029194868374938995 -0.06859379400186216 0.02530908495435119
-0.029228070245556518 -0.0689588039677193 0.024111208659609418
-0.029290848714167133 -0.06900837834801371 0.022609677001169004
-0.02935382159337384 -0.06905897744057904 0.021102457195631086
-0.029416989650551853 -0.06911060747568176 0.019589524186189478
-0.02948050667068762 -0.0691616456762204 0.018069278429752367
-0.029544298575630224 -0.06921290475656189 0.016542453453109562
-0.029608367153691893 -0.06926438615368125 0.015009006453966023
-0.0296727142087313 -0.06931609131704031 0.013468894257937403
-0.02973734156032192 -0.06936802170873335 0.011922073314507564
-0.030067930704916687 -0.06662449429288242 0.0075957868169374
-0.03214048667670272 0.013337322934597218 0.025730310129806033
-0.03188631175596689 0.009382968448777118 0.02709143648614365
-0.031688164621969425 0.006129743335867188 0.027949300970827762
-0.031563812481592415 0.003791062359184527 0.02813367769817604
-0.03152309388830161 0.00248155150995899 0.027546071349570933
-0.031388932545771506 3.380233238092778e-05 0.0278348655369115
-0.031231778212793368 -0.0026870525293018477 0.028347623630469
-0.031076985432196377 -0.005371128185886809 0.028847782016830747
-0.030929148451645336 -0.007962895090664557 0.029291734473130604
-0.030793819662226146 -0.010395701997896356 0.029626233385752154
-0.030659669961136327 -0.012807312423269823 0.029957817886974214
-0.030531035699035952 -0.015145567456853137 0.030245027470729158
-0.030412534191409366 -0.017355375968149178 0.030443182203180597
-0.030294949017836727 -0.019548096740811316 0.030639804668787518
-0.03017826959067887 -0.021723927212457306 0.030834912571886253
-0.030072500387823928 -0.02376341951634331 0.030931792165849126
-0.029968127756950683 -0.02578082471780241 0.031021621776993247
-0.02986464042112487 -0.02778233218017334 0.031109242640370738
-0.02976340622077402 -0.02975177489673425 0.031181236043270943
-0.029670349536837736 -0.031619160796420465 0.031179446773803354
-0.0295779530257979 -0.03347395960720856 0.03117688277733871
-0.029485970997416712 -0.035319119468480265 0.03117590159164746
-0.029395033924344945 -0.03714725393056223 0.03117024032264004
-0.02931196964654988 -0.0388782797589356 0.031092180956821036
-0.02922929527317344 -0.040600466434725646 0.031015338560358374
-0.02914716373233619 -0.04231205640901742 0.03093815334082789
-0.029065492461827037 -0.044014054525296054 0.030861400672115846
-0.02898850835953138 -0.04565730413216207 0.0307426575697331
-0.028914609719738145 -0.04726076605760843 0.030597601625203696
-0.028841010739160896 -0.04885695590289291 0.030454051577571528
-0.02876778548363976 -0.05044504052533583 0.030311230456454175
-0.028694931113800136 -0.05202508150433183 0.030169132723839143
-0.028627996140102533 -0.053533247820509666 0.029971242481612592
-0.02856189550482426 -0.05502839091690537 0.02976893542768705
-0.028398968464062705 -0.05762956268700681 0.030562270467482944
-0.028308145410903606 -0.059398049512945916 0.030624969887363407
-0.028245337777108546 -0.06084230856498224 0.030404614789631912
-0.02818629907505865 -0.062240444512326465 0.030149164988603316
-0.02812757909685114 -0.06363192538434176 0.029894030199808963
-0.02806903113926454 -0.06501843781742483 0.029640705976250015
-0.02805612563144671 -0.0658860138953582 0.028915157830889437
-0.028043303984122837 -0.06675198056101633 0.028189523785157933
-0.028058143587584575 -0.06730603761034148 0.027174618194127476
-0.0280607385288194 -0.06799832247681897 0.026287576536858037
-0.02806333395008152 -0.06869073540627824 0.025400370789344262
-0.02812077211964564 -0.06877040977670862 0.023932880661470923
-0.028181135842709044 -0.06882041972025565 0.02243083443666538
-0.028241759275395538 -0.06887064482721295 0.02092232578972608
-0.028302570760940785 -0.0689219003729184 0.019408095417426774
-0.028363718349200748 -0.06897256162029308 0.017886541818946555
-0.02842513072776582 -0.0690234422484905 0.016358399364645115
-0.028486809620319402 -0.06907454368559218 0.014823625163600584
-0.02854875676553769 -0.06912586737210674 0.013282175951814468
-0.028610973917253618 -0.06917741476109851 0.01173400808814079
-0.02883408247289024 -0.06747141829152425 0.008435751794027335
-0.03071217112618068 0.011504258538828638 0.027097680008706104
-0.03052087026408629 0.008229385622080254 0.027956618928035915
-0.030343348259279715 0.005141024066865119 0.02869485590825238
-0.030235730288877487 0.0029545374848297112 0.028767883773392233
-0.0301987224535531 0.0016733040727135995 0.02816215253882498
-0.03007952316219554 -0.000650766376188272 0.02835949171466623
-0.02992987583261036 -0.003354692409289206 0.028862036411529013
-0.029787547670614478 -0.0059579531447494505 0.029302363695555722
-0.029656796248097736 -0.008407356419007084 0.02963788782765797
-0.029527187666921997 -0.010835350524119935 0.029970479289169738
-0.029403405911316616 -0.0131831116385272 0.030253649812888528
-0.029288918044489343 -0.015407591710007051 0.03045240138859162
-0.029175318281114304 -0.01761481608021559 0.03064961121172738
-0.029062596327344106 -0.019804984756882138 0.030845297152473694
-0.028960816855719634 -0.021852652000117878 0.030938434020669925
-0.028860065496228854 -0.023882073338146292 0.031027724177918437
-0.02876009159280417 -0.025896443876949504 0.031115599070718425
-0.028662766520061604 -0.02787263858158323 0.03118303657159871
-0.028572947830192298 -0.02975081226957682 0.031180445242805555
-0.028483612927519046 -0.03161820625150202 0.03117865844095824
-0.02839475801416702 -0.03347490615179699 0.03117766865792032
-0.028307525565513286 -0.03530691694695709 0.031165716495967388
-0.028227284792183432 -0.037048560133395914 0.031087426411771257
-0.028147422078601336 -0.038781281528756484 0.031010358400755222
-0.028068085128170918 -0.04050330906335259 0.030932947762227547
-0.027989119453050302 -0.042216566081497764 0.03085674779016251
-0.0279154265751804 -0.0438615309799984 0.030730686943280294
-0.02784396901800157 -0.045475450133196316 0.030585984311969572
-0.02777287635907082 -0.04708112780300311 0.03044202060510126
-0.027702218995747423 -0.048677743666369844 0.030298021144104403
-0.027631847426552104 -0.050267133062571245 0.030155519984837675
-0.027567774297626732 -0.05177707300528517 0.029950924867811812
-0.027503925486993715 -0.053280891504845385 0.029748041366776334
-0.02744044355785501 -0.05477690122950679 0.029545331742036496
-0.02737718252140014 -0.05626687408047776 0.029344318216123377
-0.027199293222902307 -0.05911851298677456 0.030373812844233405
-0.027142265706745078 -0.06052457339278888 0.030117640108677846
-0.027085476824234702 -0.061924750089596414 0.02986253933693206
-0.02702892508064247 -0.0633190799309683 0.02960850381453639
-0.026972608993696648 -0.06470759946353388 0.029355526882995087
-0.026930906105497362 -0.0659210375135158 0.028947458330447595
-0.0269215027060797 -0.06675279255606031 0.028190276560265348
-0.026912105871094584 -0.06758396695754726 0.027433623372176696
-0.026930006967877156 -0.06809540855862278 0.026378524241114754
-0.02695423550848204 -0.0685339836575562 0.02525276395039966
-0.027012075163472638 -0.06858259944284201 0.0237551053240867
-0.02707009369855094 -0.06863223594572487 0.022251777645091175
-0.027128362003112364 -0.06868208613350246 0.020741978148461848
-0.027186811205812258 -0.0687329662521936 0.019226448386666428
-0.02724565440011606 -0.06878243310708149 0.017702795812698402
-0.027304610667494473 -0.06883375082609194 0.016174122896469634
-0.027363894045076647 -0.06888447134608616 0.014638019403650893
-0.02742343541323477 -0.06893541259265928 0.013095231065228974
-0.027483236459734016 -0.06898657600979674 0.011545714149181763
-0.02765152124068584 -0.06780426484940794 0.008765863411853203
-0.02934585829755682 0.010342909768843611 0.027963985268161684
-0.029174524986388464 0.007230931850545963 0.02870545520765183
-0.029012968762174424 0.004259040543369841 0.0293599255506522
-0.02892236736940926 0.0022413410224597086 0.029308589188286938
-0.02888753063757469 0.000969966482937068 0.028698266900329672
-0.02877544476254901 -0.0013241488112059607 0.028875545178151163
-0.02863857456092815 -0.00394006351061299 0.029313061560281184
-0.02851246239987643 -0.006406226873529819 0.029649617201187473
-0.028387456058425787 -0.008850765582950781 0.029983221740283617
-0.028268470519455212 -0.011209125942926446 0.030263146383558814
-0.02815805075917474 -0.013448409988110699 0.030462494638829385
-0.028048490266002236 -0.01567026831964602 0.030660291601104506
-0.027940012099261443 -0.017871857798831103 0.030854131887833813
-0.02784216324011632 -0.01992876567448998 0.030944313247429134
-0.02774499734314688 -0.021971316813761355 0.031033865162187313
-0.02764850728284582 -0.023999661003902162 0.031122794199255233
-0.02755525480957955 -0.02598066155106582 0.031184052683040753
-0.027468559666125547 -0.027871667789210075 0.031182243288016387
-0.027382482951829778 -0.029749849637173142 0.03117965443803039
-0.027296795722205523 -0.03161820625150491 0.031178658440960683
-0.027213190604018698 -0.033455027638928714 0.03116116427191945
-0.02713573714371627 -0.035208326714305294 0.031083426048802487
-0.02705879618504657 -0.03695074186499714 0.031005347156609186
-0.026982217861633007 -0.03868422860455345 0.030928489707715223
-0.026906143800430948 -0.040407013899341426 0.030851288127895227
-0.02683565634793965 -0.04205456490072923 0.030718641704745753
-0.026766749241588506 -0.04367814068792192 0.03057352019985865
-0.02669819510058686 -0.04529339997447146 0.03042914205606101
-0.026629991219852333 -0.04690040649700189 0.030285501576324758
-0.02656276683579924 -0.04849126503046741 0.030135664248410632
-0.026500981844989398 -0.05001001448663045 0.029930481337784975
-0.026439414047038944 -0.05152258731463433 0.029727018118002824
-0.026378200899764552 -0.05302728210790142 0.02952373194150265
-0.02631720161969208 -0.05452588588735169 0.02932214980467235
-0.02625730708812833 -0.056007321330221016 0.02911233355359144
-0.026159221314054203 -0.05795998473201808 0.0293329022525749
-0.0260369483180265 -0.06020704731829557 0.02983085428231408
-0.025982418531122497 -0.06160926472180933 0.02957610349067058
-0.02592811667286694 -0.06300562100729618 0.029322417529942968
-0.02587544042259021 -0.0643789235510363 0.0290539826960326
-0.025826495216063367 -0.06570344008199597 0.028746779299827774
-0.025800502071448995 -0.06674386038105823 0.028181995821304595
-0.025791496262675788 -0.06757506136644931 0.027425324161491904
-0.025782430589052347 -0.06840648949001477 0.026669936728079824
-0.02583386503842909 -0.0685008356967845 0.02522154984435704
-0.025896178236423942 -0.06846591455876383 0.023644655093752853
-0.025957719891851905 -0.06844382661963982 0.022072506241296752
-0.026013627371299485 -0.06849330095211204 0.020561413882240975
-0.026069708564443784 -0.06854380470360255 0.01904458269981324
-0.026126100008666078 -0.06859370920636654 0.01752040726689763
-0.026182735942658828 -0.06864383007424546 0.015989623645312256
-0.026239617959884727 -0.0686941687173997 0.014452188766170548
-0.02629674766768386 -0.06874472655827041 0.012908059185501475
-0.026354126687425025 -0.068795505031714 0.01135719108015859
-0.02645939392619536 -0.0682798459955204 0.009237536793572643
-0.02838217611353362 0.015547606745929476 0.02568841159404478
-0.027998000613689032 0.009334609541822803 0.028716124343307614
-0.02784269350788085 0.006344678185475183 0.029370141862425925
-0.027701947714419025 0.0035670298687999202 0.02988174401960636
-0.02761424574065693 0.0015362992188012181 0.02984311219993846
-0.02758112456703862 0.0002691960192113818 0.029232424487216246
-0.02748207890169567 -0.0019101900118430049 0.029324663800209705
-0.027360747387087894 -0.004392189673047275 0.02966142223132473
-0.02724040530502072 -0.006853436005511415 0.02999604602103756
-0.027126321851679885 -0.009221406187616243 0.030271882373836267
-0.02702002419267723 -0.01147564907679488 0.030471834668694964
-0.02691455636147205 -0.013712293898172079 0.0306702260075013
-0.026810581699204347 -0.01592233068822496 0.03085978138225548
-0.02671638940865268 -0.01799263383714761 0.030950229895375103
-0.026622782905080983 -0.020049446267169813 0.03104084929882539
-0.02652997650028618 -0.022089903676694 0.031129233615152796
-0.026440651153330868 -0.024077680886772423 0.03118587353569313
-0.026357272526962953 -0.025979682504040147 0.031183256896333944
-0.0262743462835039 -0.02787069699152933 0.031181450000096922
-0.026191868844342374 -0.02975081226958448 0.031180445242811827
-0.02611189362339028 -0.03159243157824043 0.03115737183504691
-0.026037412050896352 -0.03335560115062347 0.031078614176116348
-0.0259633541723742 -0.03510874080160292 0.031000304535979406
-0.02588964664986026 -0.03685286826799761 0.030923221475248786
-0.02581642577873931 -0.0385861958418553 0.030845794474953336
-0.025749065971778822 -0.0402372191866896 0.03070729985715398
-0.02568274296587435 -0.04187053420087489 0.030561755443591243
-0.025616760744385757 -0.04349545682851774 0.03041695887410273
-0.025551184608666573 -0.045111153338428245 0.030272130528419483
-0.02548702459633337 -0.046704331219870054 0.030115684787021924
-0.025427557511362366 -0.04823197077419533 0.029909910717364985
-0.025368300328462916 -0.049753377826700085 0.0297058644794988
-0.025309385334781238 -0.05126683675604249 0.029501998486487657
-0.025250677020529595 -0.05277414985904666 0.02929984453850004
-0.02519369310405027 -0.05425552968859848 0.029081771588352567
-0.02514058185892799 -0.05568315612613711 0.028822599172431462
-0.025087694072135815 -0.057104776019895276 0.028564517189135608
-0.024943166870304512 -0.0597111273908319 0.02938294522024759
-0.024877190548084516 -0.061293158801665415 0.029289104231783214
-0.02482713529255841 -0.06266589776480969 0.029012360444649665
-0.024780027745036664 -0.06399776218236675 0.028704285652085715
-0.024733162266539002 -0.06532376447305538 0.028396623819498645
-0.0246864737230337 -0.06664476060116326 0.02809012352724538
-0.02467082337739253 -0.06756615527248333 0.027417024482179198
-0.024684825383643725 -0.06810834884834649 0.026390646366355797
-0.02473532628350994 -0.06818679649078685 0.02492583171119478
-0.02478597032507182 -0.06826637741520797 0.02345577952825001
-0.024836886349863443 -0.06834547178024758 0.021978921648144245
-0.024888011991463437 -0.06842489176986472 0.020495983673660678
-0.02493934854700266 -0.06850463939906193 0.01900692798053155
-0.024990897324336948 -0.06858471669949573 0.017511716633411
-0.025042659642157232 -0.06866512571966066 0.016010311382664955
-0.025094571314464114 -0.06874668901980424 0.01450347487474335
-0.025146764440426076 -0.06882776918750266 0.012989571421364587
-0.02520413081127907 -0.06884741367791469 0.011408407530656639
-0.025266142105139888 -0.06881264614866306 0.009765959024074622
-0.02695985112741843 0.013602339649310402 0.02713163634585969
-0.026664704681926076 0.008444062777611672 0.029380425512401942
-0.02652962511427761 0.0056489071949819 0.029891967283732168
-0.02639552754989565 0.0028763776337004665 0.030402538141927338
-0.026313770567416257 0.000875666551651888 0.03034396670389511
-0.026284296242909885 -0.00035887561181580097 0.02971116787636785
-0.026201579563856336 -0.002365119528353221 0.029673303652436367
-0.026085964676312093 -0.0048432386308087105 0.030008952922212617
-0.025976733331485837 -0.007221930573986457 0.030281498909515703
-0.025874613790369032 -0.009491268220137905 0.030482055097221017
-0.025773366406772653 -0.011741790386065432 0.03068022398420911
-0.025673914030292243 -0.013960311216984989 0.030865467078013575
-0.025583355828964975 -0.016045162459487006 0.0309569941606071
-0.025493505058867435 -0.018114343922193854 0.03104707109693844
-0.025404353546058186 -0.020168037315881127 0.031135713860883873
-0.02531896707032147 -0.022162611696509016 0.03118770595514453
-0.02523887280031146 -0.024076693505224844 0.03118507523440711
-0.02515928367433184 -0.02597870345164499 0.031182461105262682
-0.025080057816071588 -0.027870696991533828 0.031181450000100586
-0.025003713994235184 -0.029717117013553673 0.031152764511031106
-0.024932168774789806 -0.0314912055494137 0.03107377199415895
-0.024860964460258195 -0.03325611808699758 0.03099601710793981
-0.024790232675757026 -0.03501003814035586 0.03091792024788198
-0.024719835625708005 -0.03675493929544493 0.03084104932829218
-0.024655732608492322 -0.038407558810140296 0.030695105761190777
-0.024592027106494434 -0.04005071014826489 0.030549137606392662
-0.024528649960746392 -0.041685392217745754 0.030403921812904355
-0.024465598639111952 -0.04331167032978883 0.030259452578850987
-0.024404558248515642 -0.04490622787800569 0.030095580440625547
-0.024347439261742876 -0.0464428391118345 0.029889211817740957
-0.024290522717535908 -0.04797316127071366 0.029684579234442177
-0.02423393566617437 -0.04949546437683838 0.029480130132607696
-0.024177547940895334 -0.051011566161201505 0.029277401146391713
-0.024123388045288963 -0.05249369122084041 0.029051787815416674
-0.02407237515207714 -0.053929478145504695 0.028791873710224958
-0.02402164044547214 -0.05535834760371133 0.028532289802224775
-0.023971056517832268 -0.05678205912714296 0.028274563594655855
-0.02392074754254998 -0.058198940392799825 0.028017155659377013
-0.023772311506972694 -0.06094221990338955 0.02897047937441244
-0.023727065430808075 -0.06228149808600164 0.028661528269828207
-0.023681991262061546 -0.06361568783059646 0.028353750990484594
-0.023637148917189085 -0.06494399864452827 0.02804638513423907
-0.023592536735869026 -0.06626647410708492 0.02773942599734769
-0.02355190075100182 -0.06753295540045184 0.027386085184644915
-0.02360006157386253 -0.06761019011141889 0.025923984280120382
-0.023648358814177508 -0.06768855409713437 0.024456656819336564
-0.023696915341948635 -0.06776642526303012 0.02298254059246002
-0.023745610224810216 -0.06784543256071235 0.0215031345164719
-0.023794567354463315 -0.06792394806558077 0.02001685426469013
-0.023843726774332108 -0.06800278799549614 0.018524432722443862
-0.02389308974080278 -0.06808195436540482 0.017025831747337294
-0.023942657520687846 -0.06816144920696715 0.015521012880452656
-0.023992368652699787 -0.06824209770033607 0.014010741131594118
-0.02404234964042927 -0.06832225715266038 0.012493375472408308
-0.024092539304014938 -0.0684027512791045 0.010969674652727968
-0.024142875424819334 -0.06848440983759918 0.00944041977150295
-0.02558763031379461 0.012236518000077523 0.02814496125849686
-0.02534942857531284 0.007742239107192128 0.02990394915371314
-0.025221022682339868 0.004952258907988616 0.03041445067385573
-0.02510429249371595 0.002349764365267515 0.03079963682777548
-0.025022197531760864 0.0002853398110401195 0.030791519211580354
-0.024994284453794875 -0.0009455530162567616 0.030158358793877404
-0.02492406252759876 -0.0028200487057915002 0.03002194324481189
-0.024819783604520636 -0.005208455893552566 0.030290350773735153
-0.024721897839451994 -0.007493047168050049 0.03049151832773961
-0.02462478113692154 -0.009759689013827011 0.030691105361519366
-0.024529870445200778 -0.01198672049574867 0.030872004877019854
-0.024443139061611323 -0.014084194997672272 0.03096298930781699
-0.024357018837350145 -0.016166889485103364 0.03105333260984594
-0.024271503335226007 -0.018234959632308867 0.03114304153595765
-0.024190201844909907 -0.02023433411556652 0.03118874667353183
-0.024113368513073396 -0.022161615894136233 0.031186905123337272
-0.02403708783559132 -0.024075706118244722 0.031184276928728827
-0.023961156842692885 -0.025979682504050694 0.031183256896342493
-0.02388851189886705 -0.027829918695686573 0.03114812799067085
-0.023819941744002444 -0.029615029300620765 0.031068899215654755
-0.02375169955265147 -0.03139087697492793 0.03099091333655135
-0.023683911453159262 -0.03315563013036393 0.03091258571467065
-0.02361689216291114 -0.03490469355452708 0.030829992135318673
-0.0235554567817006 -0.03656732062724127 0.03068361860709129
-0.023494403367950334 -0.03822039298853808 0.030537222613185144
-0.023433728468074667 -0.03986399804053703 0.03039080315004644
-0.02337330363001493 -0.04150004917353345 0.03024591677754629
-0.023315304549430177 -0.043096849950986005 0.03007535003462819
-0.023260564285002845 -0.044642515457811116 0.029868383435228074
-0.023206018831481053 -0.04618183460607411 0.029663161150822792
-0.023151789935155962 -0.04771306291801325 0.029458125619983178
-0.0230977528426331 -0.04923803371916158 0.029254818341339806
-0.023046398480639777 -0.0507208493297755 0.02902161678117693
-0.022997511196171223 -0.05216487094019889 0.028760956761607837
-0.02294889114718382 -0.05360191409973547 0.028500631040681512
-0.02290041622835568 -0.05503375341372052 0.028242171999387555
-0.022852205427865833 -0.05645870250545648 0.027984035218662884
-0.02280580413586302 -0.057854752509374 0.027706289199889544
-0.022737264379981414 -0.05956276087010259 0.027718039306100617
-0.022624352421745438 -0.061896174806783444 0.028309853147526765
-0.022581379890120015 -0.06323187080885478 0.028001617513820742
-0.02253857029245217 -0.06456250240752548 0.027694550581358002
-0.02251052654073128 -0.06568222213693126 0.027197784342204878
-0.02254863195273854 -0.06586973363978776 0.025836111953724206
-0.022586866591802087 -0.06605788105126847 0.02446982171948814
-0.022625231116410807 -0.0662466676117095 0.023098890108816716
-0.022663667408332255 -0.06643691768920201 0.021724070663643125
-0.022702293496928115 -0.06662699326256238 0.020343789976812743
-0.022741051472550223 -0.06681771784035867 0.018958796384207166
-0.02277994201183738 -0.06700909475226652 0.0175690657065396
-0.022819025385602414 -0.06720030261425253 0.016173776548254137
-0.022858243099949663 -0.06739216771162226 0.014773691387459209
-0.022897535848120043 -0.06758552000786827 0.013369592598918456
-0.022937024122816063 -0.06777871070125518 0.011959846043497757
-0.022982329319710792 -0.06789467956610229 0.010468378016367186
-0.023030484300404264 -0.06797457670744711 0.008934775848111254
-0.024251933473505547 0.011320815436110299 0.028824335627145148
-0.024038720879864754 0.007040668321064092 0.030427284156608947
-0.023927374617522503 0.004424429477389302 0.030810320606295793
-0.023820198826644157 0.0018831142598795814 0.031151519612939382
-0.023734658408350217 -0.00030207995514991426 0.031236867814880553
-0.023708154443261485 -0.001531523777413446 0.03060501107728192
-0.023655256287735196 -0.0031829934014495076 0.030300089595990287
-0.023561728795585428 -0.005481906257213398 0.030501042744465412
-0.023468871613920438 -0.007763772856554052 0.030701234932487775
-0.023378520997703867 -0.00999936232352766 0.030877766640809823
-0.023295594891342128 -0.012110625722643042 0.030969022981769956
-0.0232132550010908 -0.014206964308921488 0.03105963421902347
-0.023131495132779616 -0.016288535783304248 0.03114960716896692
-0.02305415005694864 -0.018294731136836162 0.03119059999683188
-0.0229807553707736 -0.02023332979935999 0.0311879432906616
-0.022907763302040487 -0.022160620086265237 0.031186104287108385
-0.022835233443811387 -0.024075706118250495 0.03118427692873349
-0.022766220373708363 -0.02593072330567059 0.031143461995560784
-0.02270060247905584 -0.027727931975569386 0.031064789479856525
-0.02263542347191419 -0.029513846498298135 0.030985777306465012
-0.0225705563154693 -0.031290491115618824 0.03090800736895677
-0.022506975176257122 -0.033042749360086554 0.030818865031585485
-0.022448303155481197 -0.0347145357404961 0.030671272847133557
-0.0223899362361723 -0.0363776286334514 0.03052444815953237
-0.022331872044656507 -0.0380320956738448 0.030378384997693797
-0.022274108231818853 -0.03967800379679054 0.030233077452310464
-0.02221919946056707 -0.04127609106334773 0.030054992379660028
-0.022166868981712995 -0.042830894464629066 0.029847424351035212
-0.02211472550643797 -0.04437929350202774 0.029641608981204493
-0.022062885408981717 -0.045919529052508457 0.029435983672996824
-0.022011229420684474 -0.04745345019865682 0.029232094820297483
-0.021962661592609702 -0.048936900610981826 0.028991256725849457
-0.02191598542242573 -0.05038835384935231 0.028729073879619926
-0.021869449614364666 -0.05183452326865401 0.02846877477924581
-0.021823168383695083 -0.0532736973194215 0.028208808013941433
-0.02177702549635945 -0.05470765420626389 0.027950709032730725
-0.0217332392615 -0.05610303936527472 0.027664480189980745
-0.021691669084469532 -0.05746220209848579 0.027351742272820112
-0.021650201165388558 -0.05881702083493617 0.027040966136075928
-0.021554746774772045 -0.060975638480264716 0.027469702181646294
-0.02147806465130074 -0.06284795863713555 0.027649396741673604
-0.021463293086781278 -0.0637942818797661 0.026986059907841087
-0.02149975900491918 -0.06397927345810189 0.025619034097200344
-0.02153634904439018 -0.06416489470389519 0.02424735525503252
-0.02157306383999419 -0.0643511488374815 0.02287099958411154
-0.021609904030866985 -0.06453803910119832 0.021489943124662403
-0.021646870260517693 -0.06472556875956748 0.02010416175296509
-0.021684019817984443 -0.06491291016182721 0.018712840543076814
-0.02172124026801388 -0.06510172756052507 0.017317531304828604
-0.021758588714969596 -0.06529119428095997 0.01591742375559052
-0.021796065820239255 -0.06548131367831767 0.014512493101456303
-0.021833729675710532 -0.06567125445092936 0.013101903524270486
-0.021871466298745968 -0.06586268842225484 0.01168724646405106
-0.021909391417464587 -0.06605394871185705 0.01026686970848295
-0.021947448288939967 -0.06624587344423277 0.008841558530550742
-0.022935045635769133 0.010626198747614335 0.029339682850980542
-0.022742769391499884 0.006513888231491571 0.030820234469183083
