# .PCD v0.7 - Point Cloud Data file format
VERSION 0.7
FIELDS x y z
SIZE 4 4 4
TYPE F F F
COUNT 1 1 1
WIDTH 758
HEIGHT 1
VIEWPOINT 0 0 0 1 0 0 0
POINTS 758
DATA ascii
0.014699839046361629 -0.01027745581002262 0.027914166562142906
0.01347534029314279 -0.01026713110157499 0.027225860763374243
0.012937678068830172 -0.010274585753619949 0.026028425739790695
0.011164288130999678 -0.010249939217727065 0.02575545564308379
0.008940713277023171 -0.010213458917936099 0.025829659299298813
0.006801012967263043 -0.010179015664898197 0.025851704807425047
0.00466106787640469 -0.01014442117561672 0.025884752123530697
0.0025690786727947112 -0.010110938407527918 0.025891933548899626
0.0005428310799463487 -0.010079041762519012 0.02585901944579294
-0.0014465416445298973 -0.01004798116431342 0.025807619521334424
-0.0024923553603617976 -0.010041688146039835 0.02503119683960564
-0.003961308807586605 -0.010024178552163634 0.024588090731007706
-0.004824221862420042 -0.010022655115710355 0.023673473285941715
-0.005190740509818936 -0.010034308236163587 0.0223664796966353
-0.005125832114889484 -0.010057493376078797 0.020712490278857354
-0.005315530154660075 -0.010073987163767227 0.019254747716610787
-0.0044829873420312305 -0.01011787500135612 0.016969620806421448
-0.05465568963227657 -0.009068971668405616 0.03550270728391902
-0.05773406789111735 -0.009003932276625312 0.03669083866537537
-0.06110207046707772 -0.008930568308870778 0.03815544477187849
-0.06381941249287437 -0.008874967220182977 0.039069039550079676
-0.06611848240627982 -0.008830772635223855 0.03962933392026108
-0.06857184398742999 -0.00878207059818825 0.04034234345221743
-0.06989977660367758 -0.008764651525483632 0.04006053976917662
-0.07113971704183358 -0.008749622476168225 0.039705126705201266
-0.07198677724067082 -0.008745572371651284 0.03899808023001877
-0.07256285180917049 -0.008749140646088548 0.03804508138613699
-0.07292740598279834 -0.008758699559012139 0.036896813361819325
-0.07301901639727248 -0.008776028853131482 0.03549357584828178
-0.07285895087990657 -0.008800578219668691 0.03385111700093413
-0.07275595837166599 -0.008823616686749648 0.03225346721417427
-0.0728479073991199 -0.008841204070878144 0.030830553353876466
-0.07286711707536286 -0.008860950319811392 0.029333114209175837
-0.07288010870943618 -0.008880965487247018 0.027823004019616737
-0.07286393485091708 -0.008901910052642674 0.02627824935998868
-0.0728540190320856 -0.008922771413355608 0.02473224994739842
-0.07293054392138387 -0.00894123699015467 0.023262139051178743
-0.07295572286232671 -0.00896127228299864 0.02173600173631096
-0.07300411670427548 -0.008980728344244049 0.020225451948974238
-0.07298166837797276 -0.009002332159320538 0.01863894561182111
-0.07296951810162333 -0.009023737300127782 0.0170550024862971
-0.07296613603551716 -0.009044986998264937 0.015472217455949011
-0.0729965130400348 -0.009065349409422855 0.013915457856514657
-0.07302138631806387 -0.009085969037896902 0.01234604970700759
-0.07304475776447417 -0.009106730134787994 0.010767867253767827
-0.0731394482359185 -0.009125489261266339 0.009254186716178614
-0.07328477013627605 -0.009142842830256832 0.0077851256312176376
-0.07330158564675171 -0.009164081185764929 0.006179117075935547
-0.0729974769001745 -0.00919493896936801 0.004237242867313196
0.04886855654742134 -0.012054870246132608 0.035928485031061164
0.04808424235609643 -0.012057014098262372 0.0348514722019061
0.047832145957454386 -0.012074081179263155 0.03341816451415652
0.043473219005469244 -0.01197589781965976 0.03474056829248323
0.04013956524390028 -0.011906167156601094 0.0353962248771843
0.03768290687951614 -0.011860880688487029 0.0354744981790876
0.035653744329680936 -0.011827488125211495 0.03527275292665688
0.033938629478327764 -0.011802850245117074 0.03486416075307919
0.032416058385335234 -0.011783573891872144 0.034329148294960476
0.027235858865115148 -0.011660262986172747 0.036340702404161374
0.026091291956036433 -0.011651383590512267 0.035566053249415475
0.025104348906024476 -0.011646966211047017 0.0346830752056152
0.02442457404345233 -0.011651314543854725 0.033584319475210345
0.02408942013462889 -0.011665555594668696 0.03223961265125186
0.024102929529882522 -0.011689866293924496 0.030642028011160227
0.02398069667043995 -0.011710371303032239 0.029135284427857733
0.023351277850757246 -0.01171633785107967 0.02798912753503241
0.021825701018947263 -0.011696438172032335 0.027491907812998984
0.020119743451247785 -0.011671234055554354 0.027131814244812535
0.016883750213534277 -0.011601538142505906 0.02790155148123108
0.014784057395326566 -0.011564586089393933 0.02785202172714052
0.013797052783827146 -0.011559894419242609 0.026987177059302647
0.013248695519509746 -0.011567988231677944 0.02579642297408552
0.011091476569694114 -0.011529051655262829 0.025810064033615243
0.008957894145668222 -0.011490644928793248 0.025816703867640345
0.0068532413397288106 -0.011452926876359704 0.025812108184427696
0.004675695745576969 -0.011412904432243472 0.025873602125331352
0.002660564232042806 -0.011377504499826526 0.025821822643144643
0.0006169508336439367 -0.01134111310557699 0.025801910576119746
-0.0014388630231451094 -0.01130420628497375 0.025801671305457075
-0.002632237654661196 -0.01129274643851741 0.025140139362421376
-0.0031987987941051177 -0.011299885823281251 0.02399104330988533
-0.003612246766106497 -0.011311620484342678 0.022719397257414897
-0.003922845164527788 -0.011326478096677015 0.02136302870971596
-0.00402985052437016 -0.01134749507746593 0.019840449129714666
-0.0032390806212421186 -0.011395540232116998 0.017593732570622522
-0.054563649046197316 -0.010205452896656066 0.03542257248635178
-0.057615035631775946 -0.010133130457751088 0.03658665768392311
-0.06091113362746431 -0.010052848344793206 0.03798745081426752
-0.06370752495292581 -0.009987837850803448 0.038970078562734545
-0.06606242694981396 -0.009936376497835225 0.03957949406376482
-0.0685299646575171 -0.00988114524469024 0.040304912275954174
-0.06985344449194653 -0.00986169196544129 0.040018911437563975
-0.07111941690731322 -0.009843965978341803 0.039686791857031
-0.07199144662719498 -0.009838621214634581 0.0390023196660253
-0.07258538660442948 -0.009842068785192264 0.03806564834733983
-0.07295693121707802 -0.009852598813450235 0.036923901337344245
-0.0730719359261956 -0.009871347070001056 0.035542380847687016
-0.07307044174131067 -0.00989389954587771 0.034047183588165275
-0.07283269749065546 -0.009924113603472496 0.03232498119612304
-0.07291066066494101 -0.00994434227178827 0.030889338988548565
-0.07293708004548427 -0.009966320458391844 0.029398995550950935
-0.07297227978844373 -0.009988116924016284 0.02791025027791527
-0.07300368783802258 -0.010010136348464463 0.02641122430964221
-0.07301704354408634 -0.010032841801853681 0.024888175368896093
-0.0730035048446685 -0.010056524875057758 0.02333228592800296
-0.07306856511698223 -0.0100777623910482 0.021845055968231497
-0.07304792102109942 -0.010101891828689369 0.02026800583345334
-0.07318595701914843 -0.010120950492531474 0.01883843365075033
-0.07319987893342639 -0.010144162018801499 0.017281118054469635
-0.07319944490591374 -0.01016795349968672 0.01570241523921795
-0.07325199974658697 -0.010190113667038654 0.014168845340156944
-0.07328226012501526 -0.010213113327029984 0.012606121485118582
-0.07330781996016394 -0.010236376927632901 0.011031479789473941
-0.07332541601020698 -0.01026001445105682 0.009441508884177996
-0.07333580429203651 -0.010284003452177316 0.007836797635680348
-0.07335111200863575 -0.010307942762671937 0.006229521975235741
-0.07307575202182143 -0.01034169460757917 0.004317318635813805
0.04802476641133302 -0.013394834109652594 0.03489100391446659
0.047619253500328695 -0.01340901685638666 0.033560458173884145
0.04373966673496538 -0.013314866236811105 0.03456148523402203
0.04026003952694546 -0.013232840939837542 0.03531480127932851
0.03770194263452009 -0.013179352623179682 0.035461561112761275
0.035704123063835025 -0.01314323479052826 0.03523832435105012
0.03395865516751939 -0.013114907899328633 0.034850399379858676
0.03242228317253243 -0.013093056058859735 0.034324847014659265
0.028199190026761467 -0.012986269520205677 0.03567136628744011
0.027129164461642596 -0.01297882418914653 0.03484094207581406
0.026085871628177992 -0.012972196162526171 0.03399355109575142
0.025170834028861278 -0.012969616146910294 0.03305718141543024
0.024320234548011577 -0.012969077169087023 0.03207567492066221
0.02393113593153917 -0.012983259499748512 0.030764715829283196
0.02400009093515232 -0.013012143687545986 0.02912135789529352
0.023520864224546134 -0.01302358585825233 0.027866684910589357
0.02170290665814467 -0.012992100585728738 0.027581051156410796
0.019547398650330672 -0.012949626982467124 0.027549581045281213
0.01708206838717108 -0.0128969905384716 0.027756005141103823
0.014864800121771049 -0.012852148170045659 0.02779244155875432
0.013919580533109321 -0.012848293135674397 0.026896271738878097
0.013336147890213645 -0.012856156835344043 0.025731188075444167
0.011130768356590826 -0.01281133451362633 0.02578059534478261
0.009018611946132349 -0.012769360924517357 0.025770918911674545
0.007012283404375708 -0.012730665415288285 0.0256915314102103
0.005128579949412682 -0.012695818073307177 0.02552839408458435
0.0030616040778030373 -0.012654816702437264 0.0255144816041743
0.0009469651434257931 -0.012612076627210686 0.025547636333864088
-0.0013115722888182857 -0.012564419117832789 0.02570306600523259
-0.0028615094100225003 -0.01253993331353338 0.025318699798283217
-0.00351070893531108 -0.012545118202636922 0.024235269801520076
-0.0036024235934759563 -0.012568792610671403 0.02271166438108807
-0.003655122530378585 -0.012593863260971831 0.02115114486421138
-0.003660917624710436 -0.012620601533049398 0.01954689979224511
-0.003666737378789864 -0.012647453583765404 0.01793582822001777
-0.003014466857090392 -0.012696408371235162 0.01578862520048252
-0.05402828133666043 -0.011357874634376097 0.034956456560157445
-0.055774098381984216 -0.011322729961328803 0.03497540834247159
-0.06085183130505545 -0.011171887918158836 0.03793527423138726
-0.06358825408913521 -0.01110174280193119 0.038864587259166306
-0.06597189557044109 -0.011043571741315091 0.039499001079837504
-0.06845487000962946 -0.010981671856044501 0.04023779369962177
-0.069810241190151 -0.010958947153795676 0.039980094269368716
-0.07108974272586882 -0.010938780583709682 0.039659990477423746
-0.07197588146027573 -0.010932348418655565 0.038988187717696854
-0.0725923794964391 -0.010935385647785376 0.03807203059031139
-0.07298645082949062 -0.010946289779612902 0.03695098415507786
-0.07313105990532615 -0.010966071199876637 0.03559690789705838
-0.07313749664886016 -0.010990843446181082 0.034109348103421644
-0.07315724386953643 -0.011015255734150567 0.03262742933712909
-0.07320526121155846 -0.011038772578748808 0.031165313153096563
-0.07323465918637334 -0.011063062320149013 0.029679213972953478
-0.07322802335039541 -0.011088753624650588 0.0281523291285099
-0.07327415041060359 -0.011112670475361854 0.026668569413435705
-0.07330626671217672 -0.01113720170869841 0.02516480398037263
-0.07336937706202079 -0.011160729499347734 0.023684046736509867
-0.07329162372932296 -0.011189455460236341 0.022060626684328455
-0.07313867601509294 -0.011221037970407095 0.020356170147163066
-0.07326807534833985 -0.011242520064242945 0.018918622271890784
-0.0733061453454753 -0.011267425175570889 0.017385426108708024
-0.07334358398899354 -0.011292470061114782 0.01584463228116323
-0.0733811894382615 -0.011317626532686715 0.014296973536444268
-0.07341815902992799 -0.01134292478570857 0.012741602583267175
-0.07341098615255293 -0.011369963533000852 0.011134861810989827
-0.07337227699635607 -0.011398291092217815 0.009488711156472873
-0.0733876312967433 -0.01142475821283243 0.007889272398485692
-0.0733965648897637 -0.011451588649186842 0.00627578113518612
-0.07315806131664465 -0.011487720300140556 0.00440152137991745
0.04820324349851163 -0.01474041833598601 0.03477237604000333
0.04696602416254175 -0.014727544757477918 0.033997065437335994
0.04174358787325383 -0.014577847972105623 0.035903076352704566
0.03914124905560412 -0.014517651288083942 0.03607094560424823
0.03685714748849822 -0.014468177985105338 0.03603570019124769
0.03492586752341642 -0.014430687080225503 0.035770180305046806
0.033326272843389126 -0.01440451998906592 0.03528496365862788
0.03175356417734421 -0.01437917894654448 0.034786926721152966
0.030482778536478572 -0.014364223143296771 0.03408469669121189
0.02755604495775621 -0.014291565628038475 0.03454270138068771
0.02654796783639235 -0.014285533384557757 0.03366892643913488
0.02555652278134457 -0.014280057801349725 0.03278474121410868
0.024646963549676715 -0.014277427619154591 0.03184361310846501
0.024018224421745116 -0.014284641725583157 0.030702520864220317
0.02395645643862987 -0.014311823604362263 0.029152690727228925
0.023474819643652722 -0.014324321904831069 0.027899929440795446
0.02150202172665966 -0.014284217165844226 0.027726884843858657
0.019440041272776654 -0.014240790929577082 0.027627943508005737
0.01710450960962795 -0.014187485301505463 0.027739535456371034
0.014939721231601866 -0.0141400250164061 0.027737157169237636
0.013995468971092051 -0.014135824458926654 0.026839968878409726
0.013415471409973123 -0.01414460272322306 0.025672016874826786
0.011186252454080503 -0.014094451732438748 0.025738982485372985
0.0093442884263355 -0.014057965568334019 0.025525338815043874
0.007568814194595985 -0.014023713542971833 0.025269600975728113
0.006062461582165279 -0.013999000302123052 0.024816548880000677
0.004571551748298763 -0.013974739716366404 0.024357317569859205
0.0026894567405166825 -0.01393624267904519 0.024205055974909462
-0.0004170508430709208 -0.013853249585445105 0.02501012824993054
-0.00269558796714664 -0.01379994701509977 0.025189477578511532
-0.003738319499622944 -0.013791353748020974 0.024413489494428953
-0.0038849095176625714 -0.013815378371652195 0.022934039452558175
-0.003906464842472035 -0.013844071385231927 0.021350064824018355
-0.003987191746330054 -0.01387072174089411 0.019806506762301834
-0.003905980213279092 -0.013903425129529101 0.01812720584093286
-0.05307362847961988 -0.012529915380483193 0.034125291563227744
-0.05506612191072585 -0.012481948411046653 0.03435576385257538
-0.06066966966952986 -0.012296025201824028 0.03777500105341497
-0.06350625442719487 -0.01221505191806086 0.038792061153834934
-0.06584843322372941 -0.012152659432027172 0.0393892286146621
-0.06830536448802549 -0.012085580268902637 0.04010416769502423
-0.06977881311918305 -0.01205605146667688 0.039951856873935654
-0.07106162513456821 -0.012033743265849425 0.03963459499214289
-0.0719579795922759 -0.01202627537734813 0.03897193422842382
-0.07259859513597339 -0.012028683361178545 0.03807770345379574
-0.07300819852641655 -0.012040074138085792 0.036970936615961736
-0.07319327130956943 -0.012060256707839147 0.0356542823221313
-0.07319828880506046 -0.012087556028896029 0.03416570661705892
-0.07324081199760507 -0.012113513507673583 0.032705307343560364
-0.07328195346383087 -0.01213964403871209 0.03123715646938091
-0.07331700094619709 -0.012166133925107498 0.029756751927844383
-0.07333805983947644 -0.012193296484157385 0.02825648622477045
-0.07336236254514922 -0.012220456307901096 0.026752503248361037
-0.07339308626624697 -0.012247487702003698 0.025247842876772397
-0.07343501586304285 -0.012274200068538119 0.023747153899672024
-0.0734081848967974 -0.012303768975672086 0.02217327498818855
-0.07319358085693706 -0.012340954822506493 0.020409507682515315
-0.07334218363825024 -0.012363813335977738 0.01899098908258351
-0.07336523946139989 -0.012391802874363684 0.01744343119357139
-0.07340840283025996 -0.012419117077378859 0.01590858678725726
-0.07340765600712901 -0.012448325074339508 0.014323222641051236
-0.0734028864050113 -0.012477832759629635 0.01272637691241535
-0.07340615177269344 -0.012507155174418985 0.011130017317352137
-0.07341266301756372 -0.012536484920046755 0.009529391306990487
-0.07344753465087311 -0.012564802718297565 0.007949924452699209
-0.07346390801454716 -0.012594007740031238 0.006344318845087238
-0.07323381241360949 -0.01263340314370875 0.00447901506088022
0.04603979793591639 -0.01599978118614141 0.03621034744946977
0.04167309270530939 -0.015868643288098307 0.037534769862874295
0.03885666897002171 -0.01579502148399984 0.03784341289712945
0.03672581994633051 -0.0157468230872963 0.037703434492925736
0.03478308077061887 -0.01570550172953006 0.03744527594429281
0.033076770644462405 -0.01567291904313092 0.03703384388790981
0.03158778937197043 -0.01564840714037012 0.03647962515861264
0.030149014611858704 -0.015625694682090383 0.03589565818774676
0.028689905108357894 -0.015602119416094256 0.035330410507943666
0.027560928727774492 -0.015590984317284803 0.03453928932748235
0.026463983343721964 -0.01558102261285995 0.03372792592151447
0.0255273887701003 -0.015577134055855566 0.0328053206990887
0.02463727515567188 -0.015575005430539983 0.03185049436558818
0.023917834027173512 -0.01557940214602336 0.030774215494225543
0.02318229066170957 -0.015583199202288263 0.029708599655062784
0.02252113970195374 -0.015589871684167483 0.028588493458831965
0.02152246197374924 -0.015583569746756763 0.02771204611711403
0.019324397972289298 -0.015530944350521426 0.027712354044386656
0.01713404136954061 -0.015478399007213584 0.02771786200358567
0.014928012948424163 -0.015425028008988753 0.027745796727424
0.013980288962264276 -0.015420309790191487 0.026851231172662415
0.013395637553653528 -0.01542970370830024 0.025686811895204886
0.011368997994582353 -0.015382893360388703 0.025601924033876233
0.009833818960782115 -0.015355096135242894 0.025156202683757733
0.008580081149470509 -0.015338205707436036 0.024502915083149224
0.007517407845993029 -0.015328743569598107 0.02370752554716138
0.006878706291528369 -0.015335917580844622 0.022589205792743428
0.006180179905169281 -0.015340763835868215 0.02151547264077186
0.006233161139330035 -0.015375314622513023 0.01985856594220098
0.008415984259330822 -0.015494317560245042 0.016535611005441875
-0.0030721435912896555 -0.015071538482587092 0.023891871940492526
-0.0035543918709185496 -0.015084460471539057 0.022673853443189895
-0.003834374605755697 -0.015105495147987898 0.021293010415348923
-0.0037912756422184835 -0.015139517735002661 0.019650621931714463
-0.0028622971790728813 -0.015209127687071573 0.017292332033730873
-0.05344751248522822 -0.013683875330711859 0.032939103197142716
-0.06038158276584327 -0.01342583364650662 0.03752153053832641
-0.06325918931138813 -0.013335815109681856 0.03857353987961604
-0.06566787695594822 -0.013264993667394037 0.039228692976509105
-0.06821907709617075 -0.013187884177054741 0.04002704519615602
-0.06974659280021994 -0.013153408970253534 0.03992290766198847
-0.07101396986485342 -0.01312972532400592 0.039591553300283355
-0.07195486601359602 -0.013119704458498641 0.038969107343672205
-0.07262345520517965 -0.01312114914772503 0.03810039263614645
-0.07302761353493614 -0.013133803760362573 0.03698874894796944
-0.07324613136743657 -0.013154399020308419 0.03570303247439577
-0.07324425677338753 -0.013184468314839286 0.03420832208806324
-0.07327360212268041 -0.0132133432380332 0.03273586480165491
-0.07331637437078359 -0.013241776342683661 0.03126940108382009
-0.07333503186865925 -0.013271373400713668 0.029773730929210207
-0.07335298733917617 -0.013301136805953642 0.02827061612873355
-0.07338598226472537 -0.013330390010462075 0.026774977408566936
-0.07342306716516 -0.013359601960529228 0.025276518222844713
-0.07345320000463884 -0.013389249951379434 0.023764636692970964
-0.07345098125465604 -0.013420438133317482 0.02221463470711227
-0.07324528501554095 -0.013460613126260734 0.020459735900915932
-0.07341227496674213 -0.013484743610586067 0.019059433326895525
-0.07341154070966227 -0.013516309089279763 0.01748887916741315
-0.07345000062650314 -0.013546307478180912 0.015949629892338446
-0.07345416204434246 -0.013577951190896298 0.01436934655842731
-0.07345030700020322 -0.013610096381505031 0.012773651718018753
-0.07345126678157476 -0.013642181151744148 0.01117522670921639
-0.07348694577815823 -0.013672884127134629 0.009604215065100119
-0.07352440363578022 -0.013703653978054283 0.008027754182063362
-0.07354581617053835 -0.013735282260187455 0.0064276799521328365
-0.07328592069045309 -0.013779576140910335 0.0045323220404888676
0.04494795656963879 -0.01728898846190934 0.03693605864624083
0.04108775184454677 -0.017167336507285025 0.03792600163496512
0.038412299627825275 -0.017093249795399005 0.038142079434980714
0.03626491508537055 -0.017040326624143603 0.03801494107424741
0.03438796200731953 -0.016998203111058072 0.03771380627821058
0.03277597359494705 -0.016966721551252575 0.03723940709102341
0.031288537118186965 -0.016940205338541552 0.03668526711739817
0.029841396662362296 -0.016915232641508366 0.03610821983597012
0.02865560268382672 -0.016900887793488722 0.03535424431769041
0.027518199679680333 -0.01688847525783257 0.034569142040646095
0.02646763412726083 -0.016879591652972762 0.03372536122972175
0.02543151865660137 -0.016871268625053462 0.03287304077869746
0.02456583746844193 -0.01686996576208642 0.03190123353803159
0.023792113529772063 -0.016872471447842197 0.03086399982651883
0.02303384296944111 -0.016875629671752195 0.02981519620054257
0.022375280210639226 -0.016882953276575522 0.028693805097482372
0.021557335398376176 -0.016883655874496754 0.027686729533786036
0.019356580669384227 -0.01682653551780471 0.027688863200450886
0.01733970323484957 -0.01677688370642327 0.027566926104718947
0.014965481880034659 -0.016712020378832775 0.027718148351490834
0.013967445246064802 -0.016704795159607145 0.02686076013359895
0.013406137583371502 -0.016715955099070545 0.025678979421723924
0.011768620473866342 -0.016681686985902715 0.025302208713635976
0.01057271917474839 -0.016665974702014967 0.02459902647676515
0.009738294663143354 -0.01666553459771723 0.023624822550562308
0.009127129860507122 -0.016674585870842952 0.022480525404362572
0.008805335639252398 -0.016696005536901728 0.02111271343992549
0.00871331260639241 -0.016727327009938137 0.019563707583789225
0.00991249371306413 -0.016814032819727855 0.017008384466090043
-0.060440232418000284 -0.014542009188323159 0.037573132875509285
-0.06316969658298616 -0.01445117638394714 0.038494386394188285
-0.06580351398155176 -0.014364267903161643 0.03934929015505084
-0.068039225703455 -0.014295036814330192 0.03986629646412204
-0.06957752401771444 -0.014257216577600504 0.039771003268242344
-0.07096630003322624 -0.014226042278950062 0.03954849845627184
-0.07195097395258815 -0.014213190995967713 0.038965573658146124
-0.07263821398740372 -0.014213902371267444 0.038113862618807226
-0.073049355457673 -0.01422728948541796 0.037008696111313966
-0.07329198062927289 -0.014248489739577304 0.035745316924809256
-0.07329098987283167 -0.014281019248292897 0.03425164688828347
-0.07331340937209668 -0.014312615556676683 0.03277296159079801
-0.07334922355524953 -0.014343736163974044 0.031300173349327276
-0.0733851938228261 -0.014374992400235586 0.029820966443094676
-0.07340954164940033 -0.014406933281344124 0.028324148668558813
-0.07345131138451427 -0.01443820893212529 0.026837138057829335
-0.07349326286797192 -0.014469620669385605 0.02534365717277287
-0.07351880327742932 -0.014501946904475479 0.02382770969819803
-0.07349693453699441 -0.01453664981231586 0.02225904537512785
-0.07328663591922241 -0.014580384348825918 0.020499906407065893
-0.07346641472047255 -0.014605917743225963 0.01911230084433374
-0.07345862605099718 -0.01464044133492859 0.017535096784467297
-0.07349158724660826 -0.014673195035018011 0.015990661970311182
-0.07350145557758797 -0.01470719992221409 0.014416251501323751
-0.07349771307196173 -0.014742013226631878 0.012820912044839483
-0.07352213523794132 -0.014775646295235274 0.011246243426139113
-0.07354747600838102 -0.014809394565123651 0.009665186133868464
-0.07359476596332243 -0.014842250085986369 0.008098995930821473
-0.07360985274103565 -0.01487681018233523 0.0064928524534969
-0.07333475628184455 -0.014925520500315129 0.004582281049540227
0.04522822196337617 -0.01863110364188124 0.03674977541812313
0.04110698081211028 -0.01848873908764224 0.03791314932350076
0.038463037310891846 -0.01841033136886257 0.038107977964197015
0.03631020510132432 -0.018353103207524594 0.03798433142086177
0.034455429351622435 -0.01830871601468393 0.03766795416948526
0.03278094191231501 -0.018272072306227957 0.037236011767718624
0.03126876706909382 -0.0182424275245841 0.03669885281832236
0.02988689523596927 -0.018218411875187718 0.036076780669908604
0.028636003864623838 -0.01820008958914517 0.03536786185448343
0.027476699976711372 -0.018185750236839715 0.0345981358700051
0.026470068019146198 -0.01817812982514534 0.033723651409767574
0.025465492789507826 -0.018170569774914373 0.03284904236145253
0.024579154460462826 -0.01816824902199107 0.03189177504097246
0.023773987175423894 -0.01816954425365953 0.03087694491229004
0.023019366076679315 -0.018173107092255746 0.029825591692275055
0.022381305384169548 -0.018181912212713366 0.02868945487733615
0.02157898399657432 -0.018183371553831935 0.02767101359690627
0.019434078653078113 -0.01812437447832989 0.02763229575257914
0.017468645120771675 -0.018073232073210547 0.027472295243406997
0.015014670561753651 -0.017999784788950344 0.027681851955907444
0.013965110114260326 -0.017989673585022237 0.026862492605681132
0.013601072435787176 -0.018010649783826563 0.02553356820832109
0.011861402251261643 -0.01796911569698985 0.0252326227379564
0.011036379046728995 -0.017969115697513714 0.0242493984161396
0.01050962285029905 -0.017982745242211936 0.023040044775722357
0.01028871935125425 -0.01801043766057948 0.021595111365063036
0.010246894849750665 -0.018046464405510144 0.020007959610160886
0.010602871957677118 -0.018100936274096223 0.018107812314997584
0.011334403125836667 -0.01817294512216385 0.015906907557499794
-0.05969437481001488 -0.01569683497834767 0.0369168971714231
-0.06277614854297453 -0.015581953885058564 0.038146305610347764
-0.06534718449794036 -0.01549146455490219 0.03894355987628623
-0.06752309415579227 -0.015419880732830685 0.039404985097016565
-0.06945001205351398 -0.015360171652431615 0.039656436715326926
-0.07092877910412826 -0.015322195309637264 0.03951460998437384
-0.07194318953836143 -0.015306896418700415 0.03895850602178924
-0.07264054419316468 -0.01530716455745522 0.03811598934110183
-0.07307419963521838 -0.015320468342236649 0.03703148944351625
-0.07333859308024349 -0.015342218157077918 0.0357883052258805
-0.07333770887409524 -0.015377239380331269 0.03429495861851989
-0.07335242615579557 -0.015411644197080557 0.032809321736729846
-0.07339926605808594 -0.015444604265425292 0.031347051870330545
-0.07343612292733542 -0.015478214770499783 0.02986892435189492
-0.07346686035090405 -0.015512286591660332 0.028378404757242792
-0.07351110664640065 -0.01554583704749437 0.026894033241993465
-0.07355081536123115 -0.015579771038314684 0.025398703476298357
-0.07358200903726814 -0.015614291931573425 0.023888477660696184
-0.07356425522248478 -0.015651448767172112 0.02232410615994579
-0.0733335399240278 -0.01569957459121915 0.02054547149623548
-0.07351894402449566 -0.015726780707356558 0.019163595756207352
-0.07350569707311078 -0.015764231718323436 0.017581300346185547
-0.07352276988006584 -0.0158003104353366 0.016021428794933956
-0.07353831847788178 -0.015836636677393913 0.014452811515233088
-0.07356196930575298 -0.015872718437550296 0.012884970729657608
-0.07359297125464775 -0.015908592601025957 0.01131722763553622
-0.07361685487580472 -0.015945003367818775 0.009735070284006164
-0.07363680633372488 -0.01598178996962432 0.008141561741398351
-0.07369249368345887 -0.016016901099677155 0.00657695934571445
-0.07339496563993836 -0.0160705124293515 0.004643875468288483
0.045093909496854157 -0.019955636096391824 0.03683904851569153
0.041181349228600894 -0.019812836756801816 0.03786344275196002
0.038440203841888676 -0.019724286440112173 0.03812332464203172
0.036312721500296186 -0.019664157154119212 0.03798263069060831
0.03447792331336724 -0.019617538392825838 0.03765266683914431
0.03278591034841982 -0.019577454256501807 0.03723261636326958
0.031282358775299834 -0.01954609929281396 0.036689512788123435
0.029921333255419014 -0.019521355020513585 0.036052984262098964
0.02865560268398476 -0.019501024377109856 0.03535424431758061
0.027496228203635342 -0.019485659322991265 0.03458449244514633
0.026425045703629912 -0.019474426285936847 0.03375527978813281
0.02538299398336258 -0.019464535734335105 0.03290731730779284
0.02443271539303249 -0.019458987546135658 0.03199578452648233
0.0236785483587999 -0.019462801586636307 0.030945103331979473
0.022967499019876103 -0.019468698954293238 0.02986283611820678
0.02228974207127704 -0.01947622038918296 0.028755564270931788
0.021654772338223827 -0.019485833135439248 0.027615994570607982
0.0196392943250836 -0.01942887454419687 0.027482504412529585
0.017630827538687166 -0.019372018920982323 0.027353269049651185
0.015174031660859788 -0.01929320498648015 0.02756425918269989
0.01400130774534103 -0.01927640774812658 0.02683563699728808
0.01368167036054091 -0.019301046142253083 0.02547344636817328
0.012143494506884178 -0.019266377421139264 0.025021054632772044
0.011279629546758763 -0.01926450851490768 0.024065972578125427
0.011071545091503154 -0.01929473862689151 0.022614026845460877
0.010974338760651625 -0.01933053583448137 0.02107250242659353
0.010986216959394557 -0.019371847141431132 0.019441372455009376
0.010973636967796851 -0.019412127840572002 0.017822139878352627
0.014021580796791 -0.019603689673557863 0.01382529523589332
-0.059030062505259495 -0.016852591968288335 0.03633240832478957
-0.06209759835997186 -0.016730324520202833 0.037546149452619915
-0.06479672282967319 -0.01662675845364221 0.038454135076582796
-0.06721818083637615 -0.016537267753917357 0.03913245771351237
-0.06932712466283647 -0.01646377631509656 0.03954602523484374
-0.07087873716083087 -0.016419270121814315 0.03946941267636678
-0.0719361832324436 -0.016400615538938883 0.03895214484662696
-0.07264520449970108 -0.016400287204333022 0.03812024268987313
-0.07311689126182702 -0.016412526569202293 0.03707065694768369
-0.07338519150356798 -0.01643561742563057 0.035831280589964765
-0.07338441378355876 -0.016473128860623215 0.03433825728468759
-0.07339923332181858 -0.016509980033948393 0.03285294182085541
-0.07345085545240415 -0.016545033090609933 0.03139537947922322
-0.07348860154937187 -0.01658099038304078 0.029918341379620683
-0.07352651207078742 -0.016617104307723347 0.028434869208098013
-0.07356537444732891 -0.016653333572922726 0.026945669047751197
-0.07360755850365114 -0.016689551152211362 0.025452975673100897
-0.07363650327382637 -0.016726652317660462 0.023940870096638478
-0.07362600609077452 -0.016766063137324684 0.0223837841017977
-0.07338042972541475 -0.016818425921590344 0.02059102278743563
-0.07356986450873504 -0.016847349949612168 0.019213319654138195
-0.07355753840908824 -0.01688741929937244 0.017632186310815978
-0.07355634415209289 -0.016927067602833024 0.016054555366514178
-0.07358558630299011 -0.01696523349644566 0.014499690961224942
-0.07362780426374205 -0.01700286605968845 0.012950603285053486
-0.0736581439357255 -0.017041330604600294 0.01138253666130723
-0.07367572183554055 -0.01708068181874376 0.009794365968774366
-0.07369257303846094 -0.017120259913717448 0.00819802544444298
-0.07382203763631395 -0.017153778636682434 0.006708801250716323
-0.07344701972156403 -0.017215511441006023 0.004697127005968305
0.04562643806625449 -0.021312489253558237 0.03648509421669677
0.04127883698427426 -0.021138549350878427 0.03779828361142168
0.038560741753195016 -0.02104525607471661 0.038042309510628314
0.03636431433384679 -0.020977681633897825 0.03794776122282584
0.034501669569518334 -0.02092656446323427 0.03763652842536641
0.03283808609625943 -0.0208852382317134 0.037196959717474554
0.03136145548499386 -0.020853152986266003 0.03663515863670325
0.029948395729500976 -0.02082414332036148 0.036034284299677144
0.02870705846471322 -0.020803692606069624 0.03531849211332638
0.02757191763528455 -0.020788535462230636 0.03453161191086496
0.026476152875424486 -0.020775314220932404 0.03371937677096987
0.025540741343135276 -0.020770190881702486 0.032795888799241
0.024628798188888246 -0.020766242080316584 0.031856515197114355
0.023760695542249077 -0.020764514952153975 0.030886437241976594
0.023048320894811847 -0.020770746304223982 0.029804799967319606
0.022325880542999166 -0.020776487392199623 0.02872947202529813
0.02174142235990706 -0.020789339168176706 0.027553090438943717
0.020014472514052917 -0.02074344247166257 0.02720865376976983
0.017882055015937204 -0.020676443784525694 0.027168892402858746
0.015508401148057849 -0.020596699401753196 0.027317527480319848
0.014166031910724686 -0.02057003251861997 0.02671342547276745
0.013741263796310355 -0.020590875278403073 0.0254289927791988
0.012654141046439638 -0.020577359026760923 0.024638071694958796
0.011475606480023992 -0.0205590223052596 0.02391819391698702
0.011151619085718212 -0.020585236299672547 0.022553319233656444
0.011099888018424042 -0.02062580866170107 0.020976803320893245
0.011064263396177942 -0.020667396670041593 0.01938156075993086
0.011162785929699826 -0.020716210332683442 0.017676401625386806
0.01419267746151287 -0.02091961324953875 0.013692755832443948
-0.058789940950748465 -0.017989420794313385 0.03612113966478825
-0.062004994977886696 -0.017850828891441375 0.03746424469247539
-0.06465537499057417 -0.017743086555320028 0.03832846031696269
-0.06704595921713363 -0.017649371991724425 0.03897852836937976
-0.06926722154792647 -0.01756471491472847 0.039492203670513204
-0.07082007383261696 -0.01751717963857675 0.03941642863259681
-0.07191049074364914 -0.017495434730816738 0.038928818085921135
-0.07266151447048363 -0.01749272041309449 0.038135128404717666
-0.07314482850438075 -0.017505116819421948 0.037096288017546164
-0.0734434198159788 -0.01752802842774356 0.03588498161131565
-0.07344355311593403 -0.017567981410342572 0.03439308351686127
-0.07345616296312812 -0.017607407342102945 0.03290599514482584
-0.07350164638908335 -0.01764513980840789 0.03144295911367262
-0.07354106238289232 -0.017683392191092773 0.029967741656609592
-0.07358849409962037 -0.017721361532329827 0.028493539456462824
-0.07361805106104669 -0.017760532048727563 0.02699579083907827
-0.07366113014621228 -0.017799105648569756 0.025504214476665787
-0.07368939960336907 -0.01783871202834149 0.023991726255604695
-0.07368694111374485 -0.017880278497704894 0.022442673585594153
-0.07342809970928893 -0.01793689247005627 0.020637331990134955
-0.07362076824052871 -0.0179675505331364 0.019263027193290927
-0.07361015953834932 -0.01801018429436298 0.017683837698109606
-0.07360669190441177 -0.018052601277043192 0.01610423175025677
-0.0736528579611832 -0.018092314930477565 0.014566409877524056
-0.07369280886087598 -0.018132579959341744 0.01301540803245066
-0.07372409325964396 -0.01817354430277001 0.011448623954696757
-0.07373940194357048 -0.01821564341110361 0.009858509855747433
-0.07377012806244376 -0.018257032029817915 0.008276549787319454
-0.07389809412299131 -0.0182928631275235 0.006786206886952417
-0.07349824336656335 -0.018360173747605874 0.004749529003594433
0.0463700111779094 -0.022683801084274025 0.035990865522481263
0.041527890599195316 -0.02247289194648577 0.037631820455262976
0.0387359618026501 -0.022369878177802657 0.037924541787782706
0.03650279687369318 -0.022296146552206013 0.03785416658711199
0.03462294256550441 -0.022240932914857132 0.037554108957772836
0.032946206095618547 -0.022196334971892513 0.03712307104926882
0.03145294871240567 -0.02216136705388012 0.03657228577187871
0.030019759257536915 -0.022129475708778542 0.035984972648106794
0.028786717773617576 -0.02210819994982745 0.035263143698777366
0.027610994069718953 -0.022089921036593036 0.03450431110168095
0.02655040268370973 -0.022077773752434738 0.033667215947985496
0.025578376017210025 -0.022070360630261136 0.03276930467378858
0.024691778363475914 -0.02206754101551613 0.03181178303874205
0.023838040858433773 -0.0220664920408423 0.03083120044516785
0.023062799852517024 -0.022069704843366348 0.02979440299280328
0.02240540786932782 -0.022079348865387018 0.02867205270360934
0.021830518002859844 -0.022093534974119807 0.027488410893040105
0.020644524708631817 -0.022074361789900066 0.026748765099451288
0.01847701159333054 -0.02200132390575457 0.02673225187321754
0.016162333963419095 -0.02191990167573094 0.02683498956058228
0.01442449179233729 -0.021869881550722753 0.02652166990317173
0.01384764166898067 -0.021883670730666792 0.02534964044505994
0.013579914771511103 -0.02191459840428252 0.023943744966950675
0.01230107438671002 -0.02188966864754955 0.023295740345384175
0.011505959513597785 -0.021891475116253903 0.022284678192914298
0.011189448860065232 -0.021919901679561014 0.020908536151473867
0.011355754575033794 -0.021975351301722238 0.019158173476329587
0.013706971034002868 -0.02215303872744037 0.015716120751559426
-0.058512692136831024 -0.019130103639682688 0.03587720493963398
-0.06181552433151005 -0.018977700099903964 0.037296663903345795
-0.0645171366125128 -0.018860215223142476 0.03820555023185723
-0.06691666968238935 -0.018760130775057213 0.038862971139260016
-0.06915681379476618 -0.018669076777565553 0.03939300485592334
-0.0707519967415896 -0.018616061797575134 0.03935494218645491
-0.07188090019592308 -0.018590667434212407 0.03890195219404585
-0.07266073784411187 -0.01858606194734495 0.038134419596659974
-0.07315336387943289 -0.018598674317904577 0.03710411881164993
-0.07348921070029829 -0.018620775532905646 0.03592721222310402
-0.07350266986196924 -0.018662415816776932 0.03444788880994282
-0.07351463052152057 -0.01870433695655564 0.03296048166969773
-0.07355476368792813 -0.018744743680164582 0.03149271802396675
-0.07359976610635827 -0.018785040299379684 0.030023020614355633
-0.07365123541685031 -0.018825128838316545 0.028552928423457413
-0.07368092502447282 -0.018866730617706766 0.02705561540737028
-0.07371232099574687 -0.018908420404273527 0.025553176161583868
-0.07374148875377501 -0.018950439891522335 0.024041806367709972
-0.07374864303385181 -0.018994006486408775 0.02250230422241395
-0.07347893151656432 -0.019054819152684244 0.020686712759234893
-0.07366847528181392 -0.019087578847171733 0.019309613161332673
-0.073662762775346 -0.019132567526126406 0.017735471522871027
-0.07365782205566074 -0.019177719262372526 0.016154680099930374
-0.07371769936449035 -0.019219055605141443 0.014630718507282314
-0.073757786148471 -0.019261819246865704 0.013080185554269153
-0.07379242569063227 -0.019305124848167318 0.011517099340742076
-0.07382158306203984 -0.01934897844182845 0.009941289495065064
-0.07385006596039861 -0.01939308236005005 0.008357486786439272
-0.07396602784355116 -0.01943189574301111 0.006855345669080637
-0.07355838917738855 -0.019503893929531314 0.0048110584132278755
0.04697540900662556 -0.02405200537605057 0.03558847741339355
0.04169751697410262 -0.023804333842982205 0.03751844510135066
0.03890242868835503 -0.023695102071593664 0.037812657182569764
0.03662624928355224 -0.023614631549573523 0.037770730196202584
0.03474053208396927 -0.02355585345596838 0.03747419285256204
0.033038214489797824 -0.02350720016181944 0.03706019297167035
0.03151973954321091 -0.023468758157294625 0.036526388048128744
0.03012561955370774 -0.023437214858974393 0.03591182399383508
0.0288615030135288 -0.02341293335841685 0.03521118185630501
0.027709939543764273 -0.023394964008751132 0.03443518269870277
0.026655128492796498 -0.02338244357951818 0.033593645597895294
0.025618446354342128 -0.023370908833967512 0.03274100006120911
0.024748719497867 -0.023368894896002308 0.031771340155594185
0.023891232827250808 -0.02336757560782497 0.03079321296100801
0.023138831323274545 -0.023372297961447557 0.02973980671039128
0.02245121048735338 -0.02338077520470278 0.02863898287239519
0.02186664903299923 -0.02339524239754308 0.027462181343030745
0.021324693595415722 -0.023412236363832134 0.026252295175806073
0.01965429306430455 -0.02336382686658718 0.025868241246971402
0.017629690473785598 -0.023294622402538025 0.02575222518266307
0.014861479733216165 -0.023181805298010477 0.026197461476754336
0.01395056684590057 -0.02317695468783578 0.025272863641527088
0.013648966447745214 -0.023207732380753895 0.02389195647574094
0.01347661360964153 -0.02324621656769052 0.022409311470383386
0.013180515567991824 -0.023277591994518405 0.021015123702828375
0.013425300781061134 -0.02334094398544916 0.019204272557137025
0.013553400175071229 -0.023397678547604047 0.01747398501190467
0.013891647782733163 -0.02346707745368831 0.015573828314674965
-0.05821319927694146 -0.020274097754352474 0.03561369900274436
-0.061627473232095775 -0.02010579949296367 0.037130338658569406
-0.06436582616032122 -0.019979126514563378 0.03807101754406811
-0.06680645067057589 -0.019870593901017326 0.038764458883516484
-0.06905027556065763 -0.019773967547403584 0.039297282714773396
-0.07070424681969573 -0.019714138327328965 0.03931181500583508
-0.07181702772612769 -0.01968827697409892 0.038843961011076955
-0.07266462093730192 -0.01967911349029451 0.038137963601656166
-0.07318517340796155 -0.01969069243184575 0.03713330251675051
-0.07352645430903593 -0.01971374298910754 0.03596156011582491
-0.07356254143909774 -0.0197563826887238 0.03450339388340934
-0.07357619247072988 -0.019800652881343462 0.033017851889508065
-0.07361332780523494 -0.01984361971216536 0.03154757937277214
-0.07366001209787781 -0.019886169986061745 0.030079751864486803
-0.0737131675046106 -0.019928499130478172 0.028611551399166046
-0.07374691519029142 -0.019972276810311367 0.027118405041846816
-0.07376900493330768 -0.02001701145073791 0.025607391731671203
-0.07379277153137742 -0.020061844582769172 0.024091111208188076
-0.0737794847642731 -0.020109295423635248 0.022532110621022894
-0.07356784702567065 -0.02016989545250292 0.0207730900977543
-0.07371537286165092 -0.020207313738891924 0.019355408689553766
-0.07371614473950305 -0.02025451702432272 0.01778786972381985
-0.07374087252025396 -0.020300369193457308 0.016236623117426074
-0.07378571359181552 -0.020345113534160287 0.014698173891346589
-0.07383075276980067 -0.020390055553878902 0.013152927847463358
-0.07386956484431656 -0.02043562137198283 0.01159439987361277
-0.07389889011151096 -0.02048203139932399 0.010019159567791203
-0.07394045094640833 -0.020527848938187966 0.008449001446197313
-0.07402989065045384 -0.020570696864007924 0.006920341324495205
-0.07366074584571808 -0.020644351328815178 0.004915769702143191
0.041918748768456415 -0.025139885103722167 0.037370577571933516
0.03932490334997102 -0.025036540732330675 0.03752870635038347
0.03700587923827514 -0.02494910503410763 0.03751415397108593
0.03493958430247035 -0.02487635922296921 0.037338913124880024
0.0331899929052048 -0.024822207539887158 0.03695646835972738
0.03166328895493681 -0.02478115641215211 0.03642774290231415
0.030305460180080845 -0.02475005120339902 0.03578755549772822
0.02903569849941212 -0.024724103873315372 0.03509014836884644
0.027841941040578133 -0.024702620632869904 0.034342959656127825
0.026851328998312718 -0.02469328854086897 0.03345581386372609
0.025916184200366843 -0.024687266840978148 0.03253068602381559
0.02501910390646045 -0.024683523118767658 0.03157929752843747
0.02411624353864178 -0.02467941367255489 0.030632519701765115
0.02329097970913868 -0.024680000653336347 0.029630552790134213
0.022598330971801583 -0.02468866185448956 0.02853276078731426
0.021950979854630737 -0.024700121590987518 0.027400960849322642
0.021498106015524765 -0.024723514799939453 0.026125717714467367
0.02109497134751981 -0.02475005121124434 0.02481092286017117
0.019357893033108475 -0.024694831162647094 0.0244769821481014
0.017535811993373007 -0.02463415370115187 0.02421333108624718
0.014858145554501823 -0.0245204953695069 0.02459585735126746
0.013985205143343837 -0.024517815794061072 0.023639778749129925
0.013614958194651139 -0.024546234617921797 0.022304991144476483
0.01352324258920462 -0.024592046007306412 0.020755287295732394
0.013632495252935695 -0.024650539421972584 0.01904633991765947
0.013998709695881906 -0.024725282129997937 0.0171327174490023
-0.05795173755105476 -0.021417663241659175 0.03538365439645247
-0.06144249229040516 -0.021235003274516776 0.03696672887111546
-0.06417142014130955 -0.021101944020691953 0.03789816785733974
-0.06666417055915058 -0.020983953189945823 0.0386372908523997
-0.0689412950290314 -0.020879766210022244 0.03919936622574749
-0.07066196420979887 -0.020812185473491774 0.039273625838570025
-0.07179053632757426 -0.02078383921683037 0.03881990890309467
-0.07265840794164924 -0.020772813412161535 0.0381322931511785
-0.07320611758002454 -0.020783214803358128 0.03715251778240625
-0.0735489513131865 -0.020807438346640336 0.03598230796253732
-0.07362549823461079 -0.02084971695376425 0.03456175916670012
-0.0736377299351158 -0.020896532772080482 0.033075199291657253
-0.07366952850830688 -0.0209422384124508 0.03160022673631363
-0.07370694076603362 -0.020987772986414514 0.030123942721742458
-0.07376802332212123 -0.021031907310375145 0.02866347619895404
-0.07381915783689269 -0.021076923301632553 0.027187143911001632
-0.073831175910341 -0.021124819942762506 0.025666855401765165
-0.07384246015014095 -0.021172988769743974 0.0241388833753024
-0.0738364071857121 -0.02122257133718441 0.02258712220305864
-0.07365829786915973 -0.02128422218638839 0.02086095894320039
-0.07376225622443616 -0.021326709181693666 0.019401190334811247
-0.0737687119485887 -0.021376134434191327 0.017839468184619844
-0.07379754482629947 -0.02142424101283227 0.016292539719320598
-0.07384650098889212 -0.021471176146506166 0.014758461824876556
-0.07389166554576215 -0.02151859627601232 0.013213653353558119
-0.0739426508110313 -0.02156583414267088 0.01166763874003246
-0.07397454914929463 -0.02161463047955539 0.010095369626445805
-0.07403803964256711 -0.02166144350077777 0.00854780985143666
-0.07410826838732698 -0.021708005594995267 0.007000109387082065
-0.07371676961990825 -0.021787313450732676 0.004973082251497285
0.04251025871247738 -0.026499873007809812 0.03697522249061019
0.040318241376641806 -0.0264162372083973 0.036861070667247975
0.03780268105129053 -0.026312035780932014 0.03697562849698621
0.03571129233028403 -0.02623398941254265 0.036814445461878065
0.03340042637187207 -0.026141849940631966 0.03681265917835369
0.03179950526464825 -0.026093996369637034 0.036334136961528596
0.030404069404148804 -0.026058900969786726 0.03571941727877115
0.029113029607487795 -0.026030256692433827 0.03503641762116394
0.028185787276402086 -0.026024519891114397 0.03410273097076433
0.027294384374620062 -0.026021032532240057 0.033144565476833476
0.02631059422567744 -0.026011660044095233 0.03225208534903051
0.025359108213595938 -0.026004306209271393 0.03133780682737769
0.02455245582407506 -0.026006163628546186 0.03032099509284869
0.02336467980701873 -0.025983660310190185 0.029577630607812044
0.022671931256828814 -0.025992780672353402 0.028479620833571806
0.022071513413276567 -0.026007866497558214 0.027313458749545494
0.02160294811768254 -0.026031497421384702 0.026049191205442246
0.0211070203124884 -0.026053462259937023 0.02480208008635304
0.020856115948886922 -0.026091347312121985 0.023371441407370297
0.02095237888237561 -0.026151864374460133 0.021678524810802235
0.020872197150743066 -0.026201187575313395 0.020109689130247077
0.021097646965689665 -0.02627058503972694 0.018305474777307762
0.02101737577235918 -0.026320357504676928 0.016723113009155244
0.021236914557940467 -0.026389910321786822 0.014907213797528573
0.022067253806684783 -0.026499712297990856 0.012617000033749382
0.02535072172495456 -0.026770791223283436 0.008432985468990961
-0.057662130706922166 -0.02256499404222501 0.0351288465762562
-0.06126800419552525 -0.022364763491559008 0.03681239967452021
-0.06386150083863812 -0.022234163018048224 0.03762261335213385
-0.06650335193889961 -0.022099600263486268 0.038493553353888044
-0.06881721789878242 -0.021987383921945727 0.03908788579175537
-0.07061967014964282 -0.02191052997420806 0.03923542632956245
