# .PCD v0.7 - Point Cloud Data file format
VERSION 0.7
FIELDS x y z
SIZE 4 4 4
TYPE F F F
COUNT 1 1 1
WIDTH 765
HEIGHT 1
VIEWPOINT 0 0 0 1 0 0 0
POINTS 765
DATA ascii
-0.05796227433506218 0.01303266192613811 0.059978079724897104
-0.059887718947348234 0.012983348077339087 0.060138423476765845
-0.0616591129655471 0.012940024510447425 0.06018414241416942
-0.06333222060593169 0.012900479811614714 0.06015887050166063
-0.06490851465241404 0.012864678978309034 0.06006259508042022
-0.06642495441307478 0.012831148495596774 0.059924625992077485
-0.0678765847314623 0.01280010444290663 0.05974011144538638
-0.0692646599756831 0.012771512025311153 0.05950928874412409
-0.0705911137861549 0.012745308433532125 0.05923298030975749
-0.07185476454486767 0.012721557670194682 0.058909408086898096
-0.07305966402653469 0.012700109871764011 0.058541204038842276
-0.0742171949953691 0.012680512822501893 0.05813731544393341
-0.0753347510196995 0.012662474489298536 0.05770346932161163
-0.07636186173558407 0.012648086833615723 0.057195669457265785
-0.07737191068373334 0.012634340728147472 0.056676264618805594
-0.07833942828517054 0.012622295588986563 0.056122867187636205
-0.0792291119684495 0.0126134285208007 0.055504014192130136
-0.0801080794408639 0.012604967850041773 0.05487770053121793
-0.08095030682607629 0.012598001634085252 0.054220773318628235
-0.08174457458979706 0.012593008872824706 0.053522757346346095
-0.0825050228112002 0.012589410488563466 0.05279562944185412
-0.083249205062146 0.012586478872834688 0.05205469272154467
-0.08393058794326613 0.012586176722371462 0.05125769428587024
-0.08457325040636376 0.012587506294924061 0.050425608719567694
-0.08517313863288783 0.012590650037390403 0.049554184392377965
-0.0857204806529746 0.012596034318647854 0.0486338410944962
-0.08623262421823141 0.012602937769148207 0.04767981663625126
-0.08666336014415765 0.012613337489500573 0.046648754663453806
-0.08698289896922462 0.012628528214014018 0.04551170090876083
-0.08721475130209189 0.012647537641424674 0.04428904074922674
-0.08735444170879669 0.012670583860132336 0.04297525066972002
-0.08743452751537967 0.012696296307747301 0.041599761286655934
-0.08744034635639453 0.012725324670884702 0.04014770307410642
-0.0875317338160706 0.012750794831802243 0.038770806703242344
-0.08775516158439517 0.012770672100652284 0.03751498266057873
-0.08796848988904887 0.012791079514820308 0.03624480238106492
-0.08816232665145046 0.01281242888638265 0.03495095760165262
-0.08841810872040962 0.012831179909650688 0.03371264326940637
-0.08868978962539648 0.012849324552872325 0.0324855689571803
-0.08898749730862415 0.012866415372093128 0.031279939827373704
-0.08921235561702695 0.012886781742309108 0.02999806192297605
-0.08954991118126188 0.012902289386892961 0.02882375937421272
-0.08997347968578073 0.012914079823459351 0.027732004956025624
-0.0905413180515166 0.012919553323925213 0.026782793452335252
-0.09111107722213929 0.01292496774011266 0.02583423422464709
-0.0916877806842688 0.012930099696611224 0.024891460848502578
-0.0921544285212913 0.012940152276844186 0.023834882461031492
-0.09237627891654027 0.01296116946784476 0.02252418933374678
-0.09246359172914181 0.012988301290901259 0.021069426149039172
-0.092164250420185 0.0130328887209966 0.019206464127601963
-0.09130911376017797 0.013102654938493294 0.01675239361509634
0.008761675959108373 0.013805853659398317 0.038522928720124805
0.005636028117777359 0.013723970645422613 0.03924490332290598
0.0033490050078140987 0.013671423051041284 0.0393731375341721
0.0015011270572220514 0.013634228683490988 0.039190907675376974
-6.694192944017852e-05 0.01360682178491867 0.03881059446100421
-0.0015047510070786974 0.013583938748651249 0.03833983296651311
-0.0027574695999230125 0.013567564184713693 0.03773618573636084
-0.003735531335321285 0.013560941225583215 0.03693026285330503
-0.010268597613369346 0.01335526217376893 0.04031466116903526
-0.010304324992539082 0.013381999415382073 0.038820012768404244
-0.008588277256316001 0.013471876753723288 0.035983979333730876
-0.008186103262168065 0.013514760940534548 0.034134278605512436
-0.009110428105898294 0.013509898160142138 0.03329680348128011
-0.009865266608295287 0.013511151511383735 0.032329153920124754
-0.010462076579360102 0.01351814415773208 0.03123814061390151
-0.010905564220159425 0.013530741558880571 0.03002546166697967
-0.044391193118359595 0.012339370549520908 0.05482089447597094
-0.04960391658244229 0.012175349425858581 0.05751641973530741
-0.05271943642932242 0.012087373613923088 0.05858135756387678
-0.05518038153105326 0.012023026120052733 0.05914315918804497
-0.057355938187658995 0.011968890838582914 0.059490459475027735
-0.05936675373958128 0.011920590131246205 0.05971722125071277
-0.06122626248683921 0.01187766588400663 0.05983231381010207
-0.06292581276195874 0.011840472989218006 0.05982677399504899
-0.0645506153397219 0.01180588989011578 0.05976857987866696
-0.06609220913160518 0.011774247921100389 0.05964982058620166
-0.06757623389712658 0.011744611665183629 0.05949074131158688
-0.06898850586581312 0.01171752348036606 0.05927879074684722
-0.0703440796625951 0.01169243711053825 0.059025694058105704
-0.07163867801494661 0.01166952600393369 0.05872712891720311
-0.07287334591030292 0.011648765234719608 0.05838320365124594
-0.07405279540952753 0.011629991624574417 0.05799716468025179
-0.07518456918496164 0.01161293377372324 0.057574762421119585
-0.07622864176756294 0.011599116319303484 0.05708089600178623
-0.07724738275920323 0.011586197522275537 0.05656841350079078
-0.07822348801559975 0.011574840496318224 0.05602192421858615
-0.07914284548434375 0.011565592763834268 0.055428510903943407
-0.08003304998633337 0.011557415834828777 0.05481168658111013
-0.08089876376940774 0.011550138648632604 0.05417518511657243
-0.08170766446498878 0.011545005695158784 0.053489939928744346
-0.08248481647044303 0.01154106890042342 0.05277756928893168
-0.08323625076734015 0.011538104215818497 0.05204305358704725
-0.08393633182447496 0.011537107094472056 0.05126288209335822
-0.08460620723182438 0.011537273269789034 0.050455530927077163
-0.08523749904098443 0.011538935283240943 0.04961292457621852
-0.08581616083857935 0.011542648842322692 0.04872162304065558
-0.08633603428905162 0.011548667663000908 0.04777518650343604
-0.08681372131633508 0.011556359799913322 0.046788149820696956
-0.08721588703475902 0.011567040231879624 0.04572882490669439
-0.08754476884921308 0.01158064180017281 0.04459819264286263
-0.08778610706714224 0.011597744784030669 0.04338173274096796
-0.08799536105519828 0.011616189731592235 0.04213062876053547
-0.08818315503079449 0.0116355666514685 0.04085448543437137
-0.08839229714084423 0.011654188715120625 0.03959389580496092
-0.08858065556466344 0.01167372107581991 0.03830863797559042
-0.08877966914376528 0.011692920725298941 0.037028751007783134
-0.08898507093619035 0.011711955299246747 0.03575021593478478
-0.0892520931273747 0.0117286185262042 0.034527029780989094
-0.08954999904409144 0.01174412378554201 0.0333299257861307
-0.08982932380175818 0.01176044705217107 0.032110540876905624
-0.0900720977286707 0.01177831657808107 0.030850739908420244
-0.09033644382201356 0.01179540089808152 0.029607873903812587
-0.09052607181900951 0.011815584163424295 0.028285753141201908
-0.09068539242516793 0.011837090125530535 0.026927917112220867
-0.09096852201547645 0.011853673027025587 0.025689897296464315
-0.09130072067527678 0.011868338459716245 0.02449753486576972
-0.09164815098119522 0.011882452630887498 0.02331695847388421
-0.09177291571360091 0.011905736391342464 0.021903754256642483
-0.09182878382733106 0.011931954765977436 0.020413282159552293
-0.09142998715686834 0.011976974079146867 0.01844360013089863
-0.08988129424270275 0.012069554950004883 0.015261295123599916
0.005833680819277376 0.012482681809194523 0.03910141609327317
0.003377583429806319 0.012429485704212685 0.0393522775282823
0.0014127879917691932 0.012391905820802546 0.03925573999725224
-0.0002251732342344881 0.012364726957085636 0.03892735355744231
-0.0016567359237605883 0.012344115747260761 0.03845259303622467
-0.0078445168313786 0.01216914737541139 0.04153085714271337
-0.009928808834776703 0.012126825460522751 0.04157519712329755
-0.0113963021545464 0.012104416393603065 0.04116501975194675
-0.011860731950865233 0.01211465313324816 0.03999999323974118
-0.010447262924384804 0.0121863561115423 0.03740097907630435
-0.008678753568046316 0.012269998522626053 0.03451182626931293
-0.009467453865877773 0.012269998522985076 0.033571889899940366
-0.010321048070669081 0.012267862470153537 0.03268222335736082
-0.010952903134327174 0.012273031618613177 0.031620404026371896
-0.011450588875871415 0.012282657829914232 0.03045221745954324
-0.011784030909853194 0.012297765830197644 0.02915228798723213
-0.0479196332144019 0.01112441269411873 0.05618342658710407
-0.05165768788695013 0.011023843745028785 0.057736554670287876
-0.05433509514273843 0.010958205018426571 0.058466988892984906
-0.05668952647450143 0.010903075281283826 0.05895452598751022
-0.058794165244090035 0.010856072001152765 0.05925428141266281
-0.06074678405302225 0.010813966997205172 0.05944258517088746
-0.06250730121214526 0.010778139882949699 0.05948478693517584
-0.0641660329917772 0.01074558775993369 0.059452644495133655
-0.06573386316975383 0.010715964373263083 0.05935387226484423
-0.06723746102605971 0.010688386161865817 0.05920947078882505
-0.06867657958938167 0.010662874881066644 0.05901843473748225
-0.0700669372515364 0.010638909734084276 0.05879314395233792
-0.07138670230562932 0.010617244672570927 0.05851457553363759
-0.07265067279632137 0.010597389573380347 0.058194373713353065
-0.0738530388098565 0.01057955519117887 0.05782687203717102
-0.07499626322608777 0.010563670425687387 0.05741338287509695
-0.07607381328736074 0.010549972732935052 0.05694750609077359
-0.07710947319509809 0.010537657355541493 0.056448972815259346
-0.07810305158733821 0.01052674010238941 0.055917066685517436
-0.07903604115240276 0.010517870651780796 0.05533503221012942
-0.07994631918019895 0.010509749228256293 0.05473537730837469
-0.08082395876360016 0.010502725848947795 0.05410902245684751
-0.08165988499401855 0.010497123988688512 0.05344745839123205
-0.08245089257479365 0.010493065115320251 0.052747248571760996
-0.08321753703147455 0.010489840424050885 0.05202623972786369
-0.08393992163819547 0.01048815328998195 0.051266124371849464
-0.08461766876936883 0.010488027406499687 0.050465937102429026
-0.08527181322023103 0.010488732394951964 0.049644242295557084
-0.08587682157740811 0.010491175408674083 0.0487772763368548
-0.08643509769406243 0.010495283242936042 0.04786654766104681
-0.08692763759150751 0.010501741308200497 0.04689375804960505
-0.08737029758282283 0.010510002046223653 0.045872721700042196
-0.08777882658107561 0.010519516709238706 0.04481745186606645
-0.08811631634547207 0.010531611991066295 0.04369267766347745
-0.08840908077152326 0.010545363826198298 0.04252224289397444
-0.08865352260716403 0.01056091273188898 0.04130204012412669
-0.08891862095962971 0.010575790721794666 0.04009730024568725
-0.08918090594351885 0.010590839051238893 0.03888573716093091
-0.08947101681541697 0.010604952020445969 0.037696890700243235
-0.08971485167811971 0.010620806364811799 0.0364591644503382
-0.08993158877570445 0.01063771819824016 0.03519055788302239
-0.09021542386814702 0.010652268111508089 0.03398308765826741
-0.090460751778142 0.010668290402033783 0.03273354899575881
-0.09069967025726039 0.01068462224918896 0.03147315594707967
-0.09096507282662414 0.010700060724192875 0.03023457025524684
-0.09114176136973595 0.01071882996199154 0.028902730747008
-0.09123588687817896 0.010740727185985415 0.027482420787947548
-0.0912261717226086 0.010766559744809806 0.025950767229911242
-0.09123731185140593 0.010791743792261436 0.024433001246493724
-0.09123116622409383 0.010817688710419012 0.02289038136770516
-0.09120036556190486 0.010844673808702902 0.021315004071375876
-0.09092810432488024 0.010880782771041465 0.019482330543636073
-0.09028023930514212 0.010931090249882602 0.0172490677537685
0.006161694351858371 0.011243890248542224 0.03886329259324034
0.0034270560752667767 0.011187969400532113 0.039316166378549455
0.0013757194897558445 0.01115163985682464 0.039282944689102206
-0.00038219139884054787 0.011123689602169326 0.03904321747607464
-0.00769058421637564 0.010933929823418806 0.042929202748282214
-0.009397160990188114 0.010906907662704031 0.04268904855034239
-0.010999593642962435 0.010882819127690636 0.04237828160510326
-0.012313441125995472 0.010867089415116113 0.041856598944560675
-0.013001634683275365 0.010869672821164847 0.04086496170877629
-0.011989245989575958 0.01092232818670148 0.03857634564526691
-0.009644491995370874 0.011014509731313337 0.03525192991428833
-0.009814374580411234 0.011032743025871976 0.03383919043569311
-0.01070889321031937 0.011029586514802592 0.03298266617150658
-0.011422631248935944 0.011031783503534745 0.031986235642869676
-0.011936726473611048 0.01103992927538883 0.03083286452503675
-0.01235993565636856 0.011050819387644819 0.029605644590875613
-0.012587028053921812 0.011067615422375254 0.02822012689490999
-0.050210838049827566 0.009964779824373307 0.0565853377105181
-0.053350313178838094 0.009891933281015874 0.05767923184365176
-0.05587231048443675 0.009837341296964428 0.05829731452654213
-0.05811036595540264 0.009791070781318599 0.05870142725220323
-0.06014742452982652 0.009750670680143257 0.05895541503996854
-0.06200681313795653 0.009715473075511068 0.05907581269045159
-0.06371604691631527 0.00968467723217858 0.05908297978198318
-0.06530995566682962 0.00965725312335264 0.059003778424653874
-0.06687395823050596 0.009630620697049449 0.05890766792896557
-0.06832636265302144 0.009607279087119282 0.058726118601099275
-0.06974120103728504 0.00958498481827243 0.058519818802328594
-0.0710865241742612 0.009564724413583916 0.05826136113583891
-0.07239224254626914 0.00954559212184147 0.05797522122029081
-0.07361628875480553 0.009528890952665233 0.057625042447107144
-0.07478460956980354 0.009513836129743065 0.05723199418634051
-0.07588840636672273 0.00950071073674047 0.05678777183120626
-0.07694263563202597 0.009489063909760535 0.056304478174622696
-0.07795899046355109 0.009478542178779938 0.05579164039822665
-0.07891158530183418 0.009469959122960612 0.055226104321744796
-0.07982962803967225 0.009462416149478806 0.054632707721117946
-0.0807207687740657 0.009455680941647237 0.05401775417752741
-0.08158166771174474 0.009449863624383487 0.05337791407976222
-0.08239674283462683 0.00944545995394951 0.0526988502694718
-0.08318010254980746 0.009442035194341072 0.0519926057112311
-0.08390761021193266 0.009440357742078272 0.0512369410630345
-0.0846198177096289 0.00943915668990935 0.050467888171304376
-0.08529039676559486 0.009439269983964564 0.04966120304679161
-0.08591534612702828 0.009440833716162158 0.048812620749276225
-0.08650134059667997 0.009443645203896258 0.04792764013274187
-0.08703079855862894 0.009448274199824483 0.04698939536757091
-0.08751460029195285 0.009454385062568934 0.04600719889331423
-0.08795643420853194 0.00946186969742746 0.0449838300930161
-0.08834148753162147 0.009471213656355093 0.04390471239909344
-0.08870104648826993 0.009481421901604729 0.04279860850249145
-0.08901667159898918 0.009493095801817493 0.04164757634417332
-0.08930254614946714 0.009505786499975572 0.040464506970089076
-0.089596288896028 0.00951828076923186 0.039285099113778865
-0.08989222580981476 0.00953076172524754 0.03810396005119082
-0.09017472528406018 0.009543738700524669 0.03690591056398834
-0.09043452879789793 0.00955751760073295 0.035681679259859655
-0.0907014874066453 0.009571126672361726 0.034460193650268145
-0.09097917335974326 0.009584447484941128 0.03324505761812929
-0.09122273401786862 0.009598953466488171 0.0319919219207524
-0.09147629913645172 0.00961319789148357 0.030744224854026725
-0.09167212460804242 0.00962941791956883 0.029434203533238945
-0.09180074716866626 0.009647941084851593 0.028051394926804085
-0.0917931230438555 0.00967107656619881 0.02652480457343309
-0.09160441224592358 0.009700349836296904 0.024806613555470258
-0.09121021339850466 0.00973661895276131 0.022868946541722
-0.09054845696927738 0.009782010012322291 0.020644650035926915
-0.08939909054982187 0.009843965985754436 0.01790192614809305
0.003610765356405976 0.009949589252615547 0.039182073016514996
0.0013451978552537214 0.009911781692362497 0.03930534461400581
-0.006637562772203898 0.009726080295675194 0.043659064576546336
-0.008824727973116342 0.009689680574754469 0.04377064235863981
-0.010302793960847434 0.00967152916979472 0.04336460342177373
-0.011676875221990624 0.009656005808467608 0.042886240180694146
-0.012977149068520877 0.009642340660994042 0.042357075554226464
-0.013742727726540838 0.009642580067375455 0.04142681689312816
-0.013530783106837363 0.009668399111698856 0.03975137229331849
-0.011327003155644666 0.00974655666877445 0.03654133976606383
-0.010119884918551036 0.009798854712514309 0.03407458450022055
-0.011113647630105916 0.00979341855816334 0.03329620769745756
-0.011890134921230477 0.009793692967088354 0.03235033482883509
-0.012481853305232826 0.009798854713375748 0.03125970032161646
-0.012938210163703612 0.009807625668213244 0.030060866688288945
-0.013241684135188003 0.009820494262102948 0.028738241653576024
-0.04807268044856927 0.00891448789178364 0.054884066970408374
-0.05213586277102261 0.008825220743204023 0.056707756019670263
-0.05488886704628326 0.008770589574626278 0.05750642165779507
-0.057318837138583545 0.008724376126123227 0.058061473384538265
-0.05946625369466918 0.008685548201683652 0.05840174721273128
-0.06142438076944229 0.008651644698296447 0.05859987759768792
-0.06322061853244593 0.008621958900316421 0.05867598409612401
-0.06486144104920316 0.008596343354790299 0.05863336222823562
-0.06644907130612776 0.00857205666984155 0.05855490010857256
-0.06795378644718902 0.008549914117682097 0.058415139817123096
-0.06938646980815705 0.008529633771043701 0.0582221639448936
-0.07076980177398295 0.008510609698041302 0.05799419086767088
-0.07209485519383074 0.008493094018655684 0.05772303255553929
-0.07335664622284016 0.008477233121335291 0.057403697004216214
-0.07454652472316409 0.008463275272992342 0.057027953779465845
-0.07567305353519915 0.008450997639467498 0.05660223816843479
-0.07674973381600214 0.00844003932639834 0.056137409811412076
-0.07779123778574504 0.008430003893043452 0.05564558714661233
-0.07877016772774587 0.008421655862064701 0.05510233097034717
-0.07969167081375761 0.008414863726486633 0.05451132737142039
-0.08059204592350844 0.008408628676519678 0.053903902890861555
-0.08146934044991411 0.008403008864999652 0.05327804200729663
-0.08229705631799517 0.008398748480415883 0.05260975181486738
-0.08310520553441542 0.008395016624970292 0.051925312473840246
-0.0838594891506308 0.00839277910324227 0.05119347867356727
-0.08458471447555294 0.008391348521088457 0.050436017193453975
-0.08527824624842884 0.008390804625028067 0.04965011356440335
-0.08593175169820311 0.008391388813000058 0.048827672067963346
-0.08653979064019018 0.008393262791690045 0.04796310065910775
-0.08709479335601966 0.00839665016585229 0.04704872295005669
-0.08759699575570651 0.008401554600883437 0.04608398408169179
-0.08807850422694047 0.008407071360126124 0.04509818212573791
-0.08852166062182576 0.0084137091433503 0.04407437422039423
-0.08891804689025984 0.008421716740395465 0.043004014290584036
-0.08927834976984295 0.008430796906002291 0.041896563090828176
-0.08962171894954529 0.008440406188505419 0.040769781022266915
-0.08995241004358118 0.008450425558332718 0.03962748494371765
-0.09024916247208553 0.008461472327144975 0.038448914639940046
-0.09055023651926392 0.0084724453297483 0.03727070250419151
-0.09083790919324408 0.008483858654344744 0.03607558057295768
-0.09111713478329991 0.00849557120089798 0.034868181162711454
-0.09140493998207483 0.008507088369099428 0.03366514680069671
-0.09164310645997614 0.00852011112295536 0.032408840345728884
-0.091887689289949 0.0085330071532115 0.031154350232146133
-0.09209531404757998 0.008547049846006877 0.029858278307449804
-0.09226872779530498 0.008562166444715972 0.02852278383221568
-0.09228650895575319 0.008581948717524995 0.027024357052778114
-0.09215834740613899 0.008606143234312516 0.02537037485162269
-0.0916438285412004 0.008641911929619283 0.023312536600150868
-0.09035843577336011 0.008700769259938691 0.020449252280866526
0.003936811319077915 0.008713232236807946 0.038944085044207155
0.0013757194896950042 0.008673497666417791 0.03928294468914689
-0.00711976688732463 0.008499417286497156 0.044014883653267056
-0.009523634620302979 0.008462634855864248 0.044289172512678776
-0.010848594029059744 0.008450195642570267 0.043771741751377546
-0.012101100358242467 0.008439352934097923 0.04320440739889836
-0.013331038841978282 0.008428979371944055 0.0426239302092144
-0.014288984455700482 0.008424776744754897 0.04184095811069116
-0.014544940453428912 0.008436629149391936 0.04052440713900518
-0.012870087400299768 0.00849283230265184 0.037723898357148566
-0.010849198596479093 0.008557229048604776 0.03463651674777796
-0.011467606555160936 0.00856108557957986 0.033570400679820145
-0.012344015863928415 0.008559001184450457 0.03270382441951675
-0.012990162218954437 0.008562236025968457 0.03165770758801989
-0.01344427565686801 0.008569937588137247 0.030459245299665816
-0.013794616095286483 0.008580083487704351 0.02917584884499025
-0.013851303716117869 0.008597111254456318 0.02765509802680477
-0.05046491791473473 0.0077610638653427995 0.055371116400099674
-0.05376027234610625 0.007700661048381469 0.05659879701417375
-0.05637796156405206 0.007655881332567799 0.057300772131319566
-0.05868932306061342 0.007618103636612127 0.057770244109736024
-0.0607655139111149 0.007585698377939937 0.05806148399820987
-0.06263262267507302 0.0075580850334055864 0.05819294399376912
-0.06435671973539497 0.007533732808196932 0.05821652642854319
-0.06597554675344214 0.007511768776412795 0.05816175027324183
-0.06754865028326862 0.007490794650352186 0.05807698416029783
-0.06900868660420212 0.007472419463394516 0.05790516618297975
-0.07041662480317573 0.0074552062626460115 0.0576962694515713
-0.07175904519713255 0.007439483441987321 0.05743826094711968
-0.07305744282600951 0.0074247459542611015 0.05714862589593267
-0.07427290807002607 0.007411934392478182 0.056793462361713065
-0.07543135069341683 0.007400438149209578 0.05639400309104625
-0.07652326319388009 0.007390495212396233 0.055941268183857085
-0.07757907577617518 0.00738138054239335 0.055460869073721
-0.07860073326539962 0.00737305256204741 0.05495403630907858
-0.07953019643664333 0.007366925368431199 0.054369255680493056
-0.0804530185761646 0.00736093236251993 0.0537809376029712
-0.0813445953934121 0.007355674361363035 0.05316712906310439
-0.08219007264348727 0.0073515193103441965 0.05251413125966459
-0.08300936923519214 0.007347986792514059 0.05183920577385309
-0.08379769912151724 0.007345198502897078 0.05113767062948277
-0.08453096903782598 0.0073437522499203356 0.05038722055974071
-0.08524178874584537 0.007342853038426442 0.04961683968582714
-0.0859260456180524 0.007342606234731971 0.048822437015194564
-0.08655545261405057 0.007343716983211933 0.04797754490380329
-0.08713317695362333 0.007346115935335167 0.047084307187303776
-0.08767863557058586 0.0073493287508898195 0.046160065073035716
-0.08817849794264782 0.00735369349811778 0.04519185364966827
-0.08866266600162065 0.007358470614171515 0.044207153369167806
-0.08909509743903482 0.00736456601263212 0.04317160479811244
-0.08947801765518343 0.007371932926085017 0.04208654705861653
-0.08985321635410842 0.007379528258511438 0.0409911976052037
-0.09019736125796723 0.007387942268569652 0.03986298857895054
-0.0905514868741012 0.007396142958866625 0.03874109025760475
-0.09087315662901341 0.007405204494530231 0.037584404578384356
-0.0911722674292419 0.007414881454998753 0.03640208168635872
-0.09146083618297168 0.007424872136350226 0.03520554857304847
-0.09175159976372993 0.007434853628429284 0.03400718400292502
-0.09199638976442814 0.007446058282048621 0.03275922087525218
-0.09223624646807488 0.0074574422273843135 0.031501835808210255
-0.09247187083769426 0.007468988714907491 0.03023562287427023
-0.09260025259482557 0.007483353182112497 0.028856723109756455
-0.09267360833381677 0.007499207014307596 0.02741629457957301
-0.09258812879961115 0.007519248423180022 0.025807780044230177
-0.09224700745925218 0.007546019609783367 0.023929591091924884
-0.0911090704216343 0.007593646560924475 0.021221125778637606
0.004323048886408831 0.0074759393346194615 0.038662161922924154
0.001468404151351188 0.007436219133668032 0.039214923120358625
-0.0006115310774922333 0.007411348327686468 0.03921244753893477
-0.009912851825260749 0.007246128062181443 0.04457793905690005
-0.011175307459143524 0.007236666531305135 0.044015452897510465
-0.012366004728887658 0.007228564901742134 0.04340308465655213
-0.013479735478306387 0.007221933497489238 0.04273605661851276
-0.014535642492594258 0.0072164066818430905 0.04202796040149687
-0.015177106142434948 0.007218990110952233 0.04100627132654133
-0.01441570277375559 0.007249173810415081 0.03890839670500218
-0.012139081534023433 0.007309346805845714 0.03563036458049573
-0.011807396735806885 0.007331362616964203 0.03383361789632161
-0.012715018669772149 0.007328944018415865 0.03299276721848049
-0.013437148594667214 0.007330194111934572 0.032007699139839196
-0.013989232845911914 0.0073348293245661484 0.030888239750312296
-0.014384104856302149 0.007342615707305431 0.029642388201898462
-0.014617637925375071 0.0073536558481050885 0.028264848199844927
-0.014331904729592893 0.007375130497501813 0.026467220011189063
-0.05233563765973115 0.0066291256256955505 0.05545309470907783
-0.055294233140570304 0.006583955774477053 0.05642457384091143
-0.05778034140813154 0.006548103669716952 0.05703140757923203
-0.06000278520034691 0.006517416411887137 0.057438219599909246
-0.06198205284105185 0.006491513286507031 0.05765849920938121
-0.06380629019685291 0.006468639250536764 0.057761941431643926
-0.06546779633540789 0.006448970467024975 0.05774018397407721
-0.06707506009915742 0.006430319881085934 0.057681691875786756
-0.06856076073412132 0.006414067308244534 0.057529311733040045
-0.07000230051652434 0.0063986462721243595 0.05734676739337796
-0.07137545734859774 0.006384558474321265 0.05711297304720159
-0.07270185834996029 0.006371368673475336 0.056845489877575095
-0.07396806980697973 0.00635935923172253 0.05653221380221485
-0.07515571813446481 0.006348916878020304 0.056156536428176584
-0.07627420346943381 0.006339857740121559 0.05572556259143385
-0.07735628330784355 0.006331512493273724 0.055266895631028046
-0.07840098393475003 0.006323906114855472 0.05477920906958361
-0.0793597679418086 0.006318053423366066 0.05421930579447354
-0.08028907883878683 0.0063127891749306655 0.05363593809468403
-0.08120159192799686 0.006307852416599412 0.053039982258063334
-0.08206564458970822 0.0063039085658575114 0.05240291915520201
-0.08289111079377698 0.0063007570342907574 0.051732953297302875
-0.08369202215772065 0.00629810794519541 0.05104222441042644
-0.08444780462617962 0.006296398573840087 0.050311713809684966
-0.08518100639719661 0.00629515872597594 0.049561365110082856
-0.08588395650693526 0.006294554099406074 0.04878382228987155
-0.08654263839485743 0.0062948866299313835 0.047965726998904556
-0.08715307564000507 0.006296247347448372 0.04710275463937502
-0.08771837427709722 0.006298577051184469 0.046197097986333924
-0.08825008297912557 0.006301635511399548 0.045258912658427464
-0.0887370114209442 0.0063056675224893 0.0442771614887682
-0.08920051821774 0.006310221098918098 0.043271392807409714
-0.08962723710548515 0.00631558756972949 0.04222852934681054
-0.09003136893670755 0.006321466179225334 0.041161592328008034
-0.09040517744032295 0.006328027788679259 0.04006278945165764
-0.09076422587441219 0.006334939809383856 0.03894668778265675
-0.09110640442209816 0.006342250526669318 0.037810994110229756
-0.09142324070945751 0.006350147233787554 0.03664715731663226
-0.09172532381033549 0.006358402904296813 0.035465162022383145
-0.09202112593535822 0.006366834698225052 0.03427311614316614
-0.09228306745477743 0.006376048691421874 0.03304354305997276
-0.09253161686257527 0.0063856004690862585 0.03179629811777196
-0.09274196375695554 0.006396039096002245 0.0305062808421932
-0.09288847612985884 0.00640793697967834 0.029147045761933443
-0.09295810570556151 0.006421593372655997 0.0277043477322777
-0.09295682598094435 0.006436888257963558 0.026183017465078007
-0.09266610363373284 0.006458694414337633 0.02435832818668915
-0.09183855727987073 0.006492574409846934 0.021971253119734302
0.001739080903973289 0.0062012117850681146 0.03901627258834117
-0.0005801753726843439 0.006176630016698839 0.03918931012142868
-0.01008088299316462 0.006035720618258579 0.04470260410011756
-0.011352806985485242 0.006027676783011226 0.044147858268761
-0.012495761713288644 0.006021695309530062 0.04350040189506893
-0.013578460961197802 0.006016670095663475 0.04281050170467082
-0.014662395707400966 0.0060116036322734375 0.04212405758054827
-0.015589934609477274 0.006009073599061221 0.04132094714226925
-0.015721893238056284 0.006019571423860069 0.03990940929423836
-0.013765826202700282 0.006064405834296911 0.03688376255661563
-0.012168326336136515 0.00610352865322837 0.0341132106867052
-0.013047046686979036 0.0061019772314884 0.03325135584130223
-0.013884087329750328 0.006101108098269296 0.0323576533889155
-0.014462565213329615 0.006104517883841053 0.03126085059574357
-0.014920244601346944 0.006109947297472283 0.03006670552295332
-0.015233568367600314 0.006117801145187785 0.028754926404877146
-0.015019360394025572 0.006134482429250482 0.027017136709110656
-0.04974236295191464 0.005567593200851449 0.053367563001260165
-0.05393792504071898 0.005509336327154083 0.0553279939112844
-0.05673711522865715 0.005474255809244658 0.056183454698258806
-0.05914038819426315 0.005445680503843387 0.05673351117146702
-0.06126177052356652 0.00542173131415363 0.05706678544133348
-0.06314879618104102 0.005401635672883923 0.05721893475374862
-0.06489100347685095 0.005383903427568755 0.057261294302833166
-0.0665292926565964 0.005367856351807463 0.0572261552822938
-0.06809766559655012 0.005352927546055699 0.05714072875574916
-0.06957002207008917 0.005339568967081432 0.05698212015543119
-0.07097950917256296 0.0053272250630343205 0.05677720341541914
-0.07232353286955268 0.005315946912504741 0.05652296713685201
-0.07361679836519441 0.0053054894080240885 0.05623117167829572
-0.07483925010258591 0.005296202648579588 0.055883888640408164
-0.07599649982059237 0.00528799775821838 0.05548504907514934
-0.07711024434208297 0.005280507418998141 0.05505268271089403
-0.07816123285174714 0.005274069435964556 0.05456937096964598
-0.0791605704795797 0.005268498300152686 0.05404404380682548
-0.08010963463999138 0.005263775885476896 0.0534772253810582
-0.08102646411746522 0.005259593727127652 0.052884273153264494
-0.08191576032710518 0.005255873397966081 0.05226895463704362
-0.08276553949898413 0.005252827663566333 0.05162013039099961
-0.08356899785478894 0.005250580382481175 0.05093111027405245
-0.08435598320220045 0.005248612435740273 0.050228347172767696
-0.08508728146645039 0.005247616409980446 0.04947582463845912
-0.08581259178842282 0.005246721570095492 0.04871834860962576
-0.08648994607580829 0.005246671165806601 0.04791713154365046
-0.0871310447927311 0.005247263479329052 0.04708233052738198
-0.0877297262291527 0.005248612436507985 0.04620767698834838
-0.0882826745454488 0.005250782307708116 0.04528944359392861
-0.08880070618234687 0.005253585609048649 0.04433714030810604
-0.08928112467793037 0.005257074971191248 0.0433476923595254
-0.08973322505728926 0.005261088404109336 0.04232937686962157
-0.09014154540456021 0.005265907542511481 0.041266971034426
-0.09054638049156855 0.005270811819814986 0.040198546410273484
-0.09091952051078012 0.0052763113887200775 0.03909676930435435
-0.0912800378899491 0.0052820650948976495 0.037979671059634956
-0.09161383299496556 0.00528833059001195 0.03683327085212906
-0.09193148883204677 0.005294918960340061 0.0356675276791516
-0.0922337062422352 0.005301819698147621 0.03448286177061072
-0.0925028245255679 0.005309357761433614 0.03326149448269705
-0.09274232954158468 0.005317473797353105 0.032006362983006686
-0.09295640385684462 0.005326095099934078 0.030721169562104467
-0.09312303341932177 0.005335630427091857 0.02938331132004085
-0.09319807174410238 0.005346900730887275 0.02794731297838826
-0.09317745307221054 0.0053599935719493 0.026407558212573123
-0.09299194680435496 0.0053762052868982025 0.02469166707839926
-0.09229218866270933 0.005402049757847753 0.022437719786274957
-0.0897390309004868 0.005462538441866895 0.01825329199788256
0.0020812456705425197 0.004965381173588629 0.03876515677489151
-0.0005098766624299089 0.004942212300784459 0.03913743660688784
-0.009965442268261404 0.004830071138179609 0.04461695675779026
-0.011486076659822264 0.004820412348909381 0.04424727048168753
-0.012610117705488588 0.004815869461612609 0.04358616844875479
-0.013707640381655284 0.004811653049137841 0.04290791093280688
-0.014814384506058487 0.0048072985495313586 0.04223928696404494
-0.015855556261835546 0.004803783648298226 0.04152341552030925
-0.016438073660646868 0.004806267331555738 0.04045826157786114
-0.015288921217154583 0.004831513279202254 0.038057299034290504
-0.013075835980797812 0.0048708742576670525 0.03481620970263288
-0.013405298883261307 0.004876854880449481 0.03353036826573197
-0.01427851653619333 0.004875671183809433 0.03266649253379039
-0.01493365764811283 0.004877372078084449 0.03163169814914146
-0.015441481471481333 0.004881036430263631 0.0304792282549734
-0.01581048323368489 0.004886563788706759 0.029213961033861646
-0.015803067531181325 0.004897134638361025 0.02764404788796898
-0.01567698769803011 0.004909336763274664 0.025971923034331046
-0.051868416161358954 0.004435186265271909 0.05365478861114659
-0.05544094139416367 0.004396801916379202 0.05512990144314911
-0.05806869564302303 0.004370959772331867 0.05585777671479586
-0.06036649620396928 0.004349453499976968 0.05633131529549573
-0.06239405009105897 0.004331504729959247 0.056595610195471824
-0.06424678538272854 0.004315844697868033 0.0567264239646747
-0.06595197939500191 0.004302118266710735 0.05674428828903577
-0.06754649784856098 0.004289836812312171 0.05667824408008715
-0.06907584282461277 0.004278389735910105 0.05656525667681067
-0.07053295853147207 0.0042678788970087755 0.056398522180332034
-0.07190562567538766 0.004258477727888408 0.056166700957041016
-0.07321953225869293 0.0042498411817388886 0.05589071179959204
-0.07449742194886055 0.004241661641825456 0.055589392259978054
-0.07568404011005586 0.004234703477816671 0.05521443403644921
-0.07680825071541963 0.004228576231802739 0.054789753071154024
-0.07789972460916866 0.004222874805265226 0.054340490282003606
-0.0789266196322459 0.004218043721290455 0.053838204384691835
-0.07989197400869358 0.004214046576150941 0.05328471144260455
-0.08084312543190514 0.004210229420259895 0.05272126362030177
-0.08173309090425918 0.0042072495433922216 0.05210568718795422
-0.08260228419536941 0.004204546981206145 0.05147344927368197
-0.0834372281987042 0.004202312653900467 0.0508120974352293
-0.08422820011780613 0.0042006864258784206 0.050112330174346076
-0.08497845797281589 0.0041996265203574044 0.049376504074601424
-0.08570405173960483 0.004198910125440836 0.0486187683604733
-0.08640730960301574 0.004198506630350972 0.047840920113058294
-0.08707417583205662 0.0041986175839264514 0.047029609086063906
-0.08767863557054723 0.004199616429080446 0.04616006507299969
-0.08826921368518242 0.004200817690249248 0.04527683380854708
-0.08882334656460611 0.004202545075982401 0.044358459854130894
-0.08931505101034298 0.004205174234163929 0.04337980596384322
-0.08978548424482574 0.004208120773002833 0.04237910147998958
-0.09023400140036181 0.00421139616892861 0.04135540092719747
-0.09063738418613204 0.004215337447717594 0.04028604016262349
-0.09103165347971964 0.004219428726188813 0.03920513806070369
-0.09140272713825826 0.004223875020317383 0.038098858036579863
-0.09174991855681797 0.004228688782978477 0.03696615852373081
-0.09208874034760939 0.004233646853474863 0.035821881244856024
-0.0923909991139985 0.0042391614768406026 0.03463805720035307
-0.09267500600610057 0.004244968860983267 0.03343226122305215
-0.09291251467400397 0.004251485017413603 0.032176024899293165
-0.0931267390402793 0.004258373968112899 0.030891861095745266
-0.09332610412008963 0.004265514308547558 0.029587860974251257
-0.09338168252928786 0.004274810669332522 0.028133218616879507
-0.0933395066610504 0.0042855974192151335 0.026572486434957465
-0.09316814001625096 0.004298351396395104 0.02487191345234696
-0.09258665062208421 0.00431726269214299 0.02274051340640132
-0.09094410686011484 0.004352074664571319 0.019498870928972734
0.0026664097490575744 0.0037296945465615035 0.03833570299140826
-0.0003313099675926745 0.0037083895903730606 0.03900567199829641
-0.0024631355276356626 0.00369540421211669 0.039050873954709964
-0.011559846439821497 0.0036145914295830513 0.04430229888265946
-0.012728483449911898 0.003610747907458673 0.043674942301163866
-0.013832665073654271 0.0036075181140396134 0.04300218724015087
-0.014963211891487194 0.0036040166013436097 0.04235211954132595
-0.01602603831294558 0.003601164874198006 0.041653364355679956
-0.016933417132426964 0.003599829680103814 0.04083787317724097
-0.016800511326957535 0.0036087397872754594 0.03922197104510511
-0.014636467248053064 0.0036377447330095294 0.036025146986727374
-0.013733001985240356 0.0036543982883550153 0.033785588576801084
-0.014656704903350914 0.0036530029737243683 0.03296261505719039
-0.015404571968299807 0.0036533491569079326 0.03200240548937233
-0.01595203052998151 0.0036556927080132313 0.030883292327395062
-0.01635590590906183 0.003659479300850689 0.02964793822902495
-0.016571147803673414 0.0036651687967011407 0.028258458662424046
-0.016238522041736758 0.003676374158848871 0.02642351332490034
-0.015994725348587036 0.003686735479617899 0.024650781814134104
-0.053713540625413225 0.003314990340888499 0.05372583922991431
-0.056807341506434184 0.0032909447140271396 0.054827060136428796
-0.059323235693343135 0.003272637620562881 0.05547427411481931
-0.06150154089896781 0.0032576715172455825 0.05585851078508408
-0.0634750175831108 0.0032447201450834942 0.05608565384702735
-0.06527538771387698 0.0032334738718358944 0.056179556416868726
-0.06694754208606518 0.0032234860566686644 0.056175660497204405
-0.06853614987247181 0.003214308411440357 0.05611000024207402
-0.07002006300674207 0.0032061628956768957 0.05596357954918746
-0.07145618417987426 0.0031984721689145277 0.05578355176293576
-0.07278725236000438 0.0031918283644760356 0.05552024485195933
-0.07408051962370088 0.00318554497482079 0.0552302169714175
-0.0753328814912197 0.003179656475666183 0.054910302655596765
-0.07647893237613573 0.003174842896043112 0.05450303327092387
-0.07759123214748898 0.003170358240143975 0.05407048744742554
-0.07866363726638326 0.0031662686192394087 0.05360682185781751
-0.07965569971417358 0.0031629984050720113 0.053075734308236255
-0.08061072243994682 0.0031601005999656383 0.05251463018086949
-0.08152042259954073 0.0031576644581949053 0.051915607145697706
-0.08241569594659043 0.003155368791997413 0.05130580404438001
-0.0832743361456344 0.0031534481694070696 0.05066497520516816
-0.084081617556029 0.0031520604009936215 0.04997924472787285
-0.08484661785915454 0.0031511131736804724 0.049256176799758744
-0.08558899848690932 0.0031504012337089733 0.04851321256154012
-0.08629396578436332 0.003150083236892418 0.04773638885372011
-0.0869710451042513 0.0031500605253760696 0.04693399980202578
-0.08762113744343514 0.0031503255146123526 0.046106481971205926
-0.0882387450925019 0.0031509389463081367 0.04524829161978844
-0.08879221514056873 0.0031522423344704526 0.04432914463233012
-0.08931787785096168 0.0031538503204972504 0.04338248176268861
-0.08981301875584696 0.003155794227349545 0.04240530056376318
-0.09026927455856809 0.003158166606150114 0.04138913807502498
-0.0906832173075327 0.003161007500732082 0.04033010553593053
-0.09108381179817365 0.003164006256752481 0.039255545466817976
-0.09148094052009748 0.003167056621543713 0.03817483874936861
-0.09183798907664731 0.0031705576319397384 0.037052159464297685
-0.09216906340530084 0.0031743584978009224 0.03590072404849198
-0.09248684309861588 0.0031783226187732934 0.034732623141035424
-0.09278004928304234 0.0031825748210776834 0.03353644140517198
-0.09304301938838688 0.003187179377645641 0.032306128390778455
-0.09326088722513248 0.003192302564618685 0.031026289925690953
-0.09343353856527503 0.003197949324846026 0.029696077858961223
-0.0935041964853836 0.003204751862489849 0.028257263809589983
-0.0934658962784149 0.0032127956981455315 0.02670111805039399
-0.09326221220818742 0.003222717274274046 0.024968149688143926
-0.09277665644472405 0.003235828722128029 0.022935895353204727
-0.0914878763664062 0.0032579792194938483 0.02006091669463128
-1.8145630781896127e-05 0.0024742828310959173 0.038774587605418576
-0.0023375617686771655 0.002464415727486824 0.038957708750403885
-0.011465579854103847 0.0024103391400590478 0.04423198093570091
-0.012867160780986653 0.0024062637731169147 0.043778949765327535
-0.013977912610789567 0.0024040658897728634 0.043111712816522874
-0.015060340362709257 0.0024020436825941613 0.042425756901169176
-0.016178228647327486 0.002399781000255317 0.04176937044886586
-0.017215726566959855 0.002398035780603339 0.04105422393599406
-0.017658567357376975 0.0024001896827001486 0.039883098579520215
-0.016228589686022254 0.002414681868651504 0.03725847879065147
-0.014285070230458108 0.0024326234348405074 0.034215547977322125
-0.014991083058707555 0.0024331246774705216 0.033224434065210806
-0.015839530663673496 0.0024326843858845618 0.03234480828784364
-0.01642338474720484 0.0024339989593993553 0.03125633640884695
-0.016885420758553926 0.002436129684506374 0.03006925802292809
-0.017220677402989437 0.002439114889507073 0.028778037147173308
-0.01680654706919127 0.00244712045821887 0.026880323473867485
-0.01678483201970643 0.002452532651999317 0.025289585871935527
-0.04971703898647578 0.002236814119746988 0.05047741128089689
-0.055102224077967166 0.002205430936003713 0.05343372201622704
-0.05808844560592907 0.002190081002909632 0.05445989089641318
-0.060453711564721235 0.0021788588015329955 0.054993136633978146
-0.06258579508217332 0.0021691662771467506 0.05534736545662988
-0.06450534718616463 0.002160873335501444 0.055536825444864435
-0.06626279542299562 0.002153646294790663 0.05560108979792855
-0.0679109978441646 0.0021471319890486278 0.055582655049874474
-0.06945246982270786 0.002141317934012215 0.05548225253231881
-0.07092841178425868 0.002135926780437268 0.05533362542086512
-0.07233179303204068 0.002131009548270773 0.05512991296858133
-0.07363688934638701 0.0021267462095087473 0.054848014658663846
-0.07490683779272594 0.002122706136088448 0.05454131482110813
-0.07611392800796307 0.0021190821436117137 0.054185243560963714
-0.07724139539323094 0.00211599301867401 0.05376429871667027
-0.07833979498924676 0.002113091718950501 0.05332189231835277
-0.07937432427814406 0.0021106214115077645 0.05282686664185493
-0.08033779431358762 0.002108635072701354 0.05227196515753141
-0.08128781360712456 0.002106733733372308 0.05170770438761513
-0.08219409291363189 0.0021051299245857706 0.05110669884071661
-0.08306288920713195 0.002103781774702516 0.05047399876067121
-0.0839003462965715 0.002102647829179437 0.04981466467001894
-0.08469026494616494 0.0021018436718769156 0.04911347728736237
-0.08544022636387422 0.0021013180148768983 0.048376721328671546
-0.0861648336968927 0.002100969406760067 0.04761729687424765
-0.08685858630994742 0.0021008380772204014 0.046829742758213555
-0.08751673178797803 0.002100959304022928 0.04600918525659642
-0.08814233783055819 0.0021013129620039506 0.045157979792886715
-0.08873488778723021 0.002101904341907177 0.04427516174750118
-0.08928960699577337 0.0021027692653680192 0.04335572145608657
-0.08979748710333835 0.002103974262438047 0.04239052219835471
-0.09027421212250686 0.0021054088937266908 0.04139386062704414
-0.09069238220755094 0.002107272268243323 0.04033891695283348
-0.09110636097587438 0.002109174580319512 0.03927733768695835
-0.09149573292715818 0.002111263952938548 0.038189208894296556
-0.0918710898162346 0.002113464809831738 0.03708448236580297
-0.09222188333858611 0.0021158546822541003 0.03595257057609891
-0.09254530506271436 0.002118455381285873 0.03479030553655743
-0.09283923481565254 0.002121283891702965 0.033595140636057674
-0.09311139927461015 0.002124285206715124 0.03237429805029668
-0.09334625374735178 0.0021275747207080693 0.031111835039186353
-0.09350276327062557 0.002131456580852543 0.02976580672427137
-0.09357213640495543 0.0021359998783206107 0.02832605287399209
-0.09354323773591067 0.0021412916998144065 0.026779831451267833
-0.09332133239974433 0.002148039825454369 0.025028629885085474
-0.09287407236636092 0.002156495114650785 0.023036067611899802
-0.09170944841290796 0.002170335392558123 0.020289935845362927
0.00041288555027457763 0.001238533689319009 0.03845652910680336
-0.0022419843395954375 0.0012325172307155016 0.03888679830875352
-0.00427149405564442 0.001228504083200257 0.03886556886359405
-0.012972119362260282 0.0012027907348894098 0.043857668297014596
-0.014115944135735081 0.001201583355399287 0.0432157970758868
-0.015181678886637295 0.0012006257942446228 0.04251774896525634
-0.016332306058769952 0.001199386536515974 0.041886814954275764
-0.017401351081661742 0.0011984094617509332 0.04119647920516489
-0.018205696282821704 0.0011982977096481912 0.04030465845983433
-0.017719564178299563 0.0012024332303936793 0.03841345670963037
-0.01544956438222389 0.0012124705316688131 0.0351224742708387
-0.015279841122094906 0.0012156078211668507 0.033450532416741396
-0.016210222389438533 0.0012151142265892482 0.03263661963825959
-0.01688130721927239 0.0012154793128080613 0.031618750198151635
-0.017406283615515883 0.001216332034360488 0.030483693674274726
-0.017753917624143356 0.0012177796581460414 0.029204592220885506
-0.017797643896722837 0.0012202488834885323 0.02767737125793157
-0.017509100252116827 0.0012238412711688062 0.02587515931753742
-0.017020401768734816 0.0012281207760037173 0.02390100026627978
-0.05187359545116088 0.001113572563582997 0.05079544545732256
-0.05637740941996494 0.0011008067654656177 0.05305427028865273
-0.05919812805235758 0.0010936699560662251 0.05395618387779716
-0.061513935259115526 0.00108821106912196 0.054457440086249864
-0.06359616285597658 0.0010835206993207375 0.05477795509032746
-0.06546291127685744 0.0010795423522550497 0.054929907274561374
-0.06721804283501315 0.0010759268527983127 0.05499811484854761
-0.0688187914626669 0.001072822611363638 0.054944884355123846
-0.07032381549560135 0.0010700322768397018 0.05481820665541831
-0.07178301722866004 0.0010673867865492494 0.05465960820208654
-0.07314213440422085 0.0010650736026403928 0.054421766738239674
-0.07443532338394826 0.0010629772753866667 0.05413294572366534
-0.07569582096088001 0.0010609845049156202 0.05382122019902419
-0.07687888132026732 0.001059250801935635 0.053447014376101054
-0.07798646412297139 0.0010577711033174916 0.05301101752492959
-0.07902922126915807 0.0010565100913131767 0.052521633954455416
-0.08005046953595729 0.0010553183528018537 0.05201649982752171
-0.08101768287638039 0.001054309903861922 0.05146626520944225
-0.08194240231662364 0.0010534456003743256 0.050880560656105855
-0.08284029548612987 0.0010526714741958484 0.05027295467034104
-0.0836900266780396 0.0010520631251419727 0.049623710984975866
-0.0844913596348914 0.0010516225115855056 0.04893194123287464
-0.08525906723401877 0.0010512986176175224 0.04821051658227876
-0.08600129549318308 0.0010510634135282517 0.047466473877573245
-0.08670827069452725 0.001050952170861565 0.0466903898352205
-0.08738949867911888 0.0010509319474771273 0.04589061540109052
