# .PCD v0.7 - Point Cloud Data file format
VERSION 0.7
FIELDS x y z
SIZE 4 4 4
TYPE F F F
COUNT 1 1 1
WIDTH 782
HEIGHT 1
VIEWPOINT 0 0 0 1 0 0 0
POINTS 782
DATA ascii
0.021023979915420044 0.045375147720750526 0.039463916441567326
0.02328592981797084 0.04518743113031598 0.03971932171083231
0.025402259803650684 0.04501724577582887 0.03987266151477786
0.02751039121312404 0.04484736835645129 0.040030930953677324
0.029578893421188912 0.04468177426009603 0.040169090522934325
0.0316152159807358 0.04451954724488791 0.04029266642775714
0.0335312903227426 0.04437189032145216 0.04033049219500523
0.03552355900131715 0.044213903246359 0.04043991338015218
0.037498940320435714 0.04405738794721477 0.04054632234953609
0.039434037687121115 0.04390534369665032 0.04063045051813435
0.04123602643683566 0.043769686825610506 0.04061558539953802
0.04313768099546139 0.04362064988175506 0.04069229129147561
0.04495472772888137 0.04348184659412028 0.04070894557462296
0.04669439424515076 0.04335241226939318 0.04067052856291958
0.0483653603021566 0.04323128706622545 0.04058335788737549
0.049633127260072074 0.04316183105148215 0.04016440998352361
0.047948565476404914 0.04347512884302036 0.037246638678627375
0.048505272368240815 0.04349836516422623 0.03621788314445845
0.0475765109628814 0.04371529018375081 0.033914460171051375
0.0479939937954415 0.04375734353002967 0.03275580299850639
0.0475822196650289 0.04390813045384206 0.03087601544732471
0.04759398345924126 0.04400402367793812 0.02935445879092774
0.04759510710035075 0.044101742402214775 0.027816883890994182
0.04759266378847632 0.04420036678099549 0.026269322127819905
0.04758752448416054 0.04429978785892374 0.024712448417983257
0.0475841561023469 0.044399419735345357 0.023150150242502554
0.04758706593207296 0.0444986658945605 0.021586433845532216
0.04759359294539284 0.04459787753870683 0.020018949268621578
0.047601955163486975 0.04469729189656286 0.018446090718305552
0.04762030953284002 0.044795820911413486 0.01687524246162153
0.047628768768634366 0.044896120702058735 0.01528834840366683
0.047647264335768436 0.04499552922269234 0.013703505166026475
0.04765491105340436 0.0450968488221041 0.012101547018613545
0.047741089846472906 0.045188046115009504 0.010565130747552387
0.048080649573642165 0.04524543233246001 0.00925829068363998
0.04795936457259342 0.04536547698694283 0.007515610824978425
0.0486527377316453 0.045375519803679036 0.006531397834847685
0.04810769864297443 0.04555405389865604 0.004374216063492087
0.049070687866494045 0.04552782098458891 0.003638977846899316
0.05008275411865498 0.04549476063258193 0.002952586042336447
-0.010478266148523485 0.04936579582505905 0.03416933623871621
-0.0072742459044831675 0.04906529346863395 0.034953997341191034
-0.0037326436776007887 0.048721016747715715 0.03600687503965455
-0.0007263594194767409 0.048442883827442496 0.036684536028335935
0.0021133536274516307 0.048184662257091705 0.037255708879767424
0.004984627844086653 0.047921360887689446 0.037867080423743704
0.007490668372503839 0.04770335221951258 0.03821993166637222
0.010168322999374813 0.04746258308165618 0.0387169036842806
0.012552131603776717 0.047258285416749805 0.039005401546084784
0.014923638678730422 0.04705469941313758 0.039297658645968125
0.017227527703187473 0.046858915717956584 0.03955098485534986
0.019516306284916463 0.04666424331118484 0.03980529638897495
0.021712242484456523 0.046480689079873655 0.03999994611570179
0.023854862475167993 0.046303228250367465 0.040164797533793595
0.025907712227947133 0.04613660934377876 0.04027055751367159
0.027956378189982034 0.04596982102175836 0.04038389862860681
0.029991234242277676 0.04580411114115859 0.04049717829974658
0.03203497525288118 0.045636535772635295 0.04062844463834281
0.03394737785838525 0.04548535436396742 0.04066511303027387
0.035751061434521614 0.04534771905954218 0.040623849907716
0.03778019783773706 0.04517998621851742 0.040774933485628606
0.03963200120446514 0.045034785048256816 0.0407922165704423
0.041450343065420614 0.044893352702916965 0.040791647058663616
0.04320642736709546 0.04475950665693146 0.040749067076472356
0.04507775219453952 0.04460986605000252 0.04081108821567686
0.0468269520116647 0.04447572897668404 0.04078117076816995
0.048457704002763446 0.04435670954716931 0.040660843456116424
0.049820231901882506 0.04427280797100163 0.04032224156500969
0.04828778091192493 0.04457404044018357 0.03753429814714698
0.048812614673952426 0.044602042525163185 0.03647989267834301
0.04795411236108443 0.044815188562358305 0.03423806725488415
0.04832038176034481 0.04486510190125633 0.033036997140160396
0.047988029827899625 0.04500909031023478 0.031227479425645577
0.048004212010661795 0.04510679116963427 0.02971162276961098
0.048011576955621194 0.04520611640145571 0.02818139212185039
0.04801452069966433 0.04530648234726737 0.026640488908413307
0.048008550030674224 0.045408505001904936 0.025084832186539285
0.048006131597203516 0.045510501952485564 0.023525335807557557
0.04800818625400877 0.04561234765108036 0.0219628254695432
0.04801564277884024 0.04571391433916301 0.020398151290014377
0.048027636256639805 0.04581531841952033 0.018830560988888134
0.04804419646138419 0.04591655470884087 0.017260098480342434
0.04805902075949858 0.04601848794652931 0.015681028962857835
0.04807844398218769 0.046120250599925326 0.014099091653111295
0.048087050513064056 0.04622396899424507 0.012500087340132915
0.04813302707546835 0.046322991157172776 0.010928483539194456
0.04851639184617773 0.04637569055273508 0.009664363432750789
0.048264874572328476 0.04651685259730464 0.007801804682749547
0.04900328556718547 0.04652078956270498 0.006861494766433718
0.04855920472087799 0.04668981618998505 0.004801597584032813
0.049277522397004114 0.04669698160648261 0.003835780876665029
0.05037353192009453 0.0466512120070371 0.003230701588858964
-0.01046199730409375 0.05052502247084897 0.03574146044768722
-0.007765600098353198 0.05028254756164281 0.036149369628909966
-0.00485838823323248 0.05001188619286381 0.03672700299100551
-0.0018848000045679214 0.04973152480150928 0.037370401415820376
0.0010394209861649961 0.04945638849233581 0.0379945970921734
0.003768160590231384 0.04920546719959027 0.038490108400547285
0.0062381982219824605 0.04898713224950742 0.0388072533787982
0.008710437769615609 0.04876759618391266 0.039139712813058114
0.011128590431387642 0.04855420047370069 0.039444924598717124
0.013485807039262554 0.04834787995160348 0.03971708957814207
0.01582712158241173 0.04814277495259105 0.0399900521256808
0.0180144878119623 0.04795703056745886 0.04015733336634747
0.02020884276230911 0.047769580019284164 0.040341767229769954
0.022273154810856233 0.04759849288679855 0.04043679342523793
0.02429450035593822 0.04743235990018371 0.04050903519402199
0.026308538236591128 0.04726648771772857 0.04058609080112985
0.028340084424939127 0.04709758274208805 0.040687575427788
0.03030885840619285 0.04693630861396357 0.040749902746299416
0.03222851672301441 0.046780893192953095 0.04078326434770457
0.034230421749580686 0.04661381847497857 0.04089273913097696
0.03605393503927051 0.04646991682802971 0.040868724295930525
0.03792019762803561 0.0463196566060723 0.040888727816958625
0.0397608272733897 0.04617219469251755 0.040897486899459934
0.04158977456012758 0.04602566871029884 0.040906190388570185
0.043376834093390104 0.04588416533247153 0.04088980142250598
0.045152938874591486 0.04574352937646056 0.040873512921457855
0.04686468113741238 0.045611013065989484 0.040812662198545346
0.048443768596729275 0.045495956009629836 0.040649150261506506
0.049886880474766304 0.045398925459616005 0.040378462776628266
0.050713973734092976 0.04538560285756587 0.0395917438429218
0.04907048586267859 0.04571038794736122 0.036699728049864544
0.049299648356293024 0.04577971672661771 0.035391201172485065
0.04861446740006109 0.045975057637777254 0.0332903617489238
0.04860725174153718 0.046077849163408804 0.031763775007035144
0.048409899574288484 0.046207353268074056 0.030064833153982007
0.04842701390659121 0.04630775139656045 0.028544996320603422
0.04843620635183993 0.04640969592590857 0.02701150500839783
0.048429410525742844 0.04651431859005676 0.02545706997231678
0.04842615420734353 0.0466189165929735 0.023898785029709213
0.04843003957828729 0.04672298675423674 0.02233987224109235
0.04843483885048844 0.046827397126611915 0.02077478927238363
0.04845493355664604 0.046930132696814675 0.019216490998924196
0.04846971446034959 0.047034079525743906 0.01764643538282329
0.04848726796873065 0.047138106415142704 0.01607187980646574
0.04850761209215709 0.047242211366558325 0.014492832652719057
0.04851807773437056 0.047348188190186914 0.01289760190059075
0.048563101020476784 0.04744974553144143 0.0113271916918542
0.04896916173852117 0.047500429540448474 0.010086304397598334
0.048621815402475566 0.047658721226302644 0.008136177610851558
0.04937493817708144 0.04766054082948642 0.007211465223257552
0.049016806842760774 0.04782147343974531 0.0052347494289890495
0.04952794303269181 0.04785840326521172 0.004074056080025312
0.050720159645001706 0.047797538821762214 0.003562235009481607
-0.010964102978130497 0.05174745581011042 0.036932760015361554
-0.008766382943603823 0.05156498094260348 0.03697240242452804
-0.005918058442113405 0.05129594557306445 0.037497930086213216
-0.00309710152481657 0.05102941223073776 0.03801961692357547
-0.00027163505236216245 0.05076117488014366 0.038560758042595344
0.0022355391877055264 0.050534061793099036 0.038882016546245235
0.004795797064506779 0.05029894228029767 0.039256671510271346
0.007227310228333228 0.050079997363173125 0.03954908357380621
0.00964917937980786 0.049861423547384966 0.03984758172394315
0.011921442171028085 0.04966195340057823 0.040046020323994125
0.014282508022113949 0.04944973558837522 0.040324369723976294
0.016388667261766188 0.049270879739194175 0.040420398472425845
0.01851860514758924 0.049088066345700815 0.04054575304914604
0.020604101238689054 0.04891047704131392 0.040647952758008477
0.022689266591629287 0.04873217938458896 0.0407608678007535
0.0246543760059571 0.048569395150279776 0.04079081880993479
0.026626625712704466 0.04840494789583191 0.04083649168548581
0.028602745586486233 0.04823927206499828 0.040895453469740495
0.030576734704997333 0.048073178295348684 0.04096304424197622
0.0324940535967545 0.047914118966276925 0.0409956753704635
0.03438013744616902 0.04775865516666755 0.0410131416596608
0.036211626193593915 0.0476100169712677 0.04099621815586524
0.03804637459296456 0.04746028913846108 0.040991286708816466
0.03982157784717871 0.0473181236921289 0.04094712928119337
0.04158078241503027 0.0471775528882721 0.040898803318349
0.043344728619990835 0.047035715164851 0.04086328637288794
0.04508836881319417 0.046896078188946144 0.040819902799529295
0.04678482577340082 0.046762394319868984 0.04074600919278293
0.04843505837842904 0.046634568935163954 0.04064184152020184
0.04986524425097133 0.04653692084480781 0.04036021160238745
0.05097180779695243 0.0464841484191259 0.03981039076084497
0.049283475430835944 0.046823265388534846 0.03688130180797761
0.04978150428718864 0.04685645663461006 0.03580415513231333
0.04885358076334956 0.04709073844256 0.03349636590403354
0.049235608505978246 0.04714105187223109 0.032307982098038035
0.04881990112949314 0.04730450363015948 0.030421799499245228
0.04883434651951901 0.047407661257740506 0.02890150733389618
0.04885151399495519 0.04751089174641987 0.027376909477929534
0.048848326634037154 0.04761748388731989 0.02582758800954088
0.048848686144658926 0.047724046805655965 0.02427446533718619
0.048852616381033664 0.04783057689038556 0.022717565647869642
0.04886461229818212 0.04793642909822612 0.02116093078267689
0.0488784537436151 0.048042493165685644 0.019599009563878944
0.04889056036132339 0.04814928646776763 0.01802853038749841
0.04891532157113743 0.0482547357081632 0.01646255394981877
0.04893297595448215 0.0483616923358579 0.01488308343896877
0.048946189136156615 0.04846977989202468 0.013292427348487346
0.04899750617828119 0.04857281934292918 0.011729915176929895
0.04940893577170585 0.04862384359909949 0.010496134386329292
0.04902348851674243 0.04879151167331007 0.008512454584550189
0.049766644544919525 0.04879470138535886 0.007580319505032906
0.049658081575543855 0.04892289991396732 0.0058417600182013585
0.04988464504028911 0.04900239477540856 0.004413457995390002
0.051082389939538064 0.04893907238859557 0.0039086915678338
-0.009655060641482083 0.052833461454346795 0.037877898328218196
-0.0071345236828204706 0.05260264895794704 0.038157060983219526
-0.004392653550554959 0.05234097915342796 0.038611355979039585
-0.0017893289849582605 0.05209698173573579 0.03897939536145034
0.0006958416013739255 0.051868000374416426 0.03927466038993438
0.003162468680577235 0.05164058710541202 0.03956972054027186
0.00570482258723265 0.05140190929900706 0.039934757048263436
0.007910009742010948 0.0512082623186575 0.04006110557951609
0.010317275272729853 0.050986160088966975 0.040351367118086456
0.012533606513774609 0.05078930057167555 0.040510128998030526
0.014683126629328747 0.050600791492146836 0.04062973865341146
0.01678757093834593 0.050417693438008664 0.04072610243602254
0.018936643885785698 0.050227665446947435 0.040867849637802045
0.02097776304381993 0.05005175767803238 0.0409374085041177
0.02298506321148469 0.04987978926338077 0.04099123884355643
0.02495048778120268 0.04971290385342074 0.04102267513791552
0.026886457460328528 0.049549405816902405 0.041041033216588585
0.028826893417523314 0.04938458729289294 0.041072850889097956
0.030729894275329406 0.04922429450972622 0.04108490892370986
0.03259153506902812 0.04906910615726893 0.041073653765456464
0.034458198972386334 0.048912546363724545 0.04107591934672805
0.03621070443972235 0.048771366521684976 0.04099547291457695
0.03805003052032646 0.04861734193202521 0.04099425831190712
0.03979165861028622 0.04847644993796818 0.040922680751963814
0.04153311613751959 0.048334971679174145 0.04085964534932768
0.04325997669352355 0.0481949497097085 0.04079329202932058
0.04499810628659878 0.04805271648350333 0.04074496117872789
0.046662775636026055 0.047920328715153844 0.040644137407331304
0.048235470199149366 0.047800494432854786 0.04047436714475644
0.049834083150885944 0.047676426586643374 0.040333925746196264
0.05107345163470195 0.047603331835097615 0.03989658616731434
0.0511545876961233 0.047696377955938715 0.03847642634294374
0.05004541022759429 0.04796128457946793 0.03603032440019005
0.04912743712511786 0.048199760192795746 0.03373230231365809
0.04952084386807787 0.04824956698064214 0.032555018678916525
0.04926939184595536 0.04839309728863576 0.03081314693744014
0.04923892400787888 0.048505152763690586 0.029255606970784775
0.04925783471221751 0.04861051613079547 0.027734406886446572
0.049265308986194856 0.04871801961476686 0.026196395700674224
0.04926837616640101 0.04882664923104507 0.02464761884935579
0.04927412713429613 0.04893537286962094 0.023094306234097473
0.049287039538464195 0.04904353315900617 0.02154047189538838
0.049301796925158514 0.04915190932189 0.019981368259567756
0.049317515498785436 0.04926063328502173 0.018416172098792483
0.049340485706120596 0.04936877672875798 0.01685059094631891
0.049359958406333504 0.049477929663509834 0.015274819202883927
0.049371402840942435 0.04958877236080144 0.01368458039730458
0.04942446062581679 0.049693921584043045 0.012125731340690837
0.049835811701859356 0.04974605672855902 0.010893944498894192
0.04949950729046898 0.04991031427427775 0.008958376647142052
0.050217193551258754 0.04991723846139501 0.008004583555308753
0.05005365562083769 0.050056672936551964 0.0062161980274283435
0.050301500731308624 0.050134762812858405 0.00481009613296518
0.05151077912733759 0.05006800889322675 0.004318426054095603
-0.008825836811055254 0.05397717520682796 0.03847660410734277
-0.0057836934584610256 0.05366863179891196 0.03913770473423667
-0.0032204544082662934 0.05342505445492321 0.039466969386204975
-0.0008151136343275134 0.053202353472033115 0.03969437511433871
0.0016294130650056915 0.0529732850137085 0.03996354405107677
0.003943358018723919 0.05276143815647209 0.040149074979704547
0.00635371298899462 0.05253526129025217 0.04041879537961546
0.008604834625413504 0.05233039455469747 0.04058222156581637
0.010768232991862081 0.052136956278517256 0.040691416974225236
0.013039475812789303 0.05192757020380737 0.04089365073101486
0.015014959285006513 0.05175890116909602 0.04088267593837791
0.017153475092529125 0.05156654317633651 0.04100651687388729
0.019206511893320677 0.05138544600021739 0.04107578147921326
0.02119291100865317 0.051213014333132294 0.04110407208554229
0.02319437362004717 0.05103771486026088 0.04115425306972853
0.02515214581246622 0.050867880620078965 0.041180573926634045
0.02702968392898969 0.0507087519234189 0.041153782183804
0.028919331367399548 0.050547215536173265 0.04114600909760202
0.03078658626667119 0.050388191590168094 0.04113001711686254
0.03261870773607606 0.05023352276025666 0.041095390008402455
0.03446191531596143 0.05007659688519699 0.0410789080591617
0.03625955064199626 0.04992555684555204 0.041034965243095745
0.03802809379351518 0.04977806287017044 0.04097642774834881
0.03971456988091526 0.049641798047653986 0.04085968763285236
0.04142784344873929 0.049501059594186395 0.040773163565951176
0.043161790032444414 0.049356707807988134 0.04071220229867051
0.044897167560906504 0.049211519641586265 0.04066115550664745
0.04646942155278533 0.04908949149205468 0.04048275024212389
0.04806620036123349 0.04896334504237798 0.04033233287955584
0.04962185962837262 0.04884267003946378 0.04015490520526949
0.05104158695951244 0.04874142287199141 0.03986956447381296
0.05185525923979789 0.04872890707448732 0.03907374933152258
0.05020546605196413 0.04907961691239754 0.0361674933800224
0.050613490901130154 0.04912774490887507 0.03501258731473428
0.049685619104847756 0.04937395961598157 0.03269772718043418
0.05005003186704332 0.04942942856561815 0.031492808299102226
0.04964692381210589 0.04959933543734206 0.02961270193203208
0.049662286522406285 0.049707601196579784 0.02809025995489628
0.04967771644712082 0.0498163406362019 0.026561157045328743
0.049687013329314245 0.049926485603780844 0.025019836246894467
0.049696351413856144 0.05003711871628974 0.023471684560438855
0.049711069181195666 0.05014744008046901 0.021921452729667723
0.04972585199117391 0.050258248990570166 0.020364369921129333
0.04974516795512646 0.050368873475771694 0.01880444692082789
0.0497645691402539 0.0504799860310132 0.017237641613358556
0.049777774403076236 0.05059254357062815 0.015658145187243067
0.04979193805741172 0.050705467329966274 0.014072418713467316
0.04991609253917145 0.050802131239022386 0.01258150796756452
0.05023817067747327 0.05086898252567645 0.011268907006906581
0.049979598399246095 0.0510251008491296 0.009408113567772214
0.050732422298413515 0.05102662529613254 0.00848975394079593
0.05034949395603283 0.05120296484332482 0.006496229335350101
0.05077261739410577 0.051255769008768576 0.005258363578362124
0.05194979202155653 0.051192221778354745 0.004738321625221142
-0.009459061843406724 0.05520803126465324 0.03956290430948661
-0.007367725640892997 0.05502693209349503 0.039529371227811194
-0.004777798329021199 0.054774662249771594 0.03986794066994165
-0.0023033121044442884 0.05453768832419427 0.04013641131217027
-7.414795876253821e-05 0.05433452640506425 0.04023817218679421
0.002322854971487931 0.0541066668629173 0.04047523578324336
0.004599077345983249 0.05389506073561377 0.04063556376206018
0.006810287539103954 0.05369185058773148 0.04075937613527564
0.0090090484281391 0.0534895717530932 0.040885380360953405
0.011223253476882578 0.05328423253970232 0.04103453040572197
0.013366427816300042 0.05308823280062364 0.04114152740436394
0.01533607390876629 0.052916382608258546 0.04112744347317926
0.017396336677514224 0.05273073949680392 0.04119263636461723
0.01943821898348974 0.05254696891064262 0.041254310540019545
0.021394995890500312 0.05237474655887549 0.04126061639766959
0.02331066059794451 0.052207760820152806 0.04124481919038164
0.025207368224087312 0.05204282269615579 0.041223813225611916
0.027082523653367274 0.0518803235204679 0.04119537801736195
0.02893933735383164 0.0517198099629373 0.041161842444497776
0.030769580585125578 0.051562499279227084 0.04111648618330921
0.032567169784222916 0.05140930447685557 0.04105416323296507
0.03441638464526192 0.051247862280683766 0.04104229193934383
0.03618304954613483 0.05109788678826901 0.04097311383461022
0.037829622496816706 0.05096499497847948 0.040815106731739825
0.03956028849189941 0.05081908614782949 0.0407336164679199
0.041245036749580744 0.05067935394273027 0.04062298739452841
0.042918757367755134 0.05054065379033986 0.040511488137477736
0.04457713018329296 0.050403635816047856 0.04039544036770726
0.046208921399955916 0.05026998768747351 0.04026531815847406
0.0478076029063742 0.050140707956904534 0.040115343840422146
0.04934686684588507 0.05001976901623069 0.0399229358359513
0.05083906030706631 0.049905370824545534 0.03969781901914515
0.05202867799635874 0.04983602668476909 0.039221588944647556
0.0503167185121241 0.05020421570518642 0.03626283752962811
0.05084975507386569 0.050234520317676876 0.035216136796945297
0.05017198165685932 0.05044847565174798 0.03311895595456599
0.05026102766749374 0.05054689959711974 0.0316765110163153
0.05048008160801487 0.0506259690278734 0.0303419092692922
0.05007015863432335 0.0508013593660983 0.028449122343206457
0.05007940677166889 0.05091343391972523 0.026916439422102145
0.0501028343558505 0.051023837169051456 0.025389549769846254
0.05011308104002066 0.05113676056969486 0.02384415184020472
0.05013136037134186 0.05124895527388991 0.022299074650698247
0.05014883074014059 0.05136178059882461 0.020746399465503607
0.05016816072519026 0.05147482813133247 0.019188491113918682
0.0501822168759849 0.051589205044359425 0.017618818574520967
0.05019006945655652 0.05170506482217392 0.01603640597298095
0.050211414518814446 0.0518193508664309 0.014459280593493107
0.05049965353915753 0.05189250731409932 0.013122509186004216
0.05047768032745936 0.05201451953031918 0.011492108537119516
0.05052323563208838 0.05212650404859834 0.009917378852149494
0.05123526119470412 0.05213427902414909 0.008963257297311789
0.05062489445363111 0.052350357729275904 0.006756914825936933
0.05134180015876366 0.052357914430235346 0.005799940907345313
0.05243622241175472 0.05230577487291264 0.005203569842744504
-0.008658180124231474 0.05634754358311904 0.04013799728194989
-0.006379057410427713 0.05613502048478463 0.040243197050824187
-0.003953055001661876 0.05590040287503837 0.040466668308384524
-0.0016343759473266273 0.055680350456633845 0.04062468222444038
0.0005441996482170031 0.055479708628473345 0.04069197946764963
0.0028535720242421903 0.05525922172782745 0.04086685262306172
0.005064246902260872 0.055052193315721205 0.040980680585089135
0.007354832210357765 0.054832637851337115 0.041165578004350334
0.00941654404351927 0.054645641266182474 0.04119100050294078
0.011565075311959827 0.05444513638836457 0.04129228509293914
0.013594950609399914 0.05426121827839049 0.04131478057036314
0.01556668706122566 0.05408508415417117 0.04130322684971727
0.017554725303536245 0.05390580335466962 0.04131401912844318
0.019517707016418584 0.05372946910695886 0.04131555563982969
0.021449175385919783 0.05355705651261803 0.041302586344972525
0.02332531328630505 0.05339212584599002 0.04125623093369074
0.02518605633035076 0.0532287843042789 0.04120712595466508
0.02703448818842258 0.05306658236041918 0.04115756413342797
0.028866924020347184 0.052906077775630694 0.04110453232720701
0.030671293375878372 0.05274908845917344 0.041038281867069426
0.0324556084942515 0.052594434959099635 0.04096492196349705
0.03418855275210381 0.052446840751998645 0.04085906775726966
0.03599857081857111 0.05228699830947104 0.04082396212629874
0.03772251784396469 0.05213946287582157 0.040728050155957485
0.03937042299814725 0.052002796602246916 0.040578467722303224
0.041005200562586774 0.05186752905374192 0.04042596135282872
0.042656571979715674 0.051729152241774726 0.04029495625562296
0.0443195972888783 0.0515883982865516 0.04018162037789447
0.04591978764581184 0.05145662190471491 0.0400239864205299
0.047511823842471324 0.051325517021577755 0.039867155725395786
0.049101854491437 0.051194145389978345 0.03971625637032189
0.050555971316251225 0.05108308011573039 0.0394577555664995
0.05184495141703227 0.05099695513814745 0.03906496190529457
0.052662517245675 0.05098320208573325 0.038273203728046656
0.05094173769106164 0.051361987259363674 0.03529538289628342
0.05138343553469121 0.051407244754376406 0.03416817166775338
0.05038260079351198 0.05167680593100202 0.03178235821110287
0.05074959038947047 0.05173459691964836 0.030577792293922657
0.05085664690108321 0.05183320713455015 0.02914110654497226
0.05048452835868911 0.05200719846829435 0.02727475664191742
0.05049998987352189 0.05212121766544048 0.025742667472481773
0.05052435320305204 0.05223435013352889 0.024211741313546475
0.05054085535582059 0.052349229224629014 0.022666996430446784
0.05055476872529474 0.052465034739811484 0.0211130379878679
0.050569632899726324 0.05258121313129496 0.019552996297529324
0.05058812717925082 0.05269734221024445 0.01798928306568509
0.05060670333131834 0.05281398538206229 0.01641864741755339
0.05073181798929155 0.052914193913903965 0.014939222338704372
0.05107312314733825 0.05298035452157371 0.013654154989564182
0.0506251762037363 0.05317307299998216 0.011629561476017958
0.05120971923303874 0.053201130030360554 0.010560458915725157
0.0517069747774172 0.05324334322897207 0.009407451186003501
0.05105339322915192 0.05347111912680769 0.007162518354204395
0.051963943083096875 0.05344742568829345 0.006391909821598485
0.05299743899487919 0.05340372791600342 0.005740347602120943
-0.00802720899424153 0.05750692190599001 0.04059108174373299
-0.00564443595510461 0.057274211013465644 0.04077359921081092
-0.003333505739405329 0.057051148419941335 0.04091643401655648
-0.001087209619311913 0.056836727297769576 0.04102407071510655
0.0010572489613424607 0.05663651776655924 0.041068507994818204
0.003261302190841975 0.056426622011218036 0.04116771727120849
0.005435348716493149 0.05622032065298113 0.04125600702771576
0.0076113435233691185 0.05601286835695466 0.041356922039623156
0.009618921781335943 0.055829730160199584 0.04134278302680655
0.011664826332671963 0.05564008271888612 0.041367503497689195
0.0136999354824337 0.0554512603554529 0.0413943742134672
0.015668752210820758 0.055271618297520156 0.041381025346599876
0.017605821453795745 0.055096006025071316 0.04135317719234666
0.01953260715335703 0.054921205983676225 0.041327036114818916
0.0214166696368302 0.054752135148828554 0.041277405885727425
0.023269626718424807 0.054587067134002895 0.04121286136199326
0.02510466028801378 0.05442402305047382 0.04114339263141997
0.02691915015770452 0.05426341509442887 0.041066769157012795
0.02871914709282314 0.054104334870575296 0.04098757716657914
0.030496319921005488 0.05394806712336689 0.04089906050242542
0.032255745714218687 0.05379385131013057 0.04080504564605658
0.033995825824510384 0.053641946347713784 0.04070407526178321
0.03565676731711681 0.05350157652459751 0.0405476127779375
0.037373280073415505 0.053352023577666434 0.040444183455228155
0.0389344838649916 0.053225848356444075 0.04022223969825467
0.040683689598235484 0.05306998206307842 0.04016183927240735
0.04231234432600717 0.05293216764270781 0.04001066786639845
0.04393167148621735 0.052795205820689806 0.0398595400030296
0.04556562886940224 0.052655363897107434 0.03972838014214103
0.047114590355753716 0.052528202217869066 0.039533837237626934
0.048701415848388 0.052394549561872394 0.03937846750677998
0.05014255588237221 0.052283192083188296 0.0391071734539693
0.05148721643210541 0.05218653144748284 0.03875999257659163
0.0528320489348344 0.05208941752324176 0.03841849359139776
0.05299453484283373 0.0521788086186502 0.03706393625962018
0.051503056279337156 0.05253067353654682 0.03427177277647264
0.05182677920119455 0.05259583514697366 0.033039726827280846
0.05082913440293457 0.05287159446529876 0.03064741185283204
0.05117859349136289 0.052933701196370885 0.02942436818243277
0.05133295792590381 0.053027275265584865 0.028025165737541047
0.05091730357965685 0.05321260148687795 0.02611370816216607
0.05092051089841432 0.053331495361939533 0.024565821680973154
0.050936097267682834 0.053448931636245874 0.02302211215385097
0.05095706274370487 0.05356602962656385 0.021476385321352542
0.05098344174979924 0.05368278147470081 0.019928702213013738
0.05100638090822479 0.05380061945126804 0.01837101310218614
0.051091756562375634 0.05390885196903634 0.016863660314884177
0.05141989741988867 0.053978059664990606 0.015573803123613561
0.05130910351889062 0.05411919539283069 0.013872925038523443
0.051202208015537876 0.05426033863671887 0.012167303414111708
0.051921090747049314 0.05426678505537912 0.011226853331881004
0.05201981050696536 0.054375137811899676 0.009702036129753622
0.05164190291251741 0.054562466859856135 0.0077195831992614705
0.05270027313022735 0.0545136283792016 0.007092527768831403
0.053515652422994664 0.05450475804849849 0.006235994828498237
-0.007505368407203006 0.05867866330408536 0.040965802313782995
-0.005143337059584641 0.058443854978936546 0.0411353963440485
-0.0029073472185957017 0.05822709414226056 0.041225806491970884
-0.0007182365241230615 0.058016524432761694 0.04129339212623684
0.0014389851326443437 0.05780991333027665 0.041348665388406036
0.0035723809856569866 0.05760606137479307 0.041397262739792384
0.005648587095177182 0.05741006146304964 0.0414142120323342
0.007771354611100623 0.057206146079544724 0.041476281949544835
0.009762010515547592 0.05702156081752241 0.04145009902633151
0.011758358493491883 0.05683533126210087 0.041438032499592936
0.013774306112880275 0.05664531354185292 0.041450757854711195
0.01572531835849339 0.05646447931442494 0.041424142524998375
0.017637874489135175 0.05628880739804013 0.04137774136792055
0.019481941702817085 0.0561229669233358 0.0412879986589792
0.021333901351042184 0.05595520367269277 0.04121328973687843
0.023143535533082127 0.05579329087793327 0.04111465957094562
0.024945637434699186 0.055631860257610265 0.04101887730336873
0.026738303568907107 0.05547121125303588 0.04092440534463965
0.028492952805169225 0.055315808269283916 0.04080856011913525
0.030235902851667773 0.05516156993155296 0.04069185410191095
0.0319860863607252 0.05500553707919215 0.040589336926339814
0.03370306989384447 0.05485404746669974 0.04046863866333289
0.03534208342898432 0.054714175854984864 0.04029318973354157
0.03710146824318705 0.0545547172717951 0.04022324994238158
0.03878406071507573 0.054406706336406735 0.040099321296601265
0.040347987983741784 0.054276849768563534 0.03988605953655977
0.04190086957521616 0.05414818272803962 0.03967084190282838
0.043484814069277455 0.05401401429584495 0.03948853089929921
0.04508220954664799 0.0538771163203521 0.03932488375459042
0.04663455372916486 0.053746818192926836 0.03913103866248563
0.04820038911232455 0.053613789078749786 0.038955827847204805
0.049731583459640405 0.05348573514991747 0.03875866304931147
0.05109678362729059 0.053383814860210564 0.038427148333213146
0.05235640615057918 0.0532984627820812 0.038010864342429396
0.053367689467123225 0.05325285062876972 0.037385421441564315
0.05156110190468144 0.053663247167522785 0.0343220449191497
0.05200176656372962 0.05371082970827736 0.03319207893053128
0.052221514952871306 0.05379454912871543 0.03186606949278653
0.05120830706603291 0.05407959106255392 0.029450511387765443
0.051516636536469096 0.05415003899268501 0.028187623654339244
0.05172954744443253 0.054236423501787374 0.026835887950051374
0.05169947575347533 0.05436306401633858 0.02526204988837988
0.05146162704303231 0.054524442665368836 0.023494288511526185
0.051414880341746405 0.054655051683675626 0.021889880913775583
0.05149262521055353 0.054765685967628416 0.020391000779703294
0.05168048372691064 0.05485859031011793 0.018986250398966786
0.05184239326897683 0.05495622232985085 0.017552333215628102
0.05172331502741068 0.05510103187935342 0.015853629804916114
0.05143321597869588 0.05527501042147421 0.013987985832476069
0.05204217322320176 0.055299571287492404 0.012950075714464215
0.05251276223879747 0.05534741592478547 0.01178111586634295
0.05190066200156557 0.055577204544527956 0.00958983872886271
0.0523896139813928 0.05562281888951679 0.008427343092605177
0.053512703342780854 0.05556171571542664 0.007865555013892855
0.053912829186711086 0.05562251756245228 0.006615876071702331
-0.007067295751145564 0.05985992248208291 0.04128037124436912
-0.004798960108084727 0.059634387188689734 0.041384039066911626
-0.0026175715373694675 0.059421318391398734 0.04143617098179858
-0.00046254229385317425 0.05921143845279318 0.04148002885344565
0.0015785850457028516 0.059018312092503085 0.041451118209825055
0.00367454217738572 0.05881588269410181 0.041472647623035264
0.005756170432629049 0.0586148371912984 0.04149402985173184
0.007926006842571554 0.05839922011549361 0.04159164443272817
0.009826261062213903 0.05822476136446532 0.04149828668885791
0.011784045892708817 0.05804057757824246 0.041457402378492214
0.013745783932678612 0.05785500158460929 0.04142913393722747
0.0156667316687768 0.057675049362951966 0.04137948520155982
0.017524662068566954 0.05750425347007767 0.041290979856989374
0.019353724848638787 0.05733728773468799 0.041189208265731914
0.021166278116740378 0.05717222392201297 0.041083441013557376
0.022837225630633506 0.05702888089266468 0.04087610061891145
0.02470003826020528 0.056854485740800355 0.04082657247960403
0.026465725103765103 0.056694791531472964 0.04070982950040353
0.02818899747518061 0.056541174357474036 0.040568000614765065
0.02992574208505927 0.056384748850174964 0.040445068066751244
0.03164913514092793 0.056229789532248324 0.040319799395793
0.03330229967093895 0.05608542734733657 0.040146336130207794
0.035024044667206655 0.05592942167378958 0.04003605426185408
0.03665241145473286 0.05578778291857755 0.03985824856014808
0.03822406210126833 0.05565468653453748 0.03964171796509375
0.039942641762315156 0.055497245983620866 0.03955306657779656
0.041454132542415756 0.05537269368982597 0.03930189376605453
0.04302155376526423 0.05523851264284815 0.03910390308812217
0.04459028947438659 0.05510353243675318 0.038914292032707576
0.046123119596611695 0.0549738212524475 0.03870189445043892
0.04764085651786992 0.05484601018898484 0.03848383573935937
0.049127159218821936 0.054722789922536694 0.03824610277737783
0.05054360881607517 0.05461050115088025 0.03795556641380354
0.05188627672078494 0.05450986287064766 0.037607960077446045
0.053112734761758984 0.05442795203340543 0.03716576944074129
0.05386808357467959 0.0544235734229318 0.03632007510625768
0.05198531523507299 0.054856339479406734 0.03317775564177611
0.05242157623679955 0.05490588798718413 0.0320411697641379
0.052643921973796304 0.054991263445058274 0.03071362347471912
0.05165120494542663 0.05527971861500947 0.028306645152372245
0.051760169890513186 0.055385270047557174 0.02686311488591886
0.05196678476087069 0.05547493200437013 0.02550096704854876
0.05210831261840493 0.055575928423464996 0.024075320555500268
0.05213791437429044 0.055696220158897664 0.022542916941459434
0.05220638560672741 0.05581049792196145 0.021039039126475534
0.05215072931393078 0.055946281639449785 0.019415432143593425
0.05196377440999639 0.056104933025967564 0.017663694546277642
0.05182551544830322 0.05625603481634285 0.015947884073281238
0.052316278813629435 0.05630073822717984 0.014806645869163304
0.0528628199410785 0.056336128400613084 0.013714844913554847
0.05275933550774192 0.056482850593671106 0.012012099320644454
0.052355294286664245 0.056681766783289816 0.010017947840076535
0.05330772089856639 0.05664854235187763 0.009296394362307892
0.05424571812825646 0.05661764952517055 0.008563018490078234
-0.006695761559495916 0.06104880386296127 0.04154716058108615
-0.0045840346434846135 0.0608430331390549 0.04153921685246914
-0.0023980694575322925 0.060624735915488615 0.04159551990592386
-0.00030344727869047183 0.0604199334720166 0.04159615573246778
0.0016794629068648814 0.06023192691015685 0.04152515279386115
0.0037660148757829304 0.06002673575185821 0.04154014545241552
0.005766714516910465 0.059834307296736576 0.041501852678526574
0.007903026063712126 0.05961952298184012 0.04157450197258067
0.00977652063693113 0.05944569923142005 0.04146098156148065
0.011690526675604773 0.059264681981078746 0.041386883136946384
0.013633689839632479 0.05907824191294923 0.04134415048220047
0.015485803116097374 0.058905610580849546 0.041241573588267355
0.017329130420477845 0.05873366292614734 0.041141132153548865
0.019116932211274362 0.05856992592755603 0.04100676081829441
0.02094813549571961 0.05839849588283669 0.04091445763270668
0.02266475833152065 0.058244858602566285 0.040741780383726
0.024389889118672237 0.05808919035769201 0.0405837248555182
0.026127070760139537 0.05793090309363007 0.0404432382212655
0.027841391934104454 0.05777565891132749 0.040292895004079676
0.02953893834599386 0.05762248528193021 0.04013729941440786
0.03120389671692292 0.05747397881647158 0.03996363963657612
0.032856544608250715 0.05732684987408787 0.03978785643873717
0.03450819958863044 0.05717925052246168 0.039618991678488535
0.036152295441592985 0.05703225733325293 0.03945174532766932
0.037700790573147125 0.05690038130179091 0.039214126202101185
0.039288626284065875 0.0567614375339236 0.03901579118785292
0.0409619110618038 0.056607749480011675 0.03889538124343378
0.04246989990580147 0.056480807114244656 0.03864588539341707
0.043982742572512445 0.05635250441584908 0.03840718987804581
0.045492273395576044 0.056224192666519214 0.03817255161108912
0.04697645443030729 0.05609955082592724 0.03792338127276784
0.04846544114635365 0.055973557848464174 0.03768495652899362
0.049938196694845005 0.055849732163694384 0.037439452150509034
0.05124468207586591 0.0557533012929832 0.03705810890360767
0.05254580448665325 0.05565734754130429 0.03667734005844692
0.053654398615058996 0.055593465410387524 0.03613500688252397
0.05428465571659469 0.05561021666149038 0.035179667970608286
0.05236790389677026 0.05605886021790327 0.03199419395193348
0.05275477183762889 0.056118079481900965 0.0308111536703774
0.05304721206709401 0.056193644058737634 0.02954136926163875
0.05304816504959181 0.05631929745754026 0.028008293213658608
0.052184694487091676 0.05659338390791508 0.025695731802154287
0.05206709153289585 0.056740827442727515 0.02403828436282751
0.052177453606493895 0.056849763967999296 0.02257862832152402
0.0521685251310563 0.05697973697281431 0.021004664789942618
0.052192209405877876 0.05710466928222829 0.019453290017692637
0.05243869638344012 0.05719162332776384 0.01809941250438213
0.05289968001423112 0.05724178018280178 0.016938531610552587
0.05319906618793935 0.057320249895182314 0.01562505053489005
0.05319330382235771 0.05745223142363877 0.01402282627470891
0.05263832025421644 0.05768070432700679 0.01189873536435615
0.05325104642931372 0.0577058913382196 0.01086144194779104
0.05436681776622837 0.0576429650143551 0.010298902305950597
0.05470219855209574 0.05771693702672933 0.008997359555947604
-0.006390388482452103 0.06224588528179968 0.041766441289313894
-0.004488221651847313 0.062069380872679464 0.04160839454575721
-0.002335868069510194 0.061851991775330455 0.04164067539724209
-0.00030885650528317266 0.061653863343178995 0.04159220742144437
0.0017727810536461441 0.06144610978885674 0.041593639279403016
0.003779838305942751 0.06124953862235274 0.04155034578045569
0.00569289354610647 0.06106736287012171 0.041447083705422105
0.00782466133250359 0.0608489570110183 0.04151604597811992
0.009707069118904288 0.060670163838762614 0.04140889319046637
0.011545530174793428 0.060497779059995954 0.04127754685740248
0.013393987957781905 0.06032303947980627 0.041162421958042095
0.015239899640280274 0.06014798152895589 0.04105413526213292
0.017062067615417342 0.05997607720535068 0.04093646580718607
0.0188210060254953 0.05981383136210899 0.040778751291367155
0.020572433077701013 0.05965213518010536 0.040623421133312465
0.022349775796493776 0.059485479057558695 0.04049646704953602
0.02392512083626913 0.05935150085278487 0.04021981002224101
0.02570454117516696 0.05918315073483654 0.040110619713185636
0.027399920499482644 0.05902803170729711 0.039943501066785736
0.02906640376299857 0.05887705583264254 0.039761317185938505
0.030701652824500547 0.05873063950751334 0.03956187946910383
0.03234289560650455 0.05858259301275585 0.03937477591294414
0.033964680352013776 0.05843716680679603 0.03917955443977755
0.03558306867239264 0.0582916831040246 0.038989067637665686
0.03710686994156942 0.05816147413032216 0.03872880346565161
0.038728143611780175 0.05801427672886838 0.03855535323749276
0.04024952479679961 0.05788330885397268 0.03830704052878786
0.04188670500460656 0.05773217381599302 0.0381616803441327
0.043319263335235114 0.057615084462801974 0.03785340259058079
0.044787864200012684 0.05749135706590861 0.03758148208727885
0.04625017099127632 0.05736815993517229 0.037310726970446795
0.047681619139624376 0.05724969025041116 0.0370202644240365
0.049115026644066806 0.057130364160766854 0.036737699097629584
0.05055895655015824 0.057008707665447536 0.036470437251066246
0.05173880608981235 0.05693189650243886 0.035982083964727074
0.0530176861537891 0.05683768886135744 0.03558356309141392
0.054096686930051596 0.05677756532278028 0.03501601363831586
0.05469604508017245 0.056800152121759234 0.03403186033572103
0.05274698013793916 0.057264697372186535 0.030804298217704973
0.0530177612870088 0.05734557084535108 0.02951532097890186
0.053332642058990076 0.05741912602316033 0.0282612265446629
0.05352606149976408 0.057514212634252236 0.026894627419382366
0.05350722381992906 0.05764686018468096 0.025332209939945616
0.05350137247738118 0.057777828730100504 0.023774376628665106
0.05349811504876656 0.057908933203840274 0.022211827945501195
0.05352110597987353 0.05803600820156981 0.020666141697322227
0.053584545815493434 0.05815651942867225 0.01915067398047071
0.05363858397486437 0.058279242369348734 0.017619985283574335
0.0534620142578035 0.05844342033016603 0.015868821496599794
0.05302061332147695 0.05865542044143298 0.013861894203487268
0.05343574032382331 0.05871580124516176 0.0126457378395054
0.05453843420228832 0.058653688104843435 0.012073723726582997
0.05510317724658659 0.058687566034727974 0.010995917140925349
-0.006166382771960077 0.063454280537567 0.04192729414287666
-0.004419970030672293 0.06329961766131756 0.0416576727243777
-0.0023958866131614243 0.0630988575673312 0.0415971045556105
-0.000394342548531712 0.06290096492497316 0.041529809316813326
0.0017341721876314442 0.06268137904163089 0.04156530410949977
0.0036085693662384344 0.06250274339975886 0.041423966195368034
0.005605325521096827 0.06230316566797421 0.041382115570292866
0.007555883017576204 0.06211039800178849 0.04131555140044113
0.009430042716444875 0.061929489125339694 0.04120112445564228
0.011265500457538435 0.06175425169060033 0.041066387227514434
0.013093667194480407 0.06157949262641807 0.04093473559751987
0.01493078927867808 0.06140250484438651 0.040818517898136675
0.016692960269519497 0.06123730044787002 0.04065359657017853
0.018435681621995215 0.06107465660323462 0.04048186092080314
0.020158258849846622 0.060914706148177296 0.040302582587609825
0.021939769658537334 0.06074416313409003 0.040177147844324024
0.02354813628383451 0.060602084964500105 0.03992463008905378
0.025218898173280657 0.06044886040568196 0.0397283178425194
0.026886051285201218 0.06029559290967214 0.03953680932197162
0.028545728452721186 0.06014293833135261 0.03934703076011503
0.030150471225028397 0.059998969996695496 0.03912097254111013
0.03175981597881311 0.05985359912783864 0.03890585873727137
0.03338011933637203 0.059705731196824915 0.03870693477654219
0.034933821182955516 0.05956862296544541 0.03846134767629522
0.036497040172025264 0.059429289808473326 0.03823048056392414
0.03813463858247135 0.05927656924766919 0.038067787336286574
0.039550580749087516 0.05916136483681511 0.03772980138096971
0.041214642771566334 0.05900282868458701 0.03760369205238895
0.04253801449684391 0.05890253938345834 0.03720131635978435
0.043982155057666006 0.058780873560396574 0.03690541181151319
0.045415009434336795 0.05866063587616804 0.03660622884547948
0.04682169864430047 0.05854442669220931 0.03629103972860126
0.048212290261695157 0.05843051561387341 0.03596811569056102
0.04959224512094729 0.05831796272184788 0.03564195868079739
0.0509469427311367 0.05820933983792526 0.0352998672122925
0.05218014347436539 0.05812158022368159 0.034858184308286744
0.053331492295680905 0.05804784258326331 0.0343497997457613
0.05438330284659709 0.057991341390615736 0.03375813795982291
0.055062995154824546 0.058000398346442224 0.03284202194540842
0.055063276686679485 0.05812991966512717 0.03132451460023
0.053203473997908535 0.05859045452691019 0.028146381032128076
0.053436686201784656 0.05868040953651345 0.02681474499196046
0.05366279736211654 0.058772036306496626 0.025471989172153486
0.05378089547705378 0.05888339381913206 0.02402683858914878
0.05385586683889648 0.05900298495046597 0.022536638455965707
0.05383855894499495 0.05913969615476534 0.020955873320900154
0.05374759047548172 0.059290291450173484 0.019300259576215673
0.053524310121682406 0.059465450552981476 0.01751459630052643
0.05340910540862848 0.059621859120416766 0.015819771351249734
0.0539465943921974 0.059660650621002384 0.014724825579926826
0.054957661139558134 0.05961356461380288 0.01407143385552817
0.055454866980002626 0.05965985193681175 0.0129366919644619
-0.0061309203635844245 0.06469258686701802 0.04195275880433058
-0.004639121024639259 0.06457729318480722 0.041499444075158376
-0.0025432841493097103 0.06436069446845734 0.0414901003813386
-0.000500441526901374 0.06415206441786753 0.04145236538676372
0.001462616914893633 0.06395594301748575 0.04136600882876751
0.003348711427288098 0.06377193447720714 0.04123221666645177
0.005367737760964053 0.06356478587058492 0.04120584536545896
0.007257370799544971 0.06337859768068228 0.041092876884819274
0.00918691724914128 0.06318488540765992 0.04101878129160902
0.010981952650676141 0.06301314438452997 0.040852574741684244
0.012716042648031778 0.06285102681152313 0.040648441843869454
0.014513427618258246 0.0626774620827792 0.04050038668522138
0.016242386612925486 0.06251482867697025 0.04030829478230313
0.018016491032031734 0.06234379758321243 0.04015887683658531
0.019721262147126162 0.06218391009247095 0.0399640646955044
0.021432118826647306 0.06202230074982725 0.03978178142134242
0.0231125463009052 0.06186523513996664 0.03958356194387991
0.024639445070711474 0.061733947040423905 0.039272167945959335
0.02632719779243442 0.061574331291604785 0.03909451564927785
0.027916011966460708 0.06143114863815706 0.038845983394846406
0.029486963336251726 0.061290449076376555 0.03859021239741112
0.031116090051541923 0.06113903798106586 0.03838816933536504
0.03267699711081429 0.06099885291361005 0.03813845795279852
0.03423636841029798 0.06085833109126627 0.037894445599301996
0.03576722641684826 0.060722187713403854 0.0376341126488709
0.03725713406821851 0.06059263073208883 0.03734691513103766
0.03864996537612703 0.060479560036558404 0.03698600729315765
0.040212494857105874 0.06033612965762994 0.036771645888546756
0.04167176594202743 0.06021028740157949 0.03647828327828073
0.0430656239905583 0.060095458494331684 0.03613635089520956
0.04448098894152025 0.05997631646485512 0.03581833854999983
0.04584722434412125 0.05986537440673682 0.035464671792702684
0.04719604893478491 0.05975704238473871 0.03510176923766545
0.04854263519468471 0.05964863191089869 0.03474243550896555
0.04986338977682386 0.05954435922496039 0.034366350123159195
0.0511786665558418 0.059440605978002034 0.03399082539472259
0.05237537708121354 0.059357677251741126 0.03351736155271928
0.05349911512965971 0.059287508797071904 0.03298426754311201
0.05446091149415272 0.05924622888362577 0.03231228437787598
0.05521977144385598 0.05924143981041233 0.03146292925919597
0.055611433085543505 0.05930313905055401 0.030287338272383613
0.055527267921539614 0.059451493976995964 0.0286832785384043
