# .PCD v0.7 - Point Cloud Data file format
VERSION 0.7
FIELDS x y z
SIZE 4 4 4
TYPE F F F
COUNT 1 1 1
WIDTH 777
HEIGHT 1
VIEWPOINT 0 0 0 1 0 0 0
POINTS 777
DATA ascii
0.036252649994045205 -0.00936932044047608 0.035006128799687175
0.034897433002133604 -0.009426400866711726 0.032358747589602
0.03625708991290755 -0.009410057519024755 0.031958806884455404
0.03625885658505046 -0.00943057191116854 0.03042479460889097
0.036260630976933106 -0.009451175943516037 0.028884079274663854
0.03454561108254872 -0.009518765277439483 0.02588074451871314
0.03626326138025465 -0.009492681069934113 0.02578156008328547
0.03626505717118128 -0.009513557690108941 0.024220463822359983
0.03626686087829034 -0.009534526337788384 0.022652485997593452
0.03626772457993471 -0.009555613746420935 0.02107675998470049
0.03616215097985265 -0.009579734377502782 0.019401375911054952
0.03626946349572835 -0.009598069639747474 0.01790430495788442
0.03627033876114255 -0.00961943937605171 0.01630748241920016
0.03627217435859281 -0.009640877890479033 0.014704379413189472
0.036275935254381164 -0.00966235875545922 0.013095819409730813
0.036276830901581125 -0.0096840160480219 0.011477499393012958
0.0362777305728737 -0.009705770644357774 0.009851908446896984
0.03627863429543998 -0.009727623201705608 0.008218997459858157
0.03613149948230998 -0.009753736987315456 0.006444305817565943
0.03628142337240342 -0.009771597540094271 0.0049319014141353534
0.03628331316656197 -0.009793720417718125 0.003277629177301067
0.0362852115371709 -0.009815943694947904 0.00161584940528553
-0.023081327635563698 -0.00878117931614967 0.05596085209126067
-0.021756640356950185 -0.008769948955965173 0.05534057902714462
-0.020577506718921057 -0.008761833676049057 0.054627921111030986
-0.019492720029134936 -0.008755738265584692 0.05385532067867271
-0.01841862940686595 -0.008749851588322111 0.053077653497237254
-0.017522337693926915 -0.008747824397489288 0.052182500351067806
-0.016977622431639472 -0.008753482858465932 0.05105042649959168
-0.01653976996109946 -0.008761507370502977 0.04984378190877625
-0.01622360668130285 -0.008772238020943162 0.04855121206837587
-0.015983440463436194 -0.008784685244645993 0.047202715242490034
-0.016228369597080017 -0.008807884609058764 0.04551471732756007
-0.016751643561219054 -0.008837331200809494 0.043625283488808286
0.029239227545742208 -0.007836572549963304 0.07422280320202962
0.03443199670438818 -0.007737286534306024 0.07650762473972395
0.03836343595894515 -0.007665648543240421 0.07793608751484438
0.0413997923671392 -0.007613665854092185 0.07875383469787972
0.04405579281295535 -0.007569964256599591 0.07931814290096165
0.04583505235532398 -0.0075457030937287175 0.07926821376144846
0.04626789456305602 -0.007551534700257535 0.07825468833128368
0.04013923951765613 -0.007704832028522275 0.07247574858261263
0.02645183656920025 -0.008062305673259473 0.05828004433855877
0.028379479171680988 -0.008035403979937992 0.058278628785727205
0.030292453210633785 -0.008008723160018506 0.05827584464415775
0.03219368122840566 -0.007982198102991623 0.05827376566108233
0.03408417241206824 -0.007955806777678062 0.058273069331430005
0.035960404146664404 -0.007929630510127322 0.058271013170959673
0.03607326149577794 -0.007943718266017979 0.05693422992518016
0.036074579188851985 -0.007960424569087587 0.0555069009452166
0.036075902436079776 -0.007977201289752196 0.054073555728486544
0.034993797931680115 -0.008019012540998087 0.05179487849502984
0.036076748189246555 -0.008011009739591991 0.051187248256540085
0.036078084463416316 -0.008028000583351373 0.04973561370258006
0.03607942641797546 -0.008045063653301874 0.04827780841119511
0.0360807740892235 -0.008062199410962666 0.04681379295189969
0.03604637946646866 -0.008080240808663569 0.0453150838605757
0.03608256824701772 -0.008096712290320475 0.043866237399426744
0.036083931323929286 -0.00811406901184158 0.04238334595963117
0.03608530025742418 -0.008131500307572367 0.04089408318652438
0.035395695319706266 -0.00816523675957305 0.03883676722826829
0.03608620304391641 -0.008166632166100116 0.03789476466410896
0.0360866573689021 -0.008184312181275629 0.036385365525623825
0.03608711366534295 -0.008202068913782818 0.034869416784432394
0.03489743300213566 -0.008248100758372711 0.03235874758960372
0.036090835628713236 -0.008237747971124825 0.03182003915232373
0.03609224053299115 -0.008255715299266947 0.03028498713452793
0.03609365157917499 -0.008273761175703775 0.028743224284810354
0.03454561108254656 -0.0083289196177596 0.025880744518711363
0.036095549604950206 -0.008310113222739467 0.025638585675734515
0.03609697725023431 -0.008328397959014935 0.024076418134692135
0.03609841119191276 -0.008346763336508816 0.02250736096215633
0.03609890257433368 -0.008365232770288037 0.02093054665850652
0.0360984451306548 -0.008383807104531557 0.019345910647883657
0.036099891892203695 -0.00840241793906304 0.017755890266107743
0.036101345091292814 -0.008421111584121814 0.016158794950261623
0.036102804770984875 -0.008439888593649246 0.014554577374252753
0.03610523046518044 -0.008458726131699712 0.012944042888168472
0.036105743746359775 -0.008477694946689207 0.01132458401741393
0.03610625933484307 -0.008496749028570517 0.00969784550238445
0.036106777246226684 -0.0085158889535646 0.00806377814832332
0.03610826564052355 -0.008535091483933261 0.006423211315123467
0.03610976076242162 -0.008554380809824015 0.004775229112527923
0.036111262657639254 -0.008573757521043997 0.0031197811504030115
-0.022445374467250645 -0.007544900246320675 0.053393323109986124
-0.021552077500679112 -0.007543315373989852 0.052486533214291475
-0.020747438125083895 -0.007543380492832939 0.05152111777119556
-0.01995090193274779 -0.007543597563264301 0.050550230065334545
-0.01938708120499677 -0.0075481806596167265 0.04942197271465931
-0.01899979107361155 -0.007556100147548011 0.04817190410355243
-0.01881343438106009 -0.0075678358044505905 0.0467813367377094
-0.01883448036900759 -0.0075835328583556995 0.04524352053854114
-0.018969815540004764 -0.0076014546576965636 0.04362039916733118
0.03528533276810464 -0.006615725092273027 0.07710709714771649
0.040315029493869725 -0.006533350823460497 0.07931464090051973
0.04401934919655254 -0.0064759580160674846 0.08061439529056974
0.04696045805056115 -0.0064329392998172434 0.08139253358732068
0.04938451421831297 -0.006399661612788943 0.08181699284399951
0.04997905732003166 -0.00640141188890252 0.08093417547135962
0.050099834588754166 -0.006412294415888787 0.07970670561684387
0.02645183656922223 -0.006910547719936265 0.05828004433857503
0.028379479171702027 -0.006887489125660727 0.0582786287857428
0.03029245321065377 -0.006864619851444045 0.05827584464417268
0.032194596869372205 -0.006841866231380686 0.058274452388280495
0.03408417241208622 -0.0068192629522951295 0.05827306933144355
0.035911805600408575 -0.006797777900926534 0.05823416847863133
0.035912782136910903 -0.006812050791279024 0.05681190557695681
0.035913762782827985 -0.00682638374361904 0.05538365762704406
0.03591474756415447 -0.006840777137867721 0.0539493867705656
0.034993797931693604 -0.006873439320855237 0.05179487849504033
0.03591491039727207 -0.006869782793414392 0.05106120644808293
0.035915903887942524 -0.006884359978160593 0.049608625869462075
0.03591690160384764 -0.00689899915792917 0.04814986763941537
0.03419016406250758 -0.006948114227750757 0.045317506602846225
0.03591799243249927 -0.006928483403029864 0.04521292997623477
0.035919001026484654 -0.0069433110378788075 0.04373539500411683
0.035920013946749096 -0.006958202274029235 0.042251522328859925
0.03592103122118817 -0.0069731575215755135 0.04076127108563421
0.035395695319711595 -0.00699877436534822 0.03883676722827267
0.03592122438095774 -0.007003299127641508 0.03775995221290618
0.03592132158846456 -0.007018467858069039 0.03624954175866346
0.03592235052777959 -0.007033683568067069 0.03473334332700728
0.034897433002137435 -0.007069800650033716 0.03235874758960522
0.035925357203784036 -0.0070642947348280635 0.03168191900789907
0.035926401682595976 -0.007079710012792138 0.030145831809824997
0.03592745072981862 -0.007095192714463186 0.02860302603721787
0.034545611082544836 -0.007139073958079692 0.025880744518709864
0.0359286190884201 -0.00712638153890804 0.02549627729184345
0.03592873430707144 -0.007142088730926715 0.023932232735825842
0.03592979776422606 -0.0071578457716827545 0.022362094858108195
0.034335468164028604 -0.007206646120893024 0.01940327176482376
0.03593003496537295 -0.0071896087949930975 0.01919928495721812
0.035930154357211364 -0.0072055962533037095 0.017607330345606964
0.035931230452746044 -0.00722163507809558 0.016009121207704147
0.035932311349545665 -0.007237745463313684 0.014403781339866528
0.035934357515688575 -0.007253907816473045 0.012792116852440971
0.035934487676047955 -0.0072701828393010575 0.011171517667801334
0.035934618421832654 -0.007286531056327157 0.009543630108823864
0.034315364050098496 -0.00733702592298387 0.006445794339976496
0.03593585079239736 -0.007319428620244104 0.006266672182751287
0.0359369568070097 -0.007335978785197115 0.0046175151326222075
0.035938067834690945 -0.007352603963847144 0.002960883270690051
-0.022193231826208804 -0.006321311374268616 0.049043130357037334
-0.021825743358696692 -0.006328269827940211 0.047773781569711626
-0.021735636478488418 -0.006339600848688961 0.04631257078821083
0.033706460748568756 -0.005538136060365513 0.07599793248011641
0.04128510951262637 -0.00542904772655624 0.07999987943523576
0.04600747090593643 -0.005364982506676954 0.08202647418285308
0.04914068868490712 -0.005326004193833874 0.08294956331434342
0.052063687648970125 -0.00529022594007861 0.08374083974309965
0.053785850411250224 -0.005273534701197268 0.08368270842472508
0.05534657207169774 -0.005259365794650783 0.08351560790011606
0.05372679451890039 -0.005296292525523026 0.08103399321812357
0.026451836569240883 -0.005758789766613252 0.05828004433858874
0.02837947917171979 -0.0057395742713836516 0.05827862878575596
0.030292453210670756 -0.005720516542869762 0.05827584464418534
0.03219459686938836 -0.0057015551928169764 0.0582744523882926
0.03408417241210149 -0.005682719126912359 0.058273069331455096
0.03575151397376952 -0.005667430864304165 0.05811264435658786
0.03575215425162842 -0.005679335938773681 0.05668946801543878
0.0357537019430188 -0.005691276307275809 0.055260993344864895
0.035753442911352074 -0.0057032967684231585 0.05382510240728827
0.03499379793170504 -0.005727866100712509 0.05179487849504916
0.03575292155162185 -0.0057274906663484755 0.05093504699665602
0.03575357161749837 -0.005739649673180673 0.049481519258768425
0.03575513879187514 -0.005751845270634462 0.04802252672153723
0.03419016406251596 -0.005790095189792159 0.04531750660285283
0.035754620231040424 -0.005776453704492368 0.0450829393965293
0.035755279503294546 -0.005788821713646652 0.04360442917741769
0.03575686379277887 -0.0058012273933454725 0.04212031570496677
0.035756606553784764 -0.005813717302702791 0.04062833315639086
0.03539569531971626 -0.005832311971123438 0.03883676722827639
0.03575608873857228 -0.005838859162083166 0.037625011485834636
0.03575582814789141 -0.005851511814381816 0.03611358847349799
0.03575649862538899 -0.005864203679820644 0.03459637068790494
0.03489743300213899 -0.005891500541694737 0.032358747589606496
0.03575878459686044 -0.005889737422184103 0.03154288558082041
0.03575946591850282 -0.005902595833292207 0.03000575606519973
0.03576015022160706 -0.005915510511930637 0.028461900175566546
0.03454561108254328 -0.00594922829839977 0.02588074451870853
0.0357605833755153 -0.005941526315274315 0.025353026727258143
0.03576127466312723 -0.005954612101678543 0.023788718629960903
0.03576102035637102 -0.005967771959053451 0.02221668747966382
0.03433546816402405 -0.006005538434077599 0.01940327176481982
0.03576050835588013 -0.005994266950424994 0.019051687238508752
0.035761205626915926 -0.006007586343253816 0.017459460813140093
0.03576190600360435 -0.006020965059867402 0.01586014270575975
0.035762609506740706 -0.006034403497487269 0.014253685431725338
0.03576331615730638 -0.006047902056889164 0.012640041081514508
0.03576306244036981 -0.006061477961158075 0.011018300120481883
0.035762807581869616 -0.006075114951012808 0.009389262039823598
0.03431536405008784 -0.006114188269153412 0.006445794339966837
0.0357642345455097 -0.0061025397490892 0.00611085811754325
0.0357649528696275 -0.006116345210689892 0.004460531309773086
0.03576567445122253 -0.00613021327668689 0.0028027206729671628
0.0405096564746521 -0.004353093643673142 0.07945212018526829
0.0468940438417188 -0.004280695227548426 0.0826561694993817
0.05079627906627887 -0.004239675666314384 0.0841319168685774
0.0525702387337279 -0.0042257031557837756 0.08410458130700735
0.05419148228526105 -0.004213630002829088 0.08397557765768285
0.056571847207188386 -0.00419175958946425 0.08440510413970853
0.05534425594865772 -0.004216222194330679 0.08221461316139636
0.05381625436374682 -0.004244659549856379 0.0797885103236928
0.026451836569256204 -0.004607031813290405 0.05828004433860007
0.028379479171734334 -0.004591659417106733 0.058278628785766784
0.030292453210684578 -0.00457641323429563 0.05827584464419561
0.032194596869401515 -0.00456124415425341 0.05827445238830248
0.03408417241211398 -0.004546175301529725 0.05827306933146448
0.03559197599796404 -0.004536027609317305 0.05799169161034112
0.03559228128888958 -0.00454556043090786 0.05656760588872278
0.035592587865738934 -0.004555133404841761 0.055137521903242726
0.035592895736654306 -0.0045647467853375135 0.0537014016767971
0.034993797931714365 -0.004582292880569885 0.05179487849505637
0.035591692763122795 -0.004584119842088157 0.05080947948964892
0.035592000696320736 -0.00459385609146226 0.049355008786627796
0.03559230994038426 -0.004603633786661272 0.0478943466092292
0.034189239491664136 -0.00463208842903857 0.04531677486932517
0.03559201328367717 -0.00462332680843737 0.04495355770758136
0.035592324542948084 -0.004633230493908696 0.04347407654765556
0.03559263713862648 -0.0046431767000775885 0.041988243351246846
0.03559295107933785 -0.0046531657013720844 0.04049601712239259
0.03539569531971998 -0.004665849576898701 0.038836767228279445
0.035591724943614234 -0.004673298192095395 0.03749070147452832
0.03559110788841818 -0.004683429908353395 0.03597827035858581
0.03559048815190052 -0.0046936056512072565 0.034459267089184786
0.03489649414611157 -0.0047132131443629165 0.032357968092343925
0.035592989182988755 -0.00471403950705272 0.03140450085472274
0.03559330869468491 -0.004724336071487152 0.0298663335934628
0.03559268835713142 -0.0047346905417066576 0.028320638202303627
0.034545611082542005 -0.0047593826387198335 0.025880744518707477
0.03559238488417227 -0.004755523306566372 0.02520963739393861
0.03559270588239605 -0.004766002090424805 0.02364425398598119
0.0355930282984282 -0.004776527156213406 0.022071956706420037
0.03433546816402028 -0.00480443074726213 0.019403271764816543
0.03559081606524278 -0.004797756878612063 0.018903945270120515
0.035591136433107406 -0.0048084228208099804 0.01731061061384287
0.03559145822862081 -0.004819136291798496 0.01571017585628509
0.035591781461349115 -0.00482989760997847 0.014102593433045596
0.03559306846652294 -0.004840693688620403 0.012488670973902938
0.03559243227712772 -0.004851565075800296 0.010865793198107043
0.03559179322380179 -0.004862485403520903 0.009235609591398686
0.03431536405007907 -0.004891350615322853 0.006445794339958955
0.03559147747852032 -0.00488446055694573 0.005954008277337608
0.03559180514652183 -0.004895515930308804 0.004302503581428974
0.03559213430121111 -0.004906621462143764 0.002643505972363125
0.04730027007541138 -0.003206641359061268 0.08294469483833936
0.052536849768090865 -0.0031630976308255104 0.0853749598210122
0.05400460753689523 -0.003155520715778569 0.0851345653843959
0.054791345189053375 -0.0031544575293397012 0.08440868314018934
0.0574472339830131 -0.0031353894422889756 0.08504059671009617
0.05675713671521976 -0.003148532025971874 0.08324590527123044
0.0559247269973418 -0.0031631052645773447 0.08133592511403012
0.026451836569268028 -0.0034552738599676887 0.05828004433860878
0.028379479171745603 -0.00344374456282994 0.05827862878577511
0.030292453210695347 -0.003432309925721618 0.058275844644203656
0.032194596869411674 -0.003420933115689958 0.05827445238831008
0.03408417241212369 -0.003409631476147199 0.058273069331471805
0.03543138877958413 -0.0034035931695277264 0.05786994338721674
0.03543135656883195 -0.0034107494035088364 0.05644494206682671
0.03543132422238021 -0.0034179357936124787 0.05501393584010711
0.035431291739369764 -0.003425152530856406 0.053576886670213986
0.03499379793172158 -0.003436719660427342 0.05179487849506198
0.035429402026569246 -0.003439695872108608 0.05068308492085577
0.03542936525195112 -0.003447004889936566 0.0492276647899233
0.035429328320753184 -0.0034543450358064547 0.04776604623667746
0.03418923949166941 -0.003474066321778875 0.045316774869329335
0.035428334007329254 -0.0034691286922411096 0.04482332279718504
0.03542829462862179 -0.003476563464145291 0.043342864029505546
0.035428255080805104 -0.0034840301717629363 0.0418560460206866
0.03542821536278762 -0.0034915290213044614 0.04036282770880617
0.03539569531972292 -0.0034993871826739962 0.03883676722828183
0.03542627555452593 -0.003506642742663059 0.037355504369078474
0.0354252993391877 -0.003514248776647956 0.03584205821085151
0.035425252859011436 -0.0035218784147307836 0.03432280369133628
0.03489649414611257 -0.0035349098582721774 0.03235796809234476
0.03542609733823171 -0.003537227964832665 0.031265200968885576
0.035426052297450994 -0.003544957817170149 0.029725988805674786
0.035426007059430165 -0.003552721527361891 0.028180034673894128
0.03454561108254106 -0.0035695369790398846 0.025880744518706644
0.03542496968468095 -0.00356836112957359 0.02506691581747894
0.03542397336753489 -0.003576237559195964 0.02349964902068752
0.035423923136381374 -0.0035841390362742016 0.021926266956783846
0.034335468164017335 -0.0036033230604466285 0.01940327176481399
0.03542191257400723 -0.0036000669781343993 0.018756890067028742
0.035420900576753234 -0.0036080841552115 0.017161614545957826
0.03542084304774967 -0.003616127143315213 0.01556006171633667
0.03542174638469753 -0.003624196048724287 0.013952202790115387
0.03542169049219995 -0.0036323111098880627 0.012336295912037776
0.035420668911783415 -0.003640472705167068 0.010712273435084574
0.03541964273021375 -0.003648671060318291 0.009080936351466062
0.034315364050072295 -0.003668512961492211 0.006445794339952793
0.03541952042876978 -0.003665158550501151 0.005797884789913055
0.03541848466913328 -0.0036734685947127214 0.0041443181844399435
0.035418420612402246 -0.003681806065319782 0.002484132058299393
0.052777530371265535 -0.0021071960404216044 0.08554684386298333
0.05506889433656814 -0.002096875615424567 0.08589880290477236
0.05659896918252183 -0.0020913902586960956 0.0857138011212015
0.05802020248095019 -0.002086581050369441 0.08545654681759257
0.05845831094533066 -0.0020880768726001986 0.08448762899094345
0.05617633998317756 -0.0021071147408145002 0.0815205846868031
0.02645183656927652 -0.002303515906645071 0.058280044338615056
0.028379479171753763 -0.002295829708553241 0.05827862878578116
0.030292453210703063 -0.0022882066171476955 0.05827584464420943
0.032194596869419 -0.002280622077126591 0.05827445238831558
0.034084172412130576 -0.002273087650764754 0.05827306933147702
0.035271556466141385 -0.0022701054933823993 0.05774876749068014
0.035271188029836975 -0.0022748807091863324 0.05632285463903064
0.03527081804027299 -0.0022796760568764966 0.054890930265245885
0.03526953733448568 -0.002284497636548333 0.05345225577538826
0.0349937979317268 -0.0022911464402848606 0.05179487849506603
0.03526695960160592 -0.0022942022424823575 0.050556572214752016
0.035266577473824556 -0.0022990794812920794 0.0491002015154714
0.03526711063213761 -0.0023039714264955304 0.04763834723644056
0.034189239491673185 -0.0023160442145192246 0.04531677486933228
0.03526450043505358 -0.00231384254539364 0.044692965117939965
0.03526503257645164 -0.00231879758523903 0.043212265747652134
0.03526371739863188 -0.0023237862522223224 0.04172372353581105
0.03354305769832372 -0.0023403100959907717 0.03883867102253391
0.03526199880050013 -0.002333822027016094 0.038728096308320636
0.03526066851351972 -0.0023388756211267635 0.037220178438233165
0.03525933245294577 -0.002343951148558705 0.03570571598885697
0.03525892545437198 -0.002349042437609284 0.03418543834767657
0.03489649414611323 -0.0023566065721814474 0.03235796809234526
0.035259045079375495 -0.002359285287860747 0.03112576718995297
0.0352586347842298 -0.002364443482577031 0.029585508825514972
0.03525822269111045 -0.0023696242818268152 0.028038500653442766
0.034545611082540284 -0.0023796913193599284 0.025880744518706034
0.03525644584388371 -0.0023800607735357795 0.02492324912351862
0.035256026195000345 -0.0023853103137598517 0.0233557170993533
0.03525465327613503 -0.0023905896024110666 0.021780435314143587
0.034335468164015226 -0.0024022153736311 0.019403271764812158
0.03525188912580829 -0.0024012185977395403 0.01860885977752824
0.035251455598307335 -0.0024065619903618075 0.017013310680649985
0.035251020137108846 -0.0024119292171506015 0.015410644647795402
0.035250582729246305 -0.002417320437930577 0.013800813954961466
0.03525014336163734 -0.0024227358139585664 0.012183770450492737
0.03524873562867725 -0.0024281822553686694 0.010558601801874345
0.035247321552187516 -0.002433653239743251 0.008926109755510336
0.034315364050067465 -0.002445675307661508 0.006445794339948463
0.035246420123025535 -0.0024446558252677396 0.0056407233158924375
0.03524596634506616 -0.0024501945097034905 0.00398686489333655
0.03524551050630503 -0.0024557583483430395 0.0023254953925372357
0.05094911569174393 -0.0010616083761028543 0.0829404937187635
0.053773928289439055 -0.0010547451326927135 0.08367410056401742
0.05739115042834603 -0.001045309848183005 0.08499988249862289
0.026451836569281573 -0.001151757953322519 0.058280044338618775
0.02837854740147694 -0.0011479178702496593 0.058277937490331166
0.03029245321070767 -0.0011441033085738328 0.05827584464421287
0.03219459686942344 -0.0011403110385632812 0.05827445238831891
0.03408417241213474 -0.0011365438253823636 0.05827306933148013
0.03511067283762387 -0.0011355778683491886 0.05762679454601233
0.03510996565143604 -0.001137967688297326 0.056199963928997065
0.0351092554824643 -0.0011403675881952594 0.054767115125926025
0.03510854231179755 -0.001142777631951643 0.053328209980440744
0.034993797931729964 -0.00114557322014242 0.051794878495068475
0.03510527915142092 -0.001147634438339075 0.05043065294654614
0.03510455296939796 -0.001150075328238552 0.04897333588640923
0.035103823691813585 -0.0011525266232672528 0.04750980651311343
0.03418923949167557 -0.0011580221072596045 0.04531677486933422
0.03510143406195049 -0.001157463762326422 0.044563217877094496
0.03510069339882815 -0.0011599466882535568 0.04308080584038315
0.03509994955125745 -0.0011624402895458364 0.04159202015807367
0.033543057698325274 -0.0011701550479953809 0.03883867102253513
0.035096592852447706 -0.001167466033925285 0.038593651397964
0.03509490359515166 -0.0011699952378090488 0.03708472349777081
0.03509414073514866 -0.0011725322773257464 0.03557001056972453
0.03509243879604079 -0.0011750835038891213 0.034047941480662924
0.03489649414611368 -0.0011783032860907222 0.032357968092345646
0.035092772022510765 -0.0011802066564629119 0.03098698378880621
0.03509199782750139 -0.0011827882233531148 0.029445683810050916
0.03509122023818634 -0.001185381108764938 0.027897626215470428
0.034545611082539895 -0.0011898456596799655 0.0258807445187057
0.03508775851467727 -0.0011906076231239283 0.024779443055573336
0.035086966418609034 -0.0011932349430073268 0.023210831668600773
0.03508521847696139 -0.0011958771572231437 0.021634461571104158
0.034335468164014005 -0.0012011076868155544 0.019403271764811103
0.03508169926740001 -0.0012011968461935628 0.018460684603591293
0.035080886620806495 -0.0012038711609758097 0.01686402305408835
0.035080070347677295 -0.0012065574103846683 0.015260236105695824
0.035080213436258834 -0.0012092523275949896 0.013650127708261572
0.0350784268242646 -0.0012119660340776806 0.01203109436648131
0.035076632175544575 -0.0012146919477166764 0.010404778073005772
0.03507579897052154 -0.0012174267587684992 0.008772000679928005
0.03431536405006441 -0.0012228376538307645 0.006445794339945687
0.03507314732929717 -0.0012229369146776953 0.005483405236337613
0.03507230055675015 -0.0012257090202582057 0.0038283643394371736
0.03507144993667266 -0.0012284937217916204 0.0021658032320824305
0.02645183656928335 0.0 0.05828004433862011
0.02837854740147855 0.0 0.05827793749033239
0.03029337687292566 0.0 0.05827653364796065
0.032194596869424885 0.0 0.05827445238832002
0.03408417241213613 0.0 0.058273069331481187
0.034949640277553984 0.0 0.05750470868979374
0.034948593713667264 0.0 0.056076959218307465
0.034947542733493875 0.0 0.054643184886053964
0.033120734921045836 0.0 0.05179661512818229
0.034943601846104844 0.0 0.051755994281544704
0.03494253356610316 0.0 0.05030390413440777
0.0349414607397851 0.0 0.04884563422561283
0.034941301971218475 0.0 0.04738186817658624
0.03418923949167624 0.0 0.04531677486933472
0.0349372921124636 0.0 0.04443261483093819
0.03493619882464771 0.0 0.042949221626681244
0.03493510083404283 0.0 0.041459447536396576
0.03354305769832577 0.0 0.038838671022535576
0.03493196005614113 0.0 0.03845983491916244
0.03492991316739669 0.0 0.03694990143295496
0.034927857386436834 0.0 0.03543340837300063
0.03492672931535823 0.0 0.03391108646383051
0.03489649414611384 0.0 0.03235796809234581
0.03492539914528053 0.0 0.030847282398817122
0.03492425829152829 0.0 0.029304933620706075
0.03492311243348922 0.0 0.02775581936119481
0.034545611082539784 0.0 0.02588074451870559
0.03491985651823942 0.0 0.02463630648437104
0.03491774219202248 0.0 0.023065805302861286
0.03491657176836571 0.0 0.021489166794440517
0.03433546816401356 0.0 0.01940327176481077
0.03491230027937292 0.0 0.018313197998041375
0.0349111099065359 0.0 0.016715428842583757
0.03490895241204511 0.0 0.01510967962176496
0.03490871318076094 0.0 0.01349844116102128
0.03490750675615473 0.0 0.011879126436791843
0.03490532660688089 0.0 0.010251667482438553
0.03490313662366212 0.0 0.008616867551660468
0.03431536405006358 0.0 0.00644579433994491
0.03490067668577679 0.0 0.005326815446132338
0.03489943834862086 0.0 0.003670597193688785
0.03489721504683874 0.0 0.002005951141267337
0.026451836569281573 0.001151757953322519 0.058280044338618775
0.02837854740147694 0.0011479178702496593 0.058277937490331166
0.03029337687292416 0.0011441003126117662 0.05827653364795954
0.03219459686942344 0.0011403110385632812 0.05827445238831891
0.03408417241213474 0.0011365438253823636 0.05827306933148013
0.034789364511157606 0.0011366266137229374 0.057383196592096786
0.03478797985235721 0.0011390208545252359 0.055954532346471186
0.03478658934786488 0.0011414252032896954 0.054519836592142545
0.03312073492104478 0.0011493069004896853 0.051796615128181456
0.03478104975325491 0.0011462735038008267 0.05163007389933971
0.034779635654078656 0.0011487086018805094 0.050177036687843124
0.03477821553403676 0.0011511540680376356 0.048717812784084935
0.03477770885143927 0.0011536069226733908 0.047253086426459534
0.03418923949167557 0.0011580221072596045 0.04531677486933422
0.03477391866171886 0.0011585533414025957 0.04430262325721168
0.03477247406955403 0.0011610409491602865 0.04281825321468413
0.03477009582915286 0.001163542361157699 0.041326749226954285
0.033543057698325274 0.0011701550479953809 0.03883867102253513
0.0347662399302161 0.0011685745346708247 0.038325134639416614
0.03476383270639277 0.0011711085489695657 0.03681418864656616
0.03476141501995739 0.001173653576999426 0.03529667554277349
0.033048958848264365 0.0011819850676936007 0.032360286184793086
0.03476030639885813 0.0011787642415981333 0.032244896467856665
0.03475880681234855 0.0011813394952253377 0.030708232506999167
0.03475635694079293 0.0011839292340040499 0.02916404765264763
0.03475484210291918 0.0011865271299255473 0.027613875408687427
0.034545611082539895 0.0011898456596799655 0.0258807445187057
0.03475084241950832 0.0011917605266643476 0.024492221845173967
0.034749305358766636 0.0011943929428724568 0.02292145373880633
0.034746807297291016 0.001197040293650069 0.021342909028038648
0.034335468164014005 0.0012011076868155544 0.019403271764811103
0.03474177780510429 0.0012023703588067078 0.018164733233329566
0.03474020682914658 0.001205049907328161 0.016565848800718264
0.03473862883558593 0.001207741425567337 0.014959822047177662
0.034738008685076316 0.00121044164042682 0.013347458438146442
0.03473545160672509 0.0012131606934554428 0.01172614928706106
0.034732883014469695 0.0012158919897746075 0.010097539741702632
0.03473030283036832 0.001218635612264125 0.008461580382733813
0.03431536405006441 0.0012228376538307645 0.006445794339945687
0.03472705911438784 0.0012241533112376435 0.005169184335557131
0.034725426216388466 0.0012269309403835206 0.0035117805400952107
0.03472378589143155 0.0012297212031910482 0.0018468382728484278
0.02645183656927652 0.002303515906645071 0.058280044338615056
0.02837854740147211 0.0022958357404993493 0.058277937490327614
0.030293376872919497 0.0022882006252235624 0.0582765336479561
0.032194596869419 0.002280622077126591 0.05827445238831558
0.034084172412130576 0.002273087650764754 0.05827306933147702
0.03462803430651468 0.0022743063859968905 0.057260885078455004
0.03462630901399716 0.002279099310146457 0.05583129980074869
0.03462457643431788 0.0022839124783897687 0.05439567631803871
0.033120734921041395 0.0022986138009793928 0.05179661512817885
0.034619260258402895 0.002293612102872117 0.05150474426087526
0.034617501641637904 0.0022984868301863075 0.050050764178244944
0.03461573553363867 0.0023033823226318363 0.04859059050043424
0.03461396188643706 0.0023082987131733774 0.04712418356820125
0.034189239491673185 0.0023160442145192246 0.04531677486933228
0.034609467463535604 0.0023182008761436757 0.04417177415072837
0.0346076689164147 0.0023231807966499723 0.04268642055942534
0.034604934314223346 0.0023281883619276156 0.041193925050919844
0.03354305769832372 0.0023403100959907717 0.03883867102253391
0.03460036193580396 0.0023382622780835755 0.03819030604134338
0.03459759369039678 0.0023433351409813063 0.036678346296834086
0.034595749816842825 0.0023484237514225627 0.03516058115424048
0.0330489588482637 0.002363970135387206 0.03236028618479253
0.03459297843987591 0.002358661195144163 0.032105970283043295
0.03459111239283147 0.002363816658284874 0.030568262734789742
0.03458923817050691 0.002368994707986116 0.029023818347586217
0.03458735571905974 0.002374195493004459 0.027472592752168956
0.034545611082540284 0.0023796913193599284 0.025880744518706034
0.03458166411826158 0.002384678886185399 0.02434799722321568
0.03457975243837891 0.0023899488404488588 0.022776145680141524
0.03457687716365054 0.0023952487043148417 0.02119650853779892
0.034335468164015226 0.0024022153736311 0.019403271764812158
0.034571088187277166 0.002405919262905026 0.018016122945693713
0.03456913586163607 0.0024112836200001243 0.016416121815850115
0.03456717481058308 0.002416671951824216 0.014808969858218834
0.03456617083565222 0.002422077705879055 0.013195473299764782
0.034563226297221084 0.002427521185441887 0.011573020845124016
0.03456026849366822 0.002432989187929207 0.009943259227493118
0.03455729733515067 0.002438481879429133 0.00830613894359683
0.034315364050067465 0.002445675307661508 0.006445794339948463
0.03455424511852451 0.0024495214014884008 0.00501228280840782
0.03455124003426985 0.0024550890779201115 0.003352805035390871
0.034549202557678294 0.0024606751930206085 0.001686666501577394
0.024512191774396064 0.00346687144433771 0.05828216533005803
0.026451836569268028 0.0034552738599676887 0.05828004433860878
0.028378547401464005 0.003443753610749103 0.05827793749032162
0.030293376872911726 0.0034323009378354192 0.05827653364795027
0.032194596869411674 0.003420933115689958 0.05827445238831008
0.03408417241212369 0.003409631476147199 0.058273069331471805
0.03446746215740715 0.0034130318939774723 0.05713914828000788
0.03446539751841382 0.0034202279157819365 0.05570864605912218
0.034462412701038336 0.003427463308342987 0.05427140046167095
0.033120734921035844 0.0034479207014691438 0.05179661512817457
0.03445640501965758 0.0034420263212480303 0.05137858904781489
0.03445429929268057 0.0034493452569215534 0.049923659631426365
0.03445218459165489 0.0034566953840840372 0.04846252966659981
0.034450982082111004 0.0034640677475302395 0.046995884624671413
0.03418923949166941 0.003474066321778875 0.045316774869329335
0.03444486087637222 0.003478944155068616 0.04404080140568584
0.03444270770516478 0.003486421103330418 0.04255446306853672
0.03444054525887058 0.0034939302597343557 0.04106172209289033
0.03354305769832133 0.003510465143986182 0.03883867102253197
0.03443432584721212 0.0035090648216954865 0.03805534894149576
0.03443119589224802 0.0035166813778729133 0.03654237419813422
0.03442898962631291 0.0035243215937305335 0.03502358723074206
0.033048958848262644 0.00354595520308082 0.0323602861847917
0.03442548961285696 0.003539692494111196 0.0319669105354784
0.03442325640040661 0.0035474331333862747 0.030428158102260183
0.03442101339936682 0.003555207701490537 0.028882660997572696
0.03270273951065178 0.0035805555799624457 0.025882830179796867
0.034415548056050904 0.0035708692486160648 0.02577044923978794
0.03441327319858084 0.003578746995467617 0.024204443844601575
0.034410034347548746 0.0035866693920724776 0.022630696069232847
0.03440678112483453 0.003594626942667884 0.021049965114704916
0.034335468164017335 0.0036033230604466285 0.01940327176481399
0.03440119151886528 0.0036106384997849177 0.017868203036548236
0.0343988592440338 0.0036186928927039014 0.01626709007236876
0.034396516540593725 0.0036267833004624845 0.014658817806720625
0.034394163338442585 0.0036349099651599224 0.013043338113286895
0.03439083057508735 0.0036430832567152225 0.011419740886429275
0.03438845397502949 0.0036512832159452417 0.009789693744350791
0.03438509326984984 0.0036595303891461387 0.0081514175707183
0.034315364050072295 0.003668512961492211 0.006445794339952793
0.03438028173939195 0.0036761163899675 0.004854337731577729
0.03437785958170697 0.0036844658976776046 0.003194564900514507
0.03437444411762097 0.003692863824207921 0.0015263340787350366
0.02451219177438363 0.004622495259117107 0.05828216533004893
0.026451836569256204 0.004607031813290405 0.05828004433860007
0.02837854740145268 0.004591671480998951 0.05827793749031318
0.030293376872901012 0.004576401250447365 0.058276533647942275
0.032194596869401515 0.00456124415425341 0.05827445238830248
0.03408417241211398 0.004546175301529725 0.05827306933146448
0.034305833482198955 0.004552819405885102 0.057016610482722
0.034303426948234794 0.0045624230114086894 0.05558518504476878
0.03430101024027793 0.004572067217793891 0.05414770801438201
0.03312073492102807 0.004597227601958961 0.05179661512816858
0.03429339746170168 0.004591514656417858 0.051252315841236906
0.03429094397513327 0.004601282376405922 0.04979643595027283
0.034289400145603166 0.004611079577389478 0.04833506900117163
0.034286927642245335 0.004620930806568049 0.04686673971985833
0.034189239491664136 0.00463208842903857 0.04531677486932517
0.03428102474526523 0.0046407724086081955 0.043910441690451996
0.034277590214039644 0.004650763433020376 0.042422380564622
0.034275070937485774 0.004660785139330746 0.0409286463554695
0.033543057698318 0.004680620191981621 0.03883867102252925
0.034269065557419265 0.004680971222235103 0.03792102242477535
0.03426557524132051 0.004691136272267467 0.03640703714593052
0.03426300793206816 0.0047013329195085525 0.0348872328439353
0.033048012055361675 0.004727953061409583 0.0323595042539217
0.03425878198964777 0.004721847017426799 0.03182849939239968
0.03425618297406485 0.004732177754334044 0.030288706655428266
0.034253572561029566 0.004742553794756023 0.028742161445315717
0.03270273951065228 0.004774074106616588 0.025882830179797256
0.034246415969242994 0.004763468950385255 0.025627022847276693
0.03424376669946266 0.004773982818618428 0.024059939433724864
0.03424015084481047 0.004784556300398987 0.022485104699142444
0.034237475931443884 0.004795163565780962 0.020904103031379795
0.03423287087119181 0.004805844398876797 0.01931441432357517
0.03423016781830407 0.0048165463703852785 0.017719301881009286
0.034227452699923555 0.004827296111983717 0.016117069379730065
0.03422472543508526 0.0048380939442325575 0.014507669040693283
0.034222953705872805 0.004848926736938606 0.012891908612826963
0.03421923413853778 0.004859835177328458 0.01126717158609547
0.03421549779798966 0.004870792808962631 0.009635107862435877
0.03421174457051529 0.004881799965332438 0.007995667770614057
0.03420895090937326 0.004892843284520394 0.006349683214379731
0.03420614458031679 0.004903936680074614 0.004696234876216732
0.034203325496985515 0.004915080493378988 0.0030352718735405793
0.024512191774367642 0.005778119073896641 0.05828216533003722
0.026451836569240883 0.005758789766613252 0.05828004433858874
0.02837947917171979 0.0057395742713836516 0.05827862878575596
0.030293376872887245 0.005720501563059429 0.058276533647932005
0.03219459686938836 0.0057015551928169764 0.0582744523882926
0.03408417241210149 0.005682719126912359 0.058273069331455096
0.034144054839457094 0.005693664472208771 0.05689395898846239
0.03414130577613961 0.005705680131864158 0.05546160923508364
0.03413854508531433 0.005717746613412998 0.054023201160385115
0.03312073492101808 0.005746534502448865 0.05179661512816086
0.034131154426914334 0.005742063523077435 0.05112663486972596
0.03412835448918872 0.005754284548666456 0.04966980871077242
0.03412554260767847 0.005766557706042599 0.04820676810187885
0.03232108173055703 0.0058087241572212815 0.04531921084255364
0.03411895776284657 0.00579127710884871 0.04526115176888057
0.03411610759476785 0.005803708744763241 0.043779221839062965
0.034113245163984784 0.005816193867337113 0.04229091595981649
0.03410943943769623 0.005828748374507114 0.04079544421395187
0.03354305769831356 0.0058507752399771 0.038838671022525695
0.034102713493024794 0.005854005003368692 0.03778580849414892
0.03409886009086449 0.005866723453563735 0.03627080572252972
0.034095929006286996 0.00587948146446961 0.03474997707861194
0.03304801205535984 0.00590994132676201 0.032359504253920146
0.03409097163683411 0.005905148715460111 0.03168917269391841
0.03408800404549944 0.005918074579985202 0.03014833247726828
0.03408502343410319 0.0059310571558654854 0.028600731928468848
0.032702739510652945 0.005967592633270723 0.025882830179797867
0.034078071250287056 0.005957210186245178 0.025484264153797065
0.034074095279558236 0.005970381542504242 0.02391529442776069
0.03407105748371747 0.005983594882025062 0.022340190486061673
0.03249764343797079 0.00602385392082959 0.019405179182368115
0.03406302124544058 0.0060102308705901565 0.019167310996343168
0.03405993845636751 0.00602362138149173 0.01757109231347087
0.03405587752307698 0.006037088376118285 0.015966901094127295
0.03405276494026732 0.006050598963429954 0.014356371239097221
0.034050607115151676 0.006064153324241648 0.012739473508871946
0.03404649779241703 0.00607780236826214 0.011113588772840244
0.03404236992968279 0.006091512992736546 0.009480368525198402
0.03248939427183922 0.006132381540455792 0.006448175832352632
0.03403601315871124 0.0061190863774614876 0.006193487825717936
0.03403281314378925 0.006132966890871889 0.0045388635536089406
0.03402861657849571 0.006146927816717141 0.002875819280025671
0.024512191774348102 0.0069337428886763475 0.05828216533002284
0.02645183656922223 0.006910547719936265 0.05828004433857503
0.028379479171702027 0.006887489125660727 0.0582786287857428
0.030293376872870204 0.006864601875671646 0.05827653364791935
0.032194596869372205 0.006841866231380686 0.058274452388280495
0.0339852052462043 0.006821197058175822 0.05819844200144603
0.03398303615268983 0.006835550741566603 0.0567718836502038
0.033979033791982194 0.0068500007590598724 0.055337918469884395
0.033975928478535034 0.006864494024016709 0.053898578239720885
0.03312073492100576 0.006895841402938881 0.051796615128151424
0.0339678424474692 0.006893701582041352 0.051000125844158584
0.03396469345095249 0.006908380559844022 0.049542346929555614
0.03396245285949001 0.006923103900400831 0.04807906838404452
0.03232108173054782 0.006970468988665721 0.045319210842546365
0.033954239664234 0.006952813422235283 0.045130788849551184
0.033951034394252844 0.006967745489405088 0.04364787782314605
0.03394781532721591 0.00698274183170898 0.042158583601120014
0.03394458237384734 0.006997802865050882 0.04066286487984655
0.03354305769830823 0.0070209302879726265 0.038838671022521365
0.033936202656068004 0.007028158371304573 0.03765046551034662
0.033932923419117966 0.007043416173140397 0.036135210433651754
0.03392868991987541 0.007058759373952656 0.034612589740920574
0.03304801205535757 0.0070919295921144584 0.03235950425391826
0.033922999719659286 0.007089589672051402 0.03154971185455341
0.03391966284311748 0.007105115663144007 0.030007822853759525
0.03391631131922179 0.007120709806406866 0.028459165648482665
0.03270273951065367 0.007161111159924853 0.025882830179798477
0.033908611460871485 0.007152123865326897 0.025340559864857448
0.03390521329793622 0.00716792526566382 0.023771322418492946
0.03390084336354365 0.007183816327947227 0.022194315774477613
0.03249764343797473 0.007228624704995426 0.0194051791823715
0.0338920451079841 0.007215810773807486 0.019019232020096477
0.03388857969128095 0.007231895154268067 0.01742189943523592
0.0338850987909603 0.007248051400596049 0.015817429883368705
0.03388160230301751 0.007264279995520633 0.01420577542487439
0.03387809012251486 0.007280581426104094 0.012586887689816528
0.03387359027442893 0.007296976495215793 0.010959853767776306
0.033869070114326605 0.007313445570767886 0.009325475504023684
0.032489394271849215 0.0073588578485467415 0.006448175832361569
0.03386192533513677 0.007346566577431813 0.006036253704420513
0.03385832862267851 0.00736323983446514 0.004380445320818105
0.03385471554743974 0.007379988944579503 0.0027171040257817913
0.02451219177432512 0.008089366703456257 0.058282165330005964
0.02645183656920025 0.008062305673259473 0.05828004433855877
0.028379479171680988 0.008035403979937992 0.058278628785727205
0.03029337687285022 0.008008702188284042 0.05827653364790436
0.032194596869353276 0.007982177269944565 0.058274452388266285
0.03382437744398842 0.00796173011733221 0.058077167946947394
0.03382095779348493 0.007978512347176798 0.05664900492773017
0.0338175236962609 0.00799536547572062 0.055214808449193464
0.03381407506057488 0.008012289953195778 0.053774540196711795
0.033120734920991324 0.008045148303429027 0.051796615128140266
0.0338043775074266 0.00804641828352596 0.05087349832822563
0.03380087879863197 0.008063559818469406 0.04941476551128271
0.03379828786268718 0.008080753192840066 0.04795052674361128
0.03232108173053683 0.008132213820110262 0.045319210842537705
0.033790292656288023 0.008115425447613418 0.04500103619485707
0.033786733614501796 0.008132862578103637 0.04351714840029941
0.033782228543995874 0.008150396522457172 0.042026125696183025
0.03377863673083226 0.008167984420110304 0.040529410101901475
0.03354305769830179 0.008191085335968216 0.0388386710225162
0.033769532819136805 0.008203432929670506 0.03751499328852376
0.033765890007611044 0.008221250718828423 0.035998718942969354
0.033762231337369164 0.008239146076648173 0.03447584358918593
0.03304801205535485 0.008273917857466933 0.03235950425391604
0.033755811028489235 0.008275149142879919 0.03141090129862795
0.03375210623636554 0.008293280172111638 0.02986796810995357
0.03374838517408019 0.008311490826751 0.028318258875446034
0.032702739510654666 0.008354629686578971 0.02588283017979931
0.03373898699998812 0.008348198694156244 0.025196715932193192
0.03373521224347675 0.008366651599437783 0.023626396398836513
0.03373046310558897 0.008385209252064976 0.02204829868163377
0.03249764343797923 0.008433395489161222 0.019405179182375443
0.03372090134537703 0.008422572628607431 0.018871007867095557
0.0337170525512509 0.008441356161508854 0.017272559961976075
0.033713186552088936 0.008460223661558732 0.015666966589902187
0.03370930323226701 0.008479175693049942 0.014054179730472682
0.033705402475122215 0.008498212825343087 0.01243415093203154
0.03370148416294183 0.008517335632923497 0.010806831306816478
0.03369657313901525 0.008536568522733818 0.00917130005037664
0.03248939427186098 0.008585334156637576 0.006448175832372172
0.03368864322497417 0.008575247974019628 0.005879747294215865
0.03368465125883113 0.008594719441450169 0.004222759923389552
0.03367965715829335 0.008614303799462628 0.0025573324788727425
0.024512191774298475 0.00924499051823641 0.058282165329986424
0.026451836569174825 0.00921406362658291 0.058280044338540005
0.028379479171656785 0.009183318834215474 0.05827862878570922
0.030293376872827182 0.009152802500896645 0.05827653364788721
0.03219459686933135 0.009122488308508644 0.05827445238824985
0.03366249147132222 0.009103338430252352 0.057955095966847
0.03365872884030502 0.0091225359275588 0.05652601203335017
0.033654950306201414 0.009141814564931516 0.055090887939304334
0.033651155767974505 0.00916117485787934 0.05364968530963393
0.03312073492097467 0.009194455203919325 0.05179661512812744
0.03364075939178618 0.009200215143651923 0.050746752155377994
0.03363783191718184 0.009219799530520554 0.04928778204499501
0.03363396837757099 0.009239491897079328 0.04782186413840711
0.03232108173052428 0.009293958651554917 0.04531921084252788
0.03362526401088878 0.009279154709671748 0.04487042749934378
0.03362134852855281 0.00929910171749701 0.04338555622607898
0.033617416176097314 0.009319134668553926 0.0418942872696188
0.03361253323723573 0.009339279073616435 0.040395828379290066
0.033543057698294465 0.009361240383963871 0.03883867102251026
0.03360364144149508 0.009379805113851045 0.03738015381232235
0.0335986966741747 0.009400212952507288 0.03586209677194985
0.033594672141064374 0.009420684397130178 0.034338193280397666
0.03304801205535168 0.009455906122819437 0.032359504253913374
0.033587516192775946 0.009461870334689105 0.031271172352003274
0.03358344069592162 0.009482611506756826 0.02972718777067035
0.03357934729223239 0.009503443811189243 0.028176419244505757
0.032702739510655665 0.009548148213233083 0.025882830179800143
0.03357015196144919 0.009545410298086641 0.025053541440799076
0.03356504554576445 0.009566545931435359 0.023481329168189402
0.033559916466494255 0.009587775370350722 0.021902138998969534
0.03249764343798445 0.009638166273326969 0.019405179182379884
0.03355055260525819 0.009630491639266499 0.01872347226699972
0.033546321842389704 0.009651979500618297 0.017123913898582588
0.03354207215772392 0.009673563465206111 0.015517201596410568
0.03353780342403667 0.00969524417919928 0.013903287259577735
0.03353351551296074 0.009717022294573028 0.012282122354988267
0.03352823450226028 0.009738925604676 0.010652792096884411
0.03352292962978598 0.009760927883133529 0.009016099840286229
0.03248939427187464 0.009811810464728277 0.00644817583238444
0.03351420857918558 0.009805177028012703 0.0057221999270810064
0.03350981833529465 0.009827452387982192 0.004064025368576363
0.03350540809856156 0.009849829188540847 0.002398299587295538
0.024512191774268333 0.010400614333016835 0.05828216532996433
0.026451836569146014 0.010365821579906613 0.058280044338518744
0.02837947917162925 0.010331233688493209 0.058278628785688846
0.030293376872801037 0.010296902813509489 0.05827653364786772
0.03219459686930648 0.010262799347072953 0.0582744523882312
0.03350136606558857 0.010245979021681595 0.05783359750099204
0.033497261750609186 0.010267596153099348 0.05640359674113793
0.033492225472483705 0.01028933161759619 0.054966851992471144
0.0334880843879381 0.010311132262644756 0.05352471386877444
0.033120734920955686 0.010343762104409801 0.051796615128112844
0.03347790837864156 0.010355066412246778 0.05062060021566367
