# .PCD v0.7 - Point Cloud Data file format
VERSION 0.7
FIELDS x y z
SIZE 4 4 4
TYPE F F F
COUNT 1 1 1
WIDTH 759
HEIGHT 1
VIEWPOINT 0 0 0 1 0 0 0
POINTS 759
DATA ascii
-0.033891629443640936 -0.05289333317494632 0.06516576454931367
-0.033535672714009146 -0.05305719338320902 0.06350721672810977
-0.033281746119759315 -0.05320621354115583 0.06191569998251645
-0.03304548551285397 -0.05335316195124752 0.060329462879389006
-0.03280791625158913 -0.05350092431287005 0.05873443956262564
-0.03274930746362431 -0.053621909043250864 0.057266499060149356
-0.03250145312888675 -0.05377243307968187 0.05564863048984009
-0.032283518342132445 -0.05391899053144486 0.05404552283863551
-0.0320847200577683 -0.05406321749506197 0.052449231081096115
-0.031946949345683706 -0.05419863210973211 0.050892219685623796
-0.03175457880009691 -0.0543430666455641 0.04928562928178659
-0.031577965977664824 -0.05448567069124733 0.04768352617231891
-0.0313948111700178 -0.05462989712863548 0.046068597935182753
-0.03126416637935775 -0.05476656228846667 0.0444871990266108
-0.031104638649680716 -0.05490831718960932 0.04287552782899501
-0.030574843013535857 -0.05510857334243164 0.04096153907728173
-0.03047797273721764 -0.05524185064391649 0.03938295096308747
-0.03005986760531043 -0.05542614433516576 0.03753874702176091
-0.029549938149895594 -0.05562568164150177 0.03561021964493938
-0.029238303770918295 -0.05579480684080436 0.03383192934574353
-0.029219826704512675 -0.05591832978287366 0.03228389954618904
-0.029215751456192984 -0.0560401067485328 0.03074089872584934
-0.029165204332268768 -0.05616978920332202 0.029152797467367486
-0.0290979267724204 -0.05630269744230115 0.027543633132960488
-0.029050759431491824 -0.05643297913216284 0.02594388737279696
-0.028990695802838362 -0.05656589071624987 0.0243260832922641
-0.02929562960128551 -0.05664093874077449 0.023008772432811797
-0.03018705639036584 -0.056622197105839794 0.022184628732162648
-0.002095410585445545 -0.05670598226672954 0.06961395982113705
-0.0044720261235031145 -0.05646475348380376 0.06978390256601952
-0.006757892965384982 -0.056236122294839895 0.0699052083854218
-0.008845446138839919 -0.056036273296266786 0.06990463813226172
-0.010881553672631217 -0.05584334102054635 0.06987929432407963
-0.012903688721535855 -0.05565173271385586 0.06985412443394945
-0.014911021120114554 -0.05546158146711565 0.06982846139286836
-0.016905647822911485 -0.05527257954053494 0.06980363621255514
-0.018880030868245412 -0.055085874229608485 0.06977435328707837
-0.02084491275098599 -0.054899851142606426 0.06974790259011343
-0.022789989720134074 -0.0547160794908908 0.06971703357878467
-0.024720224829011095 -0.05453381766072954 0.0696850614852767
-0.026634872259146847 -0.05435318864878529 0.06965134435079656
-0.02853504661520151 -0.054174032141884904 0.06961654906533549
-0.030424551259511434 -0.05399577476334437 0.06958327908399353
-0.032274658844812454 -0.05382283031810536 0.06953083703650231
-0.03352105036875774 -0.053742005685843114 0.06905137192297611
-0.033815666278381507 -0.05380750187732847 0.06788511056654795
-0.03355800569000611 -0.05395854241441762 0.06631235974670152
-0.03329348035775859 -0.054111270990819124 0.06472678102751056
-0.032948646625064026 -0.05427708517766155 0.06307404937339495
-0.03261533820669027 -0.054441798688660434 0.06142128116534329
-0.03237769490734549 -0.05459230480303197 0.05983132598368951
-0.03214331361147138 -0.05474293089015167 0.05823599014238218
-0.032031664270512794 -0.05487499938466184 0.056725351954282965
-0.031799714040592786 -0.05502646974240382 0.0551166112671484
-0.03159236991658426 -0.055174713846270124 0.053518699443542095
-0.03140894974106867 -0.05531981862898218 0.05193134750061029
-0.03126828697466055 -0.05545879485464229 0.05036931399631178
-0.031052266646032278 -0.055610265457003094 0.04874158574893167
-0.030877198039969578 -0.05575589440675866 0.04713775712110857
-0.030687122330126437 -0.05590452337666756 0.045514475642565166
-0.030529948053689415 -0.05604855376308299 0.04390921676744064
-0.030336051222024707 -0.056199050416110466 0.042267244333295206
-0.030027292012864026 -0.05636853269524195 0.04052586843466277
-0.02963758976082842 -0.05655169459149125 0.03871070305638513
-0.02920993068720107 -0.05674173043637396 0.03685522113573764
-0.028752458591576824 -0.05693737576124333 0.03496545458157657
-0.028563174457178597 -0.05709066956701107 0.03328317217507559
-0.028530591437337938 -0.05721933257607933 0.0317206903762462
-0.028476531596722365 -0.05735202714420488 0.03013362771857242
-0.02837653104798754 -0.05749274544694499 0.028501453349028205
-0.028249714117176694 -0.05763843280398466 0.026839393693118996
-0.028153542256957376 -0.057779765837287805 0.025195005663413816
-0.028187240023254678 -0.05790052494380532 0.023651903812450026
-0.028887324738653797 -0.057912836525445474 0.02266434804240619
-0.029706764363234828 -0.057905640812196596 0.021777334326332
-0.004218070848861222 -0.05767977179106981 0.06961510681236988
-0.006509524859839688 -0.05744560239751491 0.06973920341194922
-0.008755442771288313 -0.05721745526334692 0.06984414567333397
-0.010833982812616438 -0.05701403114874902 0.06984714314228724
-0.01285653870942205 -0.056818381077694276 0.06982208037612891
-0.014864287074514704 -0.056624218971325066 0.0697965235792381
-0.016858360250524618 -0.05643137934319733 0.0697711408549132
-0.018834113924856122 -0.05624058743919684 0.06974262503069995
-0.020802242833014573 -0.056050200817703906 0.06971825492757233
-0.02275051126495159 -0.0558621191662549 0.06968945189720555
-0.02468108872577479 -0.05567601949930699 0.06965756819741031
-0.026596074235775147 -0.05549158716642843 0.06962393846656945
-0.02849841447579582 -0.05530837270002422 0.06959053080368188
-0.030387326264673886 -0.05512650602530524 0.06955669454626745
-0.03211255246899064 -0.05496953303146243 0.0694144325346957
-0.03319204504292256 -0.05491327517731206 0.06881382762828442
-0.03311631191523062 -0.055038496538047675 0.06737740984028107
-0.03286880494683514 -0.05519131079109769 0.06580929727650203
-0.0326117669118966 -0.05534626369902973 0.06422646935540693
-0.032262346713626544 -0.055516481831724716 0.06256762772914981
-0.03196738633426327 -0.05567877071606607 0.06094055518345165
-0.031719262104989265 -0.055834292423237036 0.05934016952014104
-0.03150192484187864 -0.055985560641984684 0.05775495103561984
-0.03128986292198632 -0.05613662032119025 0.05616598811339929
-0.03105629466137494 -0.05629175348324063 0.054552992385340004
-0.03088085488605752 -0.05643822262857308 0.05297635173618137
-0.03078084287660815 -0.05657319457173946 0.051449991300350995
-0.030520683111495195 -0.056734511961681756 0.04979328925987103
-0.030323712601568797 -0.05688632026451349 0.04817721403197972
-0.0301369674555505 -0.057037119589365755 0.04656125394223315
-0.02994640009148919 -0.05718917885068984 0.044934488108595405
-0.02975102903574056 -0.05734266540884135 0.04329604578278168
-0.02950618530825616 -0.05750485450177383 0.04161046317759931
-0.029260905529535808 -0.05766780833609901 0.03991607666864205
-0.028833400464421843 -0.05786122940233892 0.03806740757528854
-0.02837897495873626 -0.05805988849526742 0.0361869600701889
-0.02799774315910103 -0.05824739412222172 0.03435526446627496
-0.027876745658622415 -0.05839292095041746 0.032725230581228726
-0.027808562769596756 -0.05853037436826207 0.031130684051844937
-0.027690396610325962 -0.05867667713572764 0.029487815814402962
-0.027529636973679217 -0.05883066394570377 0.02780202624131306
-0.027373910675411284 -0.05898448601542443 0.026112246648769766
-0.027209504739639012 -0.05914042153147487 0.024407044342836137
-0.02756308132582469 -0.05921075537772068 0.023128172455171403
-0.028498659077624833 -0.05918423788051097 0.022336490243925256
-0.006291175042235975 -0.05865195575948232 0.06959326214626421
-0.008545266437264554 -0.05841794568253067 0.0697028833672737
-0.010751696163671609 -0.05819044521657205 0.06979152899092456
-0.012808394012727764 -0.05798548063459142 0.06978936031147864
-0.014816567161614447 -0.05778730458379756 0.06976391202881271
-0.01681009503218428 -0.057590630349083176 0.06973797367266066
-0.018788185400100188 -0.057395591895388676 0.06971088877168591
-0.020759562859543446 -0.057200821581625434 0.06968860027832785
-0.02270914360136722 -0.0570087076031579 0.06966055031735952
-0.024643808297236502 -0.05681817532403194 0.06963137852933338
-0.026560039935064617 -0.05662979316973158 0.06959848480198405
-0.028463606930007657 -0.056442656059439524 0.06956580847382265
-0.0303510016210225 -0.05625733118718772 0.0695307530017823
-0.031783376339560354 -0.05614397758652186 0.06917805945461969
-0.03264202412867295 -0.05612205371496034 0.06841670843330044
-0.0324493708739389 -0.05626877869236415 0.06689323977016759
-0.032276541102379985 -0.05641292207918556 0.06537699113703005
-0.031968310340403816 -0.056579485413066934 0.06375423452541534
-0.031598917250087344 -0.05675661842876302 0.062078082219720165
-0.03129687184900898 -0.05692358890741973 0.06044308963390538
-0.030981083654112063 -0.057093484413191176 0.05878952696997791
-0.030872025798416747 -0.05723049258515125 0.057282529179200625
-0.030601408862606705 -0.05739438556719492 0.05564685140962877
-0.03035153894182052 -0.05755558036347895 0.05401868612200161
-0.030150606523952517 -0.05770944961713369 0.0524197246685868
-0.029978521243945344 -0.05785923957361834 0.050835123808310345
-0.029785842269825114 -0.05801304420717801 0.04922709836251976
-0.029578019565222158 -0.058169992043373274 0.04759956565786083
-0.029371902074913414 -0.05832732418986008 0.04596540903489127
-0.029187401699789506 -0.058481752061146614 0.04434019029690989
-0.028974362431128053 -0.058641564532114575 0.04268464791505977
-0.028583656074324393 -0.05883154914320958 0.04088034544849112
-0.02840023928214036 -0.05898786571808914 0.03923126919568859
-0.027987072923289225 -0.05918315073996556 0.0373904044304183
-0.02758951816739058 -0.05937666656491881 0.035552072772926935
-0.027295090016696777 -0.05955375052113606 0.03378716689793171
-0.027198349565172864 -0.059698431274845705 0.032173818113635844
-0.0270650588231392 -0.059849882983160754 0.030523129185637765
-0.02674907828787726 -0.0600327744621978 0.0287145204023303
-0.0261370205437767 -0.06026645796804174 0.026651901672878786
-0.02769415109093515 -0.060529125115859554 0.021657849849818667
-0.008338863980505873 -0.05961914709710301 0.0695641575342551
-0.010556243553992983 -0.05938541679200852 0.06965943063525831
-0.012744509270169069 -0.059155396444345844 0.06974594300801196
-0.014768834876381753 -0.058950691749133616 0.06973129202319706
-0.016761817088179143 -0.05875018700435432 0.06970479774550953
-0.018747031258439295 -0.05855011845741362 0.06968245157484165
-0.020717821603708664 -0.05835156072333931 0.0696595978633745
-0.022669647423092243 -0.058155255819215594 0.0696329562535154
-0.024607452410082775 -0.05796041805931426 0.06960583835572132
-0.026524922581863675 -0.05776807957292781 0.06957367884455251
-0.028430625054952086 -0.0575768646176653 0.06954238284078723
-0.03030921902821737 -0.057389276178892244 0.06950091361779931
-0.03155665278473696 -0.05730382271224099 0.06901525498555888
-0.03197194105092982 -0.05735397177403206 0.06793290346241349
-0.03169737694797298 -0.057517267210159914 0.06634732502011004
-0.03158045286840866 -0.0576553764788662 0.06486890133891515
-0.03136081003686064 -0.057810944385834125 0.06330838811514711
-0.03092930739723082 -0.05800205903969532 0.06158397619255185
-0.030609070290901097 -0.058175601481352326 0.059932798525200726
-0.03028968219109851 -0.05834972712491391 0.05827377760838659
-0.030125019925388907 -0.05849893182899398 0.05672227765166654
-0.029849823798952013 -0.05866712259767679 0.055080110045796216
-0.029641156517773826 -0.05882494450637142 0.05348011400686686
-0.029457569183757915 -0.05897924637757215 0.05189146146058171
-0.029255178130873638 -0.059137341759738664 0.05028078232266048
-0.029027206539216643 -0.05930038991753145 0.048642573631831554
-0.028851848541409264 -0.05945529568123829 0.0470370399391109
-0.028614891942740972 -0.059621220942422795 0.04537583768128284
-0.028478399052610515 -0.05977091460306332 0.04378503928960126
-0.0281732711106758 -0.05994973569969847 0.04205402272496367
-0.027836599223744096 -0.06013466050024991 0.04028910190715024
-0.02755365651075281 -0.060311260133296664 0.038557667541070095
-0.027229447204806134 -0.060495633256598055 0.03678435657173562
-0.026845051619240112 -0.060691053786531404 0.03495336697947682
-0.026483495211914898 -0.060883415424794224 0.033130989607527694
-0.025891554161367347 -0.06111603275683331 0.03111163145718343
-0.010365554080436601 -0.06058083611496405 0.06953055148679838
-0.012544850275592045 -0.06034782904739724 0.06961025090360323
-0.014705497438850135 -0.060116925648830415 0.06968800753434656
-0.01671545828494536 -0.05990973347094387 0.06967294062502527
-0.018702995600625383 -0.05970537664912278 0.06965202327239423
-0.020677968703430027 -0.059502253404996 0.06963190750457099
-0.022631083277054376 -0.05930190063385413 0.06960601335538352
-0.02456829166612018 -0.05910335382888436 0.06957832775763434
-0.02649072272035302 -0.05890643754578892 0.06954952097866934
-0.02839763704322057 -0.05871128420901161 0.0695189528491299
-0.030190175208769654 -0.05853430529453878 0.06941589749024912
-0.03125359720286197 -0.05847780685917703 0.06879763841218828
-0.03127570512615613 -0.05859453963446082 0.06743021594126303
-0.031076892446225468 -0.058748631416943156 0.06589688036891034
-0.0309710443558891 -0.05888781018264975 0.0644240809368678
-0.030638556447338594 -0.05906555442209416 0.06277832390231686
-0.030254380832174743 -0.05925271848665126 0.06108594695617248
-0.02990102232696268 -0.059435474402439986 0.05940748628030246
-0.029606687053751524 -0.05960903719541231 0.05776429892646234
-0.029400887855169533 -0.05976836104361561 0.05617918138813588
-0.029137977618692412 -0.059938025032097005 0.0545433342441623
-0.028940082948298085 -0.06009736603787184 0.05294859934322038
-0.028764622824826225 -0.06025356130151487 0.051363267602452856
-0.028510008809339238 -0.06042390591545595 0.0497097140961229
-0.028289903328390487 -0.06058907570430008 0.04807448549235244
-0.028075235509941288 -0.06075401369723359 0.04643543950423906
-0.027880345891184932 -0.06091625863702705 0.044803761705680234
-0.027652884886690376 -0.06108479177993428 0.04313865944520778
-0.02737334148594195 -0.061263014203199545 0.04142431203058683
-0.02707002145275189 -0.061446101662819566 0.0396824089149333
-0.026664347960932644 -0.06164767866792865 0.0378500702087462
-0.02576679527744935 -0.06193539400717986 0.035614336802148705
-0.012403089657896993 -0.06153189997401963 0.06951390765306215
-0.014522183382307707 -0.06130351642492703 0.06956273162256704
-0.016654594543165757 -0.06107198946764041 0.06963111591386495
-0.018656076339872152 -0.06086139406304533 0.06961960242239035
-0.02063431022787232 -0.06065383474490833 0.06960157297823655
-0.02259533352678489 -0.0604483175020484 0.0695810367390517
-0.02453378582477339 -0.06024575566457066 0.06955408724949047
-0.02646021460460435 -0.06004439116348415 0.06952797086308266
-0.028362809704751135 -0.0598462242297295 0.06949421646136505
-0.02985077781820289 -0.05971735332668022 0.06917351403867222
-0.030696787157576066 -0.05969672391192578 0.06839780715574428
-0.030570326435354733 -0.05984112057749071 0.06692092727497284
-0.030527260969254566 -0.05997192464569077 0.06549787191948853
-0.030303653571533917 -0.060134049749909886 0.06393693802546968
-0.029970354411267497 -0.06031558649432034 0.06228792829695068
-0.02956762587374695 -0.060509763059339555 0.060579189532130207
-0.029116834792029034 -0.060712992827889445 0.058825684855288995
-0.02908200757075985 -0.060845562039436404 0.05737291544975759
-0.028632672324944874 -0.061050091800891944 0.05560302269939721
-0.028436379038414505 -0.06121179561433854 0.054014285763187786
-0.028147807512750866 -0.06139014127373641 0.052347940539387294
-0.02803122243232664 -0.06153942217245037 0.05080423792017735
-0.02772476316201905 -0.06172231707515074 0.04910793296228855
-0.02752767174394094 -0.06188694477301887 0.04748719017571196
-0.027291395721812883 -0.062059105070490096 0.045828240888840466
-0.02708919438654328 -0.06222603831620878 0.04418760051618287
-0.026715972437610425 -0.06242364319038171 0.04240505444114151
-0.026002446336236495 -0.06268183667393577 0.04034513292539221
-0.014387506889902979 -0.06248301400348512 0.06947069437949094
-0.01649219230743576 -0.06225187373486567 0.06951951537136469
-0.01858902785681288 -0.06202113291193496 0.06957327243386635
-0.02058874233951624 -0.06180601744298566 0.06956991176488253
-0.02255204802274058 -0.061596248314059666 0.06955079525710861
-0.024502071896661426 -0.06138789827824909 0.06953180807290277
-0.026433400131752105 -0.06118190491089365 0.06950902983787732
-0.02834264338187853 -0.060978865399801574 0.0694798931738475
-0.029582803016526604 -0.06089026232862973 0.06898213761925592
-0.030046158952498958 -0.06093539724165699 0.06793060744389223
-0.029897774103400776 -0.06108654228474331 0.06643533948416219
-0.029841239587910906 -0.06122238922140009 0.0649998503557514
-0.02968429011241913 -0.061376240423016426 0.06348485129343856
-0.029271918319536405 -0.061575189001479395 0.06177534382171024
-0.028830897271164224 -0.06177996087883857 0.060035556487648356
-0.0283962501950068 -0.061984470752268345 0.05829107147938811
-0.028181327007480883 -0.0621513481643544 0.05670105481543941
-0.027926787497599415 -0.062325876288401055 0.05507361179773923
-0.027743285207881163 -0.062488640753670145 0.05349165038660075
-0.0274625139128295 -0.06266923235851482 0.051828389363704375
-0.027263514419898105 -0.06283614033243391 0.050219057477601414
-0.027014015992609386 -0.06301268982294071 0.04856324450850785
-0.02670203376740443 -0.06320106767349645 0.04685104057662315
-0.025961266721017007 -0.06346645781490448 0.04479786133957925
0.0035154070269677873 -0.06885151997286647 0.02035225734814733
0.0020564114884891738 -0.06873738152042799 0.019876199319374233
0.0007741581213179249 -0.06865437303677206 0.019266385914826878
-0.0002725044629873219 -0.06861324324055318 0.01847403791630675
-0.0014321477076311706 -0.06855164086317889 0.017773531428691147
-0.0023023545627769426 -0.06854188236290766 0.016844416901875492
-0.0030288219893729873 -0.06855801526656549 0.01580016970961412
-0.0027332118497201963 -0.06875901666690631 0.013928800915450956
-0.016355779260986192 -0.06342828380447672 0.06942577423584734
-0.018441434300670523 -0.06319525580067427 0.06947128641643097
-0.02053651504371684 -0.0629596446089152 0.06953362350104447
-0.02251345870077265 -0.06274363573870705 0.06952383476977564
-0.024465687245298517 -0.06253105657049551 0.0695062476923049
-0.02640565677752499 -0.062319751379487046 0.06948943267575552
-0.02825645234514368 -0.06212319660004116 0.06941867532028106
-0.029249546848274632 -0.06207633609329436 0.06874413997235201
-0.02931349809900652 -0.06219265438534664 0.06740450215524063
-0.029216225441777655 -0.062337858110730913 0.06594325627635284
-0.029174622642194614 -0.062473832233203144 0.06451591556487213
-0.029047988269364 -0.06262541251418091 0.06302040087005822
-0.028547539173023162 -0.0628438935732127 0.061243719655825146
-0.028115304376532535 -0.06305116323765829 0.05950751951099992
-0.027699852258132596 -0.06325630764937061 0.057774402578135875
-0.02745447191146133 -0.063431967309593 0.056158858896287744
-0.027260460982062085 -0.06359917771499012 0.05457386947757098
-0.026981336894833063 -0.06378233573387704 0.05291709449533949
-0.026691115179109604 -0.06396825453843658 0.05124355810441572
-0.025960688666772036 -0.06423414645195377 0.04922598701530162
0.005408482964429084 -0.07002457685685014 0.02371592666511102
0.003877560645579814 -0.06989585175585575 0.023289628336694068
0.0023209306285137954 -0.06976192785850545 0.022889160950601617
0.0007780389351013661 -0.06962992848423147 0.022484162513821626
-0.0007181150059265562 -0.0695058654540057 0.022048661135007697
-0.0021814568060902206 -0.06938725228921251 0.02159306850127074
-0.003731653286617287 -0.0692522746667447 0.02121171363525598
-0.005011623197864079 -0.06916616423908754 0.02062161751593261
-0.005763506273811392 -0.06917651804672452 0.01961309744145412
-0.006024995248134268 -0.06927703117417915 0.018209715568534457
-0.0061925933158361035 -0.06939526748899194 0.016725723152428096
-0.006149263320766818 -0.0695529412006378 0.015064744670146402
-0.00606089982687491 -0.06971962556884807 0.013359563249544959
-0.005521977129863298 -0.06997054427952272 0.01127640245048328
-0.018310992497861944 -0.06436728190990405 0.06938115212924906
-0.02040730653540329 -0.06412721550577795 0.06944384760190908
-0.022463562698108563 -0.06389327100256581 0.069488974853115
-0.024430228429571543 -0.06367428120483411 0.06948133771538934
-0.026372359053548955 -0.06345876243716786 0.06946591205565655
-0.027927808932030673 -0.06331130450838311 0.06918525378247764
-0.0287516902397551 -0.06329394377061864 0.06838859156061611
-0.028566758048652996 -0.06345711659021144 0.06686828695025698
-0.02847306263143823 -0.0636045939249923 0.06540668719445408
-0.02855626537384065 -0.06372087962272471 0.06406701519221808
-0.02831956211015979 -0.06389527329348282 0.0624887069236455
-0.027798776786611912 -0.06412166952117108 0.060694200552413535
-0.027419252544116812 -0.06432345377289568 0.05899390191091386
-0.02714714177839561 -0.0645066077090007 0.05736433772705657
-0.026709553174647627 -0.06472058274122844 0.055603188445035756
-0.025959169383819813 -0.06499238666059468 0.05359790579106405
0.00840085688972847 -0.07139574238142385 0.026236744218897046
0.006762418384908153 -0.0712460552158048 0.025880965055353478
0.0051364753694629894 -0.07109802739425704 0.025522375851969148
0.0035139120970632542 -0.07094999617929906 0.025167850669508607
0.001845746079539523 -0.07079295166752242 0.02485513047969312
0.0002867574212411794 -0.07065536727398028 0.0244649257607627
-0.0013574854261386715 -0.0705014512123777 0.024147342350935408
-0.0029563330554648326 -0.07035528433288817 0.02380119197494379
-0.004447534707927747 -0.07022846412306771 0.023376942288359126
-0.005618704716702394 -0.07016059765066443 0.022705183602567514
-0.006336539008706121 -0.07017689779522258 0.021675815064685744
-0.006722201318325238 -0.07025528437439091 0.020379986770423353
-0.006855691899804561 -0.07038118926152738 0.018877768282508256
-0.0069148766364174885 -0.07052156873320609 0.017309691789746395
-0.0068645745392912905 -0.07068312724740547 0.015646162411068032
-0.006756298148751061 -0.07085630158754483 0.013927808564746236
-0.006587384256335149 -0.07104166984795633 0.01215163713278189
-0.006240986611626753 -0.07126141081696329 0.010220300732073806
-0.017912375561817684 -0.06558830517511026 0.06910571087793704
-0.020258983301321365 -0.06529904321528245 0.0693407905209461
-0.02234582872819263 -0.06505545803068612 0.06940671983948149
-0.024387295215522853 -0.06481908161857308 0.0694511769401649
-0.026351082252004443 -0.06459580801129239 0.06945088269309685
-0.027575540737169613 -0.06450579248478616 0.06893505255986726
-0.02801423654089097 -0.06455829892383108 0.06786193290655185
-0.027842706102095105 -0.06472221900280103 0.06634836350064627
-0.02780542746161513 -0.06486229988910765 0.06492464963131006
-0.028001504729646853 -0.06496026034135126 0.0636642831913874
-0.027641141009685344 -0.0651606517482343 0.06199351274688086
-0.026946782756654297 -0.06542323978602534 0.06006891941656706
-0.025853955536746853 -0.06576028262049888 0.05783886710616798
0.010364728586995886 -0.07273072777177109 0.0279477116014068
0.008635211714330349 -0.0725622556907887 0.02765225321436171
0.006937494253251464 -0.07239898196681599 0.027340209650136116
0.005272178115659998 -0.07224105130304351 0.02701078165370885
0.0035995637102150813 -0.07208109587709388 0.026693876774714187
0.0019076599145144701 -0.07191686257684313 0.02639881866396593
0.00024995130891630746 -0.07175833798546938 0.026084681726619152
-0.0014180194894360398 -0.07159721717010305 0.0257855249385594
-0.0031057615125894 -0.07143169573320711 0.025508927163297224
-0.004735921469173621 -0.07127632045220426 0.02519461455861971
-0.005846279884545613 -0.07121843250941796 0.024478045146897998
-0.006511588569849791 -0.07124451120918203 0.023411839074545193
-0.007000903297797345 -0.07130407478132221 0.022204430693926303
-0.007195951712237247 -0.07141981428432563 0.020758954121683992
-0.0071454634884042245 -0.07158281146205878 0.019110804849836738
-0.007083913754279969 -0.07174862136880612 0.017446358901614445
-0.007015563440799788 -0.07191644724301971 0.015768888888363364
-0.006958866398191432 -0.07208276497540342 0.014093337377704074
-0.006863711374773651 -0.07225719075568686 0.012378640568095733
-0.006710086514241098 -0.07244362986056255 0.010607717763398583
-0.006323857712094261 -0.07267575608856623 0.00863517009741821
-0.019864767318348575 -0.06651684607064594 0.06906688368008201
-0.022196902930049445 -0.06622411496890293 0.06930267260854722
-0.02427711516346015 -0.06597652161325274 0.06937377495994729
-0.026276130690680077 -0.06574288023418148 0.06939793891829116
-0.027239177183107532 -0.06569958660102967 0.06869614773196736
-0.0273226783090188 -0.06581886703012865 0.06736805087956382
-0.027236139773098744 -0.06597016658944725 0.0659128035112162
-0.0272030521722727 -0.06611215792332628 0.06448973018773174
-0.0267487870832267 -0.06633315261572073 0.0627548648872972
0.010893856759601916 -0.07395206416995012 0.029141105180757076
0.009192937882837982 -0.0737862599846367 0.02882180623371189
0.007448580539737959 -0.07361157395417608 0.028542222024767916
0.0057462625931894995 -0.07344409832059792 0.028238471587888225
0.004055030941052917 -0.07327801870148122 0.027933554382972292
0.0023102845355893464 -0.07310108849437762 0.02767662144560129
0.0005938144658830802 -0.07292878832308493 0.027405697729719014
-0.0011091005033200818 -0.07275834296890195 0.02713182380349144
-0.002797539196511767 -0.0725899400697588 0.026854164817190107
-0.004499815783179539 -0.07241817560519488 0.026594638474659427
-0.005824118182504057 -0.07231814815465576 0.026046675554384724
-0.006597656882682323 -0.07232351450850064 0.025069534843748353
-0.007100921907078062 -0.07238094301759838 0.023878255424335026
-0.007260187701972565 -0.07250499335636588 0.022410735865224463
-0.007283233192369398 -0.07265591603243833 0.020828773232686004
-0.007190834994233841 -0.07282985801804115 0.019147292968027196
-0.0070860799102803185 -0.07300694844375753 0.017448110246456205
-0.006993845885021721 -0.07318236595467933 0.015751236470937457
-0.006922942787295772 -0.07335438142627812 0.014063982369280248
-0.006889903158173116 -0.07351974125897999 0.012400157185220695
-0.006782320419557564 -0.07370042106841286 0.010667373808950331
-0.006610556096666054 -0.0738944867455114 0.008873205109636129
-0.006241799797890413 -0.07412815509833173 0.0069058961656790485
-0.03754241607849029 -0.06964031490899256 0.01582786800562619
-0.03884388516502563 -0.06953330583807715 0.015379027202603979
-0.03987060130945125 -0.06948144857406038 0.01468956257230325
-0.02197989225897251 -0.06740642584074467 0.06915105777961722
-0.024122936271040896 -0.0671428916411028 0.06926546359724961
-0.025829470373430696 -0.06696011005945014 0.0690824300371784
-0.02667746278029748 -0.0669378537665542 0.06829718571271276
-0.026095248335243626 -0.06718471543599237 0.06649147161914076
0.009869964830998945 -0.07503156465654479 0.02990074717528507
0.008138258581163349 -0.07485660230513844 0.02960854187952805
0.0063830208845909175 -0.07467639622756232 0.029341387661920237
0.004686634934642497 -0.0745067452225355 0.029037496014264363
0.00297122420353485 -0.07433271864656936 0.02875523587066625
0.0012173809495619192 -0.07415054359600995 0.028509680100468338
-0.0005706870050354307 -0.0739609823032773 0.028298125491544368
-0.0022809894658714636 -0.07378569110722207 0.02803475791612875
-0.003997274612488111 -0.07360849628037111 0.027783535454479258
-0.00558383921897071 -0.07345579582219076 0.027438892913564494
-0.006554689645231038 -0.0734225292955064 0.026618715003119575
-0.007110485522628884 -0.07347024162580686 0.025473237455793163
-0.007320910304788153 -0.07358580283037455 0.0240523609414921
-0.007342954249150213 -0.07373883391895279 0.0224765908353588
-0.007287542338433428 -0.07390775662231085 0.020832220249703992
-0.007150865432455578 -0.07409342420210706 0.019115149135295217
-0.007039502053106772 -0.074274890328481 0.01741045188303042
-0.007000361415103684 -0.0744428409743593 0.015756532410219626
-0.006909877954344834 -0.07462170423866664 0.01405330643020375
-0.006833149683368622 -0.0747986074392475 0.012353534060355387
-0.006762623013846447 -0.07497504296989897 0.010651106249731368
-0.0066753048451669295 -0.07515559944663765 0.008926963588825054
-0.006511639240255607 -0.07535222293855683 0.007131123489222291
-0.00561930192294785 -0.0756958557163528 0.004715154391314258
-0.03630373872656201 -0.07077876668150886 0.017934303776755145
-0.03774322294299387 -0.07064202208440169 0.01760338552157026
-0.03910190205359165 -0.07052123569530323 0.017207183985920582
-0.04047278233403623 -0.07039740096650154 0.01682730728573867
-0.041853737763341003 -0.07027093527602803 0.016462062999458515
-0.04324730738375765 -0.07014129672627378 0.016113912138147946
-0.04459713995646586 -0.07002012292827908 0.01573217616049033
-0.04590849416911952 -0.06990638077276398 0.015321048639393098
-0.047111914895558826 -0.06981455608068896 0.014816628406528198
0.010794016103981285 -0.07632394667948723 0.030796278658686338
0.00904032666631538 -0.07614216270731128 0.030516269158173126
0.007206772408208939 -0.0759440778998909 0.03030338188888876
0.005369266383519922 -0.07574439470600969 0.030101699633053147
0.003575935105282646 -0.07555250840477899 0.029875031998599977
0.0019277849951684356 -0.07538824907422158 0.02954631296159871
0.0001284612931036211 -0.0751936311066007 0.029339702030915793
-0.0016244962541985264 -0.0750073116287029 0.029105723122897942
-0.003367704488141776 -0.07482212677400686 0.028872065968068183
-0.005052823589605182 -0.07464763068926818 0.02860121259603038
-0.006283791667599292 -0.07456227805050089 0.02798402684911061
-0.007010931133840492 -0.07457648993564428 0.026975953333590263
-0.007336415396678231 -0.07467059456711664 0.025651091173756746
-0.007413121476079254 -0.07481465300190993 0.02412533967051783
-0.007325759006610144 -0.07499207697396931 0.022462909073553528
-0.0072498339580673865 -0.07516797349380004 0.020802056169185457
-0.007330121872016371 -0.07531331021658509 0.019259308559442467
-0.007431262574475572 -0.075455083274915 0.01772719165992942
-0.008046425401989465 -0.07549397969140796 0.016606791911768004
-0.008599650498684996 -0.07554554115479088 0.015434105465620518
-0.007077504254058675 -0.0760169713350066 0.012554271965830421
-0.006676148893528411 -0.07626332965494499 0.010579689592440822
-0.006627019754872787 -0.07643922901663311 0.00888687427309598
-0.006589765391226743 -0.07661347862149132 0.00719633316994106
-0.006299638504523419 -0.07684006813526202 0.005286024592662142
-0.036376866910846795 -0.07180353193647511 0.019588317546236078
-0.03785140810822357 -0.07165711219209155 0.019288875352874324
-0.03919895623978792 -0.07153646210761486 0.018884198581268996
-0.04055130411161023 -0.07141427209232082 0.018489134226202075
-0.04191109978689511 -0.07128997837484125 0.018106139712874614
-0.0432680150365885 -0.07116573016869175 0.017726124817307842
-0.04465597071559663 -0.07103440665756229 0.01737956358630044
-0.046057952725521656 -0.07089953987615505 0.0170515654630069
-0.047468208355100294 -0.07076231895310219 0.016737146545550863
-0.04884420545983614 -0.07063171747209437 0.01639764799947746
-0.05023840241162958 -0.0704966677596605 0.01608074912337437
-0.05166996802752666 -0.07035306951761723 0.015804430570709127
-0.05289677599345166 -0.07025239000229104 0.015344806715402337
-0.053546092496503994 -0.07027442434070447 0.01435159370397876
0.010074126031234532 -0.07745416812989209 0.03132748652894901
0.008315134832639182 -0.07726801249350816 0.031054300717520245
0.0064609425367535 -0.07706224434510152 0.030859731998971296
0.004564066866804939 -0.07684715350244835 0.03070559616920865
0.0027254448507419426 -0.0766427362041887 0.030516353959471387
0.001032063827686558 -0.07646637907570542 0.030225398518070656
-0.000685281085965106 -0.07628449906452532 0.029959971870252067
-0.0024748879844183613 -0.07608740444351768 0.029757429632015775
-0.0042703703110307245 -0.07588830033055445 0.0295675651065051
-0.0058658208848691995 -0.07572851768280026 0.029230997967331585
-0.006779269516515307 -0.07570528568793101 0.028369912762196192
-0.007272823010675278 -0.0757666231975779 0.027181015387743757
-0.007464785216582559 -0.07588916469338355 0.025752144873894267
-0.007385248454005011 -0.07606720822579685 0.02410328011204349
-0.007278463972351323 -0.07625154273927676 0.022425277769906993
-0.007393085552662548 -0.07639163999692183 0.020916647477319916
-0.008380615136034386 -0.07635443458439015 0.020104123420110698
-0.009820299532681487 -0.0762247185503687 0.019658736549909017
-0.011402586027263184 -0.07606525433173207 0.01933473924208101
-0.012913965454037668 -0.07591964577717511 0.018959551507922723
-0.014308448638825078 -0.07579743704269257 0.018494511292253824
-0.015386329164768897 -0.07573992381263452 0.017773193927404063
-0.016558314794445417 -0.07566273071998343 0.017132459401225653
-0.01751437321256699 -0.07562988007095513 0.016314793239355807
-0.01839203142517265 -0.07561314365805147 0.015432747506490818
-0.036540527079484686 -0.07280423237479507 0.02131302871466395
-0.03798444647244936 -0.07266171630207707 0.020987950775770203
-0.03932639757929762 -0.07254008762998782 0.020579835060591023
-0.04065642126665109 -0.0724204397394653 0.02016653528715573
-0.0420116680016383 -0.07229490993317246 0.019780779859905007
-0.0433640641594501 -0.07216942369224735 0.019397994964580834
-0.044718175105718516 -0.0720430090996663 0.019022258190750096
-0.04610573444250293 -0.07190888691352641 0.018682142789553047
-0.04749355861865995 -0.07177410342135997 0.01834818820492118
-0.048896847030307666 -0.07163539543988398 0.01803423818887978
-0.050290258976548596 -0.07149818157619464 0.01771742597987036
-0.05166148551395405 -0.07136512297854414 0.017386359093495507
-0.05291027173603635 -0.07125788900297744 0.016948299818753287
-0.05367171881651722 -0.07125560282540566 0.016063232058270538
-0.05367058177507111 -0.0714186697123057 0.014467606555539914
-0.05361989465999373 -0.07159325288360706 0.012818248853677161
-0.05323060089577131 -0.07184240025168744 0.010842189203364327
0.009516281677519278 -0.07861219122588957 0.0317391206412857
0.007675155702911884 -0.07840626837780286 0.03152911159255628
0.005836914546902994 -0.0782000670026367 0.03132522427024553
0.004027261955651784 -0.07799876521033113 0.03110819778496615
0.002159421160365771 -0.07778486978383987 0.030943170634999018
0.00036657243721677224 -0.07758525275452363 0.030729936769070043
-0.0013898416895006815 -0.0773921850146436 0.030497018610840754
-0.0032111413621456197 -0.07718511770462702 0.030321665032683187
-0.004967929607721466 -0.07699031369316173 0.030105030774923103
-0.00635493555083988 -0.07687015041258004 0.029609888848410315
-0.007059070927752598 -0.07688913308149017 0.0285878264858756
-0.0073870858583694465 -0.07698528116364486 0.027270483509263144
-0.00745729938645906 -0.07713478682546622 0.02574625197139474
-0.007344503518138978 -0.077322597828241 0.024071033329011615
-0.0074138679893042125 -0.07747363935930135 0.022533014866554957
-0.008309244284597173 -0.07745458849059103 0.021649510715930798
-0.00984637347966949 -0.07730251815682822 0.021282897690509228
-0.01144520941282684 -0.07713698332134683 0.02097248197560936
-0.01308031142800442 -0.07696318956709503 0.0206984244285065
-0.014606757143858062 -0.0768112983465421 0.020342817640571498
-0.01617079340064581 -0.07665089480020222 0.02002443228249573
-0.01766021933112666 -0.07650541792557451 0.019651138844679006
-0.019101941895574737 -0.07636931867460965 0.01924433843744472
-0.020501816069553203 -0.076241427031913 0.01880832699787427
-0.021994394368562875 -0.07609343731655172 0.018455489064880648
-0.02360009641918498 -0.0759209042404157 0.018204321827849868
-0.02490611838703427 -0.07581105432728859 0.017706318902320328
-0.02577307757522268 -0.07579387259798177 0.016838670939677003
-0.027034988543438554 -0.07569263754881554 0.016310229362386075
-0.036786319413205926 -0.07378188398367672 0.02310001688891694
-0.038153367826367524 -0.07365329161440712 0.022709877480814877
-0.039467169498233035 -0.07353552561467719 0.022278878121856527
-0.040780486861324516 -0.07341733967710502 0.02185250222963364
-0.04212095294710544 -0.07329278997142942 0.021455089520818926
-0.04347338742254636 -0.07316510486716363 0.021073624417762726
-0.0448238534987771 -0.07303727309112172 0.020695918409928793
-0.046175955280484404 -0.07290851356735444 0.02032520231111201
-0.04755754800472939 -0.0727727773642519 0.01998656372246721
-0.048956400841163206 -0.07263267653342505 0.019669410486465144
-0.05037302371650726 -0.07248807037421752 0.01937449061027563
-0.05176632360819161 -0.07234790319864497 0.019064594377142474
-0.052989732440380244 -0.07224428905974839 0.01860496145557272
-0.05369042057951212 -0.07225488766703227 0.0176677915568062
-0.05368140459192233 -0.072421597573037 0.0160722114388252
-0.05307731116340325 -0.0727202250798813 0.013914731511205203
-0.05339675821244638 -0.07281620492190816 0.012609220406856081
-0.05353613063389184 -0.07295249626869496 0.011129894386043504
-0.053390527771538354 -0.0731526571708999 0.009374776756286562
0.011127411386210595 -0.08004180047210767 0.03212614690526855
0.009119114614743518 -0.07979930776901376 0.03203219076065911
0.007238004866249426 -0.0795817419487466 0.03185344087399222
0.0053850432167170115 -0.07936902083008665 0.031662296669613954
0.0035464078221305595 -0.07915834445532241 0.03146883653300492
0.0017009554619646927 -0.07894538706804 0.0312888819692807
-0.00015430678493494332 -0.07872951887378649 0.03112483818400924
-0.0019570588356932483 -0.07852356339803711 0.030929376193765568
-0.003791406858492108 -0.07831021558212097 0.03076635750504264
-0.0055033446630331495 -0.07812129764106945 0.0305175651816027
-0.006613428159330359 -0.07805638759497767 0.029810129198981128
-0.007257456111966709 -0.0780880537643479 0.02874233197612225
-0.0074521952640205225 -0.07821342004632213 0.027321464351543867
-0.007400611274061275 -0.07839072687267372 0.02570162665747061
-0.007429200183870943 -0.07855202292969682 0.024138064849501983
-0.007960936406079588 -0.07860855490483691 0.02296830153099466
-0.00940530928590777 -0.0784736410612478 0.022526286452044075
-0.010954861451015818 -0.0783160086716234 0.02217435234628068
-0.012724266817930263 -0.07811132152513192 0.02200660444338126
-0.014402023366112626 -0.07792512567471732 0.02177273551059633
-0.015997166075539526 -0.0777556269351301 0.02147899145173393
-0.017604954791581584 -0.0775827089447517 0.021202599537221534
-0.019195376346836157 -0.07741273544349699 0.02091898386090879
-0.020761562149718693 -0.0772471902842232 0.0206222594468784
-0.02227257192553017 -0.07709271441434074 0.0202863266505362
-0.023780562899029523 -0.07693820996893329 0.019954262490039287
-0.02523161913890226 -0.07679524913634166 0.01958058811708674
-0.026696146554759326 -0.07664876301366971 0.019224288008217905
-0.02813241108132475 -0.07650772543657686 0.018850004429158018
-0.036844531394941815 -0.07479406742293218 0.024717077353453354
-0.03829146519747928 -0.07464599882851401 0.024396750293282254
-0.039638813993801536 -0.07451888583704827 0.023996392377077347
-0.04091501031641498 -0.074406684016177 0.02353943540225839
-0.04222416374969723 -0.07428679915781856 0.02311605612639056
-0.04355928990747404 -0.07416070572832067 0.022720596579800578
-0.044907170422869847 -0.07403125631758586 0.022341760095925645
-0.04627657309976385 -0.07389650434980287 0.02198755603108471
-0.04764279714236569 -0.07376184671050752 0.021636245644340135
-0.04903531940068018 -0.07362078644931798 0.021314307169073288
-0.05045537444808312 -0.07347300751888332 0.02102326621912226
-0.0518591536100938 -0.07332816476904233 0.02072377976177686
-0.05309337116156332 -0.07322029646855889 0.02027575850048413
-0.053770368810330205 -0.07323588164979605 0.019321157597583738
-0.05374575351955657 -0.07340795331364175 0.017718822322969785
-0.04798729706268595 -0.07486200995394464 0.010793381785512535
-0.05014804020360175 -0.07454915965580507 0.01118491348226941
-0.05231934100097074 -0.0742325064808044 0.011599923858629568
-0.05312477696949408 -0.07422169749124924 0.010742539027807918
-0.05333799920483612 -0.07434438402436261 0.009325054859267434
-0.05326109020204389 -0.0745332124034253 0.007626145142128282
-0.05278215734311731 -0.07481398990458653 0.005534440638316929
0.010768990244860499 -0.08123836365433243 0.03238919332401624
0.008790836232820232 -0.08099809964207927 0.032274427828117735
0.006927962047960923 -0.0807807168151077 0.03208346665922829
0.005056052158283031 -0.08056055182633809 0.031907706807476566
0.003204305572503341 -0.08034366127736851 0.03172541190255279
0.0013305627103759599 -0.0801212772478716 0.03156818088478647
-0.0005240924102967726 -0.07990194740711196 0.031405188907304205
-0.002402245192238639 -0.07967677643794832 0.0312687166004495
-0.0042386298125844935 -0.07945941857424428 0.031109091447355963
-0.005829856246708842 -0.07929267957842649 0.030769140592322608
-0.0068118632862539386 -0.07925357494946898 0.0299638462418505
-0.0073789435806834724 -0.0793018995109935 0.028836948320519473
-0.007447926486188472 -0.07945580599898096 0.027318121886853675
-0.007373865657983758 -0.07964069442616395 0.025680572304748905
-0.007526714846386895 -0.07977816237066881 0.02421524092298799
-0.008714559257726517 -0.07969585186031473 0.023567937640994407
-0.010466386707365438 -0.0794928505771108 0.023375074558734166
-0.011996789644175387 -0.07933632453562196 0.023012279110288303
-0.013770031614713407 -0.07912708673269098 0.022852109006384735
-0.015417744602632899 -0.07894390396635677 0.02259833188242727
-0.017066092475056527 -0.07875979264903497 0.02235246554523146
-0.01871905443825128 -0.07857388850045105 0.022117835249536477
-0.020344913797923025 -0.07839303543715284 0.021868356018555135
-0.021947146547371177 -0.07821651345345879 0.021606606104436432
-0.02352010625546158 -0.07804557668328192 0.021327608146287702
-0.025082218297131753 -0.0778762529702365 0.02104648110553592
-0.026655393130104676 -0.07770377546015139 0.02078160856498068
-0.02820193849086844 -0.07753636001075088 0.020501220785107244
-0.03671752857222149 -0.07584196242410811 0.026168823187044388
-0.038417658696492274 -0.07563599488306096 0.02606525863926179
-0.039738162249933706 -0.07551262418900066 0.02564312816147002
-0.041005492834667145 -0.0754004295865815 0.025180045292764963
-0.04234978206142076 -0.07527073322049378 0.024788614142192633
-0.043686718972773375 -0.07514208804487388 0.02439613296783888
-0.04502090726239988 -0.07501347937971518 0.024006586671937724
-0.04637578017803928 -0.07487969525223728 0.02364069893632781
-0.04775002689842878 -0.07474099311582807 0.023297628778845614
-0.04914591513911282 -0.07459683319461449 0.02297971209420202
-0.05055855966397882 -0.07444827261050017 0.022682903342164107
-0.05198406081403345 -0.07429615682004753 0.02240395817421892
-0.05321397831380065 -0.07418734846172957 0.021953854119870664
-0.05378175971857968 -0.07422732606153123 0.02090403404423452
-0.053740581125022224 -0.07440508684206751 0.019293828835924343
-0.042985996715252606 -0.07700998371307237 0.007795643959127074
-0.04467172112082701 -0.07680290552374348 0.007719614648199202
-0.04693760986372597 -0.0764628873115922 0.008193080107104567
-0.04903713390243725 -0.07615924810216179 0.00852523722857551
-0.05114885969739458 -0.0758514261035613 0.008881896449362547
-0.05275371648925292 -0.07565830179224127 0.008771991129602752
-0.05300998679142699 -0.07577393498896592 0.007387220278508744
-0.05315602947124837 -0.0759154705478296 0.005892032073185449
-0.05309172701448911 -0.07610618294491633 0.0041884899900633266
0.010565450304311608 -0.08246506709885057 0.03253857193553411
0.00862747007397835 -0.0822293951632128 0.03239497594038754
0.006716288855441677 -0.081998380888365 0.03224051042689702
0.004818049435930283 -0.08176913186332906 0.032085244401301394
0.0029536673965518956 -0.08154607803885582 0.0319133895691352
0.0010609339614475743 -0.08131608780828067 0.03177149754485031
-0.0008386128659533809 -0.08108368699385426 0.031643640678240714
-0.002714340009002947 -0.0808553731377022 0.03150660884599482
-0.004563416281177124 -0.08063177526485517 0.031357994921053345
-0.006062885840800447 -0.08048187522470661 0.03094868863525424
-0.006999437302376621 -0.08045177974648163 0.03010914976509521
-0.007440722849046899 -0.08052774571024757 0.028885062982828447
-0.007470336486551432 -0.08069248787087502 0.027335668978285266
-0.007413447816775831 -0.08087655739589614 0.02571173168168306
-0.0077376446548727 -0.08097918156843653 0.024382177196775767
-0.009273803306420636 -0.08082016740052522 0.02401291210689155
-0.011110277887683762 -0.08059539155800553 0.02389014270061024
-0.012816078952139098 -0.08039802874784335 0.023671157949650745
-0.014677902929431996 -0.08016585982168552 0.02358612619799011
-0.016374204791990643 -0.07996879103997084 0.023375759816138375
-0.018087814481442976 -0.07976708718279327 0.023187366529750286
-0.01977957139412806 -0.07956929636579349 0.022989052644170282
-0.0213730010085027 -0.07939223239423075 0.02271742567908147
-0.022961363400850476 -0.07921551278394479 0.02244867265974715
-0.024561625821024335 -0.0790353987532074 0.022196934965649284
-0.026105075060708027 -0.07886705142863673 0.021904759878699276
-0.027693166553979298 -0.07868808067760648 0.021657019346506323
-0.029285801638528786 -0.07850731594295597 0.021420352004846877
-0.03799305134980574 -0.07674328429844318 0.027256207260773546
-0.03959648541483868 -0.0765550281813554 0.02707552152092385
-0.04109368855076956 -0.07638967310987503 0.026810959379652055
-0.042501265990636694 -0.07624365324447026 0.026475504185030585
-0.04386984731904747 -0.07610573603494739 0.02611205336501643
-0.045184685438673655 -0.07597929214913704 0.025707202903531345
-0.046505947669017944 -0.07585083658270965 0.025313185312750286
-0.04788083451780317 -0.07570969308220264 0.024971871858170125
-0.04928702432433213 -0.07556083026061158 0.02466419924266272
-0.05068769519154054 -0.07541255168794694 0.02435773416431597
-0.05210480484225166 -0.07525986750643147 0.02407216889969449
-0.053384546396253674 -0.07513780675541162 0.023668860654982693
-0.05387329827787768 -0.07519590047087929 0.022552464832659935
-0.05379312113231094 -0.07538452657590029 0.020914403331052267
-0.041317578915807285 -0.07841865216062788 0.00789632470092716
-0.04201961859831793 -0.07843554569669473 0.006904402400821519
-0.042751100644453754 -0.07844572865074757 0.0059390672540058365
-0.04405867307845068 -0.07832284342200885 0.005510169018147604
-0.04585978492754156 -0.07808509411461585 0.005548778973856305
-0.04787324434765272 -0.0777969617955969 0.0057973799686381056
-0.049832795590533274 -0.07752004592074455 0.0060071388359852484
-0.051998138229640944 -0.07719386289555638 0.006424446499234293
-0.05277407881762436 -0.07719092544650877 0.005526713901539082
-0.05290753719124075 -0.07733849361334723 0.004011404226040405
-0.053078416827664954 -0.07747795981028344 0.0025259607026801856
0.01051174172099123 -0.08372233421285925 0.03257798883612539
0.008574178659479625 -0.08348310176602475 0.03243429974810602
0.006630784053818228 -0.08324162803721334 0.03230394782320073
0.0046963674994203175 -0.08300106937997775 0.03217601276733678
0.0028096423162449757 -0.0827697364201636 0.03202140782462509
0.0008982393929832244 -0.08253212977507 0.031894179255914756
-0.001014213239891426 -0.08229329997775495 0.03177677103396026
-0.0029037310951625095 -0.08205841698586458 0.03165097097042835
-0.0047706869429061105 -0.08182742510422956 0.03151683893916607
-0.006252944287571949 -0.08167885563175058 0.031095127641396325
