# .PCD v0.7 - Point Cloud Data file format
VERSION 0.7
FIELDS x y z
SIZE 4 4 4
TYPE F F F
COUNT 1 1 1
WIDTH 771
HEIGHT 1
VIEWPOINT 0 0 0 1 0 0 0
POINTS 771
DATA ascii
-0.04465499884097415 0.07196758692324884 0.00807378711147505
-0.044747876225499916 0.07205815053095704 0.006543171591631203
-0.04484031475431429 0.0721548181871004 0.005012003904002027
-0.04494320974859919 0.07218221299256067 0.003403221246125243
-0.04501516092478281 0.07242650598356148 0.002009943860208585
-0.045370056520303 0.07270032910134205 0.013621703425925613
-0.04544840001849388 0.07289481717537738 0.012219865674147345
-0.04553270806169404 0.07305121855899027 0.01077433765206992
-0.04562197371874455 0.07317665946293628 0.009291665146362704
-0.04571278573718734 0.07329449190537685 0.007794965214583727
-0.04579939865948292 0.0734436265809445 0.006323674057933382
-0.0458999586520767 0.07350149451279464 0.00475285147965715
-0.04600701611622835 0.07351888385820349 0.0031332299481540704
-0.04531197950778398 0.07213202726519202 0.03167201402563197
-0.04538361360948547 0.07235205092489999 0.030366042606805865
-0.04546481935082352 0.07250894876434799 0.02899583622155144
-0.04554272653091994 0.07269086949831793 0.027643871027516198
-0.04561869375806462 0.07288842162417619 0.02630154352159525
-0.045706457434137544 0.07300834372301146 0.024879849484495065
-0.04579713516380952 0.07311129817066198 0.023435916939043955
-0.04589381651768053 0.07317656320549687 0.021949423944682744
-0.046446791596639635 0.07308413309282641 0.014002353897184572
-0.04642404156896054 0.0739637681210264 0.013285530150918878
-0.04650841303277051 0.07413122948607459 0.011856607924207008
-0.046595030846078814 0.07428645217714092 0.010409540323115085
-0.0466817285936508 0.0744438624267359 0.008958700997179825
-0.04677607703498577 0.07455353795867198 0.0074532738121800834
-0.04687326052670826 0.07464752029319704 0.005925240416130351
-0.046989083853167454 0.07462221230652488 0.004267776448285632
-0.047078987754225546 0.0747702448614408 0.0027813971706261986
-0.04623913308424023 0.07261667157313245 0.03362650199694106
-0.04625521762080192 0.0732166069255949 0.032682744982290235
-0.04633112860742235 0.07341724763720214 0.031363891218210205
-0.04640611556744755 0.07362637251910764 0.03004806955670697
-0.04648723327279346 0.07379701195908178 0.028690910759908483
-0.046575490515847084 0.07392275255815306 0.027285709190134566
-0.04666396484901888 0.07404975721538382 0.02587591333808381
-0.04675146570648098 0.07418590068396513 0.024469072770913924
-0.04684359980809965 0.07429418651808939 0.023029529451240704
-0.04693597771581351 0.0744036893784017 0.021585067898093058
-0.04742347800400974 0.07482717861806365 0.014146286127611263
-0.047481273563903845 0.07517825317714144 0.012905821954545205
-0.04756952625891466 0.07533409449238976 0.011464812473317876
-0.0476616973611081 0.0754673521264222 0.009994982663037444
-0.04775919782470976 0.07556912286542855 0.008486873875160617
-0.04785634916564522 0.07567612015051861 0.006977502175532446
-0.04795903505091016 0.07575063150708244 0.005428123626140813
-0.048074124326554196 0.07574900771693405 0.0037930564664653277
-0.0482523649014725 0.07534823155620446 0.0017354311468201766
-0.047356651479585295 0.07250791284101404 0.03352567527296729
-0.047266816285411975 0.07380352708562637 0.03322970196550873
-0.047273833606462465 0.07446429533630211 0.03234473830639889
-0.04736274039660326 0.07459200172621022 0.030957364038731228
-0.047443234611842446 0.0747770238676772 0.02961855928062329
-0.047534945119472635 0.0748917463739952 0.028207706609607253
-0.04761614691547819 0.07507717317303286 0.026858589197544913
-0.047707679742926154 0.0751983687926252 0.025442490684281005
-0.04780357877817862 0.07529419418029593 0.02399596758901068
-0.047896200642873865 0.07541393397018942 0.02256647409650636
-0.048007085695677486 0.07541942240638211 0.021019409909840747
-0.04850146768396396 0.07515180144009886 0.014469910971226796
-0.04845868282893845 0.07614777225738556 0.013877369243660509
-0.04854658627298405 0.07631680669356916 0.012454681637901255
-0.04865231588362102 0.07637611423185259 0.010915102835901747
-0.04873700417290337 0.07657088771152176 0.009506408728281901
-0.04883683645806761 0.07667319614608253 0.00799751490099987
-0.048944090528557416 0.07673204400329303 0.006437304641562669
-0.04905860539666818 0.0767487691671635 0.004826420121654185
-0.04917378609181241 0.07676477117879704 0.0032071471014963326
-0.04851532375943973 0.07214038708753945 0.033184953750647284
-0.048360690898040376 0.07383775370196843 0.03326159818850377
-0.04830746362211803 0.07488376675520925 0.032737688289875944
-0.04831231976944796 0.07555857657685566 0.03186754899487804
-0.04839429189540308 0.07574388193241605 0.030533756786152833
-0.04847739836310645 0.07592439641035026 0.029190272903345194
-0.048575883405534 0.07601014243812376 0.027750931170401172
-0.04865702891810442 0.07620810302981851 0.026413280169354514
-0.04875142382362109 0.07632508197997562 0.024992249237137443
-0.048854999266104475 0.07638719787563786 0.023511955260332507
-0.04894268727222268 0.07655182437623065 0.0221252013310117
-0.049088031326009134 0.0763588230111556 0.02038184210413224
-0.049472569056193925 0.0768474742664304 0.014578535038258955
-0.049526354870783745 0.07723812686330894 0.013382711666587277
-0.049624924888206925 0.07735449974070197 0.011905716584645676
-0.04972208753319161 0.0774824008424207 0.01043409092650821
-0.04982621680761422 0.0775704329472488 0.00891539174144812
-0.049923781114565004 0.0777016570878366 0.007434352388127674
-0.0500253729442214 0.07781115938732713 0.00592451750650691
-0.050140845678728625 0.07783914354070143 0.004323367894453756
-0.050262765737531426 0.07783135394714208 0.002677314954494081
-0.04950064162939235 0.07358242658850128 0.03302365633256693
-0.049380171033295596 0.07504087128027775 0.03288485980454625
-0.04932293927102292 0.07610236028400025 0.03237960844606025
-0.04933494453662411 0.07673236447593995 0.03146942334213548
-0.049426847638211376 0.07686781677044935 0.030087937186133173
-0.049518844339658266 0.07700531615523132 0.02870276881927747
-0.04961994865914762 0.07708929046305474 0.027260480823213196
-0.049711660701861185 0.07723392733543721 0.025870585327413764
-0.04981292368854209 0.07732257051523717 0.02442062680354068
-0.049906111187333055 0.07746355019992418 0.023015502338480376
-0.05000778714312073 0.077555341283995 0.021556309916271277
-0.05011843658719441 0.07759535168702986 0.020039699617547035
-0.050568445652498906 0.07701993382553524 0.014751355459080018
-0.05050622226607777 0.07811790300702359 0.014268895113229652
-0.05060580140238425 0.07823960880985004 0.01280188809766547
-0.050702897196902394 0.07837908033894025 0.01134667636185882
-0.050801810182803366 0.07851043327589285 0.009877015836296188
-0.05090216410853414 0.07863599541352906 0.00839512729927916
-0.05100939918377944 0.07872337466196028 0.006867392547392381
-0.05111974518128884 0.07879530351702241 0.005316771761070482
-0.051240449875673826 0.07880888539164099 0.0036981691515997617
-0.050505795404641424 0.0748682796020343 0.0327231805082247
-0.050402440413919176 0.07620319186002317 0.03247455759723472
-0.05034587619827629 0.07725103581111803 0.03196038139432528
-0.05037944598266881 0.07775113722662097 0.030928416427721372
-0.0504757334493031 0.07787301908378924 0.02953268656374103
-0.05056780890426958 0.07802299664000517 0.028158174603698904
-0.05066660658040814 0.07813509635118293 0.026741502767249015
-0.05076643222765698 0.07824378571747798 0.02531554504768191
-0.05086626579501208 0.07835521750277336 0.02388621618558051
-0.050967397527393765 0.0784616820518832 0.022445947884927264
-0.05107632995656464 0.0785244681222576 0.020956426559933405
-0.051519925691830275 0.07875960148165134 0.014915267026332557
-0.051581410901491785 0.07911726682947867 0.013690515435261286
-0.05168089039142746 0.07925332834450682 0.012236432402444097
-0.05178048751659698 0.07939148025161741 0.010778330421127247
-0.05188341574425071 0.07951292922316522 0.009296873471046685
-0.05199025051022415 0.07961445673739992 0.007788424099147373
-0.052096715891885984 0.07972112050925578 0.006278650740708491
-0.05220931390123371 0.07979514191528797 0.004728135108897524
-0.052336024707982834 0.0797905413992327 0.0030880356952731614
-0.051516749708473225 0.07609235028166117 0.032370182607815046
-0.051413948971004465 0.07740797818012957 0.032108938191825864
-0.05137009046899746 0.07837123625205039 0.031518440556127125
-0.05142051503203277 0.0787754367721239 0.030395807367142424
-0.05151261453755675 0.07893500249171087 0.029035005026954608
-0.05160880572265866 0.07907298947997293 0.02764791151450885
-0.05171303921221492 0.07916635248576842 0.02621177627543836
-0.05181717156861249 0.07926315941254053 0.024772822197298927
-0.05192133030038347 0.07936266038243006 0.02333032223968401
-0.0520257768090803 0.07946333125627464 0.02188277023016838
-0.05214441149626408 0.07948426812263609 0.020349901242632584
-0.05261901660262711 0.07888044733790683 0.015036993073232197
-0.0525561252030465 0.0799627397450991 0.014546555409743422
-0.05265099142956805 0.08013577568892533 0.013134533226086875
-0.05275622854546146 0.08025188744057493 0.011658530423219404
-0.05286134287890764 0.08037158068389272 0.010179820006390616
-0.05296687691944344 0.08049175184601681 0.008695205301899767
-0.053071735863242646 0.08061865636060889 0.007211146988321149
-0.053186789819226206 0.08069047710039651 0.005663150237051495
-0.053320751555311505 0.08065822515345583 0.003998853248018186
-0.052641112179769266 0.0759274794044601 0.03221493038944817
-0.05248933244386737 0.07751583039745291 0.03221102779671442
-0.05241717645816957 0.07863774398044249 0.03177202267085133
-0.05237947207223617 0.07955812714774407 0.031144414542157384
-0.05245755951677861 0.07980820263209254 0.02987452645144778
-0.05255022916388522 0.07997627701059612 0.02852087635091516
-0.052654858124387194 0.08007802664074692 0.027097425830369504
-0.05276070095430392 0.08017561091039127 0.025663831824407735
-0.05286843617271166 0.08026519296743728 0.024216222205083904
-0.052977415229024834 0.08035055415251874 0.022758162274707783
-0.05309168266791814 0.08040869120489935 0.021266728672608204
-0.05320873898928603 0.08045402984387451 0.019755837765456807
-0.053560563257706466 0.08060515633279414 0.015197001200401739
-0.05362452072937503 0.0809621433983313 0.01397555964001751
-0.05373044705935234 0.0810850000587568 0.012510807972666405
-0.0538378983600331 0.0812021445972691 0.011033884275307548
-0.05394120142800207 0.08134536681494825 0.009577510472098039
-0.05405047328581465 0.08145805404785406 0.008083240507351597
-0.05416522456079143 0.08154316989651328 0.006553633132375503
-0.05429198692905905 0.08156466717909183 0.00495035579592229
-0.054411437280379935 0.08163006177553289 0.0033857675540163723
-0.05359546940262242 0.07744393722045795 0.03214297606865746
-0.053488345219994585 0.07875638005824898 0.03188490495418206
-0.053420943305896945 0.0798405750912976 0.03141456300598189
-0.053403486635908284 0.08064020083814194 0.030674435075096818
-0.053499305948889825 0.08079946112971376 0.02931642679578572
-0.05360043460692979 0.08093131198219694 0.027926353341058363
-0.05370288927846606 0.08105836007573541 0.026525837102260363
-0.05381452765274208 0.08113657794995593 0.025071548584585213
-0.05392758201868888 0.08120980001600703 0.023605950354308902
-0.05404616018874773 0.08125514598645539 0.02210622844693877
-0.05416183515516954 0.0813197749848158 0.020618921204011542
-0.05427511663017318 0.08140074014683796 0.019141326251860213
-0.05465044743051927 0.08074874611385008 0.015342385705825357
-0.05459692902274785 0.08176096741713351 0.01478855377634597
-0.05470840463422731 0.08186352527192986 0.013307242393919783
-0.054815844722033 0.08199116964562159 0.011845234364055546
-0.05492018520620303 0.08213861422367857 0.010397419120747209
-0.05503213734141578 0.08224719522708546 0.008903119955622596
-0.05514525704431001 0.08235234747017595 0.007398672278852825
-0.055270255586975355 0.08239585603428468 0.0058228642392977314
-0.055400839410942836 0.0824123378356808 0.004211170810667797
-0.054745308644574324 0.07713073143076299 0.03184650541670475
-0.05457462624594198 0.07878602455800127 0.03191311177760908
-0.054493625367889695 0.0799381357758494 0.03150787537203231
-0.05442086210633249 0.08104245401126192 0.031061173674883535
-0.0544546403549033 0.0815550749313892 0.03004667521526566
-0.054552276166000904 0.0817158622244804 0.028688507867485613
-0.054648075345583406 0.08188928046952582 0.02733723154751949
-0.05476287537930236 0.08196070368155861 0.0258804866503225
-0.0548766423436011 0.0820407446476894 0.024425814593080408
-0.05499365164324277 0.0821059691944227 0.02295006075289663
-0.05511060486556049 0.0821745083525906 0.021471026725380926
-0.05523112846049144 0.08222660984717645 0.01996892366109032
-0.055776441190046176 0.08069086328142405 0.015283779536169273
-0.05560352451121097 0.08234296910759836 0.015380879459767072
-0.05567877746583575 0.08265182691406475 0.014113678139507035
-0.055792110809150836 0.08275767666056472 0.012633429286078746
-0.05590190076544617 0.0828854648020152 0.011169371535577288
-0.05601829981087221 0.0829806766149685 0.009665171584312848
-0.056129847966727035 0.08310480089616934 0.0081844733526511
-0.05623735294743061 0.08325334509751253 0.0067229803078434625
-0.056376242567235786 0.08323776337275585 0.005082102386086362
-0.0565143578571826 0.08322986030979068 0.0034413250603346213
-0.05569241436495286 0.07864230833542224 0.03177636592575722
-0.055563677474708986 0.08004621109899207 0.031611244502701086
-0.05548951183177169 0.08114999181841115 0.031164563904408693
-0.055442155178478 0.08210639541606202 0.030579488313981273
-0.05550305731535755 0.08247538785290964 0.029426352133408384
-0.055606107572579624 0.08261821615041592 0.028049037848081826
-0.055712744874909854 0.08274430877415567 0.02664965082880255
-0.05582762377023169 0.08282877313959724 0.025203334970089364
-0.05594438195607459 0.08290605175333915 0.02374356933227295
-0.056061770591506396 0.08298289940168851 0.022276932410525474
-0.05618517751158214 0.08303057243081191 0.020774568126257997
-0.05630855975333966 0.08308148767832219 0.019268628993682535
-0.056656037527949364 0.08265871401064673 0.015702225333452113
-0.05666367354749391 0.08333240234179595 0.014809909548307854
-0.05676529772968812 0.08351037123756327 0.013407420955898974
-0.05687541560732399 0.08364619338107182 0.01195566839184592
-0.05699150012132945 0.08375345980774246 0.010468055878342042
-0.05711142601607584 0.08384352929973465 0.00895594113223791
-0.057226419271302 0.08396239932981359 0.0074672826555192695
-0.05735368408329746 0.08402019267227206 0.0059076673291335036
-0.05749709018966218 0.08399724797952784 0.00425519772777172
-0.05682930639706445 0.07840171743074847 0.03154744384308544
-0.05665118349096331 0.08005678767206043 0.03162136059593129
-0.05655852708467128 0.08125144325961858 0.03126210251543443
-0.0564939741820852 0.08229420781626623 0.0307609960631689
-0.056464769978423576 0.08314764553203019 0.03007941960466559
-0.05655205126812468 0.08338316652991684 0.028796012526812853
-0.056661780348508946 0.08350218392191944 0.027393559237474774
-0.05677888823929726 0.08358500013232167 0.025949477914352426
-0.05689690867013902 0.08366591033115311 0.0244971844402751
-0.05701613618066848 0.08374340231360122 0.023035097193718657
-0.05714621184262172 0.08376703380988243 0.021512570182657953
-0.05726518849303824 0.08385186568848474 0.020044617582120505
-0.057387995453613 0.08391967563626396 0.01855294669316554
-0.057696523724437856 0.08302484925950077 0.016074855406771726
-0.05764280031575964 0.08401672845488717 0.015509977922365137
-0.05774036720265553 0.08422437407026073 0.014141626123753193
-0.057854171522174785 0.08435060614418033 0.01268375665053706
-0.057972567005510574 0.08445600665459424 0.011197968020831617
-0.05809189366997041 0.08455955001435606 0.009703694853553102
-0.0582075366666995 0.0846849237482667 0.008225724809404478
-0.058331727239056996 0.08476945230732141 0.0066982339545825775
-0.05847585783683473 0.08475534334314955 0.0050592152024574455
-0.05799064364361487 0.07804164467974978 0.0312048348197147
-0.05777635763988267 0.0798693200709164 0.03144205661187649
-0.05764073819360338 0.08127998759609967 0.03128954600527767
-0.057562504778734376 0.08238765241893659 0.030851303881700876
-0.057491762199251416 0.0834543876613012 0.030377405550372993
-0.05750489723343835 0.08408336941031758 0.029479761226505696
-0.057616787333137055 0.08420048953035603 0.02807899590961177
-0.05772551593088604 0.08433668204617506 0.026691136387031023
-0.05784476869254538 0.08442118497429957 0.025246253278156328
-0.057965675983543366 0.0845000597133167 0.023789428287552372
-0.05809248155344033 0.08455156268397357 0.022298740284497742
-0.05821720847199016 0.08461679607202105 0.020815118869656923
-0.05833967937280468 0.08469659122820894 0.019339572492061363
-0.058493974719110116 0.0846170055169349 0.017695254380603986
-0.058654585003280524 0.08450902352123651 0.01601359778850342
-0.058707821845931846 0.08495009552380528 0.0148878814825536
-0.058821607743574526 0.08508577252711097 0.013443632161301122
-0.058944536824053796 0.08517800939687359 0.011948093892932332
-0.059063159652266675 0.08529493514755221 0.010471671193320209
-0.05918105086100333 0.08541841732847522 0.008995681415900403
-0.05931050118866498 0.08548677189527198 0.007455099668974563
-0.05944387600398114 0.0855386265332479 0.005889946268291424
-0.0595921109697084 0.08551952970420118 0.004241850914650347
-0.05890101342757281 0.07969146519255149 0.031271946751913915
-0.05875067423827876 0.081165025695414 0.03117901820807495
-0.058627894748746336 0.08249373506985352 0.03095382549717035
-0.058553833686310994 0.08357036895473252 0.030490076128234456
-0.05850780371735402 0.08450221861644674 0.029888767864371557
-0.05856909632937006 0.08488666559212976 0.02875252656930055
-0.058672946957335374 0.08505644420042796 0.027401300743569834
-0.05879767387950612 0.08512292504828772 0.025942227426390907
-0.058917635036241305 0.08521646437332858 0.024503630401360055
-0.059044883191258724 0.08527611337918034 0.02302480674048668
-0.059174314713720866 0.08532780767413534 0.02153130869756331
-0.05929999226566148 0.08540142415891944 0.020053214719894408
-0.05943189324667176 0.08544687192855538 0.018539841555709202
-0.05961751332523164 0.0852271277323951 0.016748221287363307
-0.05968145624731525 0.08561814345689589 0.015574831486564855
-0.059797021020859896 0.08575405424858978 0.014134375008921007
-0.05991927277631804 0.0858595529545168 0.012656184637423129
-0.060039275154548155 0.08597909085926853 0.011186147704287275
-0.06015822520317496 0.08610667951221762 0.00971815811366561
-0.06028904579634382 0.08617865328194718 0.00818512476668326
-0.060404658036553524 0.0863284414700562 0.006727604744113269
-0.06054447652807648 0.08636237455924811 0.005140363406474779
-0.060085976611576 0.07921515095216392 0.030816374340038588
-0.059848187542961326 0.08111691101263518 0.03113275937142801
-0.05969965142313606 0.08256391759163623 0.031021652127983468
-0.05961922447782243 0.08366546602238539 0.030582458642386623
-0.05955657385227068 0.08467608476324612 0.030058548371807214
-0.05952839455101344 0.08551295921481183 0.02936727835918168
-0.05963890406071854 0.08565766054247143 0.027994500073380557
-0.059751756047647916 0.08579329251233603 0.026607086745037645
-0.05987144958653069 0.08589760963894039 0.025182681528056028
-0.0599997123009198 0.08596229828652346 0.023712427151975968
-0.06013108358481913 0.08601463068248727 0.022223133771456016
-0.060259857886230006 0.0860828307891372 0.020743137858306893
-0.06038964021574896 0.08614908544907801 0.01925451145610607
-0.060522116732521974 0.08620516061266759 0.0177487528247236
-0.060659309778353585 0.08624125625116813 0.01621557494150061
-0.060769912440148725 0.08641034374820145 0.014812722574265691
-0.06088878659780061 0.08654174078063703 0.01336494474509714
-0.06101091485639996 0.08666010949918806 0.0118973481129378
-0.061137889057508985 0.08675785018346543 0.01040169943097291
-0.06126554906914026 0.0868552434611819 0.008899015648078434
-0.061391076940241776 0.08696590285657457 0.007403680776599475
-0.06152798856347752 0.0870247316146966 0.005846467386668774
-0.06167421689697861 0.08704204879131067 0.004237529471379176
-0.06095895764232753 0.08100483469705033 0.031025005864143806
-0.06080806207137524 0.08245041435442574 0.03091195921412665
-0.06068499240048174 0.08375530694494598 0.030669735053567015
-0.06061853746433509 0.08477882940863707 0.03015887868288475
-0.060556124465602726 0.08578098632107684 0.02963036610351688
-0.06059451735026679 0.08628805902893705 0.028616492408861993
-0.06071134431204256 0.08641281784282939 0.027221521686666028
-0.0608295300181731 0.08653363597287245 0.02581675244431031
-0.060955768901380755 0.08661800776211026 0.024369508380691962
-0.0610861929136713 0.08668497494960892 0.02289836009291507
-0.06121686991372998 0.08675371186879305 0.021422403894435504
-0.06134949164423533 0.08681605919417112 0.01993331647648322
-0.06148547035167461 0.08686528152356426 0.018424059180986052
-0.061618794158882134 0.08693038286318783 0.016924200030730918
-0.06174428220321241 0.08703610752218732 0.015459518440398834
-0.06186824859173851 0.08715198993616269 0.01399896406876261
-0.061990671891690545 0.0872780799579636 0.012542706144495597
-0.06211499985039545 0.08739791555550708 0.01107358338971376
-0.0622439442917987 0.08749868703439057 0.009577932541653955
-0.06237358420601409 0.08759912464859426 0.008075260398585915
-0.06251238879015135 0.08765923645618562 0.0065228795920648786
-0.0626529355675755 0.08771432311347488 0.0049579021168567605
-0.08164960671945978 -0.0788620589283085 0.01610379612142049
-0.08171283173128215 -0.07829824306469435 0.014769226790575296
-0.08186863192587045 -0.07825460278988722 0.013084328600950268
-0.0822362967297162 -0.07939878010056145 0.010594533131622785
-0.06216723875218198 0.08042205396309399 0.03046470272818902
-0.061918234140646754 0.08233233979438603 0.030797848433917863
-0.061768499645317027 0.08375604911370094 0.03067045612836783
-0.061674576393827334 0.08490660705482994 0.030283653736816685
-0.06162116481510597 0.08585968262108062 0.02970761220709006
-0.061572564501892094 0.08678840588845704 0.02911016733087557
-0.06166602450419616 0.08703416348693416 0.027837761984455645
-0.06178612328754922 0.08715446698009582 0.02643567475267128
-0.06191223127729824 0.08724877136185172 0.025001591549673463
-0.062042409877732935 0.08732651933163033 0.023544576786126703
-0.06217593108619951 0.08739131007372763 0.022067971076732473
-0.06230691037954526 0.08747116975700997 0.020600047877977534
-0.06244298277869619 0.08752988195933459 0.019103948108167734
-0.0625801225788299 0.08758662401768708 0.0175990091898946
-0.0627082327354206 0.08768898552340632 0.016134339845625845
-0.06283702703480351 0.08779102206654804 0.01466288750443806
-0.06297160558423248 0.08786885213296725 0.013159660507029602
-0.06309924681348617 0.08798215508705526 0.011686866332176915
-0.06322885129990354 0.08808917917308956 0.010200978773435398
-0.06336285817893818 0.08817864088193589 0.008689881220416584
-0.06349646291212535 0.08827299172986475 0.007177171778634861
-0.06364087638706464 0.08832030380294259 0.005607238116532853
-0.06383663431261265 0.0881336909976394 0.003777961046103895
-0.082515826164562 -0.07937211659035237 0.022543806742855943
-0.0824100975882134 -0.07786633049964076 0.021838282590939395
-0.0823102536595994 -0.07639573330695226 0.02111408324214209
-0.0822386651862359 -0.07508474504595741 0.020289068089848983
-0.08218212367005857 -0.07385899526485412 0.0194106530051259
-0.08214376245893429 -0.07273536842484951 0.01846668671914886
-0.08214376254386542 -0.07182500650198653 0.017381759495996296
-0.08212619233422012 -0.0708175488540127 0.016362091586346106
-0.08218319011298394 -0.07022172661778675 0.015064943674954867
-0.08228940592399317 -0.06989553532319814 0.013582185193327656
-0.08251636440344061 -0.0702302149679006 0.011643376268677563
-0.06301830677665929 0.08226653647522014 0.030734254182237186
-0.06287024588326287 0.08366992193686162 0.030586787634283685
-0.06274710739705891 0.08495163543445178 0.030327624073594073
-0.06268657176838409 0.0859339278175994 0.02978048923624016
-0.06262212903882679 0.08693335191925128 0.02925318062686505
-0.06261887949470332 0.08764269307189276 0.028441291529032298
-0.0627416701913149 0.08775881422797449 0.02703816398190484
-0.062871338152893 0.08784536871868931 0.025599437004102776
-0.06300232636374582 0.08792861345544462 0.024151055913881447
-0.06313511987611461 0.08800632579444612 0.02269067353220372
-0.06326800048015292 0.08808657552005117 0.021226370171879116
-0.06340255202010298 0.08816199968941318 0.019750607100741835
-0.06354548419800526 0.08820152402502524 0.01823130748128865
-0.06368025967136115 0.08828196930600885 0.016747253980271215
-0.06381110860322213 0.08838353215463618 0.0152784767980782
-0.06394475529589043 0.08847510801940744 0.013792784794141533
-0.06407766672957073 0.08857302483443241 0.01230710908674093
-0.06420738985281971 0.08868850321786959 0.010833343816244734
-0.06434858533674498 0.08875439347769604 0.009300510420036157
-0.06448695678785958 0.08883629643818619 0.007777681281547322
-0.06461653162104992 0.08896129863450858 0.006294093362976039
-0.0647721143908645 0.0889711024991009 0.004679912547585041
-0.08356138816963464 -0.07820501555680659 0.02497144570479043
-0.08341753177470627 -0.07650217246602314 0.024398679657845757
-0.0832822410579381 -0.07484955660788944 0.023799041232162088
-0.08315033873245091 -0.07321848055847058 0.023190764153822152
-0.08303650355305563 -0.07168921509599907 0.022520883244302792
-0.08291604471223786 -0.07012623073243518 0.021877884888813592
-0.08281535254731372 -0.068673683606222 0.021166355136478243
-0.08272446062007202 -0.06727667673877896 0.02042178442370307
-0.08265363971365246 -0.06599068550147141 0.0196062900045062
-0.08259484719061944 -0.0647714501551846 0.018748560043900964
-0.08255516986645413 -0.0636569220314302 0.017822066383610835
-0.08252239873039487 -0.06258055036727034 0.01687111794944618
-0.08251473833102703 -0.06164021170393397 0.01582803124656712
-0.08257712023903682 -0.06107672698087818 0.014524855670059345
-0.0827127819836187 -0.060905183061876145 0.01294678978943481
-0.06413210118413833 0.08213858635788596 0.03061059936106275
-0.06396881642600223 0.08360157889849162 0.030520395611804862
-0.06385330268786396 0.08483793071048051 0.030216591422960515
-0.06375712291472446 0.08598168972833292 0.029827371038403605
-0.06368812824019186 0.08699699542861172 0.029315975555143425
-0.06364315747459194 0.08789939525059903 0.028695884544180816
-0.0637021357578656 0.08831992011673373 0.027597544800604445
-0.06383464452320617 0.08840236023364895 0.026157593766121867
-0.0639629439746008 0.08850706929094648 0.02473372460091766
-0.06409590363018844 0.08859316692854158 0.023284849266809016
-0.06423790032809774 0.08864074781854309 0.02179037280521734
-0.06437554341779778 0.08871132648990127 0.020312570650185602
-0.06451668400740963 0.08876895261424356 0.0188147911820718
-0.06465876921369132 0.08882535610907422 0.017308904174852313
-0.06479610633337042 0.08890640759663854 0.015821719077363183
-0.0649243790103853 0.08903149723526776 0.014373832398488107
-0.06506695369134553 0.08909477526983656 0.012854796517823508
-0.06520256855099148 0.0891925237712975 0.011365151260220197
-0.06534189671024287 0.08927653402522895 0.009854279994470638
-0.06548248695755671 0.08935792016520944 0.008333756891260424
-0.06562435175207675 0.08943666770262793 0.006803473063754617
-0.06576616141134746 0.08951875245075669 0.0052697703719184474
-0.08491464829417084 -0.07968229028375784 0.02735960526214337
-0.08476144415455943 -0.07793941171589913 0.026807922157574215
-0.08459568613660222 -0.07613167793303921 0.02630394202194719
-0.08443166288981509 -0.07433689284005351 0.025798121044761646
-0.08426529484315633 -0.07253294568905988 0.02530472746989254
-0.0841244101484741 -0.07087005838005062 0.024725713986482656
-0.08397457972997396 -0.06916201897205548 0.024181959647099294
-0.0837984862737415 -0.06731605061152163 0.023735319507088404
-0.08365168206053458 -0.06563094378371698 0.02318876432045497
-0.08350938153055529 -0.06397308901213511 0.022629845329403986
-0.08337896622690892 -0.062381773202180635 0.022031887501551828
-0.08324948636824661 -0.060798238763281 0.021433889262537753
-0.0831554756014404 -0.05940619186192958 0.020710944120239716
-0.08306194010493366 -0.058018682846003866 0.019988674923910432
-0.08298463606451192 -0.0567191896138437 0.01920968814133356
-0.08291560497016598 -0.0554651030338843 0.018402444179983823
-0.08286606797651763 -0.05431537850464041 0.017525478388437765
-0.08281475875735647 -0.053157381176683005 0.01665629886398634
-0.08279932613309879 -0.05218905849533584 0.01565595456029667
-0.08281371245636428 -0.05137748197649222 0.014545516632945288
-0.08295890048807678 -0.05125031719163731 0.012948383765893912
-0.06526422464052935 0.08193034142232836 0.03040934516793531
-0.06506401278153978 0.08355104439417321 0.03047130376009971
-0.06494119216233653 0.08481207655560324 0.030191344914924145
-0.06483454483490608 0.08599638254635544 0.029841793176112408
-0.06476054785201066 0.08702917248761388 0.029347723632223655
-0.06469757552652247 0.08801010598431763 0.028805685689169247
-0.06468129304560674 0.0887772909626896 0.028053509517751485
-0.06480120948914599 0.08892599641371102 0.026682325417975716
-0.06492993306370137 0.08903739494130292 0.025267912581790397
-0.06507031189978131 0.0890989045566476 0.023796907840831272
-0.06520643285017616 0.08918260927841426 0.022341846222597495
-0.06534524194632435 0.08925714576851157 0.020870945990754397
-0.06549167804993845 0.08930045024799532 0.01936132728462653
-0.06563449905568775 0.08936306683626177 0.017864687519635325
-0.06577464349860185 0.08944069024381257 0.01637681288822246
-0.06590909015874592 0.08954668713916808 0.014911854802328373
-0.06605074378719589 0.08962355121289706 0.013409858703344713
-0.0661958491160894 0.08968815484381198 0.011888106708600132
-0.06633168931954779 0.08979682491162133 0.010406087863254254
-0.06647837021266813 0.08986059935989471 0.008869636735232833
-0.06661926726715257 0.08995296071642916 0.0073567046349342635
-0.06676586380283056 0.09002332904639038 0.0058132351459651566
-0.0863206653278071 -0.08054243962193824 0.02847505646058035
-0.08605337812321485 -0.07820024837576961 0.02830139636315543
-0.08585987392208562 -0.07625836953508425 0.02788222257091677
-0.08566255709151355 -0.07430021449685698 0.027480990213999967
-0.08549602943221879 -0.07251026616805745 0.026978687729141804
-0.08530665917299415 -0.07060236011538956 0.02655951571881565
-0.08512002891188357 -0.06871298632677253 0.026135595664139588
-0.0849694153346395 -0.06701830823851856 0.0255909786421335
-0.08477859250505884 -0.06511425962979717 0.025190629367159545
-0.08461709258392999 -0.06336892349966944 0.02469225489948046
-0.08444095445317362 -0.06154992242016011 0.024249447995099038
-0.08427061049842052 -0.05976507810104026 0.023790602770598468
-0.08411528574817356 -0.058062581717540585 0.023282806717447313
-0.08396952652178265 -0.05641341784980686 0.022744890752577462
-0.08381240931532756 -0.0547080060847665 0.022251174542081253
-0.08364826471025327 -0.052969277344674326 0.021786574921759838
-0.08350725787656775 -0.05135436289433942 0.02124293367098662
-0.08335759958439667 -0.049697509343141155 0.020734038650210784
-0.08321912925679058 -0.04810177010307076 0.020188408468781727
-0.08307878737216179 -0.046499273081592074 0.01965305360576214
-0.08296809398278154 -0.04505270562649727 0.019013168401886937
-0.08284739253171464 -0.04355693975399577 0.018412663887097225
-0.08270393744369382 -0.041946799470478635 0.01789868901922337
-0.08257069818923954 -0.040392068305947604 0.01735070028837865
-0.08245140447224832 -0.03891150956813311 0.016754532403616018
-0.08231567176718796 -0.03734951387369739 0.016222305530470937
-0.08222856018580386 -0.03603816609477822 0.015512622465446158
-0.08218038529959623 -0.03492667658862847 0.014659798078163866
-0.08209052535678446 -0.033604641748901876 0.013964294505927954
-0.08219001593905656 -0.03324350004094884 0.012559550889595705
-0.06646481295678477 0.08141824421584626 0.029914438832390755
-0.06618159352189222 0.08340082672742877 0.030325374306661212
-0.06602812521204417 0.08479138998462538 0.030171144556215557
-0.06591707678214961 0.08598756687957526 0.02983314006544463
-0.06582931961268489 0.08707669402648571 0.029394611573394014
-0.0657623973441047 0.08807052477451244 0.028865608126832476
-0.0657186142942128 0.08895940692039578 0.028235065639410195
-0.06577294656758645 0.0894093756711592 0.027166715934782093
-0.06590631875454377 0.08950848507259351 0.02574243364513501
-0.06604170574425969 0.08960145359724792 0.024305737975163666
-0.0661834019326137 0.08966931034258213 0.02283718077605168
-0.06632620264495218 0.08973526925360509 0.021360068271160826
-0.06647592102648807 0.08977372141840317 0.019847989444617298
-0.06662065432750643 0.08983726731323005 0.01835482602714056
-0.06676601923878132 0.08990109051988865 0.016855146504912155
-0.06690210992273767 0.0900085959911946 0.015394234822243058
-0.06704533365643009 0.0900878038412487 0.013897190035751128
-0.06718815563541296 0.09017178124670422 0.012398395666362916
-0.0673349896529482 0.09024132377446464 0.010877512568557623
-0.06747904969132187 0.09032599321270951 0.009365768645115291
-0.067624242224555 0.09040879835371146 0.00784515551777848
-0.06777092256197861 0.09048824130070138 0.00631397861963251
-0.06794940949696056 0.0904338170683085 0.004630843290045761
-0.08748386219205585 -0.07921150928226695 0.02931604903959978
-0.08726038498303836 -0.07712605822917223 0.028984010496284907
-0.0870500737356223 -0.07511453230976484 0.028613212464904947
-0.08684689895510443 -0.07314485183325081 0.028223520782785172
-0.08664383897502151 -0.07117998601242431 0.027838460826278333
-0.08643786471514411 -0.06920408370364756 0.02746832850364206
-0.08623424001919015 -0.06724472040715385 0.027095267488108588
-0.08602965986252556 -0.06528460031348698 0.026730510852094935
-0.08584155076756933 -0.06341438338774741 0.02631419046603589
-0.08564261795804821 -0.06149188816553525 0.02593985864148446
-0.08544756982593883 -0.05959364035914405 0.025556993125262772
-0.08526897299132563 -0.05778448360627303 0.025121786456444417
-0.08507882759322188 -0.05591944829775325 0.024731261976239594
-0.08490629125767847 -0.054149022446360384 0.024283817328227375
-0.08470477759158192 -0.052233274075150105 0.023942393799103234
-0.08451634627281362 -0.050388792151833506 0.023559847946803603
-0.084311428526344 -0.04846384367361056 0.023240260013126957
-0.08410750206150841 -0.04654820705868429 0.022922218073479605
-0.08391131733527353 -0.04467625877141884 0.02258164668050855
-0.08371061290118145 -0.04278538815815458 0.02226207397472446
-0.0834871871608976 -0.04078333907474263 0.02202893404066164
-0.08326904615939339 -0.03881269486205319 0.021782300109622565
-0.08305891781227887 -0.036887082296908014 0.021512127234774248
-0.0828612516665354 -0.03502870099378358 0.021201998478428907
-0.08267335425778069 -0.033223602218507675 0.020861243140723462
-0.08249811406035695 -0.03148599515906836 0.020478963309214337
-0.08231335882373154 -0.029704312445307857 0.02013583788412804
-0.08215134778337521 -0.028040266335659425 0.019713755630558494
-0.08202249545444146 -0.026545152813249318 0.01917350013309166
-0.08189305637859601 -0.025049787304986526 0.01863859790178729
-0.08178130462448088 -0.023645058086795623 0.0180412864071946
-0.08168241704506991 -0.02230648135571045 0.017398860203757638
-0.08159580988254841 -0.021030766299406256 0.016713022226282293
-0.08153244733873541 -0.019871710774262696 0.01594224119505666
-0.08149835096476589 -0.018858284990684704 0.015063022080552768
-0.08150865056254253 -0.018064029176457608 0.014017224195348954
-0.08156559015852462 -0.017498581603033803 0.012794711770154621
-0.06728374678986125 0.08332417251689045 0.03025090836330896
-0.06712784922222323 0.08471452927157497 0.0300960901083
-0.06700729672125141 0.08594495080587156 0.029791309453510995
-0.06690948025859618 0.0870723079596521 0.02939028408702571
-0.06683238881790497 0.08810618204419907 0.02890097250315199
-0.0667795017288589 0.08903190023984309 0.028307336166251806
-0.06676880274604222 0.08977123001986642 0.027529327328723485
-0.06688783733668853 0.08994188809770864 0.026178993135830053
-0.06701939920538012 0.09006025383260813 0.024770272519201608
-0.06716363386807198 0.09012608227030194 0.023302055291946233
-0.06731233756286509 0.09017545859637549 0.021810383776272646
-0.06746102916915853 0.09022797077346906 0.020315091579404254
-0.06760818547480457 0.09029021368043277 0.01882299607153387
-0.0677531041999688 0.09036517303911046 0.01733730579300563
-0.06789558222445917 0.09045365451969256 0.015859017738709902
-0.06804105334443324 0.09053222378323583 0.014363702772800913
-0.06818938056845232 0.09060156139197184 0.012851869807581795
-0.06834145929166388 0.09065792568173409 0.011319350446010734
-0.0684879836026311 0.09074114750332435 0.009808342810838033
-0.06863148578405946 0.09084027351251311 0.008307500895595454
-0.06877646367585175 0.09093610786820394 0.006796362683088475
-0.06895100198322503 0.09090971490007238 0.00514606129930717
-0.08897074901081452 -0.0805137144637103 0.030148644191938967
-0.08874013297774799 -0.07840679468836859 0.02982453473729596
-0.08851298636752099 -0.07632258569812406 0.029494592098514183
-0.08829861146864981 -0.07430916133419962 0.02912789939522381
-0.08807907142989374 -0.07227341200591397 0.028783579328067133
-0.08786062038508859 -0.0702477606929226 0.0284409672064439
-0.0876385064267777 -0.06820770760450673 0.02811592533152224
-0.08742334323288835 -0.06620790390741155 0.027772940109863198
-0.08720066929331094 -0.06417397302109729 0.02746050441309905
-0.0869717064802741 -0.06211239857514411 0.027174758713077396
-0.08675269149088491 -0.060106309362036425 0.026860807388244035
-0.08654293904206721 -0.05815190748696275 0.026520622488325485
-0.08632147319950713 -0.05614219336680559 0.026225591402951554
-0.08611595361522925 -0.05421796312434085 0.02588122546376359
-0.08589880941902865 -0.05223902315430645 0.025581889516841594
-0.08568942602318318 -0.050303760116326424 0.02526101383306506
-0.08544523825687558 -0.048197121290879996 0.02506593325897266
-0.08521641858316843 -0.04617286725780961 0.02482330694753787
-0.08499118298828999 -0.04417129727640967 0.024573728366087455
-0.0847702675947157 -0.042195994125421854 0.024314487014738595
-0.08453232145679267 -0.04013994436075263 0.024120509811973723
-0.08427325405914048 -0.037983234202869365 0.024006852795746103
-0.08404578409053574 -0.035989340114816415 0.02378760944691649
-0.0838060130010354 -0.033938885824677745 0.023617605783263218
-0.08358384685617719 -0.031980734817800005 0.023390665806503563
-0.08336916775549139 -0.03006421495027245 0.023142343908573726
-0.08315985951563447 -0.028178633147209697 0.02287996331075498
-0.0829515996311869 -0.026302495596584596 0.022618896889985696
-0.08276951047874222 -0.02455948032640909 0.02226831517219252
-0.08258301550708953 -0.022798530141227347 0.021938137680590997
-0.08242277253287612 -0.02117012258012846 0.021516983484757835
-0.08224569830507542 -0.019462617980585795 0.021161167650919077
-0.08209410512554022 -0.01788316314712679 0.02071633126760153
-0.08194404553268042 -0.01631427532625379 0.020269545904979258
-0.08181349665904133 -0.014843331846265184 0.019754475454635156
-0.08168893868261061 -0.013404125443776727 0.019220419031050484
-0.08157273618260782 -0.012007923634779538 0.018658382589092526
-0.08148290640063584 -0.010741538501289671 0.018000976052052642
-0.0814132557414044 -0.009574295612747807 0.017270373891703106
-0.08136560532478211 -0.008514340658200614 0.01645901497395219
-0.08134324335695733 -0.007576789752372581 0.015553733532814917
-0.08133074528243621 -0.006686959599590536 0.014611788996047925
-0.08135334097916859 -0.005965183881128822 0.01353734687245034
-0.08157660482291836 -0.006200386003537062 0.011700548673205968
-0.06840872896093467 0.08314988032278386 0.030081591615376935
-0.06823287589401264 0.08461691824379414 0.030000772963518385
-0.06809260724484507 0.08592510806704323 0.029771832488063033
-0.06798396346839464 0.08709277462758341 0.029410477928855705
-0.06790480183275698 0.0881301912353104 0.02892478451021724
-0.06783702394508216 0.08911667207913299 0.02839184746159573
-0.06780493949363638 0.0899474912600623 0.02770595737808501
-0.06787616815686408 0.09033215709546116 0.026572104464104296
-0.06800243902192382 0.09048148939133815 0.025196772892553843
-0.06815566562722991 0.09051771201546316 0.023700632094293683
-0.06830212609673755 0.09058603066634624 0.022230400695959884
-0.0684498982579814 0.09065173534337262 0.02075084638212399
-0.06859625976645689 0.09072646639419091 0.01927391138660761
-0.06874822768049622 0.09078035180668886 0.017768656458973575
-0.06889880084056697 0.09084325300359058 0.016265882709109836
-0.06904120201554828 0.09094379834826838 0.014795737346129934
-0.06919393237364649 0.09100365733693372 0.013276133510839394
-0.06934541816648893 0.09107187266828803 0.011758372579314613
-0.06949441037360606 0.09115365199351344 0.010248092163986033
-0.0696426345311099 0.09124168953382811 0.008737636538968807
-0.06979874838047398 0.09129977690546515 0.007188060053141154
-0.069958586288908 0.09134552328896894 0.00561787755823967
-0.0902881353643006 -0.0800272799367065 0.03045427685233032
-0.09003608165945895 -0.0778303200978474 0.03018879941472441
-0.08980532816582697 -0.07574723522002685 0.029860209310362595
-0.08957575444579555 -0.07367480053203002 0.029533299188741313
-0.08933593335179721 -0.07155483455161804 0.02924539601682996
-0.08911158995815881 -0.06951828721965209 0.02891243309387781
-0.08888243705345858 -0.06746187018155786 0.028600684017700384
-0.08867301475365486 -0.0655098589463246 0.02822918862211804
-0.08845953952351747 -0.06354159428503697 0.027876154601412073
-0.08818753057446006 -0.06128271400013913 0.027723152389168115
-0.08796697367372225 -0.059288005793785625 0.027404706940349854
-0.08771833908313745 -0.057156831336273306 0.027185714233904645
-0.08748916903273736 -0.05512813071803957 0.026907156324208426
-0.08723995802460537 -0.05300386853912886 0.026701781824648718
-0.08699243336701021 -0.05089302375727395 0.026496656572086552
-0.08673608438104914 -0.048743224200357094 0.026327476162584962
-0.08647776483870638 -0.04658878447152626 0.026171159664087618
-0.08623427443774836 -0.044513054106689987 0.025970224983261736
-0.08596175029006467 -0.04229856178753755 0.025874931296832215
-0.08570013524790716 -0.04014341013100703 0.025748527682067313
-0.08544950718001076 -0.038047654152422006 0.025590352850156317
-0.08518269141188779 -0.03587732692475182 0.025494409065058676
-0.08491573158266229 -0.033711652264245495 0.025405354705927585
-0.08466915112081 -0.03165114955255105 0.025251411312541605
-0.08443725510725353 -0.029667370646186908 0.025051834056530664
-0.08420054034005729 -0.02766474645139566 0.02487477777341185
-0.08398254968726557 -0.02575801577195691 0.02463722555537662
-0.08377145672716035 -0.023889168761466684 0.024380435878761486
-0.08357266081276483 -0.022084170183128693 0.024084952911314295
-0.08338599456255902 -0.020341839841433063 0.023750932548179282
-0.08317466976743357 -0.018484225621821726 0.02350969360981664
-0.08298312546398989 -0.016726143430800533 0.023202434357258328
-0.08279589341190824 -0.014992638599621688 0.022884213210297988
-0.0826314750978426 -0.013372335416680425 0.02248794919578584
-0.082465276400328 -0.011746812059910294 0.022102082733955142
-0.08229562725558917 -0.010108144190729917 0.02173275891973686
-0.08215225091113348 -0.008598126767541292 0.0212715153132379
-0.08199975355273272 -0.007047601014994687 0.020847134461980776
-0.0819017611460869 -0.005758869255882482 0.020225979436628072
-0.08180400266847948 -0.004473213977673807 0.01960630724231044
-0.08171698354712266 -0.003240285552268518 0.01894922759085199
-0.08164659552515174 -0.0020875505186033205 0.018232478257332763
-0.08159251505585721 -0.0010129849173751149 0.017456667278425986
-0.08154825581126075 1.4366973399904115e-05 0.016645448694039
-0.08152923438490113 0.0009225487312843339 0.015740673004531303
-0.08152685739793492 0.0017525087317759591 0.014773753411885082
-0.08158108900518773 0.0023182528154634396 0.013593309858950964
-0.08174971408358729 0.0023524096262516614 0.011978599062981377
-0.0695362308098392 0.08297016222586151 0.029907003852840952
-0.06933604696069555 0.08453034594850661 0.029916235148829462
-0.06917703590700147 0.0859096729721669 0.02975668193837322
-0.06907058004898754 0.08706061120841652 0.029378743495958315
-0.06898214517377818 0.08813237361002035 0.028926949046354955
-0.06890582043894208 0.08915071190570945 0.028425782723830006
-0.06885017097357138 0.09007954817864405 0.02783829063623422
-0.06886661900635994 0.09070123119832174 0.02694386653990355
-0.06900461607720361 0.09080852086032726 0.02552789178705772
-0.0691431673041206 0.09091624136651077 0.024106230891570657
-0.06929034502703167 0.09099038762364686 0.022644059530970595
-0.0694409097040835 0.09105324957254651 0.02116372128533306
-0.06959455502558107 0.09110621408846459 0.01966642254186146
-0.06974818585160898 0.09116232555215392 0.01816550872006878
-0.06989725441659225 0.09124056789655371 0.016680806067309817
-0.07005327906222099 0.09129283672870309 0.01516212697942726
-0.07019960232450598 0.09138854260583468 0.013682237708594891
-0.07035060879256662 0.09146777904720355 0.012178261285918368
-0.07050759951086248 0.09152530829885186 0.010644295424421746
-0.0706569000769955 0.09161770692959387 0.009140556398620658
-0.07081185499482051 0.09168984157150495 0.007608187381367426
-0.07096713083309596 0.09176377171057798 0.006070682993678411
-0.09160600995014588 -0.07955827805143434 0.03074895637699676
-0.09135935163129763 -0.07740927668757697 0.030454849742951595
-0.09110875652970811 -0.07524535214091332 0.03017914030055685
-0.09086767254486403 -0.0731341297828581 0.029878824663414905
-0.09062005300170059 -0.07099493167658938 0.029605235450330503
-0.09037464213372526 -0.06887167490127638 0.029330345009847325
-0.09013541994920682 -0.06678415553422395 0.0290411661618451
-0.08990315261710642 -0.0647360058433144 0.028734986014036956
-0.08964830143337475 -0.06258019548196964 0.02850806320997884
-0.08940868159639903 -0.06050498335216409 0.028237206266756743
-0.08916306029131384 -0.05840479846494484 0.027991745887467445
-0.08892101213304983 -0.056327126050553455 0.02774027495707826
-0.08867639792908566 -0.0542415876982828 0.027503013625628403
-0.08842183695469465 -0.05211193811320325 0.027304600763899456
-0.0881624379762056 -0.04996356271203839 0.02712833618380328
-0.08788823401392766 -0.04774775346269611 0.027007775844354986
-0.0876127571513018 -0.0455311411167873 0.02689795730550537
-0.08732987027597706 -0.043283804740310294 0.026819626798171237
-0.08704853749125385 -0.04104963435093306 0.026742703654674904
-0.08677378371736219 -0.0388530139218502 0.026650064821227837
-0.08648390003782626 -0.03658841888227532 0.02661547204493897
-0.0861933306318994 -0.03432623689985903 0.026590057367855635
-0.08591822167531964 -0.03214450853206524 0.026518430582156638
-0.08566268854671895 -0.030062620406317464 0.02638587239114676
-0.08540661606155567 -0.02798319067399857 0.02626120108227087
-0.0851604963505899 -0.025956623270510848 0.026108055268414865
-0.08492696433813783 -0.023995250961072523 0.02591691565965798
-0.08470734072237858 -0.0221050167708019 0.025682726682687618
-0.08448407455685394 -0.020201741219446845 0.025466473345700624
-0.08425373272848137 -0.018269180817707398 0.025280350265561413
-0.08404627756939999 -0.016449956590098513 0.02501895052181574
-0.08384355434963818 -0.014657279567992454 0.024745698473303213
-0.08364082137117493 -0.012868565836346268 0.024477259377246485
-0.08345794728113728 -0.011177662014724199 0.024142867687537373
-0.08326073396175974 -0.009422787874473315 0.02386402728278325
