# .PCD v0.7 - Point Cloud Data file format
VERSION 0.7
FIELDS x y z
SIZE 4 4 4
TYPE F F F
COUNT 1 1 1
WIDTH 781
HEIGHT 1
VIEWPOINT 0 0 0 1 0 0 0
POINTS 781
DATA ascii
0.09023466813101083 0.03753182679330176 0.01087045724223884
-0.0829351717261197 0.048919984760073 0.041708860038631446
-0.08163241934048937 0.048877454043467376 0.04088223632846694
-0.08170473782961124 0.04897968364295582 0.039223515066403924
-0.0821162600554261 0.04911812931725491 0.037350886565419295
-0.0827551656460585 0.04928117112689152 0.03532942357323221
-0.06711293796030676 0.04771888286949128 0.043353678625426384
-0.06529085499755072 0.04761843263028238 0.04289674090408907
-0.06384301759349387 0.04755741863035059 0.0422126937445651
-0.06263143114347003 0.04752135778980263 0.04138428620543416
-0.06163293878135828 0.04750792286765778 0.04042364354923167
-0.06081973144048819 0.04751427029258043 0.03934615975266342
-0.06013989105371004 0.04753494808026208 0.03818301853283679
-0.05974724155280675 0.04758657328830922 0.036833911664580166
-0.05454728603587594 0.04712071647477105 0.03858832871937079
-0.051796714821398526 0.046917303829664296 0.0387822768552355
-0.04954287031824761 0.04676678702650377 0.03866534751599976
-0.047562029660701166 0.046645245851377665 0.03837920063300898
-0.04574538816967427 0.04654104327050392 0.03799279469085437
-0.04495316746429623 0.04654784338022257 0.0369325951352264
-0.04450693296004854 0.04659237648846438 0.03564067973692703
-0.04408329025126351 0.04663955522204967 0.03433053130405517
-0.04368875239057496 0.04669010817918818 0.03299747570316025
-0.04333115054417186 0.04674491434290835 0.031635842822267835
-0.04300008828365098 0.04680285730451828 0.030252298115728216
-0.042678640513617916 0.04686209293704014 0.028858147543887047
-0.042360293756066536 0.046921910625924254 0.02745775777895082
-0.04204505109854828 0.04698231425699629 0.02605106617526043
-0.04172246248524464 0.04704215002080867 0.02464531265172687
-0.04142519883544166 0.04710504025340588 0.023217605007318787
-0.04114676465557632 0.04717028132953827 0.02177221205031904
-0.04087148628144349 0.04723614110439476 0.020320019769705766
-0.04063999542817026 0.04730716042113062 0.01883194572181901
-0.04043273501315753 0.047381182808029276 0.017321490446722987
-0.040245841472659694 0.04745779362485618 0.01579112682029854
-0.04009648510289687 0.04753893804037776 0.0142281164682323
-0.03999008800339787 0.04762525462909906 0.012628021680504142
-0.039949289041853075 0.04771932964087031 0.01097367897231244
0.061542141437355646 0.03928049290518429 0.03405929079169995
0.06425410371410345 0.03903672630785549 0.03498803315458571
0.06652149235582344 0.038846426497418554 0.03553399925039519
0.068454356595612 0.03869641819651811 0.035790919889939654
0.07019413309520278 0.03856953694290665 0.03588320925325328
0.07170966156272457 0.03846979076150465 0.035779591708838765
0.07299410683756269 0.038398211380221606 0.03547060302385263
0.07408562508283295 0.0383502548777379 0.03498832842943517
0.07513354745092021 0.03830750341064416 0.03446916716922005
0.0761284520464669 0.03827116769831637 0.033903682642701716
0.07710234845796354 0.03823729100620864 0.0333212628788121
0.07806766548888244 0.03820433324209927 0.032733382888900764
0.07901158932305735 0.03817390976457698 0.03212774181701067
0.07994947515009221 0.0381441055748435 0.03151872624069174
0.08086631675170725 0.038116818004194905 0.030891835252554456
0.0817810971668701 0.03808966432273331 0.030265115401502563
0.08269233254152764 0.038062833524205655 0.029637109233904002
0.08357398158728391 0.03803963595649874 0.028982348836245897
0.08444639160348871 0.038017506296873727 0.028320371483304463
0.08527857792448823 0.03800040656359199 0.027620477505602647
0.08610927847267685 0.03798341655234936 0.026920481410997177
0.08684437698247416 0.037978605478338444 0.02612654305325829
0.08754847224316897 0.03797775659268291 0.025301924269680975
0.08818663671060606 0.03798539794083116 0.024410963088635496
0.08870220891099939 0.038008907276191536 0.02339525875285603
0.08915117812478157 0.038041150045432987 0.022309862045126194
0.08955487753181363 0.03807942055685862 0.02117553120281146
0.0899053221915126 0.03812480058264463 0.019983318066249145
0.09019959146304685 0.038177721981053056 0.01872933214176936
0.0904756627663243 0.038233275737748464 0.017452103272628083
0.09068592906074302 0.03829771764607845 0.01610159023702351
0.09080013743984444 0.03837508487604507 0.014644938560553766
0.09084207169047237 0.038462340295422816 0.013105643157523827
0.0906638283370525 0.03857907286434696 0.011325614126367234
0.08947201374963232 0.03883044651027307 0.008455389424655957
-0.08397946108481968 0.05043046908737299 0.04108203872216604
-0.08334667231066967 0.05045942870696666 0.039847343373885014
-0.08348434610987149 0.05057202305653726 0.038142982509324685
-0.08384830508523966 0.05070963233071973 0.036293190482907856
-0.08439860145101663 0.050868054949443235 0.034320082022254506
-0.06757132439130387 0.04913226151296027 0.043070541827393616
-0.06576461001030803 0.0490307178108549 0.04260243901145566
-0.06432438584010797 0.048968895101443526 0.04191195670547432
-0.06311251776064908 0.048931876253783105 0.041082013715932786
-0.062079588272462016 0.048914376551419406 0.040141413189134945
-0.061229698294109736 0.048916962677050285 0.03908563865774417
-0.060491450794177504 0.048931876257844946 0.03795834789246849
-0.06003539899973931 0.04897804418891713 0.03664871809698367
-0.05517110494965888 0.04853611944344323 0.038185148399632884
-0.052151868757148556 0.048297214509690684 0.038551443758485404
-0.04972683200352429 0.04812343822222086 0.03854510848808179
-0.04759092689475963 0.04798118704359156 0.038360207045443184
-0.04559928251993717 0.04785447504842861 0.038089365630241345
-0.04426642522834179 0.047800955627310536 0.037389050207657704
-0.04373586929688833 0.047837155392458565 0.03615604543844325
-0.04329663719004856 0.04788375776493523 0.034859251276323944
-0.04289937959460799 0.0479352714474401 0.033530980211114114
-0.042538918249709734 0.04799114214766237 0.03217425917282518
-0.042210089844482934 0.04805081278921811 0.030792179108150852
-0.04188304207912624 0.0481109263202477 0.029404871648407716
-0.04156687814978882 0.048172518251822644 0.028006001889129162
-0.04125510806405064 0.04823485975856057 0.026599929768791497
-0.0409425299905386 0.048297362830425856 0.025190213652101612
-0.04063435111077307 0.048360622857856625 0.023773179077161477
-0.040350129054341266 0.0484268815521297 0.022334934095447456
-0.04008730335701555 0.04849586384911526 0.02087699178507446
-0.039843312739952175 0.04856729233480325 0.019400903248155243
-0.03964565564146744 0.04864434685228377 0.017886672301411777
-0.039468309718700356 0.04872406110868153 0.016352510535367015
-0.03932576458228193 0.0488081260424951 0.014787625908199209
-0.03921553954666551 0.04889628137104124 0.013193381285515948
-0.03917197319683535 0.04899253726055532 0.011544153550060776
-0.039258709842015405 0.04910434495699578 0.009792142179116337
0.059057271426448676 0.04071508480070527 0.031838347725922034
0.06321483176754944 0.04028296813595526 0.03405427132913713
0.0657315901716049 0.04005604482533614 0.03482056867669747
0.06789295831630754 0.0398730634383135 0.035281214371461145
0.06974611694509703 0.03972833921018225 0.03547431577667276
0.07143688000678322 0.03960359914141817 0.03552932781453738
0.07287105717879205 0.03951097875619685 0.03535712056009449
0.07406005533703314 0.03944924126962287 0.03496462351489632
0.0751258343794956 0.03940299058717352 0.03446197927785655
0.0761438126033604 0.03936265936564639 0.033918072014698264
0.07712835458744138 0.03932644162519354 0.0333457518149079
0.07808442593137649 0.03929372590050069 0.03274924779913918
0.07903131988680318 0.03926204459325498 0.032146515445933166
0.07997668817012266 0.03923041433215548 0.03154475423836156
0.0809009580914321 0.03920137510245696 0.030925140502561066
0.08181560902926277 0.03917345200295728 0.030298468728736816
0.08272073664652235 0.03914664035685065 0.029664702519002772
0.0836037745583153 0.03912258989120959 0.029011441698828633
0.08448275968313029 0.039098957727112846 0.028356069344469215
0.08532740293790542 0.039079722988667354 0.027668651455601267
0.08616384344925299 0.03906147720902152 0.02697459805094382
0.08692085765136531 0.03905362124666959 0.026202788590447668
0.087644570863046 0.0390501307226792 0.02539822393294966
0.08831840589583778 0.039053233381959276 0.024543691942048695
0.08887986828863298 0.039071277349640304 0.023575138600325563
0.08934331956869829 0.0391024569947526 0.022505411844537693
0.08973600010867966 0.03914323060914009 0.02136082033721598
0.09011052794179447 0.03918662754243893 0.020194330015400386
0.09043042460110051 0.039237558525780245 0.018967923652171592
0.0907416628279562 0.03928989790966918 0.017728464463876104
0.09094633896890969 0.03935684825087507 0.016373541149926507
0.09109244466875471 0.03943203285545617 0.014951776819869145
0.09115333524972391 0.03951911914084839 0.013434066821397861
0.09106525484480993 0.039626847117598216 0.01175135732414101
0.09072858643936582 0.03976892092648782 0.00979495545300918
-0.08529481169269282 0.051977302832115435 0.04029251636155612
-0.08486721801840669 0.05203016698709824 0.03892939131696577
-0.08496194800505963 0.05214143157029364 0.03724582049234454
-0.08532049320355695 0.052282578244722086 0.03539417944181983
-0.08573723077808387 0.05243078227405912 0.03349794209011353
-0.08624333743646367 0.05258957878489944 0.03153718562631258
-0.0662828318844545 0.05045087149178046 0.04228051380906539
-0.06485704461736264 0.050389069454397035 0.04157917567007363
-0.06364054907996375 0.05035061802814323 0.04075024530724197
-0.06261453346903212 0.05033352992337827 0.03980339024616253
-0.061738722467268026 0.05033337320684746 0.038762169738830066
-0.06168955018700889 0.05042695045051432 0.037192680704711434
-0.06300064620599422 0.050675445686505616 0.03474300746976389
-0.055924210463287605 0.04997007923187739 0.037698408874632106
-0.052542405590112196 0.04968335098808991 0.03829761346836741
-0.04999710244767863 0.049491090423125106 0.03836845727165489
-0.04773284231823599 0.04933025000853073 0.038266928809288225
-0.0456410168301149 0.049188554980412455 0.0380617806494703
-0.043760585933714735 0.04907059959986275 0.03772526501982332
-0.04296758190678446 0.049077452375844384 0.0366695555267596
-0.04251287655404884 0.0491233855302233 0.035386027211182836
-0.04211421518648828 0.049175985958715585 0.03406164044333515
-0.04176773648036208 0.04923484639336019 0.03269836918042146
-0.041426898686433455 0.049294599467346656 0.03132740803861517
-0.04109559135947877 0.04935570323232311 0.029945996757368587
-0.04077641676163485 0.04941846934251264 0.02855220465719921
-0.040479762579841094 0.049484121671216116 0.027138650777910833
-0.04018102196903123 0.04954979679350591 0.025722242366803483
-0.03989057333027285 0.04961671245709109 0.02429568630033674
-0.039604534761215726 0.04968441990252349 0.02286160192803388
-0.03932811321820806 0.04975353737870178 0.021416212480256103
-0.039092552284804016 0.049827761651710746 0.019937065032199497
-0.038894057662690884 0.04990667539260916 0.01842637586232848
-0.03873536081328083 0.04999063132879827 0.01688170510187126
-0.03859963739711175 0.05007766238069033 0.015314762534060833
-0.03848436871000832 0.050167487848551046 0.013727078631131429
-0.03845254653036051 0.050267637883888806 0.012072143075050779
-0.03847838168711737 0.05037509463726874 0.010367947392942611
0.061557524696584875 0.041616492762926414 0.03256521922776573
0.06480774902095943 0.04128858186500078 0.03398616596800941
0.06716832402348116 0.04107488282742874 0.03462330338108549
0.06920235423665028 0.04090277734668318 0.03497803673798383
0.07100242340746449 0.04076045400455632 0.035130734881539394
0.07261686097505954 0.040641788192407005 0.035122688284818515
0.0739600602502462 0.04055817586577973 0.03487192118593496
0.07509883558575331 0.04050106924663844 0.03443681882157623
0.07614458059092905 0.04045596532573011 0.033918791445568586
0.07712835458753714 0.040418842781436266 0.03334575181499805
0.07809204370536821 0.04038420940719992 0.03275645854555226
0.07904270173945788 0.040351146082061654 0.032157345277302574
0.07998651389313605 0.040318840753096406 0.03155415208892759
0.08091978157525082 0.04028779192554143 0.030943237979146998
0.08184411286477511 0.040257793404528765 0.030326015713667942
0.08274091524592497 0.040231343527901905 0.02968430510272485
0.08362462611093663 0.040206528314658166 0.029031803258419586
0.08451095740106568 0.04018124431953371 0.0283837474135325
0.08536438092517534 0.04016028174386184 0.027705136355145876
0.08620364847935513 0.04014113509192127 0.027014076020463185
0.08699582918144166 0.04012828118595529 0.026277529628509377
0.08771788652743218 0.04012489470627706 0.025471692977580507
0.08839814221674647 0.04012718549954318 0.024624008978471
0.08901132961027902 0.0401386433859671 0.0237082429869378
0.08950166544654897 0.04016696743460399 0.022666566585649972
0.08991617026855764 0.04020582833975902 0.0215451351451596
0.09030305750770845 0.04024867229856075 0.020392307113590635
0.0906375719331316 0.040298939899172034 0.019182033269368737
0.09093938741842428 0.040353966467018124 0.017933890744703085
0.09118512725418215 0.04041702383278683 0.016622912199697804
0.09136225390700087 0.04048991063413498 0.015234998679688583
0.0914463727864579 0.0405760929465129 0.01374325965366574
0.09139367630918976 0.04068177853061559 0.01209967314723831
0.09118828390354383 0.0408093302266198 0.010285014732002107
-0.08659639373414074 0.05353045834785356 0.03951125840665004
-0.08618256717083339 0.05358661018730087 0.03813531623333416
-0.08623636780918148 0.05369648921522545 0.03647202543586231
-0.08649733374835311 0.05383054599247434 0.03467552628180037
-0.08682374799294024 0.053972641996322374 0.03283064071606623
-0.08721933023144063 0.054123252305705666 0.030934332975827983
-0.06694424830256213 0.05189068391025415 0.04186963456045345
-0.06544415634585987 0.05181877497367135 0.041212374901461124
-0.06422422390910149 0.051779019272090554 0.040383515414198434
-0.06376359172938517 0.05182718643851285 0.03907731950601634
-0.06395710803836796 0.05195157346203115 0.037352455190371725
-0.06424976087614642 0.05208799570416161 0.03555653154200733
-0.06429068291880136 0.05219558278928231 0.0339139242594621
-0.05700555102296079 0.05144704980183855 0.03699952780039417
-0.053098656959755686 0.05109130878479849 0.037936076643623695
-0.050395172817871925 0.05087541377017231 0.038108274863111524
-0.04803538155067377 0.05069908333159073 0.03806807568058529
-0.04582631092360184 0.050539812299846665 0.037939307461725136
-0.043820186721195975 0.05040387000623713 0.03768565032839705
-0.04237480076448086 0.05033373108979058 0.03706576025516911
-0.04176806925665483 0.05036274093910736 0.03588662208971233
-0.04134611432642654 0.05041381834088071 0.03458076812736455
-0.04099805557858477 0.05047389778164091 0.03322145916946312
-0.04066464139041309 0.05053596641203253 0.03184833087219724
-0.040334276849188 0.05059865049785701 0.030469161429208635
-0.0400314918083477 0.05066489147350852 0.029066942097366988
-0.03973566367501763 0.05073223622536871 0.02765566122171287
-0.039442925959029373 0.050800226554404804 0.026237914244757687
-0.039166218486747006 0.05087042555653939 0.02480454882326627
-0.03888874521204688 0.05094081883808147 0.023367216488022646
-0.03862734464183293 0.05101344480546438 0.021913938806770283
-0.038380757541886024 0.05108816453314418 0.020445399130804787
-0.038189261766540916 0.05116988398894999 0.018932472027582747
-0.03802574720066365 0.05125534622358385 0.01739405141324135
-0.03791375276363684 0.051347445776876374 0.01581268482481707
-0.0378222175501276 0.05144242705321257 0.014210397027746069
-0.03779827111717382 0.05154608083978327 0.012552317887466025
-0.03783052607004084 0.05165706342390551 0.010846000939745748
-0.03797450032996519 0.051782249208723194 0.00904953738906561
0.06351594834543933 0.0425766317119952 0.0328194264457593
0.06631291138123024 0.042299262539869605 0.033846655927032454
0.06854670420515424 0.042096023819699735 0.03437964085262296
0.07048941929867175 0.04193091501395584 0.03466007840472585
0.0722293082201757 0.041792329127267755 0.0347652680213259
0.07376531055566354 0.041680590480139036 0.03469137481278378
0.07501935451512065 0.04160642940472554 0.03436274958641511
0.07610694468366364 0.041554465467424695 0.0338835351020762
0.07712223589616207 0.04151207427304564 0.03333999008708688
0.07808594951680675 0.041476503439296805 0.03275068997741698
0.07904497800779792 0.041441407272707356 0.03215951114634186
0.0799940717080751 0.04140750640858895 0.03156138079009352
0.08092731031210415 0.041375620013494534 0.030950476338434674
0.08184336283307797 0.04134594483955042 0.030325290859925025
0.08274614629209459 0.04131795734533818 0.02968938682412925
0.08364100743645919 0.041290931914605804 0.02904779963729187
0.08453024750762828 0.04126455716503383 0.0284026820274223
0.085388781364925 0.041242313656662866 0.02772921142409468
0.0862228100573682 0.04122336922531486 0.027033080156141642
0.08703036211083331 0.04120802164756334 0.02631195639007361
0.08777211669209439 0.04120178356811106 0.025526036594613277
0.08847052589662224 0.04120157907402667 0.024696919824954977
0.08911349609287683 0.04120914675189907 0.023811686393928055
0.0896518266659233 0.04123145688629951 0.02281939148240031
0.09009393491280548 0.04126742905252926 0.021726989100808503
0.09046840150222102 0.0413131251225139 0.02056232943759778
0.09081749342775658 0.04136263190104871 0.01936800198044014
0.09113247581543704 0.041417216248042565 0.018134500244893548
0.09139074144120846 0.04148013034574332 0.01683763892135476
0.091632294040347 0.04154573081839283 0.015518462912749553
0.09170302893738841 0.04163606217269246 0.014014065377429497
0.09168181291942012 0.04174000505755279 0.012405263833116242
0.0915576475901071 0.04185923822993161 0.010678773923706641
-0.08777432328277462 0.05507695676824305 0.03880422127730748
-0.08733330159427172 0.05513166488796415 0.037440618911452894
-0.08732860160511019 0.05523782625356678 0.03580884905624321
-0.08752868228999178 0.05536849539691982 0.034045719727456625
-0.08776191323135318 0.055503580638461926 0.0322544520058311
-0.08808396850811812 0.055649684303482085 0.03040026194632023
-0.06764005870855838 0.053338581555495736 0.04143738938333785
-0.06609737477580857 0.05325989037167113 0.040804273665278445
-0.0652251637442115 0.053260556272064274 0.039754612915155974
-0.065001319409697 0.05333841459548249 0.03829522003904301
-0.06495657642410074 0.05343794348744577 0.036717324335552304
-0.06483849336734815 0.053529098774375485 0.03518029134559569
-0.06471437095653826 0.05361989064950401 0.03364162763797368
-0.0645940596246442 0.0537114989545961 0.03209499980875813
-0.053910780653517676 0.05253346041201842 0.03740823502818641
-0.05141891028106127 0.052337571156965995 0.037439150761362006
-0.04915054255817114 0.05216788161391791 0.03733510213014174
-0.04637399387955787 0.05193605035163876 0.03757730737727888
-0.04406005373309235 0.05175935782724823 0.037526218581583226
-0.042154382307126204 0.05163153633335188 0.03721308416411345
-0.04109778471158371 0.05160651664423422 0.03633712923645227
-0.040628295413092375 0.05165297873384669 0.035065912317935766
-0.040251710410876385 0.051710977962197306 0.03372868974345339
-0.039923108092183524 0.05177508505803293 0.03235509102907075
-0.0396039760554201 0.05184061301799177 0.030971013909296297
-0.03929818651995204 0.05190804641761218 0.029573650438045662
-0.03901992221518502 0.05197914362001343 0.02815296851164012
-0.03873702957348585 0.052049958860781884 0.026731089807071617
-0.03846883628221426 0.052122880537127644 0.025294462946456653
-0.038212793860471383 0.05219760575861351 0.023844690412582636
-0.037956016241599944 0.052272545545193234 0.02239075501942217
-0.03772823008227344 0.05235139992262483 0.020911407009196137
-0.03754504850959567 0.0524361396613362 0.01939506532690094
-0.03739626120048373 0.052525525478253336 0.017848544991883097
-0.03728979491224632 0.05262057851688512 0.016265650976173607
-0.03721674551563747 0.05272021688200818 0.014652344109674531
-0.037196826453983256 0.05282694730932431 0.012993720043966206
-0.03721729689039849 0.052939208961045585 0.011298503590960018
-0.03733208505785812 0.05306384404594786 0.009526155677564596
0.06523121789016734 0.043560672362079174 0.03286456324520204
0.06777056244525265 0.043310443157150914 0.033671275088463515
0.06989868250408404 0.04311570194426269 0.03411810594544268
0.07174978236311735 0.042958306004943395 0.034323025627170545
0.07342643616031697 0.04282432236216158 0.034377214920699006
0.07485949655689356 0.04272349805472472 0.03421377629496286
0.0760293394978439 0.042658787810667606 0.033810836573281544
0.07710158350525237 0.042607373660685795 0.03332054255331823
0.07808137871555454 0.04256862843908392 0.03274636340002446
0.0790343551311421 0.04253345695654647 0.032149403480539906
0.0799933159436702 0.04249728361954036 0.03156065793632179
0.08091601706638857 0.04246603957218884 0.03093961866448408
0.08183436216002271 0.04243526415147034 0.030316592332145675
0.08274764084332925 0.04240506095037672 0.029690838712098266
0.08364324111480026 0.042377219207941755 0.029049980826169053
0.08453692427144754 0.04234951925534176 0.02840923574678822
0.08539765326038051 0.04232637599263792 0.02773796501611958
0.08623975862192201 0.04230577874540295 0.027049889461727816
0.08705386928278142 0.04228908447565387 0.026335391291715637
0.0878211997984239 0.04227901129451323 0.02557522238539528
0.08851876192724012 0.042278906391987635 0.02474550715609658
0.08919371995985387 0.04228205373151557 0.023892912936244348
0.0897727186254696 0.04229905746017251 0.022942427918256347
0.09023002668795943 0.04233373702263218 0.021866211541512304
0.09062701427430958 0.04237732461217576 0.020725430082451646
0.0909891954856884 0.04242617756273051 0.01954547499703796
0.09130203708896684 0.042482450224812916 0.018310666202355164
0.0915720536852212 0.04254524516622325 0.017026986671702993
0.09179699161455596 0.042614939355341865 0.015691347850190607
0.09192787097136662 0.04269876737999632 0.014251303057193743
0.09194379338436148 0.04279990487585836 0.012683113947004998
0.09186009285251556 0.042916217820440916 0.011001194904417755
-0.08888324710304035 0.0566222422159159 0.03813860395286767
-0.088310830003963 0.056662814033671675 0.036850485902095
-0.08824523914673005 0.05676459059193784 0.03525229022374743
-0.08834966411641926 0.05688728018862061 0.033544376375131135
-0.08854684076255936 0.05702166202975321 0.03177237660662019
-0.088803589189415 0.057163784515530766 0.029955765596248685
-0.08909567912001076 0.05731075161346122 0.028108918919325487
-0.06671589655800608 0.05470075816830987 0.04041784932030018
-0.06584811193226853 0.05470212789842392 0.039363207099840425
-0.06554050324551447 0.05477190347709903 0.037954518770661194
-0.06534044643399078 0.05485511189845216 0.03647338696744612
-0.06518768628013227 0.05494444607640085 0.0349571332694662
-0.06503301681489199 0.05503389839483352 0.03343683972103262
-0.06487360469246184 0.05512312085114647 0.03191432707291497
-0.05516581205338822 0.05403523664251597 0.03659252455622192
-0.053300525783852415 0.053912052634165236 0.036209309783167554
-0.051296681421094004 0.05377122416763846 0.0359244869709624
-0.04897053166229409 0.05358985137854597 0.035861082896680496
-0.04551016080581749 0.053266769817508296 0.03656237990345973
-0.04238124918808733 0.05298367797760771 0.037061450239648464
-0.04063971185235443 0.05287259361700295 0.036645006090137544
-0.03995258153526182 0.05289291619753322 0.035522599452014136
-0.03952974958518202 0.052946437627643124 0.034219348248203774
-0.03921106115482992 0.05301325070788228 0.03284170035401418
-0.038904382346295396 0.05308184484950045 0.031451764910765845
-0.03860588488328642 0.05315174827229446 0.03005202556927028
-0.038325847469484364 0.05322426734501572 0.028635221462128768
-0.03805660213482792 0.05329844744812805 0.027206471451667436
-0.0378007423119307 0.05337462767331382 0.025763801953865906
-0.03757502316538597 0.05345494973890249 0.024295194544339982
-0.03734991136160659 0.05353567791356564 0.022821245720021033
-0.03713443071556127 0.05361796626292871 0.021335473734657717
-0.036942805027931624 0.05370364329453607 0.019827521188639785
-0.036821637498135995 0.05379870166594483 0.018263427583041225
-0.0367220452864368 0.053896922688471634 0.016677812410417825
-0.036670066218355724 0.05400167625912776 0.015051377106116315
-0.036641271613362225 0.05410985324015004 0.01340144351332645
-0.0366826738224042 0.054227549138880116 0.011693002684771636
-0.036767334798159246 0.05435133562531494 0.009945153036273358
-0.0369833027829074 0.05449267441644493 0.008091646229236638
0.063131969626669 0.044972741869382354 0.030958610797525876
0.06681654710266 0.04455539418189867 0.03280056841851037
0.06918318261537437 0.04432228006078254 0.033461669376985026
0.07121838713744755 0.04413501863805528 0.03383294674324011
0.0729939949521553 0.04398373238350997 0.03397631215213742
0.07459114955017249 0.043857129769688113 0.0339637009325226
0.07591401181967689 0.04376903937505255 0.03370280059033165
0.07703884433025177 0.04370883252935886 0.033261463571626515
0.07805242712469901 0.043664276897959896 0.03271895873034786
0.07902373151200137 0.04362558296922155 0.03213929510826369
0.07996686181045742 0.043590762658182146 0.0315353557788674
0.08090472297629125 0.04355654066046845 0.030928760178718928
0.0818246108237709 0.04352475697087223 0.03030716834032282
0.08274091524630112 0.04349334435443406 0.02968430510309028
0.08364324111493288 0.043463814572228705 0.02904998082629856
0.08453840795628548 0.04343518845950891 0.02841069208915986
0.08540134972746949 0.04341112851622246 0.027741612192192955
0.08625375815014008 0.04338849552729964 0.027063773961924442
0.08707002829776878 0.04337105191187612 0.026351500627525948
0.08784317201966702 0.04335986093237903 0.02559724057368651
0.08856406017314405 0.04335631115623381 0.02479113530678967
0.08924547756700285 0.043358570039453266 0.02394531743412881
0.08985641067542827 0.04337126718458751 0.02302760456337849
0.09034273422125738 0.04340250364970176 0.021981511807481313
0.09075421664700506 0.04344501431813101 0.02085623158563693
0.09113454781961122 0.04349237022034494 0.019695712667346266
0.091448152783006 0.043549919771164146 0.018462473337349683
0.09174151127686825 0.04361077756399908 0.01720395438798994
0.09196077559768406 0.04368304909966717 0.01586327378056912
0.09213342868997093 0.043762682495881805 0.014468193268318774
0.09213814436778167 0.04386802839529116 0.012889237876473503
0.09206454788886831 0.0439857250319558 0.01121915366101145
0.09167439630529278 0.04415196688816195 0.00920130480222442
-0.08978244211207126 0.058148386730858474 0.03759887366200121
-0.08918963778353511 0.058187674297440095 0.036319950447100124
-0.08902412323678799 0.05827986808052526 0.03477937175801882
-0.08910115983373534 0.05840242342562881 0.03308546562942449
-0.08923252345018451 0.05853218845134565 0.03135125396506755
-0.08942016956722176 0.05866944810562868 0.029574915330846496
-0.08964438708004852 0.058811793683371506 0.02776805542069516
-0.06735024029819697 0.0561473599473664 0.04002154013386622
-0.06634743690901829 0.056132053211579935 0.039049475230354236
-0.06594433521236653 0.05619174385442275 0.03769934408963427
-0.06570101062852046 0.05627170590264514 0.036244259715040805
-0.0655091992445917 0.05635845567850369 0.0347516645672884
-0.06531114470222976 0.056444761902253275 0.0332580919695778
-0.0651308684167003 0.05653365219768253 0.03174805498929634
-0.05662574658346625 0.05557065045265845 0.035643636835412607
-0.054985452480148134 0.05547324828776391 0.035108026394885306
-0.05331717662094987 0.05537190764247551 0.03459645493761859
-0.051532971941623484 0.055255422143587016 0.03416739572343924
-0.049476688927273305 0.055103806344778676 0.03392595857069641
-0.04579388124942452 0.054743936669407044 0.03478050561686674
-0.04078587964612712 0.05421310609472617 0.03654676477426355
-0.039397727649140124 0.054144120123116195 0.03589760230366296
-0.038876599590621286 0.054186211810669314 0.034663241584661
-0.03852566271794672 0.0542503758087421 0.03331009822667219
-0.03822881618932 0.05432177438395224 0.03191600451482285
-0.03793374371568459 0.05439369147088112 0.030516469970704396
-0.03766347092157435 0.05446911151538584 0.029095450056444816
-0.037425733586529786 0.054549059535546944 0.02764722870361669
-0.03719883103776489 0.05463074202684856 0.026186647320731726
-0.03697894478138042 0.05471367218015727 0.024716248344577363
-0.036773799775843774 0.05479886604762618 0.02323043345033743
-0.03657572849836305 0.054885334608871995 0.021734475540717613
-0.036416933263800466 0.05497730658832586 0.020205136445334726
-0.03629756646408672 0.05507483599900993 0.018641810771324152
-0.03621393005249002 0.05517747052697853 0.017046681880452663
-0.03617914013635737 0.05528697167611426 0.015409714629606441
-0.03617532462741557 0.05540102015887586 0.013743403492355255
-0.03621177022761163 0.0555208741756889 0.012040483092070953
-0.03629395966724003 0.05564729757447149 0.010296357707944181
-0.03646795180202622 0.05578645664325558 0.008476071130836371
0.0653547157954773 0.045880409916811006 0.03146639043133953
0.06835242400174979 0.04555059502726417 0.03269948849876331
0.07058479631366188 0.04533031930973988 0.03324861803874707
0.07248442817217471 0.04515742528573659 0.03350390866929254
0.07420210756661832 0.045010260542025185 0.033601148667712244
0.07569850148731788 0.044894747739267875 0.033500916090770716
0.0769416243124868 0.04481578812844478 0.033169915353953194
0.07799603193136967 0.044764160104776705 0.03266557680559462
0.07897743421795356 0.044723032577677256 0.03209524323880025
0.07993057434459888 0.044685881715096666 0.03150064849258488
0.08087384815415238 0.04465001670803323 0.030899076174624063
0.08180210532990423 0.044616209370502966 0.03028541833758569
0.0827237262403882 0.044583229895525385 0.029667606772310007
0.08362239215546469 0.044553512457953255 0.029029621798923877
0.08451095740160564 0.044525162624267624 0.02838374741406252
0.08538286647461574 0.044499170105025784 0.027723375406650652
0.08624270600104472 0.04447486417141754 0.02705281262352094
0.08708398239084081 0.0444532321488666 0.026365411820219342
0.08786074744182526 0.04444121119889871 0.025614852764556773
0.08860861420471006 0.04443349475087691 0.024836013823070213
0.08929721694326198 0.04443470715956194 0.023997703473265186
0.0899291475501211 0.04444451907288291 0.023101631701751446
0.09043937540765845 0.04447287668665007 0.022080376135087065
0.09086533721922802 0.044514208894460304 0.02097049626147257
0.09125362880895588 0.044561492368750934 0.019818796005152517
0.09160500955685846 0.04461465370442959 0.018625439934467136
0.09190060731492844 0.044676631519037904 0.01737010134105449
0.09210547998701252 0.044752864882446175 0.016015171641947212
0.09226302849888035 0.0448367645111892 0.014604937974900423
0.09229285488858113 0.044940814022618174 0.013053320094716547
0.09226432829164705 0.04505441117017172 0.01143212903671359
0.09196337802681076 0.04521087782654859 0.009510961929553863
-0.09074978583695714 0.05968851157047488 0.03701823797701986
-0.08993628149635557 0.05970113404249708 0.03586920231866053
-0.08972547506006556 0.059790030660615154 0.03435352889842758
-0.08971766427862082 0.05990499543491627 0.032708989080038
-0.08978250697190893 0.06002963143770449 0.031013473067782293
-0.08990963357210335 0.060162676021153466 0.029272582491733035
-0.09011816781085147 0.06030661591000388 0.027473737551725275
-0.06799062295104152 0.05759859065125793 0.03962145810881329
-0.06680412946999209 0.05755956584329574 0.0387625298188361
-0.06631080426419428 0.05760925941172231 0.03746777841112858
-0.06605086063958604 0.05768912920278786 0.03602194099064843
-0.06582693429148229 0.057773949659268464 0.034548610211981856
-0.06562356743078068 0.05786175650830223 0.0330573035453518
-0.06542383001669844 0.05795037968639552 0.03155871101631241
-0.05787449868354766 0.05708772176768633 0.034832007608423365
-0.0564812289057412 0.057020313436924916 0.034130373341069165
-0.05518508889587265 0.05696526338145983 0.03336871268079428
-0.05399852165371777 0.05692426627613662 0.032537749968941654
-0.05316250635936243 0.05692885784482287 0.03147611643947157
-0.05285918750357438 0.057003132075782094 0.030058176335814757
-0.05324850250583296 0.0571684662457169 0.028170470397930747
-0.03924456862935671 0.0554445982880126 0.03600111616670171
-0.03834127389020886 0.05543739570790786 0.03502705925782379
-0.03790612137176841 0.0554918802503885 0.033733489692070295
-0.0376050765195407 0.055564300538124625 0.03234462968253321
-0.03732236177319748 0.05563944053076756 0.03093893021270855
-0.03707204393055058 0.055719182539621 0.029506381895107126
-0.03685547997767136 0.05580373499656352 0.02804563723774417
-0.03663825776518548 0.05588854445594823 0.026580452556275003
-0.03643188939408104 0.05597514875481422 0.02510267361337326
-0.03626202824722641 0.056066989301407216 0.023593923155128205
-0.03610315300709099 0.05616067858259694 0.022071969233623978
-0.035966866108050055 0.056257785857698445 0.020528318323771333
-0.03585326232898406 0.05635834499356188 0.018962601664704537
-0.03576244465495665 0.0564623912429567 0.017374440562322957
-0.03574358111118786 0.05657658899290446 0.015727638545520006
-0.035758279366326695 0.05669580367112433 0.014049474339548895
-0.03582880353947954 0.0568230869708879 0.012323074735553385
-0.035908746290852556 0.056952180341216595 0.010582153746943213
-0.036050322397303824 0.05709020831727008 0.008787600843152166
-0.036502670301393036 0.057271237914103434 0.006751766610939514
0.0671758189255175 0.04683606092999999 0.03162001020553162
0.06980169303087075 0.04655232539109085 0.032526401571053465
0.07191898094945781 0.046343056953915523 0.03297970016930635
0.07372103913406508 0.04617989720645592 0.03315283599935309
0.07537235272054338 0.04603854842004852 0.033195388370396706
0.07674086486346143 0.045938967928352864 0.03298086817867091
0.07789614603706546 0.04587098518693332 0.032571027944621356
0.07891517628733169 0.04582321935107095 0.032036004825644004
0.07988444648239795 0.04578274793735118 0.03145652932137438
0.080831667468024 0.04574542679308636 0.030858522364981822
0.08176383827066774 0.04571021589574469 0.030248435872412216
0.08268186651767234 0.04567699194485678 0.02962694197180782
0.08358664432524199 0.045645632853816225 0.028994714011070066
0.08447904906132025 0.0456160176475081 0.02835242710480429
0.08535402801550179 0.045588932428984076 0.027694921497677383
0.08622207311993568 0.045562784378765514 0.02703234927380277
0.0870619490112231 0.045540847706627155 0.02634344617988954
0.08787612421946644 0.04552277149446396 0.025630261711229452
0.08861591685816039 0.04551610951285971 0.02484336966136902
0.08933145692903838 0.045513174344003184 0.024032371406367548
0.08996404843127098 0.04552311029533304 0.023137151682079582
0.09051490000297513 0.04554582118874954 0.022157638103940502
0.09096331463657853 0.04558462896599886 0.02107124590313486
0.09135230522703475 0.04563291971764633 0.019920788967813907
0.0917261674473302 0.0456838148582077 0.018751317119361233
0.09206170546660397 0.04574097972892119 0.017538339138623626
0.09225875319309118 0.045820244464524686 0.01617606428879753
0.09238524153220379 0.04591103851260194 0.014733888669526352
0.09240732222230646 0.04601880556045504 0.013174721366827624
0.09236959648363519 0.04613658955698314 0.011544349917372299
0.09211682704148672 0.04628916519872113 0.009675389564722303
-0.09155094528440189 0.06121300447131027 0.036537352276746926
-0.09058034780982127 0.0612058252496205 0.035480380072653805
-0.09029608781775322 0.0612874884523958 0.03400706745013843
-0.09022285407261138 0.061396846071246215 0.03240048828656489
-0.09024852155026486 0.061519484647837686 0.030727262997466864
-0.09032709740337408 0.061649491598071995 0.029014722824675765
-0.09046050134908279 0.061787160556295434 0.027261076143401675
-0.0687393313748143 0.059067879387113775 0.03915369905721089
-0.06733528343916995 0.0589996161493523 0.03842879941179761
-0.06671319865448838 0.05903372803674485 0.03721351211073948
-0.06640691263069298 0.05910950832253807 0.03579568110219167
-0.06618191700212556 0.05919629965201153 0.03432175206032362
-0.06596617722288917 0.05928465574841558 0.032837114442590465
-0.06576113880872869 0.05937477713986488 0.031340705015506065
-0.05896489199392074 0.05859149994117858 0.03412330403182512
-0.05766847363596411 0.05853563814492575 0.03335437940489694
-0.056607162951631707 0.0585108448574852 0.032434011177930044
-0.05566283236634478 0.058501552789651204 0.031437696348569244
-0.05506387939968205 0.058538373990372594 0.030212336052305167
-0.05489562382499852 0.05863300884355496 0.028697057295290485
-0.05509659961408142 0.0587775589642819 0.026928339781526645
-0.05557919114372445 0.05896054722817286 0.024961218678893837
-0.038070306124881326 0.05672083455439576 0.035211214178477945
-0.037386147199251485 0.05674293406476243 0.03408883744767882
-0.03705176645512909 0.056812428284523486 0.03272485661156305
-0.036780117618498254 0.05689070535890612 0.03131361677261524
-0.03653952558428086 0.056973517517806764 0.02987638317417496
-0.036319882282861204 0.057059517038512635 0.028419833365846803
-0.03611869868136752 0.05714838403945035 0.026945445140456048
-0.035947522113168595 0.057241713743441745 0.025444817683366816
-0.035797514393583474 0.05733832356195576 0.02392384772906475
-0.035686681231829276 0.05744070379331504 0.022369395994046914
-0.03556775894296971 0.057542392804496134 0.020814907117599535
-0.035453550858637106 0.05764514998786674 0.019251196322139674
-0.03540581497498474 0.057757506690127296 0.017633338135670862
-0.03537206926275682 0.05787226314761552 0.015998813047335247
-0.03540276357966582 0.05799642695572647 0.01431038850922417
-0.03548667357311469 0.058128497712464706 0.012575532906135278
-0.03558135170108501 0.05826261678313455 0.01082505309229509
-0.035738947495611184 0.0584060704553613 0.009019870248634099
-0.036000486124013686 0.05856465111389258 0.007128402809715162
0.06415888916640294 0.048409229828479845 0.02885212295690842
0.06879888425074343 0.04781330492897384 0.03160156185850066
0.07121341317469287 0.04755406945869115 0.03232559027188564
0.07320020508221908 0.047359032655848954 0.032667465337395174
0.0749007991681831 0.04720695054619945 0.03275364921157142
0.0764584369800711 0.047076122678294946 0.03271491709225832
0.07774046821326402 0.04698711248580475 0.03242366818955528
0.07882782037099478 0.04692772468132497 0.03195288568223664
0.07981258004152558 0.0468839257449266 0.03138779238760264
0.0807849536831276 0.04684184349576656 0.03081361029468993
0.08171955640339951 0.04680543327309804 0.030205640511421883
0.08262802972336641 0.0467729220382028 0.0295746419956473
0.0835344967682064 0.04674057222229361 0.028943791875467695
0.08442931781751628 0.04670989293170319 0.02830361234597284
0.08531408861431017 0.04668064570066722 0.02765551467356575
0.08618595867375006 0.0466532886290229 0.026996531564280446
0.08703550462449566 0.046629319614907454 0.02631708309362335
0.08785415690416931 0.04661011587446194 0.025608248439147774
0.08860788391978824 0.046601097892166585 0.024835278219520918
0.08934019777396007 0.046595434534350055 0.024041221498449505
0.08999312615023408 0.046602369450365014 0.02316674520440709
0.09057079213564934 0.04662133542189242 0.02221481598348718
0.09104817525745879 0.04665641684841004 0.02115850761482435
0.09144874042808654 0.04670397090458806 0.020020465385458708
0.09182041225977122 0.04675639245522731 0.018849232918610848
0.09219291937408897 0.046808931816266844 0.017675368263887437
0.09236979345011564 0.046893287650541626 0.016292624523405297
0.09248119400829719 0.046988640268070744 0.014835131050202621
0.09247071436015375 0.04710421427279568 0.013241953527532713
0.09244630649937752 0.04722261334372138 0.011626126428959993
0.09219605787944946 0.047378380713576286 0.009760289030164515
-0.09251623102404927 0.06276396600124888 0.03595795187105444
-0.09116738672828772 0.06270684657731995 0.03512598521299526
-0.09081546062126516 0.06278159369666472 0.03369171758933981
-0.09065629137588282 0.06288221978162892 0.03213580409545358
-0.09062385779878923 0.06300009415207951 0.0304967444277236
-0.0906488449246185 0.06312607995455195 0.028815985347342643
-0.09073316607373899 0.06326048014360897 0.02709169377833992
-0.06958317954316878 0.060554450144284025 0.038626501010023295
-0.06795135057562862 0.060454285792435516 0.038041717043700796
-0.06715170991858704 0.060465504456400365 0.03693642416048293
-0.06679610623484822 0.06053652570502069 0.03554836075667006
-0.06655163843385303 0.06062281289137372 0.03408547486113794
-0.06632066289570893 0.060711263663498966 0.032609292926574995
-0.06612168401649482 0.06080439595435166 0.031107681089915906
-0.05998036111139238 0.06009183799762416 0.03346329760237354
-0.05871034514598078 0.060038539100977964 0.032673402725479084
-0.05769423749938268 0.060019606996728044 0.03171949830893184
-0.05686686417949066 0.060026353706176386 0.03064187165967802
-0.05629722383686342 0.06006836732732014 0.029392572398735883
-0.056046669723820663 0.06015426526784924 0.027927717997556556
-0.05614356789777214 0.060288205617120484 0.026224658490228647
-0.056430127279052944 0.06044877308240612 0.024386106049603784
-0.03855014408695345 0.05810606064076664 0.03488510704272535
-0.037082893459785105 0.05802065485350382 0.034296079540449775
-0.03656200081649502 0.0580658693364326 0.03306141670092305
-0.036279849238530504 0.05814437309411715 0.03165929839351567
-0.036045163672295766 0.05822979100766242 0.030219872823007143
-0.03584155269664835 0.05831988303251075 0.028754019044486157
-0.03567165888096474 0.058415046432918324 0.027259492603127267
-0.03551522219895903 0.05851247988392533 0.025750182760518436
-0.03539398137716698 0.05861524266539642 0.02421046018952505
-0.03529531283423981 0.05872159552080338 0.022648894969827027
-0.035214203636955876 0.05883085544244873 0.021068786269785755
-0.03512125389856252 0.05893889636403707 0.0194911172012584
-0.035063918714630216 0.05905241351612996 0.017881539889797127
-0.03506040539253941 0.059174017869496005 0.01622630322052071
-0.035118785259519614 0.059304904449040685 0.014518801104070167
-0.035200698809902176 0.05943967925039339 0.012786554075430445
-0.03533873469122695 0.05958300782127894 0.01100505457890355
-0.03549564189831711 0.05972962731069417 0.009201363510058624
-0.03574593071865151 0.059890214449946085 0.0073193183832677144
0.0671104960475819 0.049188127891036035 0.03004444699130604
0.07034836973229647 0.04879497422193719 0.031523635452508025
0.07257021795543905 0.04855894412165302 0.03208037379131368
0.07441614836429378 0.04838076624252253 0.03229964088661558
0.07608772900864902 0.04822916623657768 0.032365836163852746
0.0775127707590324 0.048115696859691165 0.032208136906644036
0.0786970726004777 0.04803970650294647 0.03182847919503434
0.07972629531999759 0.04798790168777137 0.03130526503384495
0.08070957842838711 0.047943142300567884 0.030741142205309435
0.08165949239652986 0.04790347926868168 0.03014759280442386
0.08256744025465018 0.04787031790094256 0.029515782106043997
0.0834771134728371 0.04783672626611729 0.02888775703674812
0.08437065819566442 0.04780555923651357 0.02824603374799678
0.08526155938510016 0.04777467024585759 0.027603685902116093
0.086143199601869 0.047745125493658426 0.026954123825055853
0.08700097289540837 0.047719288988850576 0.026282657528673203
0.08782998908017825 0.04769797716145062 0.02558403005479165
0.08858889523163138 0.047687919859366934 0.024816151237727402
0.08932125861954648 0.04768212404805292 0.024022045633642908
0.0900127503488048 0.047682951936385116 0.0231867175123896
0.09061287860111011 0.04769868725444775 0.022257870609201424
0.09110182233300729 0.04773267782285154 0.02121367260879853
0.09151106308321977 0.047779894819607295 0.020084882724086428
0.09186171575670365 0.047836964354953423 0.018892145253085246
0.0921987161530684 0.04789655693778856 0.017681421948044285
0.09246044968442008 0.04796886277975725 0.01638778741497582
0.0925400425758644 0.04807166054219867 0.014897223966638506
0.09250713411069295 0.04819361943490449 0.01328057942980132
0.09247843961129676 0.04831547013433811 0.011660381848852541
0.09218358922110648 0.048482282024026414 0.009746928292662327
-0.09172177208865845 0.06420698029709818 0.03479130327657681
-0.09124294173257153 0.0642663748951726 0.03343216200993138
-0.09103775273035292 0.06436315217239261 0.031902859701221586
-0.09092051488328068 0.06447226988851912 0.03031454788505017
-0.0908978385235199 0.06459470110074268 0.02866218661867992
-0.0909249984305715 0.0647244158392574 0.026972525380826784
-0.09101481483545987 0.06486321102334212 0.025236987709110925
-0.06852360381348588 0.06190670246080319 0.037682163473396535
-0.06759107715176876 0.061900075687589526 0.036658795337646544
-0.06717604218446083 0.06196464967952866 0.035306923360651665
-0.06692480910931098 0.06205206795623675 0.033846993360069744
-0.06669560791733098 0.06214287573584846 0.03236832255795913
-0.06648707772795465 0.062236904707796636 0.030871523528544054
-0.061015810247614044 0.06160120901160107 0.03279030511494274
-0.05953825652575262 0.061518135205134675 0.03213227233000426
-0.058589050489640915 0.06150831995033077 0.031131355206686473
-0.05780285470556329 0.06152121515030168 0.030023213281150152
-0.05720508832823595 0.06156051145945315 0.028789144605203876
-0.05689738161330682 0.061640607617996064 0.0273591167903407
-0.05680150393663019 0.06175076560262466 0.025782450938550916
-0.05694615385528884 0.061895203984686106 0.024037344974922215
-0.057242911121994366 0.06206166574263832 0.022181141956754136
-0.03733028518272591 0.059374249862439686 0.034127013271104845
-0.0362188316089353 0.059336977980124515 0.03329723777543536
-0.03583518183944773 0.059402772946421455 0.03196656016226157
-0.03562796136663832 0.05949390719738983 0.03050975088599711
-0.03541756781476091 0.05958496034918418 0.029050236714415756
-0.035268740801728427 0.059685169483202856 0.02754254435899889
-0.035141028919381645 0.059788806972970884 0.02601450286776774
-0.03503070180518886 0.05989535940990149 0.024468482328293906
-0.03496207630157627 0.06000833579916918 0.02288687859381311
-0.03490213727378677 0.06012302615207341 0.021292873258043576
-0.03484708983069024 0.06023889399552269 0.019689065699408703
-0.03481363519417974 0.06035835918872126 0.01806323479555677
-0.03482374837643776 0.06048462500395382 0.0163990442749809
-0.034920229677086745 0.06062394203899084 0.01466452167927007
-0.03501715646348469 0.06076390234644467 0.012921990224134983
-0.035159871396493625 0.06091111441370212 0.011137756152344525
-0.035359150359984604 0.06106719645340442 0.009303179065164313
-0.03563506743559036 0.061235140207855615 0.007402465418552273
0.06903576522468563 0.05011344764501801 0.03030676071625288
0.07178325995709012 0.04978844501807643 0.03134699945982006
0.07381461920714116 0.04957677523993518 0.03173614394642821
0.07559411487968465 0.04940460890683713 0.03190101940323126
0.07715066010355548 0.049267561570081914 0.03186537429476449
0.07846342347797858 0.04916923930099794 0.031606162084363565
0.07958313608508227 0.049101701461846815 0.0311683398330177
0.0805941814959607 0.049051475656019604 0.03063019604344097
0.08156258872838906 0.0490079482254032 0.030053942113628662
0.08248736483527203 0.04897132774072812 0.02943799250919832
0.08340181112764483 0.048936223526936044 0.028814224230015784
0.08430008761449731 0.04890360228226705 0.028176763694871987
0.08519790760087054 0.04887090302213167 0.027540882890786655
0.08607387424915919 0.04884164451829429 0.026885368088552686
0.08694070675308907 0.04881375411770456 0.026222576668214204
0.08779116580662233 0.048788437840975044 0.025545125560895554
0.08855821602208397 0.04877681811168203 0.02478524859307879
0.0892892021773456 0.048771131304562364 0.023989588535063
0.08999821415814024 0.0487690747017487 0.023171923467384392
0.09061287860129869 0.04878274832838101 0.02225787060939438
