# .PCD v0.7 - Point Cloud Data file format
VERSION 0.7
FIELDS x y z
SIZE 4 4 4
TYPE F F F
COUNT 1 1 1
WIDTH 779
HEIGHT 1
VIEWPOINT 0 0 0 1 0 0 0
POINTS 779
DATA ascii
0.05747271068122484 0.05385020810970148 0.010020738418485275
0.057466299866379134 0.053976030147863015 0.00839433894571523
0.057469499089499165 0.05410083953357837 0.006769637903443204
0.057492914308753806 0.05422286257938859 0.005157030324581702
0.05750675313631742 0.05434705382851583 0.0035276771810938135
-0.05280586620586891 0.06390932835973602 0.02846797213507607
-0.04670255767992282 0.06314097429056853 0.030960569039823083
-0.04074297307014285 0.062390686353594904 0.033394818163089535
-0.034922102737933225 0.061657834846500365 0.035772753140665414
-0.02923639066044531 0.06094199985498725 0.03809547342979602
-0.023681183383336024 0.06024259550601001 0.04036488005407851
-0.01825320250768453 0.05955923526181537 0.042581979094359235
-0.012949255912813318 0.05889154227160391 0.04474775632695094
-0.011195286341528665 0.05875018010504175 0.044454253974438196
-0.010707208468087648 0.058797281481900346 0.043273898999871274
-0.010217220495466584 0.058844289820030614 0.042092450235361234
-0.009727574765440339 0.05889154227829843 0.04090830642782378
-0.00923714202417919 0.05893887068579439 0.03972225933711726
-0.00874479502184411 0.05898610578817069 0.03853511688250788
-0.008252783063645575 0.059033586371599354 0.03734525350804818
-0.007758854057905051 0.059080973472083194 0.03615429370916606
-0.007265255250242242 0.059128606966567604 0.03496059561101228
-0.006769736596426379 0.059176146800014304 0.03376580001684787
-0.006274543257517862 0.05922393394541972 0.032568248636083486
-0.005777427261610457 0.05927162725142926 0.03136959867651118
-0.01974871506490855 0.06152980358078462 0.019317168507223037
-0.019232644626620554 0.061579622630362506 0.018068910061975585
-0.018817042506372006 0.0616450632957277 0.016741825078793737
-0.018434336601657775 0.06171583626249005 0.015386167560286546
-0.018048337394154623 0.06178640010543581 0.014029243324452711
-0.017261137108377123 0.061795324914694756 0.012977654998333366
-0.01674081502090441 0.0618455750387315 0.011718850423020843
-0.01621844263542982 0.06189572038745589 0.01045893415427629
-0.015695222467332015 0.061945947119414056 0.009196973108410333
-0.015492392790732779 0.06204627057523701 0.007680079460977818
-0.014967308344216335 0.06209674203891021 0.006412785969410029
0.025446671567793233 0.055910412798564 0.036881199991999125
0.02745340823676834 0.05571578417763628 0.03696350981394708
0.029412758748489254 0.05552776069385909 0.03701833704157548
0.031363667908366366 0.05534025627829608 0.037076626614804375
0.03326199051635209 0.05516023637244258 0.03710245383511496
0.03517314942236016 0.05497740945462327 0.03714866214033946
0.03705783348312114 0.05479798385280977 0.037183189190084676
0.03893117099447646 0.05461958031630341 0.03721824747322505
0.040796886767760054 0.054441612968646566 0.037256844770292674
0.042633393321506396 0.05426752631307516 0.03728092635754132
0.04443767786430397 0.05409782716237337 0.037287640848413905
0.04620240714752211 0.05393371858782138 0.03727043591767204
0.047937158707078986 0.053773700417597034 0.03723696557752926
0.049653813342392716 0.053615888845334934 0.03719701514058277
0.05135783130761706 0.0534594183512504 0.03715507859995715
0.05304507995398644 0.0533049654176726 0.0371074825624062
0.054681813863984075 0.05315800679813272 0.03702483045968702
0.0562690582612595 0.05301842603341557 0.03690738074366451
0.05736747161741701 0.052957717721567925 0.0363699814473224
0.05772093323786659 0.05301815226354713 0.03518058342238234
0.05769090138169669 0.053141498865868685 0.03364856546693823
0.05769448426236223 0.053259894688289657 0.032139414381871456
0.05768032337278245 0.05338173324842712 0.03060765025752199
0.057677965273395526 0.05350217890510686 0.029079524746215446
0.05767049890658482 0.05362400949559517 0.02753988369983207
0.05769024649313653 0.053741895068338395 0.02601795384604727
0.05769216178299574 0.05386326690680329 0.024472963187902874
0.05770434870959951 0.05398348515956205 0.02293039402963226
0.057696018433805285 0.05410766269849468 0.021361951442100013
0.05770483299540252 0.0542295484403492 0.01980220653554926
0.057705076797734844 0.05435342319196782 0.018227394366792937
0.05768978607993819 0.05448046677710979 0.016630817762039563
0.057698647375865775 0.05460403981894953 0.015049570575411009
0.057686739409327836 0.05473167553616355 0.01344143621488919
0.05766434510401558 0.05486166813449385 0.011815841627536128
0.05766536943484668 0.05498830370422562 0.010205007624355222
0.05765853901061846 0.055116856649286075 0.008579163574635285
0.057661305284897546 0.055244377172453535 0.006955005320822716
0.05767812112316134 0.05537010023436032 0.005336950249294259
0.057693255237540986 0.05549669679836313 0.0037097966480165723
-0.05305558726491105 0.06530649923557896 0.028300131294022535
-0.046945819741638306 0.06452090312344766 0.030796158247859584
-0.04098000935551538 0.06375378899627639 0.033233723730797304
-0.03515313553401195 0.06300451229692956 0.035614866480331575
-0.02946163328738144 0.062272643005045224 0.03794068985032578
-0.02390203372989891 0.06155776215393457 0.040212274155258354
-0.018467467113463476 0.06085893186280422 0.042433105015649064
-0.013158316898282285 0.06017630831811559 0.04460169555772464
-0.011081405645972264 0.05998285121442051 0.04453425567329028
-0.010592250896841293 0.06003075511285497 0.04335510194823872
-0.010103440425455912 0.060078907698061255 0.04217326341418537
-0.009613845143573108 0.060127137594732386 0.04098952737725026
-0.009122337955697335 0.060175272324691324 0.03980469724450525
-0.008631167877679091 0.060223657126135845 0.038617156526547014
-0.008138083116301431 0.06027194657944648 0.0374285206607789
-0.007645330639328651 0.06032048703314935 0.03623715689807061
-0.0071506606895498925 0.060368931957021504 0.03504469692458029
-0.006656318161792518 0.06041762881528409 0.03384949163504242
-0.006160055359617556 0.06046622996174736 0.03265318906063486
-0.005664115079845655 0.060515083981727225 0.03145412364287581
-0.019630478630785486 0.06282050149236237 0.019405845377404973
-0.019114464106697038 0.06287135064217358 0.018158025442627512
-0.018690419621595233 0.06293682222117547 0.016837823448925426
-0.018306483340435664 0.0630088661168957 0.015483622877640935
-0.017921667066797375 0.06308107513919228 0.014126318441621877
-0.017144327857153197 0.06309170249355041 0.013067655895152186
-0.016622859497289755 0.06314280169547161 0.011810224236524836
-0.016101748435640828 0.06319417415957349 0.010549817425719976
-0.01557858665727535 0.06324543955133066 0.009288299265934385
-0.015374424161063494 0.06334764621566528 0.007772945264927056
-0.014850602144129532 0.06339935267653665 0.006505150810160953
0.025443750817497057 0.05710046245405808 0.03687887603467482
0.02743797170072909 0.05690369668349132 0.03695116165920015
0.029400327871681176 0.05671119598045983 0.03700834003367609
0.031354190640384305 0.05651923170303689 0.0370689642098847
0.0332507159227704 0.05633567435654256 0.03709328964397651
0.03515731679780043 0.056149697152080576 0.037135724498055356
0.037050447567529676 0.055965093163507194 0.037177121641515154
0.03891744197799141 0.05578392470115984 0.03720690904663404
0.040788720847840576 0.05560127184296362 0.03725006491050836
0.04262259840107657 0.05542391216290375 0.03727191614385661
0.044432325888160706 0.055249718075216024 0.037283150006996224
0.046203291786278855 0.055081099847355035 0.037271182152146365
0.04793452626539235 0.05491825313969003 0.03723473322989057
0.049653813342411035 0.05475665243778585 0.03719701514059842
0.051361285031782555 0.05459628425028931 0.03715803846613053
0.053042510237228 0.05443953756591059 0.037105268665523106
0.054713259635434996 0.05428382885813573 0.03705206500664193
0.05629436541782501 0.05414228398586075 0.03692941432639979
0.05745395201134945 0.05407011507904522 0.03644567195648446
0.057900569230313004 0.054116297756412836 0.03533863443737528
0.057862561627694875 0.05424353248191537 0.033800393520711625
0.05786989638551038 0.05436375595377432 0.03229537627383683
0.057859523516243905 0.05448748625353446 0.030767816911817902
0.05787111791478172 0.054608083770977076 0.029253067930565813
0.05785476066009876 0.05473392994158341 0.0277063067977123
0.05786639702665913 0.054855622055214104 0.026177884687179576
0.05787467572581961 0.05497843300913111 0.02463953923786899
0.05788128300560935 0.055102084650037624 0.023092722695154
0.05787764536774642 0.055228038982238645 0.02152945675787582
0.05789201276465128 0.05535150236683087 0.01997573506681377
0.05788322252643163 0.05547948144303281 0.018393410221470785
0.05788732332466434 0.0556058420521815 0.016815865538448438
0.05787329696526883 0.05573589007891838 0.015214031136052852
0.05786440196709569 0.05586565490826854 0.013609606030973442
0.057856333669717985 0.05599587587410291 0.011998518723654705
0.05785518963454317 0.056125503668901205 0.01038656188440612
0.05784008370501198 0.05625814758022482 0.008753706230380354
0.057851137028997135 0.05638687134060376 0.007138464567628122
0.057873632101937245 0.056514205632147874 0.00552688019703601
0.05787778730870685 0.056645329160805453 0.0038899923788441315
-0.05330559465869217 0.06670527213310036 0.028132098003587236
-0.04718935737485069 0.06590239516369062 0.03063156120848981
-0.04121731096540543 0.06511841741608893 0.03307244897884448
-0.03538442389368118 0.0643526794134299 0.035456805169114924
-0.029687122177101566 0.06360474097688618 0.03778573704251842
-0.02412192833288157 0.06287417326298464 0.040060328667935685
-0.01868196065850264 0.06216001717459313 0.04228407186670269
-0.013367598756146348 0.061462431716646754 0.04445548047567016
-0.010966464174899049 0.06121463531267831 0.044615002571695594
-0.01047848648609001 0.06126368399071278 0.043435462079999765
-0.009989726178753988 0.06131281133300709 0.04225402984149301
-0.00949905631373077 0.06136184165201542 0.0410715047688065
-0.009008725613414426 0.06141112660898345 0.03988627940335299
-0.008516482587103524 0.06146031435765642 0.03869996016017252
-0.008024573920543676 0.06150975768902644 0.03751092337985906
-0.007530750147670184 0.0615591036268106 0.03632079166739072
-0.007037255892840766 0.061608706097201385 0.035127925066566534
-0.006542965711074045 0.06165838856840439 0.03393313456361552
-0.006046756224994065 0.06170797336739633 0.032737247522469926
-0.005549748007355693 0.061757637981352795 0.03153943550259719
-0.019513517030510796 0.06411063382426188 0.019493566127110895
-0.01899635300810326 0.06416231987011389 0.018247088475327133
-0.01856267172230086 0.06422757462691189 0.016934674741972744
-0.018179916503710536 0.06430126577161131 0.015580097626283929
-0.017795076726896453 0.06437493263534236 0.01422333225957556
-0.0173478849873685 0.06443887512988783 0.012910816226364918
-0.01682752060205217 0.0644912862756088 0.011651684262770245
-0.016312328717506597 0.06454475571045606 0.01038581420231982
-0.01578063834640353 0.06459578003919962 0.00913009224203365
-0.015256525353072925 0.06464825161548361 0.007865756104718902
-0.014732762274535516 0.06470100404527954 0.006598412871483106
0.025441803624102755 0.05829037284032268 0.0368773267086826
0.0274273583046723 0.05809092419706499 0.036942671680841976
0.029384070790902328 0.05789534073372802 0.036995265962757706
0.03133997378059439 0.05769904819810527 0.03705746982810698
0.03323568200059185 0.05751180611231649 0.03708106980337578
0.035141482731907536 0.05732209156959212 0.03712278567798466
0.037042138035528804 0.05713240477458164 0.03717029533970051
0.03890920404221221 0.05694745309964761 0.037200105556362495
0.040783276684720426 0.05676053459075607 0.03724554482422754
0.042617200684097634 0.05657947416615898 0.03726741082270063
0.04442697374281673 0.05640164540431182 0.03727865902360228
0.046197099217442916 0.056229656549589564 0.03726595842854774
0.047933648775647764 0.056062530223261506 0.03723398910622422
0.049658165367505 0.055896686306147206 0.03720072524508172
0.05136646548315105 0.055732836293866696 0.03716247814979773
0.05304422338623238 0.05557340607770333 0.03710674460065433
0.05473110455617097 0.05541172994383577 0.037067520131743636
0.056318825276517326 0.05526611053366184 0.036950710212359794
0.05754290330741324 0.05518149508039184 0.03652352508114709
0.05808084496618254 0.05521308870011327 0.035497248324518615
0.05803908158463317 0.055343545314858966 0.0339565198349801
0.05805017116023925 0.05546556527252037 0.03245566163174557
0.05804274574578361 0.055591300047019974 0.03093157845202177
0.05805135605234707 0.05571485113250275 0.029415007731699194
0.058045595207550704 0.05584142864006407 0.027878666367530003
0.05804915347027051 0.055966973137104734 0.026343813175527697
0.05807231010266589 0.05608970329983012 0.024819915341322885
0.058063998365558034 0.05621843461716017 0.02326035520744618
0.05806420131559542 0.056346275155966276 0.021701507853361557
0.05807383432619739 0.05647305974030001 0.02014429617068708
0.058047425555246945 0.05660670177971788 0.018546432729329265
0.05806739915155196 0.05673285821256727 0.016984555910721066
0.05804603270387204 0.05686682782997213 0.01537668949964055
0.05804619667413646 0.05699763769308203 0.013781687210217164
0.05804722859767519 0.05712889829469109 0.012180155223596167
0.05804305003904858 0.057261683787295424 0.010566241690809108
0.05802839657913894 0.05739693451483579 0.008934756022393908
0.05803463437610301 0.05752911523206041 0.007315802057996257
0.05806190687702467 0.05765817904998969 0.005709780504820905
0.05806561904237467 0.0577920351759427 0.004073410233025543
-0.05355452780921793 0.06810543748387257 0.027964786726314028
-0.04743317104808348 0.06728545306904556 0.03046677760505795
-0.0414548783455454 0.06648457417626527 0.032910993604302774
-0.035615968241224316 0.06570233866912488 0.035298568917062234
-0.02991408523204392 0.06493848919446382 0.03762977120901112
-0.02434206071859979 0.06419200787140274 0.039908218874563084
-0.01889668350992635 0.06346249342410397 0.04213487939243704
-0.013577101836619365 0.06274991461939305 0.04430911083611011
-0.01085271562521034 0.062445879615669164 0.0446949114374835
-0.010364787817853105 0.062495900380031846 0.043515775773010024
-0.00987495279438122 0.06254582226954657 0.04233554852956112
-0.0093854589796451 0.06259600333966947 0.041152631243820514
-0.00889405518950126 0.06264608534635671 0.039968621343945354
-0.008402987823531716 0.06269642749409432 0.038781904224437835
-0.007911130583209913 0.06274685061640568 0.03759327828859943
-0.007417359201336404 0.06279717439168965 0.036403558161951455
-0.006923916999798607 0.0628477597594151 0.03521110484164136
-0.006428557867359297 0.06289824559080709 0.034017556268125415
-0.005933523038690824 0.06294899398828853 0.032821257056178776
-0.005436568477591275 0.06299964265984698 0.03162386151750146
-0.019395418624131522 0.0653998210742625 0.019582139477016647
-0.018879515427163762 0.06545272708869393 0.018335191197388356
-0.018435005046929798 0.06551750635402169 0.017031464455596446
-0.01805222521747135 0.06559265356974935 0.015677429479260374
-0.01766856629870761 0.06566797336800637 0.014320284836361163
-0.01690850884367634 0.06568179418386043 0.013249353170645906
-0.01638715715320327 0.06573495977715656 0.011992810192409054
-0.015866162029599784 0.06578840963187454 0.010733295810484489
-0.015343118299110836 0.06584174803334125 0.009472671632870466
-0.01513989828994411 0.06594828654520817 0.007957565817267587
-0.014614992186655185 0.06600188460986772 0.006691619705431973
0.025377534345021435 0.059490662846194045 0.03682618948478261
0.02739937449615365 0.05928111806796893 0.036920286581159145
0.029366855781923717 0.0590797541461086 0.036981421518523905
0.03131722441386503 0.05888038835959762 0.03703907688407765
0.03322346598716408 0.05868756598559324 0.03707114040936338
0.03512098944794134 0.05849537587041437 0.03710603957400288
0.03702736454860128 0.05830086158261906 0.03715815888236301
0.03890371186588598 0.05811057347239237 0.03719556971519955
0.040767850615242684 0.057921523483331606 0.037232737132122495
0.04260550504337324 0.05773614094345024 0.037257648803351695
0.04442072935938929 0.05755376078072249 0.03727341936352657
0.04619532987024244 0.05737750196406582 0.03726446590081489
0.047931893782359014 0.05720696310737359 0.03723250084718932
0.049650331640572476 0.05703877532981979 0.03719404698730844
0.05136646548317636 0.05687024111618616 0.03716247814981938
0.05305364538765478 0.056705938027254474 0.037114861969820834
0.05473110455620861 0.05654258157533614 0.03706752013177622
0.05633822187085735 0.05639064219234958 0.03696759778584391
0.05762509806691557 0.05629342841690653 0.03659546466090946
0.0582584095774637 0.05630909942883251 0.03565347685454545
0.05821960595346509 0.0564416353228859 0.034116187924810915
0.0582327691428593 0.056565714103930985 0.032618012593169265
0.058226604521904146 0.05669372345777775 0.031095908928913896
0.05823392880888573 0.056819948797746524 0.029579045134024873
0.05823620589211048 0.056947628161498155 0.02805082374695661
0.05822576429509663 0.05707811955111554 0.026504161924990333
0.05825524827725104 0.057202169679060645 0.024986878577330673
0.058249917936651574 0.057332928726884475 0.023430927428607307
0.05825139759575437 0.05746307770760779 0.021874149494882922
0.05825374021064872 0.05759366708329902 0.020311081310021184
0.05823120482185912 0.05772927514396334 0.018717698536496685
0.05825329674320101 0.05785755400640084 0.017158699961490387
0.058224621019571265 0.05799548681174765 0.01554485900192426
0.058234701973267355 0.05812711805575149 0.013960120425881961
0.05823010373536541 0.058261989596892404 0.012354160894107402
0.058227220592122875 0.05839717626030438 0.010742392324619598
0.05821039922139648 0.05853550117743312 0.009109738963307579
0.058211818393360426 0.05867117369313445 0.007487038151865466
0.05824297017440916 0.05880209461914997 0.005885675192809747
0.05825936716051616 0.05893630404607876 0.004262605441882228
0.05816867251461849 0.05909062104663856 0.002526918075657081
-0.05380510778901504 0.06950741820671687 0.027796368593211218
-0.04767593390569802 0.06866986787654465 0.03030270420455211
-0.04169400524472905 0.06785246846312493 0.03274847835053368
-0.035849029489944284 0.06705369432390923 0.035139296022312305
-0.030140069204370012 0.06627350805296484 0.03747447818736893
-0.024562431272951435 0.06551126828938666 0.03975594450848796
-0.01911163603564453 0.06476636284302266 0.04198552733722294
-0.013785686083291615 0.06403857513923204 0.04416338314115498
-0.010739032737301146 0.06367641317829216 0.04477477417557718
-0.010250030084326012 0.06372722263964316 0.04359683756136662
-0.009761370673354752 0.06377829580055921 0.04241622111358112
-0.009270803630816005 0.06382926804791092 0.041234513308807896
-0.008780575066009488 0.06388050497084936 0.04005010855981245
-0.00828955883802679 0.06393182421750374 0.03886380079644913
-0.0077966308259140304 0.06398304226162997 0.03767640011209755
-0.007304034078471244 0.06403452645626637 0.03648627661054438
-0.006809522766681453 0.06408590925548113 0.03529505913416303
-0.006315337863729509 0.0641375591946313 0.03410110146381046
-0.005819235604099027 0.06418910754517568 0.03290604875375691
-0.005323454860335752 0.06424092403050886 0.03170823836511838
-0.019277389494304353 0.0666882520867878 0.019670660869775092
-0.01876154228102267 0.06674218455798123 0.01842415020545396
-0.018308622776194272 0.06680681848316417 0.017127280405655865
-0.01792461518642169 0.06688321960504878 0.01577469939599674
-0.017540931989259823 0.06695999689134875 0.014418098711188432
-0.016790703532730822 0.06697569560623551 0.01334012152609737
-0.016270611358509268 0.06703009419466338 0.012083091964577963
-0.015748473088511183 0.06708437925426654 0.010824953802040294
-0.015225488414182642 0.06713875231184023 0.009564776153731303
-0.015023339510097267 0.06724756032524706 0.008049321776696539
-0.01449849249081192 0.06730219833445777 0.006783821112436028
0.025288882746020425 0.06069551734786824 0.036755651947533
0.02738200302026106 0.06046969411056694 0.03690639060916395
0.02934868256516343 0.06026444586681966 0.03696680647613282
0.03129826435985683 0.06006123379150262 0.037023747612880076
0.033212188909711005 0.05986324715984573 0.037061974199289804
0.035122852573490404 0.05966496386059927 0.037107562028589836
0.03701720704444339 0.059468624606329165 0.03714981446668969
0.03890737333621602 0.05927215427089698 0.03719859362536804
0.04076966551910827 0.05907964066426701 0.03723424397934266
0.04260640473656979 0.058890708118641055 0.0372583997517264
0.04441805312455799 0.05870529998699171 0.037271173735761776
0.046198868546074134 0.05852443714392293 0.037267450940616564
0.04794066856505452 0.05834957436884515 0.037239941986542846
0.04965816536754358 0.058178183706391384 0.037200725245114585
0.051384595788533716 0.05800447489044889 0.03717801595045683
0.05305964092661214 0.05783900583221906 0.03712002732704034
0.05475489476646023 0.0576692537970392 0.03708812435193909
0.05637026337240686 0.05751281356712344 0.03699549460125762
0.05769970836602606 0.05740613131582739 0.03666076606937452
0.05840232890290015 0.057409828929417955 0.03578010290065431
0.05840579752112934 0.05753746602977564 0.034280868472616854
0.058415162041384805 0.057664627308172504 0.03278018121084825
0.05841109733418931 0.05779475026614126 0.0312608060987184
0.05841123353244604 0.05792470890452809 0.02973834933046865
0.05842574743587037 0.05805268203531446 0.028222015490701413
0.05841320308352077 0.058186083586954096 0.026674341614452646
0.058444775962926576 0.05831216335782963 0.025159855900326378
0.05843136793361542 0.05844691480778454 0.023597399031514754
0.05844435132862097 0.05857751633768783 0.022052100943231456
0.058436012796504344 0.058712570163803726 0.020480060544477263
0.05842077751599001 0.0588494915552781 0.018894363298935568
0.05842695305792783 0.058983149492691206 0.017321376700978774
0.05841507125349682 0.059120709840991645 0.015724198400046074
0.05842557828986045 0.05925481612205487 0.01414079797246015
0.05841017741219179 0.05939428129927204 0.01252550097495897
0.05840597891489613 0.059532336765566435 0.01091336640994317
0.05839393684737937 0.05967247370870189 0.009286197684809816
0.05839316626192653 0.05981118478203939 0.007662298319940641
0.05842470505114511 0.059944574886869086 0.0060622222893330635
0.05844675841243474 0.060080343183303415 0.004445593165245565
0.058383812679134506 0.06023251695320793 0.002738093474510761
-0.054055975582527394 0.07091100923088237 0.02762775701668707
-0.04792029956219496 0.07005606111503396 0.030137547538403642
-0.04193081220450484 0.06922148299938015 0.03258753977234102
-0.03608108848687758 0.06840634948380955 0.03498070806143372
-0.030366300656607725 0.06760998891932063 0.03731901510099661
-0.024783040382669375 0.06683195683213583 0.03960350530248091
-0.019326818604354645 0.06607162766781181 0.041836015444884245
-0.013995631455515134 0.06532877971789137 0.04401670449380385
-0.010624290858538943 0.06490605118781877 0.04485538085948976
-0.01013646337977575 0.0649580124370575 0.04367705803876426
-0.00964673060655602 0.06500987092760423 0.04249764511180637
-0.009157338353834477 0.06506199860459333 0.041315545474149507
-0.008667160640282223 0.0651142099450392 0.04013154859977097
-0.008175073493239149 0.06516631823247276 0.03894646006772712
-0.007683319684237577 0.06521869720461398 0.03775865905256387
-0.007189653670611362 0.06527097292727005 0.03656976533438944
-0.006696316159830185 0.0653235203397112 0.035378141823980525
-0.006201063661240902 0.06537596430589648 0.034185424554276644
-0.00570613479333798 0.06542868097245114 0.03298996007590832
-0.005209288142300539 0.06548129399568357 0.031793400770886215
-0.0047127602125291435 0.06553418073541667 0.030594076732636477
-0.01864363837359584 0.0680308852417104 0.01851305700327044
-0.0181811175520048 0.06809511499704522 0.017223947716048016
-0.017798289056353445 0.06817316922567816 0.01587099066755504
-0.017413378966085913 0.06825119756563039 0.014515850291437982
-0.016675369684760077 0.06826924525959065 0.0134289856326828
-0.01615413355901868 0.06832447300427846 0.012173321064512077
-0.015632053422113712 0.06837979017644213 0.010915623262576613
-0.015110326475415159 0.0684354031342732 0.009654948266014318
-0.014904447803848642 0.06854566000897931 0.008142914233560894
-0.014380861070054596 0.06860154320657431 0.006876918201000948
0.025309344707839243 0.061882085739983994 0.03677193294426917
0.02735883841227943 0.06165939030702461 0.036887860534587535
0.02933816037542597 0.06144792975950191 0.036958344449234126
0.03128119856334027 0.06124187638014748 0.03700994985561151
0.03320748991280942 0.06103785623013664 0.03705815477063784
0.0351070153698933 0.0608376344599922 0.0370946206445415
0.037007972432204106 0.060636294362871865 0.03714222820909052
0.0388918115490644 0.06043708637619729 0.037185741562626606
0.04076240578808621 0.060239342737946476 0.037228216494517075
0.04259290883915057 0.0600478084064993 0.037247135109211904
0.04441270052797702 0.059857330499919495 0.03726668237373504
0.04619621454618272 0.05967244531251862 0.03726521216665524
0.04794154601806022 0.0594935278785333 0.037240686079054064
0.04966773942277031 0.05931722879531819 0.03720888713399456
0.05138459578855997 0.05914181753535496 0.03717801595047937
0.05306820560430947 0.05897157324969613 0.037127406083160674
0.0547608417803126 0.05879895823607532 0.037093274940413534
0.05638712479616481 0.058637488833370305 0.037010174937803675
0.05776674460960918 0.05851968063143667 0.03671943841322489
0.058543613823522966 0.05851003532952779 0.035904411090808885
0.05859177574421581 0.05863204109687478 0.034445360323897056
0.05858979807534792 0.05876367486439014 0.032935453068764275
0.05860126755570033 0.05889345828769516 0.03143077765977731
0.05859003062195839 0.05902795674676456 0.02989899438323035
0.05861591256534787 0.05915629283636271 0.028393770449898825
0.05859280542616946 0.05929416226391289 0.026837406427000887
0.05862559821211705 0.05942241640058373 0.025324887982534017
0.058614316185807425 0.059559344543753764 0.023765245211184782
0.058629405423806014 0.05969204298792859 0.02222276695612374
0.05862064378116838 0.05982974533076038 0.020651226176977233
0.05861526672641054 0.05996745132852281 0.0190756098139645
0.05860471523911043 0.060106746786587624 0.017487899709857646
0.058594974927009824 0.06024653111622507 0.015893606522381698
0.05861191946415095 0.060381991864510855 0.014317182695291364
0.05859610151259148 0.06052418947815695 0.012702407733104715
0.0585854069035569 0.060666086442107636 0.011084980999780392
0.058580740628039696 0.06080751105141005 0.009465796587926179
0.05858127484026271 0.06094861553232618 0.007844092246256096
0.058610597898386796 0.06108495608905557 0.006242808663475485
0.058633059387925845 0.06122322782033709 0.004627516232712514
0.05864949017088189 0.06136328709553278 0.002998874860508205
-0.054307131685910004 0.07231621333232782 0.027458951663269282
-0.04816494266810495 0.07144382821827268 0.029972203355642768
-0.04216917957979316 0.07059224021757174 0.0324255407056635
-0.036313404752506884 0.06976050424435747 0.0348219442844116
-0.030592779995510855 0.06894793419646139 0.03716338167037864
-0.02500388843532486 0.0681540758198649 0.03945090098873327
-0.019543402938465404 0.06737848619219888 0.04168552958611832
-0.014205799103517658 0.06662035027675342 0.04386987055314839
-0.010510739772446043 0.06613516165780865 0.04493515100621698
-0.01002183880049462 0.06618790241384763 0.04375802577052901
-0.009533280381061549 0.06624091684363485 0.042578224015999866
-0.009043938694371145 0.06629401626728319 0.04139653077819816
-0.008552689918064349 0.06634701079244065 0.0402137471396104
-0.008061776542281462 0.06640028051276887 0.03902826130981235
-0.007568953314789295 0.06645344513456328 0.03784168404230981
-0.007076460673150042 0.06650688597213178 0.036652387341803705
-0.006583175283985387 0.066560412831474 0.03546117627360268
-0.006087975872695883 0.06661383429146778 0.03426887218826957
-0.005593099757841835 0.06666753350954799 0.033073822598326086
-0.005096306828617669 0.06672112712747798 0.03187767892695159
-0.004598714519239044 0.06677480698188726 0.030679610563335125
-0.018527005690008147 0.06931903731392305 0.01860100522012631
-0.018053693320440656 0.06938259317180351 0.01732055362237378
-0.01767084053843676 0.06946209788805262 0.01596813747195558
-0.017287109336636575 0.06954178502040867 0.014612618329615745
-0.01687724760838316 0.06961725966325434 0.013273439783500318
-0.016355911401002843 0.06967360637868082 0.012017014599687847
-0.015860155810440535 0.06973466417172436 0.010737973548085755
-0.015310703131263703 0.06978657388812429 0.009498052797742018
-0.014786826953984145 0.0698431951268885 0.008235506262598502
-0.014263299245961036 0.06990011932091823 0.006969960208646764
0.0251875128021688 0.06309360731732269 0.03667499478769598
0.027335670786448885 0.06284924149518438 0.03686932804594201
0.029319027517272667 0.06263300872223682 0.03694295765576422
0.03126507934592815 0.06242246527204867 0.03699691741092037
0.03319339216469969 0.062214168325736285 0.03704669586904957
0.035091176724335815 0.06201041182973495 0.03708167808219409
0.036993196027299 0.06180501619343743 0.03713008935462703
0.038880825910684536 0.06160130446639202 0.037176668818452885
0.04075423822254548 0.06139925681165237 0.03722143526843452
0.042585710589629844 0.06120386805814904 0.03724112693464876
0.044401994827121705 0.06101036189220772 0.037257699223676055
0.046188252295541354 0.06082143006530022 0.03725849563306877
0.04794242346647243 0.06063747539706571 0.03724143016767001
0.04967296140293698 0.06045699766320554 0.03721333887579514
0.05138545908701636 0.06027900326530092 0.03717875580339641
0.053074200614165346 0.06010454989289469 0.03713257098454159
0.05475659393533011 0.05993048294940074 0.03708959596774741
0.05640314153646092 0.05976220223162544 0.037024119853801996
0.05782286620953209 0.059634767576124396 0.036768557898925525
0.05867392156030521 0.059611279336603255 0.03601906111043679
0.058773359429016625 0.059726132917926715 0.03460596534517035
0.05876843746277233 0.05986076676539989 0.03309428437610046
0.058782815034214064 0.059992433949603685 0.031593042330260945
0.05877115680633238 0.06012952149552356 0.03006173207389773
0.058801636481797814 0.060259395344024795 0.02856151415653685
0.05877897520142222 0.060399755068093905 0.027006433952232678
0.05880028639989865 0.06053254072803073 0.025484321655634135
0.0588013056925083 0.06066972620746986 0.023936799046556656
0.0588057351368238 0.06080689620238143 0.022385386913520988
0.05880421152374171 0.060945810682970517 0.02082140611086719
0.05880439148078448 0.061085039042468696 0.019251857136691863
0.05878228282659287 0.061229114094687453 0.017654240428396417
0.058779835336223496 0.06137012928252063 0.01606768220526006
0.058792018259217815 0.06150901785856214 0.014487658577345075
0.05877490637862853 0.06165411728585502 0.012872540540649846
0.05876377128001242 0.06179874840224126 0.011255578293633217
0.05877079893209941 0.06194058011111289 0.009648524489988042
0.05877177360403102 0.06208422949618728 0.008028196121422304
0.05879714918662521 0.06222386467152916 0.00642403468284336
0.058818273468564886 0.06236496917815643 0.004808377946394327
0.05884036885240279 0.06250654637569839 0.0031862358853244066
-0.0545585765964588 0.0737230332933962 0.027289952198718548
-0.04840986369621464 0.07283317186819999 0.029806671336732593
-0.04240781451827885 0.07196453608666624 0.03226335979787531
-0.036545978714894956 0.0711161611007004 0.03466300439871012
-0.03081950762872443 0.07028734629258598 0.03700757761538703
-0.025224975819330808 0.06947762757781771 0.03929813129885451
-0.019759047957679188 0.06868655247045248 0.041535696376628684
-0.014416189380481559 0.06791328898627652 0.04372288107243705
-0.010396130884727406 0.06736337089837732 0.04501566426332554
-0.009908403830019952 0.0674172680994928 0.04383815319450507
-0.009419895692895364 0.06747125161559844 0.04265875637179678
-0.008929482803307687 0.0675251283927336 0.041478270398773665
-0.008439407365884388 0.06757928485189976 0.04029509248449914
-0.007947424422901639 0.06763333436849138 0.03911082439135399
-0.007455774137832771 0.0676876646031186 0.037923847182152415
-0.006963333326893306 0.06774208219548061 0.03673496142898941
-0.006468980853600537 0.06779639253909409 0.03554498393026184
-0.005974953779778358 0.06785098516631782 0.034352271345369
-0.00547901226051517 0.06790547034041179 0.033158465959211014
-0.004983391254391456 0.06796023884835987 0.03196190804481758
-0.004485853007585527 0.06801489969849026 0.03076425626236745
-0.018409239372303543 0.07060623021513592 0.01868980826682992
-0.017926350004357716 0.07066925378691799 0.017417098183119484
-0.017543473044131674 0.07075020713212168 0.016065222516634836
-0.01715971788819154 0.07083134615806654 0.01471024608539856
-0.01644010290109399 0.07085325582507156 0.013610257418091631
-0.015918983617651372 0.07091054019036104 0.01235547910365703
-0.015398219451325357 0.07096813072949643 0.011097736823304893
-0.014875410866780348 0.07102560107181989 0.009838887828560405
-0.0146704747699124 0.07114017791676633 0.00832709958825939
-0.014145806956786189 0.07119792735954172 0.007062947184240442
0.02494067088150298 0.06432839723259064 0.03647858974402002
0.027313465645959545 0.06403907388344608 0.036851565478599024
0.02930467651513663 0.06381735279673607 0.03693141646812853
0.031245165331656943 0.0636038482342003 0.036980816859452426
0.03317083340410132 0.06339210814362801 0.03702835970531354
0.03508092742049018 0.06318228076004707 0.03707330285506005
0.03697749471420342 0.06297400593511279 0.037117190685716894
0.03885702128790314 0.06276793465378722 0.03715700921878473
0.040740624747027554 0.06256022154645038 0.037210132505720805
0.042593808598924254 0.06235717468767319 0.03724788611315666
0.04439753391863438 0.062162319697798 0.03725395607683479
0.04618559812834544 0.061969492517690176 0.037256256717978165
0.047942423466486195 0.06178157870644178 0.037241430167681666
0.04966599872640337 0.0615989823253505 0.03720740318910559
0.051388912235818374 0.06141570345539215 0.03718171517647917
0.05307505702639009 0.06123843905333447 0.03713330881229976
0.05475489476657952 0.061061562843901664 0.03708812435204245
0.05641831384154805 0.0608869624639236 0.037037329565393184
0.05788148003330951 0.06074900051638475 0.036819858661606086
0.05879077532343863 0.060714138939886454 0.036121873779643376
0.05895557534805801 0.06081884391792615 0.03476712955761635
0.05894436831834987 0.060957123643336455 0.033250707481861375
0.05896164215360178 0.06109065486415807 0.03175287558070622
0.058950398778733926 0.06123017476583382 0.03022277684365371
0.058978720134566565 0.06136283143890882 0.028721454076328645
0.05895986273240256 0.061505041747591464 0.027170665614785816
0.05896970667633916 0.061642436402609704 0.02563894743379108
0.05898214026431964 0.06177996095174899 0.02410270602662956
0.05898442457893005 0.061920050548083014 0.022550183129458334
0.05898586691463131 0.06206094015899775 0.020989813163102944
0.058990733010546526 0.06220181640771259 0.01942551074349863
0.0589579433163544 0.06235058298603242 0.017818794627167067
0.058970493517350786 0.062491289047316406 0.0162472174189775
0.058967615727348266 0.06263562461278871 0.01465387364421894
0.05895178952086999 0.0627831344170064 0.013040844828245135
0.05895922711972418 0.06292680875307512 0.01144252278325153
0.05896323364021022 0.0630718166062063 0.0098335371400321
0.058961180463588614 0.06321868006418445 0.008211244746714252
0.05897913482611339 0.06336231498281066 0.006600825383877851
0.05900676475682476 0.06350472375837357 0.004992439856218667
0.059024904581138515 0.0636496629089153 0.0033673708500865374
-0.05481031081261417 0.07513147190283302 0.027120758288026625
-0.0486550631203857 0.07422409475285205 0.029640951161409468
-0.04264671747071791 0.07333837319878149 0.03210099674263417
-0.036778810803057005 0.07247332255352475 0.0345038881111423
-0.03104648396478854 0.07162822762117659 0.03685160265527876
-0.025447506444299994 0.0708028230506125 0.03914436434051849
-0.01997492413274199 0.06999602090103163 0.04138570255678564
-0.014626802640338 0.0692075980215198 0.04357573580439533
-0.010282711371368325 0.06859106074709498 0.04509534197961779
-0.009795034316740503 0.06864592438464232 0.04391823438127218
-0.009305454840110805 0.06870067944772952 0.04274003887672051
-0.008816214856502858 0.0687557186562378 0.04155916163913864
-0.00832506970675101 0.06881064908312999 0.040377195475092054
-0.00783425927608744 0.06886586470672555 0.03919253046986637
-0.0073426605323336225 0.06892116901465964 0.038005962719980524
-0.006849152479196596 0.06897636422945766 0.03681830448957213
-0.006355971917520409 0.06903184622960878 0.035627921548869956
-0.005860879272485298 0.06908721892867198 0.03443644708047705
-0.005366109253343743 0.06914287947880275 0.03324223052767766
-0.0048694243647798285 0.06919843051957981 0.0320469213890236
-0.004373057199368591 0.06925427048298263 0.03084885268407539
-0.01829154211133749 0.07189266832209654 0.01877855924050531
-0.01780028773863851 0.07195531308189544 0.017512671523321643
-0.017416186496193253 0.07203749773903675 0.016162245860472213
-0.01703240749416196 0.07212008679624016 0.014807811724290576
-0.016642944028409046 0.07220199766651643 0.013453969425669732
-0.01580271084477869 0.07220264849905138 0.01244554938047393
-0.01528080643334373 0.0722610540319577 0.011189179921621217
-0.014759254128628274 0.07231977178033282 0.009929838871475971
-0.014306265130973661 0.07239123147280431 0.008613808190545746
-0.014029581982226647 0.07249518670999898 0.007154931168454615
-0.013504121171390826 0.07255406666951972 0.005889170240658104
0.027283532591281412 0.06523047137126108 0.0368276211176185
0.029292238037924023 0.0650014413215822 0.0369214133479247
0.031229991235861787 0.06478449166955244 0.03696854854895493
0.0331661332960696 0.06456690349008674 0.03702453937351513
0.03505949510655221 0.06435628693860318 0.03705578942195836
0.036953478184903854 0.06414464274954619 0.03709746104540457
0.03882863454866747 0.063935576784337 0.03713356537199991
0.04072610251279224 0.06372144760994508 0.037198075234422256
0.04259110930528942 0.0635124407748991 0.037245633089375174
0.044395749522329775 0.0633138073991549 0.03725245879048378
0.046177635375766135 0.06311856778792661 0.037249539760983386
0.047940668565109146 0.06292601157423451 0.03723994198658914
0.04967035043335588 0.06273888520207757 0.03721111302237301
0.05137768923939512 0.062555148190825 0.03717209698872437
0.0530810517872819 0.06237135098460343 0.03713847349918975
0.05475149637626503 0.062192976372856854 0.03708518107489195
0.0564233709633733 0.06201353857582485 0.03704173252990045
0.0579275189314129 0.06186522084768483 0.03686015343225002
0.05888336383816667 0.06182081606369137 0.03620333690142741
0.059121731353674434 0.06191335819768075 0.034914089285005834
0.05912010836732573 0.062052291462464194 0.033406960938238583
0.05913691938633009 0.06218830879726284 0.03190953599067048
0.05913364322745873 0.0623288035070663 0.03038741774588527
0.05914887531259022 0.062466361861941745 0.02887513627736621
0.05914392393704304 0.06260844339770207 0.02733777872360993
0.059144024554157126 0.0627501895653991 0.02579804313396683
0.059162773227215304 0.06288895791709534 0.024268428040265966
0.05915866962472566 0.06303280524503617 0.022710880503933772
0.05916646744864262 0.06317498683406417 0.021157242290397782
0.059170033881003115 0.06331864550750467 0.01959260308677896
0.05913769096585725 0.06346999918151465 0.017987177571362478
0.05916007030252235 0.06361129946596501 0.016425734325204167
0.05914302309733127 0.06376101172609157 0.014819908770136725
0.05913881665752102 0.06390888073975935 0.013218801125245372
0.05915099428570125 0.064054192942568 0.01162593922668953
0.05915284420942196 0.06420222577038816 0.010015834576033222
0.05915903911797121 0.0643500827824115 0.008402461446951281
0.05916265483557276 0.06449914175423008 0.006779106654957456
0.05919677923496047 0.06464280601833663 0.005177989162304941
0.05921272264249139 0.06479078000632518 0.003551727658157866
-0.05506233483396411 0.07654153195580483 0.02695136959541361
-0.04890054141555744 0.07561659956637935 0.029475042508681493
-0.04288588888887829 0.07471375415186095 0.03193845123290967
-0.037011901446954265 0.07383199110906964 0.03434459512787491
-0.031274945015415945 0.07297079822954695 0.03669460742011105
-0.025669074965621208 0.07212925136840996 0.03899126218843807
-0.020191031835526507 0.07130689373965396 0.04123554786820671
-0.01483649278246213 0.07050307640303448 0.04342923547393379
-0.010169357235131626 0.06981804293256504 0.045174973768188575
-0.009680608707895721 0.06987367233518336 0.04399906156565153
-0.009192201703824454 0.06992959032327617 0.042820477796772505
-0.008701891866312483 0.0699853976957003 0.041640806347457315
-0.00821191879824651 0.07004149472003642 0.04045844628997619
-0.007721159621035867 0.07009768174601891 0.03927418926283849
-0.007228493480641862 0.07015375783948163 0.03808884301373966
-0.006736156912714397 0.07021012519639354 0.036900782387861375
-0.006241910616695323 0.07026638140927219 0.03571163150132067
-0.005747989048233315 0.07032292996666019 0.034519748931507666
-0.005253271848982721 0.07037956961497323 0.03332594642435743
-0.0047566407469175065 0.07043609780119048 0.03213105207433764
-0.004259211225015602 0.07049271686617901 0.03093423672634049
-0.018173913846386558 0.07317835229851356 0.018867258186941793
-0.01767310526092164 0.07324034469047586 0.017609094145438153
-0.017290180493435336 0.07332419023050955 0.016258293117069
-0.01690517807720965 0.07340800771775927 0.014905315305560884
-0.01651929445476996 0.07349201704922773 0.013549240753943648
-0.016004133475379212 0.07355255217223883 0.012289518078844597
-0.015483327236919808 0.07361230120211108 0.011031453546208603
-0.014967666072807695 0.07367325656317246 0.009766651750515665
-0.014436776717358435 0.07373164656671284 0.008511068475519024
-0.013912227869969318 0.07379146448497632 0.007247808786627952
-0.013386827206594731 0.07385137954167938 0.005982497687700206
0.02726614979596531 0.06641972531281681 0.03681371609087214
0.029279798685883374 0.06618561312630154 0.036911409524177374
0.03119394751130944 0.06596914985464027 0.036939407069273844
0.03314263086163294 0.0657452634913924 0.037005436174819994
0.035032467990533944 0.06553149084246675 0.03703370419169877
0.0369248387350159 0.06531631388588696 0.03707393366399225
0.03880207497237359 0.06510306508416916 0.03711163053009592
0.0406997778221132 0.06488500905986652 0.03717621882223221
0.042538914546790874 0.064677127175913 0.03720206760592848
0.04435916525327965 0.06447193215083556 0.03722176094238272
0.046171441863476936 0.0642673597641986 0.03724431524153743
0.04793891364535213 0.06407045642948397 0.03723845378991014
0.049672091084336734 0.06387925864807487 0.037212596928570374
0.05137855257381063 0.06369234871771745 0.03717283687245865
0.053079339020729366 0.0635057052124394 0.03713699789355357
0.05475064676772412 0.06332392165180979 0.0370844452461101
0.056427585111938405 0.0631402427415224 0.03704540156284092
0.05795764642369755 0.06298420557037103 0.03688652201276993
0.058978399718520313 0.06292637579370525 0.03628695331451964
0.059314392356034584 0.06300155901754088 0.035084491843013876
0.05929398691695548 0.06314659810284905 0.03356155930399424
0.059310332530792875 0.06328510335669117 0.03206453030386147
0.05931080643352904 0.06342734148947266 0.03054659479213484
0.0593171698256183 0.0635690642886072 0.02902713794716605
0.059335361917429885 0.06370909928667065 0.02751158936508613
0.05931393074113461 0.06385758489269132 0.025953112390888433
0.05934320491816569 0.0639967191723182 0.024433965396619794
0.05933442458031518 0.06414402753210817 0.0228729703916854
0.05934771724464005 0.0642876234632199 0.021325273328247962
0.05934316953777813 0.06443542715076095 0.019753950003401577
0.059325784282442506 0.06458646930248618 0.018163378520402396
0.05933401110060432 0.06473308283727988 0.016589527445295793
0.05932510809231811 0.0648838046318567 0.014992264726863769
0.059332510981971176 0.06503194559413869 0.013403101250597793
0.0593468459889227 0.06517937545119232 0.011813262341484165
0.059346554381103145 0.06533044065805663 0.010202073496002828
0.05935145894804794 0.06548115623313745 0.00858842189979192
0.05935291323625419 0.06563327305251765 0.00696393396401751
0.059387441072625 0.06577937738696793 0.005364170615544117
0.05939683482127578 0.06593128553403867 0.003732446878467466
-0.0553146491612474 0.07795321625391763 0.02678178578432644
-0.04914629905775042 0.07701068900906415 0.029308945056826186
-0.043125329225544684 0.0760906815496903 0.03177572296098069
-0.03724651999040324 0.07519239630673996 0.03418425798567576
-0.031502421343613474 0.07431462941426387 0.0365382888724094
-0.025890883990713487 0.07345711947108458 0.038837993850092956
-0.020407371438703692 0.07261917324687826 0.04108523205195497
-0.015047551856216812 0.07180012878606362 0.04328177873734734
-0.010054947074442433 0.07104411539642852 0.0452553474186686
-0.009567370585835733 0.07110090821397073 0.04407904994118145
-0.009077893589809816 0.07115758858677172 0.04290166602295348
-0.008588755402824666 0.07121456304336518 0.04172160368792477
-0.008098833301861286 0.07127162880968084 0.04053965013406646
-0.0076070065771666195 0.07132858180908662 0.03935660861037943
-0.0071155114950287035 0.07138583052652575 0.03817086300127848
-0.006622109033273982 0.07144296626198883 0.03698402839204923
-0.006129033389720928 0.07150039881176762 0.035794472458196
-0.005635164347553623 0.07155792377516423 0.03460300243260456
-0.005139383764716843 0.07161533543317694 0.03341044183746489
-0.0046439226960651725 0.07167304556217749 0.03221513385008845
-0.00414654730077163 0.0717306421699104 0.031018734235576717
-0.018057553753879185 0.0744635054547883 0.018955000853357495
-0.017546003468558058 0.07452456106708003 0.017705455596444652
-0.01716305484507763 0.07460984968452739 0.016355193816246782
-0.01677922869665205 0.0746953337404286 0.015001837917684113
-0.016393322646709174 0.07478078935709377 0.013646301351289858
-0.01556797463714199 0.07478415775428242 0.012627386922302808
-0.015047384214077808 0.07484484079914994 0.011370972803811552
-0.014524752511399064 0.07490539710640429 0.010113454277621892
-0.014008445283649473 0.07496740548981358 0.008848254243122078
-0.01379613954172254 0.07508720261379233 0.0073396846247889
-0.013270798432462816 0.07514815190136603 0.006074818458781439
0.027247799446735332 0.06760927902874313 0.03679903708831772
0.029242475379980926 0.06737460700898457 0.03688139383102096
0.031168333007842497 0.06715205896996884 0.036918697651987076
0.03312382664043084 0.06692288261981601 0.036990151767798296
0.035002640093065196 0.06670741336351763 0.03700933030055509
0.03689619454453197 0.06648817896516489 0.03705040238816826
0.038785587656370635 0.06626879378143456 0.03709801409789293
0.040670725188140244 0.06604927500980276 0.03715209750012205
0.04247950103928605 0.06584356341241519 0.03715247683757994
0.0443225730784485 0.06563030717075734 0.03719105646054338
0.046166132957378536 0.06541602215559063 0.03723983692909494
0.04792838374070196 0.06521662107361467 0.037229524282411275
0.049670350433398736 0.06502029920941747 0.03721111302240959
0.05137855257383933 0.06482971208767109 0.03717283687248324
0.05308447726718157 0.06463872901904939 0.03714142466462389
0.0547531955803236 0.06445420551867065 0.037086652721176394
0.05642927074094417 0.06426741537576816 0.03704686914953176
0.05799278810788522 0.06410199291770081 0.036917279180354645
0.059087538826084474 0.0640284887880063 0.036382978317588466
0.059494335664522224 0.06409094005081213 0.03524364600336333
0.05947852844175899 0.0642375763604565 0.03372563830171671
0.05948523287034774 0.06438039119580799 0.03222085385182638
0.05949029069213441 0.06452417681889866 0.030707857250445503
0.059493690928696996 0.06466894198896324 0.029186569778543725
0.059515629363991684 0.06481064736301641 0.027675258039718376
