# .PCD v0.7 - Point Cloud Data file format
VERSION 0.7
FIELDS x y z
SIZE 4 4 4
TYPE F F F
COUNT 1 1 1
WIDTH 784
HEIGHT 1
VIEWPOINT 0 0 0 1 0 0 0
POINTS 784
DATA ascii
-0.03563572467431542 0.020710220133873875 0.09255195409693931
-0.03577048437250163 0.020755708766097183 0.09111403601794454
-0.03608072436004883 0.02081008147968374 0.08957305121826711
-0.036726286685190124 0.02088134011210821 0.08783829902746068
-0.038480930052726736 0.021008145049684495 0.08547334242462132
0.008834839225906055 0.01868509186348085 0.11071914277324563
0.011636936371973272 0.018580250150208186 0.11106398183669194
0.01390274316427903 0.018501892265495503 0.11111727719622214
0.015752310862638896 0.018444140152416563 0.11094251844984901
0.01734686123971907 0.0183989995235152 0.1106284966609857
0.018759000076621624 0.018362882362908256 0.11021477029043186
0.020037528607995847 0.01833337554939676 0.10972797991475075
0.02122190283793063 0.018308520398298406 0.10918993394424215
0.022335591353115747 0.018287153782513787 0.10861353711905233
0.023377696731591235 0.01826934139126247 0.10799755055662508
0.024363131346998468 0.018254344762661794 0.1073501527112738
0.02529863489580647 0.01824183649871306 0.10667481663640452
0.026163665836869243 0.018232880544581765 0.1059586346326381
0.027000768472344228 0.018225319615589194 0.10522671363315267
0.0278127824150321 0.018219016181781775 0.10448050246677376
0.028539920984028244 0.01821705004565834 0.10368302461837359
0.029207031866381072 0.018218167117180536 0.10284873781383766
0.029839570940545457 0.01822107214358834 0.10199282146617986
0.030456740880321576 0.01822478298580043 0.10112690412272235
0.031032697427723965 0.018230642933329558 0.10023458116106071
0.03154171200531608 0.018239999815656938 0.09929915055681943
0.03202278992596702 0.018250846106917053 0.09834467416373438
0.03244410353443067 0.018264848805419554 0.09735050262619419
0.03281693885674458 0.018281437447825656 0.09632323246531158
0.033117181032764065 0.018301888711981035 0.09524673884683946
0.03334995160332943 0.018325957146236655 0.09412354358584157
0.03349352774891723 0.018354805027765875 0.09293869128531973
0.033515582832302104 0.018390161829514043 0.0916699318287223
0.03329653637772123 0.01843837104536984 0.09023685861466285
0.03282007498470696 0.01850037149157974 0.08862592220420737
0.04784413597322801 0.01774212436202328 0.09736654713353243
0.04867551427742983 0.017733609907207588 0.09667495602713366
0.049506095006592366 0.017725103620655953 0.09598402839218945
0.05033587930788658 0.017716605490619687 0.09529376327441591
0.05116486832627998 0.017708115505372865 0.0946041597213553
0.05199306320455116 0.017699633653211786 0.09391521678237785
0.052820465083288304 0.01769115992245525 0.09322693350867312
0.053647075100897 0.017682694301444393 0.09253930895324691
0.05447289439360431 0.017674236778542685 0.0918523421709167
0.0552979240954648 0.01766578734213583 0.09116603221830738
0.056122165338365504 0.017657345980631737 0.0904803781538471
0.0569456192520309 0.017648912682460462 0.08979537903776269
0.05776828696402986 0.017640487436074066 0.08911103393207664
0.05859016959977459 0.017632070229946905 0.08842734190059842
0.0594112682825349 0.017623661052575065 0.0877443020089268
0.060231584133437266 0.017615259892476656 0.08706191332444108
0.06105111827147136 0.017606866738191673 0.08638017491629807
0.06186987181349518 0.017598481578281946 0.08569908585542774
0.06268784587424031 0.017590104401331064 0.08501864521452926
0.0635050415663167 0.01758173519594437 0.08433885206806643
0.06432146000021921 0.017573373950748785 0.08365970549226479
0.06513710228432695 0.017565020654393103 0.08298120456510308
0.06595196952491722 0.017556675295547438 0.08230334836631564
0.06676606282616399 0.017548337862903517 0.08162613597738366
0.06757938329014507 0.017540008345174538 0.08094956648153229
0.06839193201684685 0.01753168673109511 0.08027363896372666
0.06920371010416915 0.01752337300942121 0.07959835251066741
0.07001471864793007 0.017515067168930146 0.07892370621078684
0.07082569459664861 0.017506727934638276 0.0782502722494764
0.071635165076947 0.017498437862000404 0.07757690484316526
0.07244386929263813 0.017490155636949202 0.07690417486293225
0.073251808331255 0.01748188124834685 0.07623208140410093
0.07405898327827348 0.01747361468507659 0.0755606235637061
0.07486539521711766 0.01746535593604267 0.07488980044048998
0.07567104522916374 0.017457104990170322 0.0742196111348973
0.076475934393746 0.017448861836405677 0.07355005474907239
0.07728006378816188 0.017440626463715685 0.07288113038685534
0.0780834344876723 0.01743239886108832 0.07221283715377425
0.07888604756551398 0.01742417901753211 0.07154517415704745
0.07968790409289905 0.017415966922076375 0.07087814050557534
0.07772565971212364 0.017566765472801584 0.06791743231469666
0.07388458031493444 0.017826565517007762 0.06336540512159711
0.06992818173034554 0.018094165433827004 0.05867671424024323
0.06585040709950979 0.018369967268384378 0.05384444966449481
0.061647203806097894 0.018654260258801347 0.048863276982015535
0.05731185822011392 0.018947490986678386 0.04372550383735746
0.05283803929452063 0.01925008766644381 0.038423627372253466
0.025523148677273677 0.020888622112259655 0.01339641881558895
0.05771844900288681 0.019049541119035094 0.03965479876574873
0.058586012345458904 0.0190408973488568 0.03892462829085125
0.05945278872765014 0.019032261419379755 0.0381951201482536
0.060318779219746044 0.019023633319940326 0.03746627343717068
0.06118398489009075 0.01901501303989429 0.03673808725844896
0.062048406805094436 0.01900640056861661 0.036010560714565154
0.0629120460292314 0.018997795895501768 0.035283692909617304
0.06377408743170226 0.01898924755808633 0.03455674961846589
0.06463616703202035 0.018980658405648394 0.03383119508775273
0.06549746711904514 0.018972077019730662 0.03310629662104675
0.06635798874958299 0.018963503389803772 0.03238205332890831
0.06721773297852612 0.018954937505357657 0.031658464323500446
0.06807670085886658 0.018946379355900947 0.030935528718594285
0.06893489344169346 0.01893782893096132 0.03021324562955885
0.06979231177620132 0.018929286220085245 0.029491614173361103
0.07064816116934441 0.01892079941160209 0.028769888039605285
0.07150403668512328 0.018912272054133192 0.028049555708151708
0.07235914108457436 0.018903752379539264 0.02732987237297374
0.07321347540935541 0.018895240377441922 0.02661083715737944
0.07406704069925002 0.018886736037481394 0.02589244918625655
0.07491983799216667 0.018878239349316792 0.025174707586063605
0.07577186832415123 0.018869750302625568 0.024457611484834496
0.07662313272938509 0.018861268887103835 0.023741160012169193
0.07747363224019316 0.018852795092466117 0.023025352299233637
0.07832336788704114 0.018844328908445694 0.022310187478749743
0.07917234069854928 0.018835870324794002 0.021595664685001292
0.08001978364182794 0.018827467055709226 0.02088102130497338
0.08086723635276416 0.018819023599327318 0.020167778508231538
0.08171392929900029 0.01881058771273637 0.019455175153314463
0.08255986350180072 0.018802159385761328 0.018743210380688824
0.08340503998060522 0.01879373860824506 0.01803188333236605
0.084249459753026 0.01878532537004874 0.017321193151892067
0.08509237065897168 0.01877696712980606 0.01661036848234787
0.08593528253100191 0.018768568897453253 0.015900948026318695
0.08677744073446475 0.01876017817416954 0.015192161880856925
0.08761884627971966 0.01875179494988833 0.014484009195613823
0.08845950017532095 0.018743419214561016 0.013776489121759827
0.08929940342802323 0.01873505095815685 0.013069600811982718
0.09013855704277957 0.01872669017066326 0.01236334342047829
0.09097696202275424 0.018718336842085275 0.011657716102955962
0.08990074133312081 0.018832956986728842 0.008912433343365445
-0.05696800342779901 0.022174800924371362 0.1097992974198029
-0.054279723248613077 0.02207905264945998 0.10977329774658465
-0.0516388596537557 0.021985356836581007 0.10973568825972832
-0.049926638826996994 0.021938378107766252 0.10925430939957714
-0.04831897614822428 0.021896536826467874 0.10872703250498122
-0.04660281866394367 0.02184902595443292 0.10825862329941652
-0.04528473204518568 0.02182162333859658 0.10759724811468838
-0.04410843923205249 0.021801358186803194 0.10686797252869926
-0.04298506332111085 0.02178372491131692 0.10611441210393502
-0.04213649806247749 0.02178010516810974 0.10522326631086054
-0.0412106846264656 0.021772507621067232 0.10437207815582178
-0.040441385661262874 0.021772929568533612 0.10344125949589172
-0.03966854609659892 0.021773170688951397 0.10251222274181435
-0.03885948068149009 0.021771543234027853 0.10160202942429239
-0.03834797335165685 0.021785293843916417 0.10053607291241387
-0.03795134084734908 0.021805045460370213 0.09940785283837833
-0.03747113650074657 0.021820533512527315 0.09832153819131878
-0.037293678837578004 0.021851818581783387 0.09707173936804203
-0.03703389327508977 0.021878931922467402 0.09586228053022178
-0.03698755908216533 0.02191728480232599 0.09453417660819974
-0.03689182501421212 0.021953198251612776 0.09322816191678682
-0.036514246207364376 0.021974483583370032 0.09207174702605678
-0.036429223742701744 0.02201120092360147 0.09075181777218713
-0.03648504857889617 0.022055461136847945 0.08934940509073866
-0.03672274652318491 0.02210946776336229 0.08784026883643462
0.002829669292206627 0.020063840633812294 0.10859539086738151
0.00894494255983913 0.01977839347790429 0.11078113306297216
0.011791092953328974 0.019665039982239535 0.11115128666531543
0.014014885350613848 0.019584287158962273 0.11118116131106914
0.015869923073902392 0.019522835700019506 0.11100991205362437
0.01744557034065336 0.019476034902266078 0.11068538989949908
0.01887423570485769 0.019436901053009513 0.1102815773380115
0.020146802863273472 0.019405965602260114 0.10979170058232585
0.021321759805637497 0.019380141786278948 0.10924850226334129
0.02243946251178114 0.019357292558485846 0.10867481395215528
0.02347851459150352 0.019338585895343926 0.10805737116735115
0.02446359045576596 0.01932271600970497 0.10741010556500616
0.025397885259524466 0.01930952679189321 0.10673439039642335
0.026265254157092632 0.019299907184988956 0.10601996340890146
0.027101203376286687 0.019291953376370713 0.10528769513384623
0.02790947033272062 0.019285472086137734 0.10453954621564002
0.028667679962130377 0.01928168940491834 0.10376148977333727
0.029336292646318707 0.019282776774461836 0.10292857980057174
0.029966889605797187 0.019285945027308373 0.10207191323965376
0.03057694708846198 0.019290249844199338 0.1012020035073842
0.03115533590976427 0.019296308224727995 0.10031163638968538
0.0316728611989438 0.019305734673718298 0.09938202154375927
0.03214004759495093 0.019317969618024455 0.09841918773975036
0.03256217180633847 0.019332738571471893 0.09742595630078568
0.03293671141250065 0.019350195960224536 0.09640020811573025
0.03321630506060824 0.019372980705628134 0.09531080368417749
0.0334577623342065 0.019397972010488804 0.09419361541207291
0.03359887411662743 0.019428641970873232 0.0930075466278282
0.033596908157304706 0.01946740520653673 0.09172338537651256
0.03335556242841853 0.019519686054396704 0.0902758728565789
0.03282792535353579 0.01958818952615518 0.0886311400872569
0.04801938525941263 0.018775956511952237 0.09748368074471131
0.04885024502415719 0.01876695062951026 0.09679239488311611
0.04968030812767277 0.018757953382266025 0.09610177185372748
0.05050957571521775 0.018748964757805728 0.09541181070367868
0.051338048929854885 0.01873998474373943 0.09472251048192745
0.052165728912458076 0.01873101332770091 0.09403387023925297
0.052992616801717574 0.018722050497347625 0.09334588902825094
0.053818713734145374 0.01871309624036064 0.09265856590332988
0.05464402084407971 0.018704150544444586 0.09197189992070601
0.055468539263692995 0.018695213397327486 0.09128589013840083
0.05629227012298971 0.01868628478676109 0.09060053561623199
0.05711521454982155 0.01867736470052026 0.08991583541581558
0.057937373669885994 0.018668453126403285 0.08923178860055755
0.058758748606733247 0.01865955005223172 0.08854839423565061
0.05957934048177099 0.018650655465850347 0.08786565138806976
0.060399150414269964 0.018641769355127118 0.0871835591265682
0.061218179521368654 0.018632891707953087 0.08650211652167308
0.062036428918078645 0.018624022512242364 0.08582132264568135
0.06285389971729094 0.018615161755931985 0.0851411765726563
0.06367059302977524 0.018606309426982177 0.08446167737841948
0.06448650996419386 0.018597465513375797 0.0837828241405528
0.06530165162710072 0.018588630003118636 0.08310461593838997
0.06611601912294773 0.018579802884239268 0.08242705185301336
0.06692961355409022 0.01857098414478898 0.0817501309672502
0.06774243602079133 0.018562173772841757 0.08107385236566808
0.0685544876212274 0.018553371756494186 0.08039821513457088
0.06936576945149431 0.018544578083865337 0.07972321836199608
0.07017628260560638 0.01853579274309706 0.07904886113770579
0.07098602817551014 0.0185270157223534 0.0783751425531895
0.07179500725108345 0.018518247009820903 0.07770206170165561
0.07260322092014188 0.018509486593708463 0.07702961767802843
0.07341067026844345 0.018500734462247276 0.07635780957894411
0.07421735637969362 0.018491990603690788 0.07568663650274671
0.07502328033555 0.018483255006314644 0.0750160975494838
0.07582844321562865 0.018474527658416548 0.07434619182090399
0.07663284609750354 0.018465808548316538 0.07367691842044835
0.07743649005671926 0.018457097664356454 0.07300827645325289
0.07823937616679061 0.0184483949949002 0.0723402650261403
0.07904150549920863 0.018439700528333613 0.07167288324761703
0.07984287912344551 0.01843101425306442 0.07100613022786934
0.0779478915229721 0.018586565209425678 0.06810194312695506
0.0741129336725419 0.01886124432131763 0.06355600518771509
0.0701629267432397 0.01914416383116235 0.058873688703186156
0.06609261466984706 0.019435700204981872 0.054048763162569124
0.06189641626871506 0.01973625319542759 0.04907461266146368
0.057567570125275136 0.020046298768326348 0.043943498418106464
0.05310140013071768 0.02036618835938772 0.03864932948194649
0.0577685003858911 0.020166998980393792 0.03969814725674442
0.058635907597909376 0.020157849568622335 0.03896806940878639
0.0595025281121237 0.02014870845494007 0.03823865370730695
0.06036753672684875 0.020139627202702657 0.037509172264856394
0.0612325896414298 0.020130502604644725 0.03678107662245128
0.06209685905733503 0.02012138627094903 0.036053640433308665
0.06296034603852979 0.02011227819039298 0.03532686280190839
0.0638230516470582 0.020103178351774005 0.0346007428343551
0.0646849769430416 0.020094086743909906 0.03387527963836895
0.06554612298468626 0.02008500335563859 0.03315047232328505
0.06640568258205426 0.020075979424988195 0.03242558233331144
0.06726527584036096 0.020066912396216045 0.031702082601532344
0.06812409300319355 0.020057853553734344 0.03097923609133102
0.06898213512114065 0.020048802886461423 0.030257041918451855
0.06983940324289711 0.0200397603833355 0.02953549920023618
0.07069589841526208 0.020030726033315023 0.028814607055612618
0.07155162168315249 0.02002169982537806 0.028094364605102284
0.07240657408960105 0.020012681748522644 0.027374770970809315
0.07326075667576365 0.020003671791766507 0.02665582527642013
0.07411417048091767 0.019994669944147454 0.025937526647194398
0.07496681654247506 0.019985676194722704 0.025219874209970017
0.07581869589598028 0.01997669053256928 0.024502867093153524
0.07666903174422668 0.019967763644945333 0.023785748799688144
0.07751938328829738 0.019958794079106786 0.02307002823820281
0.07836897121560737 0.019949832567949643 0.022354950394687323
0.07921779655429029 0.01994087910062897 0.021640514403789946
0.08006586033063301 0.019931933666319412 0.020926719401709815
0.0809123982298886 0.019923046725558433 0.020212801539956526
0.08175894443968174 0.019914117279640632 0.019500284468049245
0.08260473215082015 0.01990519583443495 0.018788405805765462
0.08344976238226082 0.01989628237919332 0.018077164695474712
0.08429403615113629 0.01988737690318692 0.01736656028108219
0.08513755447276039 0.01987847939570602 0.016656591708026636
0.08598031836062653 0.019869589846060347 0.015947258123271024
0.08682232882642021 0.019860708243578454 0.015238558675307823
0.08766358688001746 0.019851834577608054 0.014530492514149895
0.08850409352949157 0.019842968837515806 0.013823058791329945
0.08934310911878829 0.01983416103468547 0.013115479178133715
0.09018211842256108 0.019825311069896517 0.012409306359364103
0.09102037933157425 0.019816468999259502 0.011703763445467086
0.08744022978908289 0.02010816426835798 0.006289411449213744
-0.05547508968513182 0.023369372809499727 0.10919483229198504
-0.05184066302056162 0.023217539929238043 0.10963742014871322
-0.04973348569212621 0.02314684569136482 0.10934895201224543
-0.04796737984386368 0.02309417113826416 0.10890038217937559
-0.04632369944802561 0.0230478772276944 0.10839709318158816
-0.04504005361349156 0.023020777175647118 0.10771938344127616
-0.043883583652381764 0.023000430194834946 0.10698090596566726
-0.042869454272271235 0.022987691801189758 0.10617283422099183
-0.04182940343354924 0.022973505119082555 0.10537940756493239
-0.04102871762619925 0.022972233627032507 0.10446516569004766
-0.04031832181447498 0.022975857752691432 0.10350459924914021
-0.03957845600100379 0.022977892851032484 0.10255887401844835
-0.03902188452840755 0.022989920004415697 0.10151742032187655
-0.038535983504678295 0.023005848292454913 0.10043752892628025
-0.0381779000315442 0.0230288238408101 0.09928838462493858
-0.037829618562359446 0.023052421452476386 0.09813136298498423
-0.03763731599229453 0.02308466638785367 0.09688834064072158
-0.0375205963899341 0.02312118677996526 0.09560096567626403
-0.03734839043970761 0.02315478699118737 0.09433928097353528
-0.03734947170684527 0.023198075461063093 0.09297949374474646
-0.03754601912640887 0.02325233278017723 0.09150777149144382
-0.03770686955536717 0.02330481613992318 0.09004928404504348
-0.03780924271402197 0.023354251345709707 0.08861694614662421
-0.039010270545077275 0.02346495759901281 0.08656744986945425
0.0035750712811574714 0.021136976079044387 0.10901260149059086
0.008909189607883117 0.02087918848211037 0.11076100346497397
0.011705672588014249 0.02076231851858962 0.11110290981179954
0.014098488032978584 0.0206676195739082 0.11122878730746052
0.01600931901201247 0.020599613700935077 0.11108978806751749
0.01749716764407433 0.020555135290351127 0.11071512918050144
0.018959715021182433 0.02051191283636592 0.11033113337237516
0.020312380157570975 0.020474728074743962 0.10988825302005342
0.021425125001063527 0.020450970269320808 0.10930912823555416
0.02257076941684405 0.020425257094412737 0.10875227598695095
0.023575741413446927 0.020407431764011767 0.10811506102381774
0.024576319601614938 0.020389787763073354 0.10747738103733884
0.025502346033385637 0.020376324690596123 0.10679709163841641
0.026372909646216414 0.020365976729631637 0.10608495492949635
0.027205072028749167 0.020357785804310476 0.10535076151867406
0.028009586999076352 0.020351148000352485 0.1046006837749851
0.02877364131339133 0.02034680831974807 0.1038265675782036
0.029468058710223677 0.02034645923100591 0.10300996925475406
0.03009930749721279 0.02034975112103376 0.10215417270923766
0.030704846364410454 0.02035454122642067 0.10128190917175059
0.031277026212156556 0.0203612811285057 0.10038809586566907
0.03180563626506111 0.020370574530275694 0.09946591989239403
0.03226153351882921 0.020384130111191702 0.0984963882393187
0.032674133881129774 0.02040026021419766 0.09749750769915366
0.033040907173684686 0.020419127703583038 0.09646717284264436
0.033345512900744056 0.02044170406754858 0.09539431198626264
0.03355688950787267 0.02046983077660439 0.09425804334082757
0.03368603905851042 0.020502895170294477 0.09306451842532384
0.03365917430360721 0.020545265984014748 0.09176431169838084
0.03344926874411758 0.020598591411339864 0.09033780959174162
0.03300315860073044 0.02066607603073215 0.08874761188752331
0.04819365240884438 0.01980875540770747 0.09760015791256282
0.049023996627092004 0.01979925908370647 0.09690917564354878
0.04985354509220463 0.019789771860425878 0.09621885557132479
0.05068309084249423 0.019780246592579837 0.09552973493151909
0.05151025933426384 0.0197708246637464 0.09484019821322948
0.05233742739136221 0.019761364664270267 0.09415185902990006
0.05316380425563916 0.019751913713359943 0.09346417824843559
0.053989391061725955 0.019742471798039073 0.09277715492463792
0.05481418894208656 0.019733038905356028 0.09209078811611415
0.055638199027017554 0.01972361502238416 0.09140507688226901
0.05646142244466157 0.01971420013622125 0.09072002028430587
0.05728463352331248 0.019704747460891292 0.09003616655816449
0.0581062846640496 0.019695350574338487 0.08935241778308095
0.058927152513093106 0.019685962645972 0.08866932083537704
0.05974723818999478 0.01967658366298795 0.0879868747834027
0.06056654281217477 0.019667213612606777 0.0873050786972833
0.06138506749492173 0.01965785248207351 0.08662393164891152
0.062202813351406205 0.019648500258657175 0.08594343271194954
0.06301978149267984 0.019639156929651125 0.08526358096182021
0.06383597302768201 0.01962982248237284 0.08458437547570438
0.06465138906324491 0.019620496904163932 0.08390581533253652
0.06546603070409812 0.01961118018239004 0.0832278996130004
0.06627989905287429 0.019601872304440774 0.08255062739952534
0.06709299521011347 0.019592573257729708 0.0818739977762816
0.06790532027426965 0.019583283029694185 0.08119800982917763
0.06871687534171061 0.019574001607795606 0.08052266264585178
0.0695276615067304 0.019564728979518897 0.07984795531567415
0.07033767986154921 0.019555465132372767 0.07917388692973865
0.07114693149631973 0.019546210053889564 0.07850045658085986
0.07195541749913165 0.019536963731625237 0.07782766336356886
0.07276313895601683 0.019527726153159262 0.07715550637410928
0.07357009695095401 0.019518497306094607 0.07648398471043324
0.0743762925658753 0.019509277178057564 0.07581309747219836
0.07518172688066516 0.01950006575669806 0.07514284376075941
0.07598640097317366 0.019490863029689075 0.07447322267917092
0.07679031591921565 0.019481668984726943 0.0738042333321785
0.07759347279257733 0.019472483609531188 0.07313587482621647
0.07839587266502063 0.019463306891844487 0.07246814626940343
0.07919751660628777 0.019454138819432625 0.07180104677153828
0.07999840568410693 0.01944497938008441 0.07113457544409685
0.07816980003470303 0.01960488135846814 0.0682861855159731
0.07434094991968926 0.019894395663753027 0.06374632387730039
0.07039732001557109 0.020192588917003165 0.05907036802073884
0.06633367054813849 0.020499857318003124 0.05425210515413659
0.06214443788277235 0.020816621554887442 0.04928493848455523
0.05782370911024104 0.021143328725807636 0.044161857084692224
0.05336434117907268 0.02148051002736841 0.03887467183047333
0.057817702562501405 0.021284167600984734 0.03974076026724954
0.0586849562997771 0.0212745128095821 0.039010773480571914
0.05955142359732046 0.021264866773300983 0.03828144865772265
0.0604171055243819 0.021255229480237798 0.03755278489869107
0.06128200314827531 0.021245600918510472 0.036824781305098364
0.06214529668367097 0.02123603540118349 0.03609670714791241
0.06300863147447883 0.021226424217405775 0.03537001966873782
0.06387118514814388 0.021216821729513686 0.03464398967267118
0.0647329587642812 0.02120722792571091 0.03391861626781234
0.06559395338059182 0.021197642794222336 0.03319389856387539
0.06645417005286042 0.021188066323294466 0.03246983567217848
0.06731360983496953 0.021178498501194708 0.03174642670564942
0.06817227377889751 0.02116893931621176 0.031023670778816403
0.06902936259154413 0.021159442690416374 0.030300825034583145
0.0698864805521166 0.021149900695984974 0.029579371033612023
0.07074282581480545 0.021140367303728955 0.02885856742850429
0.07159839942403085 0.02113084250202104 0.02813841334015349
0.07245320242232967 0.02112132627925501 0.02741890789103496
0.07330723585036347 0.021111818623845438 0.026700050205205883
0.07416050074691599 0.02110231952422807 0.02598183940829535
0.07501299814890727 0.02109282896885911 0.025264274627510075
0.07586472909139058 0.021083346946215668 0.024547354991624193
0.076715694607561 0.02107387344479543 0.0238310796309798
0.07756512063747056 0.021064461903768147 0.02311469080015377
0.07841456089560345 0.021055005362389908 0.02239969991358093
0.079263238811703 0.021045557307916747 0.021685350705578865
0.08011115541157077 0.021036117728928744 0.020971642312710037
0.08095831171917067 0.021026686614026315 0.02025857387308727
0.08180470875662632 0.02101726395183066 0.019546144526363607
0.08265034754423461 0.021007849730983044 0.018834353413738014
0.0834952291004637 0.020998443940145155 0.01812319967794629
0.08433859924978776 0.020989099636874137 0.017411913874897322
0.08518197186062265 0.020979710624654282 0.01670203087685873
0.08602459028044657 0.02097033000861454 0.01599278269595511
0.0868664555204674 0.020960957777497423 0.015284168481033922
0.08770756859008749 0.020951593920065452 0.014576187382465022
0.08854793049690207 0.02094223842510153 0.013868838552131335
0.08938754224671175 0.020932891281408274 0.013162121143434402
0.09022640484352068 0.0209235524778084 0.012456034311284947
0.09106451928954251 0.020914222003144526 0.011750577212101432
-0.05512479091444461 0.024579688325400643 0.1093643499657633
-0.051573253144223896 0.024424487143577516 0.1097676353370444
-0.04934890051551327 0.024343447734005118 0.10953739392354284
-0.04758882571156614 0.024288301760147547 0.10908702303640552
-0.0460270859943272 0.024244162748477238 0.10854424188236478
-0.04477075578550527 0.024217152207949254 0.10785380795079566
-0.0435609158349366 0.024192679790505277 0.10714296547816149
-0.04252653567166298 0.0241780869660559 0.1063461254194471
-0.04160965043106418 0.024170128583818035 0.105491140256298
-0.04078243056304298 0.0241672541546984 0.10459115697081503
-0.04004900317071586 0.02416972746076763 0.10364321490992257
-0.039358657027648514 0.024174675591337038 0.10267269233157289
-0.03885364114579237 0.02419026875567552 0.10160507170366745
-0.03835731151200039 0.02420641848543051 0.1005311783919392
-0.03792099576564939 0.024226081872187458 0.09942385427619344
-0.0376613945441544 0.02425600723908487 0.09822060604844085
-0.037519200431570754 0.024292825813534903 0.0969513787703771
-0.03741052159939967 0.024331720984530753 0.09566006572501168
-0.03737066982073817 0.024374751768954577 0.09432724722420857
-0.03740821651295556 0.024422439235939803 0.09294757400450263
-0.03779590988551901 0.024490682857203516 0.09137117915425155
-0.038115941542157084 0.02455523710704286 0.08982434935289274
-0.039145397442936714 0.024661475702298017 0.08787787137204714
-0.04043946586688352 0.02478360073009494 0.08577222022565373
0.004663695983747329 0.02218561537384631 0.10962191807055849
0.009345284751639094 0.021952473770221984 0.1110065333989376
0.012033213050816727 0.02183579363991413 0.1112884086320299
0.014250896484750475 0.021746401516689242 0.11131560993286913
0.01614314877574452 0.021675896984675976 0.11116647457798623
0.017724203649760184 0.021623545288061898 0.1108459865533308
0.019158411723391056 0.02157970307324123 0.11044632639246416
0.020434005505865604 0.0215451183211474 0.10995917593202117
0.021629898634608846 0.021515146123190644 0.10942923249856146
0.022693118105693633 0.021492972749868777 0.10882445329086601
0.02366585021926476 0.021476121970693197 0.10816852738186691
0.02468809801831784 0.021456241447187073 0.10754408912532848
0.025606745799830355 0.021442499555673063 0.10685975626148891
0.02648137463617095 0.021431350508411422 0.10615043514500438
0.027310624230276803 0.021422891286102252 0.10541485011136442
0.028117475650588586 0.021415750809001724 0.10466656739930644
0.028896025926858138 0.021410293655241747 0.10390173198389549
0.02958933536125885 0.021409978904856963 0.1030848795931241
0.03023508407473796 0.021412549642585234 0.10223851863205624
0.03083955866399335 0.02141764047453371 0.10136607130415262
0.03140380523754721 0.02142520246375692 0.10046775264732327
0.03193228252161717 0.021434977939792946 0.09954594554853974
0.03238465675498253 0.021449447283314067 0.09857462919955565
0.03281441605693691 0.021465359775599543 0.0975871575726828
0.03314848230996992 0.02148721199553514 0.09653630943267669
0.03343590161012011 0.021512021101057592 0.09545273110107583
0.033652515473961475 0.021541294224472797 0.09432019565186811
0.03376971099534565 0.021576825662471048 0.09311920716300282
0.03372746857579223 0.021622368157160014 0.09180920018965866
0.033534255095694854 0.02167745640976798 0.0903939827227715
0.03312859105263094 0.021745968587449684 0.08883098273020626
0.04836853648862244 0.020840430642323122 0.09771704742605569
0.04919836342243461 0.020830444948712733 0.09702636988297084
0.05002739551381913 0.020820468819812362 0.09633635389925665
0.050855633904229036 0.020810502241886356 0.09564699852486494
0.05168307973293301 0.020800545201225342 0.09495830281156598
0.05250973413702009 0.02079059768414618 0.09427026581294365
0.05333559825140666 0.020780659676991806 0.0935828865843926
0.054160673208836 0.020770731166131515 0.0928961641831097
0.05498496013989157 0.020760812137960386 0.0922100976680956
0.0558084601729974 0.02075090257889954 0.09152468610014686
0.056631174434423615 0.02074100247539603 0.09083992854185224
0.057453104048292125 0.02073111181392275 0.0901558240575886
0.05827425013658166 0.02072123058097839 0.08947237171351655
0.05909461381913267 0.020711358763087377 0.08878957057757628
0.059914196213654514 0.020701496346799693 0.08810741971948449
0.06073299843572377 0.02069164331869122 0.08742591821072576
0.06155102159879894 0.02068179966536309 0.08674506512455477
0.062368266814218865 0.020671965373442035 0.08606485953598769
0.06318473519120993 0.020662140429580186 0.08538530052179943
0.06400042783689036 0.02065232482045508 0.08470638716051881
0.06481534585627619 0.020642518532769497 0.08402811853242542
0.0656294903522851 0.020632721553251507 0.08335049371954437
0.06644286242574371 0.02062293386865426 0.08267351180564383
0.06725546317538644 0.0206131554657563 0.08199717187622663
0.06806729369786929 0.020603386331360954 0.08132147301853232
0.06887835508776846 0.020593626452296673 0.0806464143215288
0.06968864843758765 0.020583875815416812 0.07997199487590972
0.070498174837762 0.020574134407599646 0.07929821377408974
0.0713069353766636 0.020564402215748265 0.07862507011020092
0.07211493114060619 0.020554679226790534 0.07795256298008849
0.07292216321384976 0.02054496542767903 0.07728069148130676
0.07372863267860746 0.02053526080539087 0.07660945471311653
0.07453434061504421 0.020525565346928072 0.07593885177647614
0.07533928810129015 0.020515879039316887 0.07526888177404442
0.07614347621343975 0.020506201869608155 0.07459954381017209
0.07694690602555826 0.020496533824877133 0.07393083699089903
0.07774957860968629 0.020486874892223426 0.0732627604239503
0.07855149503584447 0.020477225058770965 0.07259531321873192
0.07935265637203853 0.020467584311667918 0.07192849448632727
0.08015306368426528 0.020457952638086547 0.07126230333949407
0.07839210486246878 0.0206216684890297 0.06847075695146393
0.07456936847571166 0.02092597281135546 0.0639369783626848
0.07063136233731704 0.021239444224863343 0.05926675285577093
0.06657436001210643 0.021562396870765815 0.05445513805795721
0.06239207667336144 0.021895322356605858 0.049494939667952154
0.05807861826350336 0.022238689871537955 0.04437916731887731
0.053627715106522755 0.02259299850535666 0.0391003851594634
0.05786688985542088 0.022400998277313393 0.03978336038729097
0.05873399017110953 0.022390838412360916 0.03905346464020648
0.059600304305011786 0.0223806877591466 0.038324230674375404
0.06046583332586525 0.02237054630514797 0.037595657590170806
0.061330578300473226 0.022360414037865112 0.03686774448959734
0.062194540293702305 0.022350290944821088 0.03614049047628132
0.06305772036849638 0.0223401770135612 0.03541389465547612
0.06392011958587462 0.0223300722316534 0.034687956134052345
0.06478173900493883 0.022319976586688023 0.03396267402049713
0.06564176936658189 0.022309947026665996 0.03323731172139488
0.06650183491955669 0.02229986956700016 0.03251333824022107
0.06736112383575377 0.022289801207252227 0.03179001850506219
0.0682196371666502 0.02227974193510193 0.031067351630822082
0.06907737596182717 0.022269691738251118 0.03034533673400297
0.06993434126896814 0.022259650604424166 0.02962397293269614
0.07078973911467523 0.022249675174406378 0.028902514593186823
0.07164595560045445 0.02223959547684868 0.02818319509694628
0.07250060671074793 0.02222958145865879 0.02746377930662791
0.07335448850490767 0.022219576454610132 0.0267450111000615
0.07420760202122062 0.02220958045253691 0.02602688960325622
0.0750591659109427 0.02219964983886801 0.02530866173462104
0.07591074849309781 0.02218967175364852 0.02459182955943523
0.07676156589687444 0.02217970263410665 0.023875641484420007
0.07761161915311843 0.022169742468164035 0.023160096641840933
0.07846013693315579 0.02215984744028063 0.022444436041444082
0.07930866747688847 0.0221499050949718 0.021730173596387903
0.08015643695038083 0.02213997166722399 0.021016551792852334
0.08100344637710832 0.022130047145045146 0.020303569769307916
0.08184969677871651 0.022120131516464407 0.01959122666577362
0.08269518917501917 0.022110224769532463 0.01887952162380735
0.0835399245840055 0.02210032689232128 0.018168453786505945
0.08438390402183826 0.022090437872924508 0.017458022298495413
0.08522712850286668 0.022080557699456764 0.01674822630593653
0.08606959903962452 0.022070686360054038 0.01603906495651536
0.08691131664283569 0.02206082384287352 0.015330537399441568
0.08775153720352097 0.022051025782031292 0.014621868644008551
0.0885917544166061 0.022041180824174864 0.013914604686970033
0.08943122171341855 0.02203134465320548 0.013207971981889888
0.09026994009749095 0.022021517257364575 0.012501969684031389
0.09110791057056805 0.02201169862491443 0.011796596950166383
-0.05460530900929067 0.02577807310688209 0.10961573926969614
-0.05122611158221391 0.025625226491314206 0.1099366758545218
-0.048882049531980054 0.02553302114356272 0.10976614504807361
-0.04725156316754314 0.02548274264807231 0.10925330564935312
-0.04569522247419988 0.025436680745969272 0.10870887799449322
-0.044452070273931166 0.025409067154965156 0.10801288514761026
-0.043249348987583036 0.025383760494223646 0.10729944954214801
-0.042202978827897863 0.025367688861482735 0.10650963230745203
-0.04134085059808362 0.02536256986730324 0.10562781064731838
-0.0404977980589421 0.0253585742807177 0.10473676434978219
-0.039737957307699634 0.025359555537020156 0.1038033071606253
-0.03914842534790852 0.025370775283772663 0.10278155642128209
-0.03859802797024814 0.025384392550204426 0.10173824097126155
-0.038089004416033134 0.025400555682095198 0.10067180936489273
-0.03769821016492958 0.025423923144411147 0.09954133261984416
-0.03743380543622088 0.025455029020138357 0.09834134237026967
-0.03729951831461614 0.025494142532330136 0.09706862284632045
-0.03709934537471593 0.025529397883819117 0.09582713876651947
-0.03715969674594155 0.025580645331518832 0.09444119999036965
-0.03731775633752843 0.02563804370697281 0.09299672669549333
-0.037788833422570556 0.025714784573873266 0.09137504720690234
-0.038284056894475615 0.025793291351831768 0.0897319084714813
-0.03917876107334173 0.025896595916710362 0.08785941675965306
-0.041169751080922246 0.026067658621441656 0.0853658765707509
0.0043983787336340785 0.02331123127816046 0.1094734167559541
0.009529192067214642 0.023038753216797013 0.11111007674651946
0.012277795058220131 0.02291246784876987 0.11142692487345765
0.01439400897440285 0.02282486029950516 0.11139713692127379
0.016253234757485968 0.022752862545396456 0.11122955553662989
0.017862457811761434 0.02269612950717444 0.11092567248846497
0.0192266917026388 0.02265443626578153 0.11048591123173795
0.020527851645736006 0.02261651904826539 0.11001390006321471
0.021721526440521666 0.022585175706876563 0.10948297423234621
0.02281538376464476 0.02255996381795282 0.10889658161285673
0.023763858482382272 0.022543777964552262 0.10822668090903953
0.024786616426041574 0.02252285950577363 0.10760288379074676
0.025723355761837097 0.022507278937899933 0.10692974989810805
0.02659239541366648 0.02249591100645791 0.10621745828711993
0.027427443697774112 0.02248664857001232 0.10548577989930238
0.028233991303410644 0.022479155991945988 0.10473771921546587
0.029007053648780146 0.022473760023064247 0.10396992137876454
0.02972697012113734 0.02247172344349367 0.10316989403197918
0.03037507527487493 0.022474255464490805 0.10232548272540173
0.03096554226961773 0.022480477851351165 0.10144478014462133
0.03153566189245255 0.022488026429484578 0.10055059976447919
0.03205109183509969 0.022499110529714737 0.09962101917113395
0.032505973385124454 0.022514127318047316 0.09865172211825698
0.03292105857127303 0.022531764479453615 0.09765530940927969
0.03324739304442936 0.022555194346582968 0.09659987756871874
0.0335305444369558 0.022581507052897444 0.09551389969398227
0.03374464593395371 0.022612394366381107 0.09438007605088466
0.033835240389587296 0.022651416118192356 0.09316203777010351
0.03379660012806901 0.022698993147161933 0.09185463900878821
0.0336217998413903 0.02275562764683926 0.09045184686659766
0.033236530315192636 0.022826223144607256 0.08890272642286307
0.04854323797659604 0.021871028732368205 0.09783381489832435
0.04937254825324017 0.021860554695686086 0.09714344182161039
0.05020106459661383 0.021850090686236855 0.09645372966776117
0.0510287881462716 0.02183963668962805 0.09576467748813844
0.051855720039583664 0.021829192691495043 0.09507628433591536
0.05268186141175041 0.021818758677500348 0.0943885492660787
0.053507213395801057 0.021808334633334002 0.09370147133541992
0.05433177712260062 0.021797920544713367 0.09301504960253215
0.05515555372085529 0.021787516397383067 0.092329283127806
0.05597854431711713 0.021777122177114944 0.09164417097342498
0.05680075003578966 0.02176673786970795 0.09095971220336155
0.05762217199913239 0.02175636346098816 0.09027590588337234
0.05844281132726831 0.021745998936808498 0.08959275108099582
0.05926266913818201 0.021735644283049183 0.08891024686554283
0.060081746547734405 0.021725299485616988 0.0882283923080994
0.06090004466966159 0.02171496453044561 0.08754718648151807
0.061717564615581366 0.021704639403495506 0.08686662846041476
0.06253430749499844 0.0216943240907538 0.08618671732116459
0.06335027441530916 0.021684018578234272 0.0855074521418977
0.06416546648180671 0.021673722851977245 0.08482883200249497
0.06497988479768746 0.021663436898049452 0.08415085598458513
0.0657935304640504 0.021653160702544354 0.0834735231715363
0.0666064045799104 0.02164289425158149 0.08279683264845816
0.06741850824219764 0.021632637531306818 0.0821207835021936
0.06822984254576392 0.021622390527892534 0.08144537482131575
0.06904040858338739 0.021612153227537036 0.08077060569612374
0.06985020744577802 0.021601925616464825 0.08009647521863889
0.07065924022158171 0.02159170768092649 0.0794229824826003
0.07146750799738716 0.021581499407198515 0.07875012658346206
0.072275011857725 0.02157130078158361 0.0780779066183849
0.07308175288508084 0.02156111179041008 0.07740632168623854
0.07388773215989469 0.021550932420032153 0.07673537088759333
0.07469295076056731 0.021540762656829786 0.07606505332471755
0.07549740976346453 0.02153060248720867 0.07539536810157299
0.07630111024292269 0.0215204518976001 0.07472631432381141
0.0771040532712528 0.021510310874460984 0.07405789109877003
0.07790623991874585 0.021500179404273706 0.07339009753546819
0.07870767125367872 0.02149005747354602 0.07272293274460415
0.07950834834231313 0.02147994506881138 0.07205639583854648
0.08030827224890918 0.021469842176628274 0.07139048593133729
0.07861336784490464 0.0216370247996967 0.06865446338150238
0.07479671164911117 0.021956076931719855 0.06412673525671703
0.07086581266742847 0.022284679152236506 0.05946348005048807
0.06681468389656248 0.022623322548600906 0.05465786257823402
0.06263933352613571 0.022972359458439843 0.04970461696270101
0.0583331281050819 0.023332335149092425 0.04459613713956839
0.05388981822985428 0.023703772037196702 0.03932500940028566
0.05791689557400714 0.023517430883352664 0.03982666932925727
0.0587838399222298 0.023506766305381413 0.03909686614257585
0.05964999835085416 0.02349611139527541 0.038367724551554905
0.060514546409417724 0.023485526255489147 0.03763851733221946
0.06137913878749146 0.0234748905872802 0.03691069470320907
0.062242948440474066 0.02346426454766029 0.036183530980104905
0.06310597643080085 0.02345364812355991 0.035457025268541
0.06396822381898448 0.023443041301933257 0.03473117667576847
0.06482969166362068 0.023432444069758047 0.0340059843106536
0.06569038102138774 0.023421856414035862 0.03328144728366916
0.06655029294705961 0.023411278321791424 0.03255756470689919
0.06740862353702148 0.023400769462549764 0.03183359718535966
0.06826698630664757 0.023390210404580395 0.03111101934284516
0.06912457479280909 0.02337966087137659 0.030389093299419023
0.06998139004269543 0.023369120850056352 0.029667818173550464
0.07083743310160734 0.023358590327760994 0.028947193085296474
0.07169270501296188 0.02334806929165501 0.028227217156299056
0.07254720681829885 0.023337557728925897 0.027507889509783834
0.07340093955727872 0.023327055626784537 0.026789209270550174
0.07425390426769568 0.02331656297246451 0.026071175564976345
0.07510610198547624 0.02330607975322245 0.025353787521010474
0.07595675410730218 0.023295665103892558 0.024636290802578675
0.07680742344923203 0.02328520066354162 0.023920189993037577
0.07765732889095728 0.023274745620247346 0.023204732241299486
0.07850647146098894 0.02326429996135758 0.022489916681555477
0.07935485218599392 0.023253863674242738 0.02177574244955205
0.08020247209079323 0.02324343674629623 0.02106220868258113
0.08104933219837507 0.023233019164933734 0.02034931451948574
0.08189543352989292 0.023222610917593593 0.019637059100650722
0.08274001741925657 0.0232122707165742 0.018924676349836078
0.08358460673060036 0.023201881047125696 0.018213694391427282
0.08442844031425573 0.02319150067422001 0.017503348610566516
0.08527151918409398 0.023181129585384933 0.01679363815377216
0.08611384435217245 0.023170767768170678 0.01608456216908727
0.08695541682874058 0.023160415210149606 0.015376119806078614
0.08779623762223948 0.023150071898916588 0.014668310215828262
0.08863630773931347 0.02313973782208834 0.013961132550938171
0.08947562818480892 0.02312941296730377 0.013254585965521315
0.09031419996178097 0.023119097322223742 0.012548669615201125
0.09115128895573271 0.02310884907724158 0.011842603011194663
-0.05380756469114861 0.02695637231467191 0.11000178618849055
-0.05086983735029493 0.026823450298994213 0.11011016352387129
-0.048581777183394736 0.02673028269814547 0.10991327473147827
-0.046929146907748465 0.02667620236443885 0.10941226850806829
-0.04539235507629075 0.026629125814914126 0.10885912925098287
-0.044101945980751844 0.026597220331254574 0.10818765553745496
-0.04293705933967196 0.026573029127175966 0.10745629663182113
-0.04195975314837114 0.026560472955652156 0.10663254447793657
-0.04100796420908892 0.0265494685357572 0.10579706563696925
-0.04017380638310181 0.02654580242231406 0.10490250641383525
-0.03949388480179927 0.02655181538158974 0.10392892888221117
-0.03892907335765433 0.026565097535724697 0.10289514327353225
-0.03834039424235358 0.026576923220594684 0.10187246290555035
-0.03786295871651285 0.026595822077816425 0.10079028937206844
-0.037491964821323054 0.026621529358718414 0.09965008902633665
-0.03722044568429295 0.026653641043832808 0.09845452999997653
-0.03703573596499232 0.026691388020423947 0.09720940316226304
-0.0368983787831787 0.026732289894893145 0.09593503936118639
-0.03693372184502747 0.02678435885245115 0.0945632556842868
-0.03722263893547417 0.026852825115015314 0.0930484099500187
-0.037548375200417816 0.026923904575585057 0.09150648364207867
-0.03809700737780175 0.027009546427239062 0.08983476060217876
-0.03949120504817066 0.027149844158440097 0.087686592867878
-0.041563004195554754 0.027334292867552713 0.08514706355793092
0.0048394079437728 0.024392843465576415 0.10972026620677791
0.009673563728764045 0.024126507129270933 0.11119136076225317
0.01239071267500591 0.02399622698964155 0.1114908744829739
0.014506769374712014 0.023904443994705624 0.11146137321449207
0.016335983178045466 0.023830954366974046 0.1112769716527654
0.017987067911559018 0.023768783756186598 0.1109974943575921
0.01934971063919466 0.023725193460630185 0.11055723059774902
0.020639509920306442 0.02368619789474787 0.1100790109146027
0.021830885200254335 0.023653498638270144 0.10954711556252472
0.022978275631705014 0.023623559986687987 0.10899267660091624
0.023913857635367075 0.023607430404201993 0.10831568340272221
0.0248929906328077 0.02358837023194539 0.1076663667077006
0.025834634127615275 0.023571710585094465 0.10699654331235675
0.026710333840988976 0.023559346773461727 0.10628865760812659
0.02754331553018191 0.023549765082334483 0.10555613430749086
0.02835564238352778 0.02354151722166056 0.10481200704785959
0.029117145181623727 0.023536617384476367 0.10403753579861266
0.02985066331595343 0.02353356322438508 0.1032462970246299
0.03049423943627988 0.023536502120031534 0.10239950883022633
0.031092297746979913 0.02354249743664141 0.10152397121552925
0.0316588110884406 0.023550630581424137 0.10062797588080033
0.03217068082672209 0.023562465395483453 0.09969658545933413
0.03262290849782157 0.023578360058357496 0.0987260307198555
0.033030213843566636 0.02359734612062796 0.09772506706950887
0.03335570062076171 0.023621934435999695 0.09666948488469213
0.03363029410170809 0.023650064936108082 0.09557836888662774
0.03381091536444497 0.023684680435721837 0.09442314801579996
0.03390074519819558 0.0237256034039996 0.093204852307811
0.033872613236239246 0.023774721605293113 0.09190460094020547
0.0337084346084317 0.02383331796286778 0.0905091095450212
0.033354838762910344 0.023905097964853465 0.08898136217328717
0.048716960681224386 0.0229006059242455 0.09794992816862569
0.04954575728173455 0.022889644516397988 0.09725985791055411
0.050373760852445215 0.022878693596918936 0.09657044794265424
0.05120097253101902 0.022867753150762133 0.09588169731768426
0.052027393452948545 0.022856823162909795 0.09519360509021663
0.052853024751554845 0.022845903618372944 0.0945061703166293
0.0536778675579942 0.02283499450219124 0.0938193920551027
0.05450192300126355 0.022824095799432897 0.09313326936561522
0.055325192208205365 0.02281320749519462 0.09244780130993913
0.05614767630351292 0.02280232957460155 0.09176298695163601
0.056969376409736816 0.02279146202280706 0.09107882535605394
0.05779029364728422 0.02278060482499315 0.09039531559031863
0.05861042913443282 0.02276975796636972 0.08971245672333572
0.05942978398733012 0.022758921432174915 0.08903024782578237
0.06024835931999961 0.022748095207674998 0.08834868797010395
0.061066156244346304 0.022737279278164227 0.08766777623051
0.061883175870161455 0.022726473628964825 0.08698751168296986
0.06269941930512757 0.022715678245426897 0.0863078934052087
0.0635148876548235 0.022704893112928393 0.08562892047670306
0.06432958202273104 0.022694118216874882 0.0849505919786781
0.06514350351023379 0.022683353542699958 0.08427290699409898
0.06595665321663091 0.022672599075864528 0.08359586460767304
0.0667690322391366 0.022661854801857142 0.08291946390584182
0.06758064167288602 0.022651120706193868 0.08224370397677752
0.06839148261094041 0.022640396774418193 0.08156858391037913
0.06920155614429196 0.022629682992100966 0.08089410279826842
0.0700108633618689 0.022618979344840338 0.08022025973378583
0.07081940535054154 0.022608285818261586 0.07954705381198734
0.07162718319512151 0.02259760239801748 0.07887448412963621
0.07243419797837525 0.02258692906978758 0.07820254978520544
0.07324045078102304 0.022576265819278584 0.07753124987886942
0.0740459426817453 0.022565612632224178 0.07686058351250091
0.07485067475718743 0.02255496949438496 0.07619054978966713
0.07565464808196448 0.022544336391548386 0.07552114781562572
0.07645786372866625 0.02253371330952868 0.07485237669732078
