# .PCD v0.7 - Point Cloud Data file format
VERSION 0.7
FIELDS x y z
SIZE 4 4 4
TYPE F F F
COUNT 1 1 1
WIDTH 761
HEIGHT 1
VIEWPOINT 0 0 0 1 0 0 0
POINTS 761
DATA ascii
-0.041021647759732736 -0.05881532974188264 0.027039430756881366
-0.04089919341614026 -0.060513388377421096 0.027047817830975318
-0.0407807454688178 -0.06217555338386338 0.027032497578402204
-0.04065762098342724 -0.06387019820671191 0.02705607367038093
-0.040529597417117834 -0.06559881527586836 0.027120460460413776
-0.040397292932231085 -0.06735631182565827 0.027221469245375995
-0.04026595250528989 -0.0691015677561505 0.027321067883125605
-0.04013781901301454 -0.07081718888036231 0.027402766794692723
-0.04000479968533177 -0.07256615068929212 0.02752580926909992
-0.03988216267243411 -0.07422997604541581 0.027578025270936224
-0.03981502723481297 -0.0754606855874338 0.027225393993865754
-0.039843368148663516 -0.07595317046430095 0.026168173108393866
-0.03990158827945128 -0.076216924601479 0.02488771562039055
-0.039997983688872384 -0.07618990778918111 0.023320290115642628
-0.040102001757868794 -0.07610799449175487 0.021691794331926195
-0.04017626571578426 -0.07625698278573662 0.020281871974653698
-0.04017759985602517 -0.07696417541344264 0.01941693320140947
-0.040137716590281085 -0.07798465866972554 0.018862606774613377
-0.04010230849268513 -0.078969787314771 0.018276151661779927
-0.04008626240928231 -0.07980719600813385 0.017544441579088688
-0.04009045154922034 -0.08049133246972229 0.016659603105643683
-0.0401084441482937 -0.08107170120678453 0.01566937025008197
-0.04017226383003457 -0.0813085282391191 0.014328082117579188
-0.040901533238577044 -0.07656165697930506 0.007883404135587302
-0.04099555956246904 -0.07658913556674801 0.006290347054975165
-0.04108594052526313 -0.07664715508588194 0.00472138524074367
-0.03988444600673597 -0.05879672655091406 0.02702254052585218
-0.039768068289156015 -0.060473129996576835 0.02701107499250527
-0.039652367746290156 -0.06213977884276528 0.026999676174401466
-0.039530797217485994 -0.06384957234313349 0.027037051486710317
-0.03940479064003584 -0.06559063577259394 0.0271128774997767
-0.03927756700533067 -0.06733685273862089 0.027203335124767802
-0.03915136271892139 -0.06907022260719808 0.027291704566738295
-0.039016109246231216 -0.07087135549934309 0.027453773328713904
-0.03889296172488688 -0.07257088832189157 0.02753029376266547
-0.03879498233258884 -0.07406546305492934 0.027421491221588823
-0.03874308529109454 -0.07519029307772945 0.026966776104756063
-0.03874092592771008 -0.07591894119104259 0.02613526404025618
-0.03876705074856687 -0.07642381779869306 0.025087663529653803
-0.03882739006115077 -0.07665968891472874 0.023776660812518724
-0.03892275924219015 -0.07662202097208143 0.022193741515631304
-0.03902138593717316 -0.07656227266096671 0.02058153565999754
-0.039096609179870345 -0.07668951949030872 0.01914593978276391
-0.039149959439955306 -0.07699050847689248 0.017876625334382557
-0.03917583610009172 -0.0775077111740044 0.016818570894058582
-0.039186879189034754 -0.07814127219434769 0.015875032994135896
-0.03922809469854772 -0.07854104609729906 0.014695113403454474
-0.039329086022950446 -0.07847946288003987 0.013044733593652547
-0.03962791171008551 -0.07689330207635114 0.009834536368882207
-0.03972354383550156 -0.07688407296381627 0.008213236917127553
-0.039804816609062085 -0.07698875625764362 0.006701274717141936
-0.039894018795708114 -0.07703560625594946 0.0051228922701825885
-0.040028940967333886 -0.07673590064547231 0.0031771465928839837
-0.03874842764723814 -0.05876712616491975 0.02699566570857803
-0.03862952718855575 -0.06049242172479541 0.02702868208049236
-0.03851674632328824 -0.06216224285856947 0.02702028581789534
-0.03839816946984618 -0.06387597297075709 0.027061399441197953
-0.03828012318126416 -0.06558081981221459 0.027103777431144838
-0.03815456679805198 -0.0673433393674932 0.027209380080015944
-0.03803499209224079 -0.06905173407200627 0.02727438499013657
-0.03792245614524138 -0.0706976371953843 0.027290189764745787
-0.03781809236162421 -0.07227213480085243 0.02724750310411106
-0.037759069899513546 -0.07347097524630675 0.026855836292478286
-0.03771698262586121 -0.07452906840043538 0.02633434538226309
-0.03768990089519196 -0.07546312116394338 0.025697024752582454
-0.037676326829948835 -0.07628617934110438 0.02495464551746368
-0.03770262350701931 -0.07678487647737209 0.023898274755899618
-0.0377572464116981 -0.07705502529950925 0.022616570515698486
-0.03783851433240965 -0.07711182434844888 0.02112095965443489
-0.03793068679821473 -0.07708374315440364 0.019534906520582873
-0.0380229201151947 -0.07705865743782159 0.017944214327606622
-0.038111202640713236 -0.0770687757737108 0.01638098506668534
-0.03818634488414921 -0.07718747279897642 0.014919238445922578
-0.03826237533417093 -0.07730191416745069 0.013446957260715209
-0.03836247116678872 -0.07722740039916148 0.011777022577443508
-0.038454429689348694 -0.07722138162598458 0.010168435564787859
-0.03853383136796686 -0.07731845819974265 0.008657614669808744
-0.03861225684876362 -0.07742626313221146 0.007151160524468736
-0.0387089482812554 -0.07739281320663877 0.00549210496077962
-0.03760759084135644 -0.05877727547750988 0.027004880484404636
-0.03749385212742875 -0.060488228067118066 0.02702485463181198
-0.037381962325669184 -0.062178880842557294 0.027035550360149707
-0.03726890787951637 -0.06387514801723065 0.027060638628568667
-0.03714562227994001 -0.06565442472073352 0.027172014230528452
-0.03703817667614435 -0.06729387208805904 0.027163281020502195
-0.03693551365845798 -0.06888845817804423 0.02712143239960646
-0.03685865354225126 -0.07026009568910274 0.026878174465549243
-0.03680267406619979 -0.07145196412971189 0.026471155419865833
-0.036763917594603075 -0.07249617784907836 0.02592831693105696
-0.03673328933101336 -0.07347038523460736 0.025321764057870066
-0.03670719727706834 -0.07440526110624762 0.02467996580259857
-0.0366766634094735 -0.0753763786916723 0.024075386362741202
-0.036658013284060396 -0.07624685676805715 0.02337561342209893
-0.03664673916429933 -0.07705502529947489 0.022616570515664958
-0.03669028998959061 -0.07740608368055085 0.02140979607863025
-0.03675567010627631 -0.07757743416585183 0.020022014220356432
-0.036848197397529724 -0.07752626357798592 0.018407978232561628
-0.0369450727195916 -0.0774427341938489 0.01675379369540353
-0.037033895588833965 -0.07742942523847068 0.015161697000329044
-0.03710690450817638 -0.07754976057639917 0.013696608658062992
-0.03718173595949296 -0.07765797211137393 0.012212975663791703
-0.03726476591942951 -0.07770192623950511 0.010657504329453504
-0.03734690988354095 -0.07775635689680588 0.009105586706629976
-0.03743845551355094 -0.07773732348497264 0.0074710220993698395
-0.036477576710579926 -0.05869183226057234 0.026927304778366357
-0.03635918761017636 -0.060474807629716465 0.02701260612719497
-0.03624306766731806 -0.06223294237581878 0.027085149191318658
-0.036129647625362096 -0.06396256936151329 0.027141262882741102
-0.0360313224271566 -0.0655546409496981 0.027079507829761262
-0.03594748185400467 -0.06701543108105945 0.02690379902150064
-0.035884373489276 -0.06829101691152212 0.026561765034224305
-0.03584499721054268 -0.06935639701103608 0.026027197641906863
-0.03581111827302326 -0.07037220049598814 0.025449085226343815
-0.03578756018295768 -0.07129674376705131 0.0247870558474802
-0.0357572644577379 -0.07227889305792962 0.024182157077040523
-0.03572884599079788 -0.07324354890772794 0.02356306023440513
-0.03570129311973574 -0.07419957550614542 0.0229380877964816
-0.03567068816837619 -0.07518083493119765 0.022340022373170454
-0.03564004479227581 -0.07616119566351248 0.021743745309853568
-0.03562460667918611 -0.07700971332327627 0.021020730434273494
-0.03562996309733353 -0.07767940510297988 0.02012262538701004
-0.0356855286586533 -0.07792003664288644 0.018798515735298782
-0.035758819184395385 -0.07801171258243078 0.01732102267433422
-0.03584821399232646 -0.07796929236361771 0.015702693416849434
-0.03593611706064446 -0.07794312761230715 0.014092840463888368
-0.03600840119918204 -0.0780527772266763 0.012612715134918906
-0.0360860055577167 -0.07812037860857479 0.01108337942503107
-0.03618303786828924 -0.07802733513488547 0.009382798477436394
-0.03521737626341935 -0.060525967060464814 0.02705929808700025
-0.03511766355368986 -0.06216723443489536 0.027024865346749194
-0.03502267923023239 -0.06376126351527162 0.02695560875162506
-0.03495912995886666 -0.06506544862255131 0.026625992984634972
-0.034907592641177196 -0.06625799747425853 0.02619793895971767
-0.03487738975699207 -0.06725525499077084 0.025591490334713696
-0.034852888370446276 -0.06819975895783015 0.02493803794685584
-0.034829227440575136 -0.06913567251824354 0.02427862685005061
-0.03480184243902334 -0.07010408956758735 0.023652245819644147
-0.034767627062189846 -0.07113264413574377 0.023085823169810338
-0.034736151266367546 -0.07213526066010356 0.022497518083335055
-0.03470446563806298 -0.07313844551846294 0.021912579344049943
-0.03467878579572951 -0.07408681391586242 0.021277231413692088
-0.034654296555140726 -0.07502353559575303 0.02063281953291146
-0.03462240599852716 -0.07602486928010754 0.020054036090930094
-0.03459295944564835 -0.07700326011771802 0.019455496715742204
-0.03458077104458447 -0.07782811721625033 0.018707351593991728
-0.034615238711262715 -0.07824167107803848 0.017550274127952903
-0.03468047292446279 -0.07838639868973363 0.01612067224390845
-0.03476271915334752 -0.07838474951103308 0.01453767855770649
-0.0348399784289247 -0.07843011005529754 0.012994763947119403
-0.03493235122333407 -0.07834685642241307 0.011313874620527298
-0.03410660654626888 -0.06028680417063187 0.02684101997335342
-0.03402824427205926 -0.0617574087391734 0.026648870174867834
-0.03397382473350684 -0.06299912197877333 0.026252724422194618
-0.03394373517027902 -0.06400984351544653 0.025647374637419007
-0.03390878569611693 -0.06506484626701897 0.0250860292460523
-0.033883628065010093 -0.06602674456135627 0.02444065386943678
-0.033858507736164466 -0.06698721660927881 0.023796235417599565
-0.03383359929327649 -0.06794463898641945 0.023151232081100648
-0.03380279854486362 -0.06895574020565587 0.02255959182826539
-0.03377240189379175 -0.06996177566940764 0.021965941810966394
-0.0337411912652799 -0.07097403645741124 0.02138108168922581
-0.033716368341203305 -0.07192602133415071 0.020740855555845372
-0.0336866463164309 -0.07292204083586706 0.020145708086524994
-0.03365732234806337 -0.073913130921274 0.019548508664775532
-0.033626927839707096 -0.07491277331145912 0.018962434948998574
-0.03359607149903025 -0.07591533490199798 0.018382078855043282
-0.03356509982739324 -0.07691762600829322 0.01780434172786599
-0.033546372504235054 -0.07780718710848022 0.017117126044721542
-0.03357429933145044 -0.07827247172318158 0.01600650696549316
-0.03363823301827811 -0.07841289473739582 0.01456602875700913
-0.033711252074512685 -0.07847398002246153 0.013039182210188405
-0.03297830095007288 -0.060933770177235336 0.025893221795820986
-0.032951713484829184 -0.061923819004942704 0.025261027245882473
-0.03293047435934601 -0.06286069078103196 0.024582031222459666
-0.032908920694413694 -0.06379967211344367 0.02390700061807699
-0.032884407804073305 -0.06476633740677429 0.02325993738558879
-0.032857801038906016 -0.0657521341880849 0.02263320780537309
-0.03282596371577716 -0.06678714105272693 0.022055581051429907
-0.03279418803000258 -0.06782014413443604 0.02147907258826215
-0.03276365986122429 -0.06883977570703781 0.020892800908629716
-0.03273767098352677 -0.06981462568587854 0.02026638878318726
-0.03271636888557458 -0.07074358812885201 0.019598115966402596
-0.03268522649668381 -0.07176531398882524 0.019022001303575065
-0.03265607904451546 -0.07276670601009333 0.01842902401267954
-0.03262395922992486 -0.07379497955460163 0.017865241023448664
-0.03259072888205585 -0.0748323308332442 0.01731351651839358
-0.032554052861180176 -0.07590071618229066 0.01679578766626133
-0.032525138787482706 -0.07689441993837065 0.016207165314590488
-0.0325179600205786 -0.07768275016899051 0.015415551834681462
-0.032571040840625114 -0.07790626798419192 0.014055712398552522
-0.03864139642033744 0.05841786274888322 0.023042682118102176
-0.03850311682615493 0.05595424941793503 0.023056945470046164
-0.038533679112612705 0.055418086003387323 0.021765904638464617
-0.03843211374609734 0.05338018997515709 0.021504196580515555
-0.03832916083563157 0.05133123324055888 0.02125891102512173
-0.038279747460234846 0.04989249472446694 0.0205985549891734
-0.03832447789083952 0.04951855834503527 0.01919856238969081
-0.038362815616142035 0.04907056512998681 0.017846704747613684
-0.038411961376312004 0.04874229797933777 0.016406934733283696
-0.038454704687490106 0.0483399554821371 0.015015485503763248
-0.03850735869167594 0.04804659528846794 0.01354246534893555
-0.03855724029796982 0.047719845736009014 0.012088804188143676
-0.03859543652660109 0.04726053104582545 0.010726473056983155
-0.038654949249646256 0.04703662107802037 0.009189885301155887
-0.0387186893016135 0.04685691313496887 0.007615782698981111
-0.038755241735343636 0.046373048825764374 0.006259265885600607
-0.038819682792244535 0.046195862787102804 0.0046732123819211435
-0.031932959600723995 -0.0607378243656399 0.024167244783133368
-0.03190905486554502 -0.06171161018193816 0.023516754681891017
-0.03188593385535077 -0.06267642466450535 0.022860234925894618
-0.031863593241718786 -0.06363235515153493 0.022197652443548543
-0.03183523509497843 -0.06464743948134666 0.02159296107772951
-0.03180742357277815 -0.06565576771006537 0.020984658735504313
-0.03178015594326323 -0.06665740467881881 0.020372726428085908
-0.031749226694440476 -0.06769415629828118 0.019797069101784637
-0.031729957328521345 -0.06861395148599636 0.01911202395759326
-0.03170282229997509 -0.06961062127868911 0.018503182174450794
-0.03167401138570998 -0.07062257441276765 0.017911882509284827
-0.03164246983059903 -0.07166007426932408 0.017348397416701578
-0.031610909350737536 -0.07269631173128793 0.01678682055943942
-0.03157403245080783 -0.07378316966867299 0.016278345794772664
-0.031547326049084196 -0.0747689571159944 0.01567332805982985
-0.031527488378153196 -0.07568656074535535 0.01500301986637087
-0.037082721160318376 0.056301664102320126 0.02447293307778331
-0.036935150433049575 0.05367406103781336 0.02460660504470158
-0.03682641921415141 0.05151177189341016 0.024435459464502263
-0.03672175531699626 0.04940255547361361 0.024237570550391052
-0.036616661709464114 0.047293272593693814 0.02404911014021538
-0.03650776104399016 0.045144344081302024 0.023897636294348712
-0.03640905541594522 0.04311992643681806 0.02366897486828584
-0.036303730355438345 0.04102289037675144 0.023500230746905992
-0.03619656931188805 0.03890946779125681 0.0233525806092858
-0.03609268913306232 0.03683931343289015 0.023183903621508517
-0.03598819576527914 0.034766986664652166 0.023026204983810028
-0.035919051289376586 0.03310916119929863 0.022580365529710822
-0.035903090559795396 0.03206950915318452 0.021694500943390094
-0.03581555947352903 0.030204863887471622 0.02140900261029166
-0.03582741598525918 0.029488718753200194 0.020293198475382246
-0.03589074712734467 0.02936345404751245 0.018742658328036732
-0.03596997982840319 0.02941750469600124 0.01705398240861772
-0.03609081194647479 0.0299437805390369 0.0150076601508356
-0.036162282675057125 0.029900664760817375 0.013374926020344624
-0.03624528134167998 0.029985504538382557 0.01163961796851043
-0.036336942685035505 0.030164895668641112 0.009825322754505317
-0.036444037005371986 0.03051504331692856 0.007873059518190673
-0.036538518351254594 0.03071727028840726 0.00602358404821185
-0.036632580778359715 0.03091026503223082 0.004172374970163151
-0.0308519296414781 -0.061584760598310695 0.02184290210848111
-0.030829917589081778 -0.06254806407253816 0.021181916896819253
-0.030806569201591572 -0.06352417873482219 0.020535231454571867
-0.03078341681097687 -0.06449715365205683 0.01988795121776521
-0.030759336713593453 -0.0654786033636599 0.019251097414521134
-0.03073537433879706 -0.06645769402304397 0.018614450308330532
-0.030708571171353193 -0.0674648353683418 0.018007228646030993
-0.030678782594210814 -0.06850130713149921 0.01743110707757245
-0.030648573980173864 -0.06954065679130189 0.01686084943873467
-0.03061302172192099 -0.07063309706952581 0.016345553530447643
-0.030586034915586265 -0.07163664272926135 0.015746680207085195
-0.030564400513164943 -0.07258453993495911 0.015095699647829808
-0.03575672051654434 0.056885228233795715 0.02407852626704554
-0.03553991940370983 0.053339330248601546 0.024834094482397207
-0.03541504834065896 0.0509306027717053 0.02483262743151976
-0.03530695642256102 0.04873323541837765 0.024697517791845147
-0.03520126753539466 0.04657053904271463 0.024548513351575596
-0.03509664323422678 0.0444260342574575 0.02439672798062037
-0.035005578850886857 0.04245151606443914 0.0241359606415521
-0.034911766679144265 0.04044817062695938 0.02390397383387033
-0.03481173381435634 0.038374162194490136 0.023730706035990534
-0.03470262271571569 0.03619543222581806 0.023641225125386467
-0.034604520970912454 0.03415482126311675 0.023463387844096184
-0.034499426870466365 0.03203493702775112 0.023351738613707484
-0.03439424020540269 0.029919137848596344 0.0232470846077108
-0.034286381170065924 0.027776520913330494 0.023171873077821148
-0.034176317257725464 0.025612874090903126 0.023122260218280677
-0.03406614042730407 0.023453322066752602 0.023080121851668023
-0.03396550484447953 0.02141282758640184 0.022960642994463265
-0.03389072081593795 0.019684490335622862 0.022619191535576122
-0.033882330742213924 0.018747136020537125 0.021694873359952682
-0.03382009113697214 0.017172991700908635 0.0212489506379665
-0.03384014017899233 0.016573617119106543 0.020073979927684393
-0.03388435206775424 0.01625797693919251 0.018681964774587778
-0.03395352534957263 0.016233669077971136 0.01706361194959083
-0.03401320195491336 0.016094505297442163 0.01552658281358138
-0.03407533728245191 0.01598118107820179 0.013963854392932407
-0.0341391363539817 0.015884224959282323 0.012382405129402307
-0.034231312321865805 0.016114989007214087 0.010539506058829695
-0.03432481710536516 0.016356656540147507 0.008679069266759876
-0.034458926578671625 0.017065143848769115 0.006441999034892676
-0.03459724892224913 0.017815809713340958 0.00415839678806168
-0.02979177773246167 -0.0614285557886215 0.02013319079286191
-0.029766640600415836 -0.06243581257126135 0.019510360661567916
-0.029746608153044564 -0.06338697523920317 0.018837091353781754
-0.02972349137333718 -0.06437021312342245 0.018196464512593324
-0.029699245744827532 -0.06536438196063565 0.01756874805116615
-0.029670776626957693 -0.06640242124579565 0.01698579127909
-0.029639577705232848 -0.06746811539226583 0.016432599002345505
-0.02961168594260645 -0.06849713939933799 0.0158471204201035
-0.029587314043569075 -0.06948748453660614 0.015226862166238198
-0.02960319749968511 -0.07005103654377315 0.014190295172404999
-0.0343817867042614 0.05688938234377605 0.024075718676276336
-0.034179094591611836 0.05341716057822388 0.02478119950382912
-0.03404889735490352 0.050879198862072816 0.02486775659706386
-0.03393929180682135 0.048609812610673875 0.024782332193403533
-0.03383604874868769 0.04642681569156737 0.02464782505920715
-0.03372895273184056 0.04420032493354753 0.024553553967594288
-0.0336278117011514 0.042054616175532133 0.024413255263523448
-0.03352285082221327 0.0398659213026929 0.024313006479167953
-0.03342836152487447 0.03781445278507323 0.02412606965734021
-0.03333715035263817 0.03580902791428786 0.023915671714156206
-0.03324431062584104 0.03378787492367247 0.023725445532831013
-0.033149471237359805 0.03174647611020276 0.02355887506946347
-0.03305107055761072 0.029665486639584515 0.02343022261867045
-0.03294887853650748 0.027542314635800258 0.02334189656065072
-0.03284425463275774 0.025394157332452927 0.023281906248443174
-0.03273921358921965 0.02324620372041053 0.02323212662503993
-0.03263591487693844 0.02112522782656656 0.023172863193062
-0.03253132809234959 0.018993646112743345 0.02313173990687223
-0.032427120687415725 0.016872121111668914 0.023093536120951885
-0.03232137885871055 0.014737071558994397 0.02307588086600265
-0.03221898522075864 0.012648577604771116 0.023033700326835715
-0.03212139407378658 0.01062420338145903 0.022953174784287322
-0.032043651790469675 0.00884758430640964 0.022693605538563366
-0.03199699932525931 0.007454368769365227 0.02214803913383634
-0.032013410747172184 0.0068315333579960225 0.021013606617979186
-0.03207508025686601 0.006757835538187762 0.019452127303080435
-0.03214606751502993 0.006793957270666506 0.017798869691869557
-0.03221603935897474 0.006814141409908381 0.016150882649375475
-0.03229739064287093 0.006968133909637353 0.01439044005072354
-0.03237003792611912 0.007013066231494447 0.012708014667054623
-0.03243752101206893 0.006992170785584062 0.011070542032442898
-0.032504318753244575 0.006959582495360994 0.009435511349419168
-0.03258499561915132 0.007089722021568656 0.00766275771607422
-0.03264518116209575 0.0069709148763532625 0.006082979939649735
-0.03272891314737391 0.007129703170594914 0.0042713636983527925
-0.028702848587546372 -0.062265659491770264 0.017775689240223214
-0.02867843158449144 -0.06327588693398573 0.017155213549779003
-0.028653078923781626 -0.06429526671413804 0.01654618892566928
-0.02862116982350628 -0.0653861057842185 0.016008674571937387
-0.028601159724593882 -0.06634355548172499 0.015345789933793819
-0.028592025843669617 -0.06717983182833875 0.014567416869910366
-0.03300765812177758 0.05690461475177078 0.02406542372301751
-0.032816551776026506 0.0534786251897022 0.02473942697989634
-0.032686635784601764 0.050875141177297245 0.024870529597818547
-0.03257736748026151 0.048552150058343846 0.024821957080887358
-0.03247616820009389 0.04634169166866908 0.024706645090934953
-0.032372197387139985 0.044100086173241015 0.02462320125661982
-0.032269188077073935 0.04187671036270613 0.024537549390311775
-0.03217107588043595 0.039723203046948874 0.024413266665391065
-0.03207355848182437 0.03758275121199256 0.02428973739539203
-0.031986384731864145 0.035582890068178 0.024076287832053123
-0.03189463807478237 0.033527975377662333 0.02391105489041112
-0.03180351268629974 0.03148607240465151 0.023745864354154267
-0.031709358213568094 0.029409652441009182 0.023614936763913685
-0.03161251889586586 0.027303427042281447 0.02351531847351801
-0.031513143645224416 0.025169540798754386 0.02344585865048099
-0.0314137324347313 0.023040512825601323 0.02338308378746584
-0.03131616224813834 0.020940558162368117 0.023309131153903817
-0.031219475131381083 0.018857197414764215 0.023232973376876798
-0.031121905230038195 0.016767675581076114 0.02317144700768775
-0.03102650388580413 0.014711179200581737 0.023095300029810695
-0.030930773232153867 0.012655580405666611 0.023028419785688037
-0.030831098277170423 0.010554758169095402 0.023005824235518113
-0.0307350362579322 0.008505299557843682 0.02295450979293223
-0.03066125220699461 0.006744184534348607 0.022692296030265624
-0.030654439925723455 0.005836574543482187 0.021780216801337293
-0.03070147042334306 0.005610895785052528 0.020340599735110487
-0.03075261331316777 0.005434644193803184 0.018857523733074588
-0.03080646084725168 0.0052897448400215374 0.01734448900323915
-0.030857954417201367 0.005112352700480938 0.015851324764929953
-0.030974080749868096 0.00574342892670332 0.01371284402536721
-0.031066674159922585 0.006073545749176512 0.01180146545820554
-0.031147142525724723 0.006247166892080991 0.010005394109907306
-0.03117371820899674 0.00574438344887962 0.00874468918149357
-0.031228679846336982 0.005593416704663734 0.007196691822031698
-0.03131120615457839 0.005781787683762363 0.005366973202498071
-0.03140291354166362 0.006079497400516554 0.0034390278569184085
-0.027628716778235494 -0.062144429914178734 0.016078632615657895
-0.027593745447058293 -0.06328962242965397 0.015584336830236412
-0.027582712616986256 -0.06415620403047523 0.014826209483908559
-0.03163542609867522 0.05694754812307856 0.02403640683671765
-0.031453822030690005 0.05354284004802845 0.024695785335676124
-0.03132596207140198 0.05089272502586911 0.024858512886797968
-0.031219104248152905 0.04854008310172192 0.024830249322196407
-0.031118272024096654 0.04627654139421633 0.024751663419250558
-0.031018663515364656 0.044035483487657845 0.024668088103792285
-0.030917122173331597 0.0417734363744201 0.024609701896124048
-0.03082380543676682 0.03962983961157601 0.024478854878812795
-0.030728231186804303 0.03746056710290979 0.02437604495253798
-0.030641841386540972 0.03542205931743375 0.024190519090851015
-0.03055138398547556 0.03333294686424321 0.024050336076705037
-0.030462474840792897 0.03126994690408308 0.02390105858485536
-0.03037215380519208 0.029192754106448338 0.02377153893319439
-0.030279173185237797 0.027084587851504804 0.023674186125520413
-0.0301854906568381 0.024972131543997633 0.023589951878922044
-0.030091665145346235 0.022862982982816638 0.023513373469649157
-0.02999985400437925 0.020786192883984256 0.023423037473068065
-0.02990984768514159 0.01873877761578957 0.023320830918538926
-0.029818433125406486 0.01667751651920052 0.02323870093821151
-0.029728894844281862 0.014646463050115355 0.02314383688021676
-0.02964032980951805 0.012633405719721102 0.023045140858201585
-0.029549857660663082 0.010599894769631413 0.02297160420554395
-0.029467365481135162 0.008677515765654287 0.022823239143342056
-0.029399689768019894 0.0069562838440516694 0.02252975157159981
-0.02939195062663916 0.006032201159382911 0.021629487591547203
-0.02943482505493169 0.005777096649982938 0.020211852879605197
-0.029482062432298558 0.005577103175264386 0.018746574475690947
-0.02953839210133991 0.005494059634421622 0.01718451000459681
-0.02954038924858178 0.004694754336751206 0.0161800612901411
-0.029616132324509437 0.0048611902126752815 0.01441107442356826
-0.029692440285365513 0.005030774991289955 0.012631168051137454
-0.029767643358828096 0.005181685580916473 0.010857704794933531
-0.029846064702552577 0.005370272690878974 0.00904555188538797
-0.029931763661661254 0.005648978078584721 0.007151770265249269
-0.030021812437840925 0.00597925522653181 0.005206468097592121
-0.03010554844751468 0.006222879178940266 0.003321863348852927
-0.03026559431358951 0.057029283179239165 0.023981165499755652
-0.03009012609002504 0.05359887269651831 0.02465770447754062
-0.02996592541117686 0.05092113271514953 0.024839099219110206
-0.029860638672342798 0.04852399487588038 0.024841304922634255
-0.029761709352406154 0.04622470122307515 0.024787484570642115
-0.029665630585102618 0.04397221816970026 0.024712045729281762
-0.029568078025820812 0.04170417942698118 0.024658088352244922
-0.029478214757272397 0.03955206824472607 0.024533489597283464
-0.029382697248604178 0.03732431912638101 0.02447228684609143
-0.029300831529002973 0.035297054149052154 0.024279304958444103
-0.02921267170785841 0.03318489788683315 0.024156066448340285
-0.029125923334863597 0.031097961613290925 0.024024556852418333
-0.029038899058030546 0.029012179687063044 0.023901914972501492
-0.028950562026247115 0.026912894652600772 0.023798827855723514
-0.028862414142429686 0.02482144439009565 0.023699941648738454
-0.02877402616335131 0.022731759390412554 0.023609678856287786
-0.02868746211123117 0.020672905992514867 0.02350663200256292
-0.02860218331026367 0.018637159719488816 0.023396222860048388
-0.028517325414283715 0.01661229518813706 0.023287352629752622
-0.02843549296131724 0.014634698739888818 0.0231526600651788
-0.028352874259580992 0.012650911844136026 0.023031940167265452
-0.02827198155477482 0.010695989184496602 0.02289875082894971
-0.028198992658313275 0.008855631746395864 0.022687471431396822
-0.028133624125293237 0.007125216021711511 0.022400288682694613
-0.028123746231094055 0.0061665239940432715 0.021525992601195754
-0.028164124695168852 0.005902410407404857 0.0201147790633745
-0.0282112416920188 0.005728794309276974 0.01862843507515788
-0.028262172480635776 0.00560486755722478 0.017097747121939566
-0.02827505868597407 0.004955933260498369 0.01597445930673247
-0.02834367759906253 0.005069357799748542 0.014246324299929836
-0.02841590620966845 0.005228092358856573 0.012474168317243572
-0.028491543875004927 0.005429084990543287 0.010659802534157492
-0.028566736259775228 0.0056195998098672595 0.008845041128696773
-0.02864394830892667 0.005833138661213266 0.007002875817797294
-0.028733599048154534 0.0062106633856821025 0.005018375460495439
-0.028825195751170325 0.0066092530310498665 0.0030061377189336547
-0.02889361557051755 0.05708610000324088 0.02394276536317752
-0.02872715933621273 0.053671326462330304 0.02460846351443019
-0.028605978218956947 0.05095360320072867 0.024816909057479297
-0.028504045316643425 0.048534720226423966 0.024833934613979147
-0.028408200700767775 0.046214068889251114 0.02479483142986677
-0.028315182882060436 0.043941910180446464 0.02473310414302199
-0.028223466742051104 0.04169503397119084 0.024664477836790044
-0.028135448473436332 0.03950930619145743 0.024563530122944655
-0.02804566266131919 0.037302476251232675 0.02448771606359973
-0.0279633495811287 0.03521290907393415 0.024339069635335164
-0.027877790780995365 0.033079935511653 0.02423102617538231
-0.02779401682754118 0.03097878555502348 0.024110134151867746
-0.02771057747120585 0.028887737753069576 0.02399176295059835
-0.027626389790343046 0.02679069720038657 0.02388753784521419
-0.02754262942245466 0.02470513616597053 0.023784837503945888
-0.027459539786978255 0.02263461142049983 0.02368097604174202
-0.027378011951501885 0.020592197744834173 0.023566186712765613
-0.027298591120579172 0.018585772596513173 0.02343434778794745
-0.027220518038912112 0.016603995818302242 0.023293543524274485
-0.027144656907787376 0.014659404595286751 0.02313413077382015
-0.027069377162340532 0.01272795719909181 0.02297384324674029
-0.02699689666445552 0.01084195716234937 0.022788086124074514
-0.02692994003129279 0.009040814135316544 0.022546317397201532
-0.026866225122663793 0.007290865895946186 0.022273341220332588
-0.026856788216667055 0.006331708781768253 0.02139871864919035
-0.02689433917312847 0.006052893586712849 0.019998207852084726
-0.02693760929891141 0.0058543426483464445 0.018530656087531905
-0.026981415600055795 0.005660866726061031 0.01705389963169035
-0.027007863236369146 0.005215178658761366 0.01577037940890713
-0.027074649131726157 0.0053464983805947 0.014026986863196478
-0.027143693253974643 0.005506053329944249 0.012253002795770018
-0.027210427152999674 0.005628384279397769 0.010500377012912843
-0.027284628263878147 0.005853056671674961 0.008657293352980433
-0.02735752204521261 0.0060545938777804564 0.006823828533978504
-0.02744015864141278 0.006389932124740871 0.004872662664531846
-0.02751998237348981 0.05712213778697467 0.023918408918732315
-0.027362540559398928 0.05372465685682465 0.02457221915972302
-0.0272465920865795 0.050998258053573275 0.024786392162380433
-0.02714789057629926 0.04855349087278937 0.024821035692232263
-0.027055931865048705 0.046222043090173304 0.024789321319614976
-0.026966258300029345 0.04393268686375684 0.024739512632126315
-0.026879740188207633 0.04169895340396845 0.024661739519998338
-0.02679550087653899 0.03950671482998652 0.024565350565482258
-0.026708603749952244 0.03727806631231484 0.024504958585674752
-0.026629407885707033 0.035175946941848835 0.024365322269588374
-0.026546727904045834 0.033024314275135414 0.024270748530177966
-0.026466403339307748 0.030914835120777806 0.024156055333864557
-0.026386085333202167 0.028810621496026367 0.024047441446997275
-0.026306411726736492 0.02672160766335091 0.02393769381813582
-0.026226902952100725 0.024640277243481334 0.02383217941578375
-0.02614873405522673 0.022584841113620358 0.023717502618703812
-0.026073674679148277 0.020582563095740358 0.023573296131581822
-0.025999509124206822 0.018598916887956563 0.02342459582802936
-0.025927072003067313 0.016646681964238075 0.023261701898669995
-0.025857103086961288 0.014737071558884374 0.02307588086608514
-0.025788652381984196 0.012855264486405893 0.0228778457481551
-0.025722683114864166 0.011015869746980433 0.02265623539122613
-0.025660290261594724 0.009235386504164611 0.022398005913772112
-0.025597524475239893 0.007453224916929346 0.022148915736759978
-0.025589128938830273 0.006502737217539634 0.02126694219915687
-0.02562439719523607 0.006216048496944737 0.01987182053357467
-0.02566262641573586 0.005971975085890535 0.018439042126405125
-0.025699911630752435 0.00571116544801642 0.017014515605707103
-0.02573753276651141 0.005453029458845793 0.015583141497244601
-0.025799616695424868 0.005560923718373356 0.013857284166408135
-0.025860699712823832 0.0056497841532232584 0.012138640328413774
-0.025930534224075482 0.005865967099255687 0.01031032733881554
-0.025997188583862713 0.0060300696662434206 0.008514938162621999
-0.02607032969787177 0.0062867546665780205 0.006636125759179268
-0.026147716863256648 0.006602008192571451 0.004700283492553525
-0.02614521837338689 0.05714293150079702 0.023904355309352088
-0.025998158376055677 0.05378757611833024 0.024529458027847895
-0.025887006898074532 0.05104427569644093 0.024754943943639807
-0.02579249934981011 0.048587013945837254 0.024797999112269042
-0.025704488270399586 0.04624463826858999 0.024773708228667035
-0.025615811015883075 0.043897114946216675 0.02476422849667348
-0.025537167171796757 0.041722471520014404 0.024645308557731282
-0.025452135613978338 0.03944712228838981 0.02460721458131432
-0.025374569607214528 0.037301191446858006 0.02448862361473564
-0.025298322969968975 0.03518231925710219 0.024360796284417785
-0.0252196213605756 0.03302810615976881 0.024268040525175172
-0.025141940920264765 0.030896029929274538 0.02416955886408595
-0.025064964588013137 0.028780777793146806 0.024068988816735137
-0.024989210390166754 0.02669077164066408 0.023960079417826408
-0.024914510906471315 0.024623148143004592 0.023844682311815857
-0.024841446026285737 0.022587268650103354 0.023715721042424087
-0.024771321402335653 0.0206042417030024 0.023557299461970105
-0.02470284118082262 0.01865269795015939 0.02338469479835331
-0.024636346965238805 0.016738013505974147 0.0231935733596772
-0.024572609851705226 0.014872472865026298 0.022974330435572343
-0.024509563494199745 0.01302240656970699 0.02275181037151852
-0.024448855836863723 0.011214317529373241 0.022505783452419437
-0.024389881272042457 0.009438223478278218 0.022243394790398163
-0.024328908673063584 0.0076340367457227165 0.0220103487566376
-0.024320569258221004 0.006677341081660848 0.021132410901643417
-0.024353318249825312 0.006378197923048001 0.01974621210944566
-0.024388448170524973 0.00611482852362516 0.01832778566037685
-0.024419440697863507 0.005783206740875457 0.016958107091941232
-0.0244671591285792 0.0057152313251432885 0.01537673424588304
-0.02452266844228096 0.005767546205256879 0.01369375688178548
-0.024586364859761872 0.005945629062609148 0.011903245073448365
-0.024646075091700505 0.006056473625562386 0.010157935413929509
-0.02471085638774131 0.006243161590284596 0.008343568024035908
-0.024777680007791222 0.006457569580170741 0.006498021329811532
-0.024850890463860034 0.006767634625961527 0.004565659403482303
-0.024770012401116308 0.05715818147298679 0.023894048485181785
-0.024633614497926858 0.053854618753744754 0.02448389457230804
-0.024528204339504797 0.05110925839552338 0.024710535103730724
-0.024437808765913862 0.04863663765256143 0.02476389840538007
-0.024353581109612363 0.04627920020187548 0.024749826204025716
-0.024268509076243987 0.043912923955495675 0.024753244176485445
-0.024194668763583702 0.04174991261413924 0.024626136801743137
-0.024116468456023367 0.03951578473402334 0.02455897891903086
-0.024043475557372674 0.03737829361059675 0.024434160727107246
-0.02396851230563147 0.03521163440880021 0.024339974975900458
-0.023894015045008186 0.03305844372549405 0.024246374707857454
-0.023820195886324193 0.030922357675763512 0.02415065357826035
-0.023746616331504752 0.028795699103869976 0.0240582155222675
-0.023674416389434884 0.026698171862788334 0.023954707181212898
-0.023604637738743817 0.024647618727161924 0.02382682071015274
-0.023536889272286265 0.02263703955271773 0.02367919402825064
-0.023471700013319233 0.0206753156899826 0.02350485388398782
-0.023408821673507395 0.018757911440785868 0.023306635227942185
-0.023347804151200545 0.016876869932319905 0.02308999374986359
-0.023289379634485883 0.015044506518748002 0.02284530589292999
-0.023231727167557913 0.013229484292789417 0.02259566107442773
-0.023175110633143287 0.011436212033633097 0.022337555528812003
-0.023119720883014828 0.009667820391182302 0.022068386083122726
-0.023058035716080748 0.007796681450090659 0.02188570433670356
-0.02305093937172112 0.006853244288551719 0.020996878467817226
-0.02307806419019596 0.006487896631532597 0.019661234430320418
-0.023116866612171053 0.0063172885575495386 0.018170106655631957
-0.02314026523004916 0.005885024878336975 0.016878383233849825
-0.02318946110789656 0.005883730921693808 0.015244090115348663
-0.023245254636650493 0.0059893356803517594 0.013518225984025134
-0.023301041136551185 0.006090838241047891 0.011787706321563618
-0.02336056506447691 0.0062506357725437 0.01000261924764323
-0.0234225562295314 0.006447207189143489 0.008179473008649185
-0.023488875434740847 0.006711163091033701 0.006292990127485798
-0.02355486574297169 0.006964937022390538 0.004405288532437379
-0.023394195334067103 0.05716372717939089 0.023890300372064244
-0.02326784986603841 0.05390662517168421 0.024448550017355464
-0.023168633519798514 0.051167488587815 0.024670740891981013
-0.02308287837457697 0.048687614419560876 0.0247288678946756
-0.023003525004555377 0.04633371302137934 0.0247121582735918
-0.02292429083008775 0.04398803274164448 0.02470105754407631
-0.022854457931170264 0.04182310620282198 0.024575000006113457
-0.022779388952391157 0.03956632418580491 0.02452347473758737
-0.022710920837111414 0.037437424428413746 0.02439239231322643
-0.0226399643039258 0.03526772702176911 0.024300134772711424
-0.02256938119360099 0.03311028063662802 0.024209354959565388
-0.02249937312952806 0.03096875280760253 0.02411733841288144
-0.022429527105061787 0.028835494552801988 0.024029482919765643
-0.022361863695763748 0.02674751350956278 0.02391888731027858
-0.022295878858259458 0.024695344817394715 0.023791984418252532
-0.022233409857318087 0.022712326074049882 0.023623941025244566
-0.022173672740397308 0.020783781862445172 0.02342481656867701
-0.02211577023739121 0.01889309598569211 0.023206339653308428
-0.022060855521802106 0.017060973641534305 0.022952662040647775
-0.022007190889321564 0.015255627595996024 0.02268696594115438
-0.02195450052131132 0.013471934815135755 0.022412838518335643
-0.021900899398209404 0.011675812958037157 0.022155903594072213
-0.021848587631353673 0.009906932557818549 0.021886124437495436
-0.02177479923899635 0.00775658039138255 0.021916436190045074
-0.0217751822625364 0.006940112198197679 0.020929947230895474
-0.021806700122022363 0.006680018167470547 0.019512408227537303
-0.021843254567438002 0.006507357862490626 0.018022077742197773
-0.021865439223221223 0.006076220870968041 0.016728676290036215
-0.021915245018733258 0.006133883790488626 0.015047167924071958
-0.02196625264129003 0.006209076084452203 0.013344316783016008
-0.022020435666835203 0.00633655760985119 0.011592194512388188
-0.022075214697833596 0.00647045755910397 0.009826777160575395
-0.022132772852305173 0.006649144478322655 0.008017073511868478
-0.02219354941679535 0.0068800206275966835 0.00615646824399807
-0.02225952943941726 0.007197519737314195 0.004216241195672155
-0.022174161880917167 0.06117522739792247 0.022842818136739107
-0.022017788800988806 0.05715818147291751 0.023894048485228636
-0.021902789365335962 0.05397918112008787 0.024399239609004086
-0.021809310283890108 0.051237927365414826 0.024622603396278475
-0.02172810066082941 0.04874799721721529 0.024687373693216774
-0.021653595494995227 0.04639755050157235 0.02466804707580622
-0.021579666151629175 0.044064486357274 0.02464793650538316
-0.021513785148774302 0.04189632502020896 0.02452384558441678
-0.021442910353233844 0.039635025386980105 0.024475211849369793
-0.021379037280107684 0.03751714881090018 0.02433607716104319
-0.021312034449661003 0.035342965735038256 0.02424669590677747
-0.021245321150979924 0.0331798382444608 0.02415967983276024
-0.021179216712765896 0.031033974358384675 0.02407050447439596
-0.021113331059409508 0.028897690341432025 0.02398457710968044
-0.021049882181112523 0.02681414358708334 0.023870516797068142
-0.020988829884739692 0.02478225947230367 0.02372854355657611
-0.020931075857816995 0.022819232355410946 0.023545482185854838
-0.02087594518851415 0.020911605683372636 0.023330495221960956
-0.020823150860802296 0.019053521268285467 0.02308731757194077
-0.020772844842031686 0.017247625771755648 0.022813429343047864
-0.02072394854563981 0.015472879450695531 0.022524027931152324
-0.02067589340721294 0.013718202473922358 0.022227137607376712
-0.02062635639471856 0.011939011168400737 0.02195636152531144
-0.02057517870367196 0.010132449665149423 0.021714225534660625
-0.020494289188091017 0.007763454274110015 0.021911168320251306
-0.020506673796852032 0.007175764733292456 0.020748378274972334
-0.020535408315677448 0.006897526979929125 0.019343915869447226
-0.020568156330454158 0.006693026193276941 0.017877476375480816
-0.020590147505356704 0.006282511009381542 0.016567150592055935
-0.020637560720675224 0.006349870522618983 0.014877141568656882
-0.02068592731668907 0.006431369740891868 0.013168386860892334
-0.020735874239025853 0.006538672068346352 0.011431377871708337
-0.020788597302216903 0.006694004538829013 0.009647955178970935
-0.020841899844764384 0.006855940801512028 0.007850766343150017
-0.02089884973175553 0.007081676665955383 0.005993428662029954
-0.020962647174214876 0.007430380035716944 0.00402696823415466
-0.020779180946510756 0.060980870793293174 0.022973447755565257
-0.02064603384603914 0.05725109049168403 0.02383125513004447
-0.020536310106316156 0.05403121720017562 0.02436387489508901
-0.020445781881673317 0.051228443891056796 0.024629084353525454
-0.02037167734995005 0.048781550515200445 0.024664316343105674
-0.02030295001263291 0.04645475436625329 0.024628519654275594
-0.020233622818012942 0.04412118516068142 0.024608541385808258
-0.020169732235526268 0.04190809468412371 0.024515622693463135
-0.02010723087440815 0.03972968815026118 0.02440871085252483
-0.020046157999213044 0.037586610813873766 0.02428701107678627
-0.019983322125674007 0.03541185201328001 0.02419776890593317
-0.019920818394368902 0.03324941910964602 0.0241099880965292
-0.019858704441610867 0.03110047132020799 0.02402275469564713
-0.01979727564565387 0.02897110553723342 0.023931570806317415
-0.01973848450936415 0.026901782781930728 0.02380689458635088
-0.019682228361839107 0.024890036118802417 0.023649875081971417
-0.019628937200291866 0.022944432880343146 0.02345359714643419
-0.01957868248987959 0.021066066878927092 0.023216518125404484
-0.019530197553807447 0.019228458842354856 0.022957528589564957
-0.019484211054879536 0.01744635781911169 0.02266518566096337
-0.019439651444925148 0.01569746447644188 0.022355590072603404
-0.019396902502618465 0.013989450477820131 0.022022599984906077
-0.019350569509192048 0.012211896262431132 0.02174947540658906
-0.019290138453097582 0.010150965124991695 0.021700112249553205
-0.019216720038073704 0.007831060337222417 0.021859357727625983
-0.01923431653935468 0.0073647210707668 0.020602788477279366
-0.019261394484633817 0.007088906369215275 0.019195664567689952
-0.019290990173735333 0.006861656250795267 0.017746144679421205
-0.019313787401983508 0.006494759491825708 0.016400959495691758
-0.019359086391441287 0.006578756133127639 0.014696961120636343
-0.019403736589823545 0.0066458413267596606 0.012998647561967669
-0.019450902120732284 0.006759505186455905 0.011255667333879227
-0.01949818148411633 0.0068714029651830155 0.009506048819184043
-0.01954994758077782 0.007068774961111912 0.007679603500679144
-0.019607032710834228 0.007367616053997272 0.0057622457097414315
-0.01966297720773702 0.007638902733230368 0.0038574773043021926
-0.019387202047626027 0.06082747742478545 0.023076545447032137
-0.01926659680865428 0.05718175169033263 0.02387811835214182
-0.01917016623904054 0.054098334651454416 0.024318260593258756
-0.019089578542432085 0.05138429633935149 0.02452257559775689
-0.019019181925347853 0.04890910062175102 0.02457666572036371
-0.01895405879594906 0.0465598895691865 0.024555872054201233
-0.018889730122348146 0.04423462794253752 0.024529719758409507
-0.018827690926398452 0.041966952785267075 0.024474501404788962
-0.018767094290819575 0.039737470537196895 0.024403243692354137
-0.018712094141786 0.03763936580997562 0.024249746371294068
-0.018654001502668747 0.03547693210894787 0.02415154527508878
-0.01859587270169114 0.03331902324384567 0.024060279742543822
-0.01853793650298818 0.031170755471307987 0.02397228543250257
-0.018481086060489895 0.029052016987441365 0.023873152152952104
-0.018426747900430612 0.026994400113772188 0.023739658466567393
-0.01837537762778734 0.02500767563221845 0.023564007490296246
-0.01832698323358102 0.023091611821179803 0.023345582081896965
-0.01828124681044143 0.02123876876118136 0.023089081204833495
-0.01823677110502226 0.019417946435520417 0.022816944715456478
-0.01819451350971071 0.017650054505141288 0.02251323861886728
-0.018154067550498237 0.01592585490162668 0.022184298179907636
-0.018117610336071264 0.014292841590184513 0.021793824488275715
-0.018071149678705874 0.012444262082192903 0.02157330872095503
-0.018001797807784915 0.010100051806229748 0.021738920585374966
-0.01794033980369436 0.007934233298499793 0.021780290081610254
-0.017960093549409854 0.007540098729261202 0.020467660975543533
-0.017985124613877933 0.007258669143648644 0.01906415849280091
-0.01801441584984227 0.007067192038003989 0.017586070230462825
-0.018034918055891597 0.006683108516614911 0.016253481734869235
-0.018079108120460183 0.006807910994741151 0.014516568716151701
-0.018120240241362263 0.006862859234457008 0.012826893026943398
-0.01816414868955567 0.006973639966081524 0.011085286470637168
-0.018209679814382897 0.007115154128404688 0.009311064900907384
-0.018257019926723732 0.007291161319060047 0.0075007587079789495
-0.01831041504733929 0.007591992301262784 0.005580836762826169
-0.0183629105391259 0.007868769794796726 0.0036706372985286784
-0.017997895365009675 0.06071636864390478 0.023151223113491493
-0.01789097485349111 0.05719561770328324 0.023868746888663306
-0.0178025982673296 0.05414080735972465 0.024289395329490926
-0.017728471658911085 0.0514439564350781 0.02448180419740742
-0.017662810810925536 0.0489614851168233 0.024540667838909236
-0.01760270655605309 0.046621131250927095 0.024513554532773152
-0.01754523179721376 0.04435077132122345 0.024449021718659203
-0.017489208118421178 0.042121369269586595 0.02436661812781593
-0.017434076195532458 0.039919140943835196 0.02427561945321366
-0.017379769379907855 0.03774234049984243 0.024177007829457697
-0.017323633238055882 0.035526712902090696 0.024116188089734925
-0.017269958729685078 0.03337598939660702 0.024019596904962248
-0.017215154696333276 0.031203395508785814 0.023948847450898814
-0.01716349764839043 0.02911178738404696 0.023829997493483857
-0.017114934120370795 0.02709941702998192 0.02366342079250383
-0.017068593550498768 0.025145007518840246 0.023463766015115073
-0.017024442094328886 0.023247421446199956 0.023231232932443835
-0.016982549310703126 0.021407990594859927 0.022964212216169955
-0.016942176033280965 0.019608813624373056 0.022675337297256626
-0.01690350329830781 0.017853958515563595 0.02236113692365027
-0.016866108474188086 0.016133170965603016 0.02202881197265527
-0.016829526975824325 0.014435289457675082 0.021686410064118256
-0.016784270640230237 0.012536583590073591 0.021503315750075136
-0.016713938332176603 0.010052621716644894 0.021775073853113724
-0.016665143419797784 0.008081062032870068 0.021667766390806087
-0.016685264328186317 0.007728260297300005 0.02032268354324085
-0.01670774348323308 0.007428579732088547 0.018932537914364944
