# .PCD v0.7 - Point Cloud Data file format
VERSION 0.7
FIELDS x y z
SIZE 4 4 4
TYPE F F F
COUNT 1 1 1
WIDTH 768
HEIGHT 1
VIEWPOINT 0 0 0 1 0 0 0
POINTS 768
DATA ascii
0.007769675291854926 0.05437651622075307 0.04997413542052931
0.007734835581782959 0.05656044088446405 0.05034472904780252
0.007698930638459908 0.058782829127726643 0.05076039301210056
0.007666046733809321 0.060871670688820656 0.05107738953757757
0.007637674542601801 0.06276529227140387 0.051242000455804015
0.00760778905376036 0.06471701841532324 0.051466513315296114
0.007580371702565806 0.06656021776116472 0.0516097270013155
0.007552255979877532 0.06842747290903539 0.05178387273087448
0.007525273753019526 0.0702424522438665 0.05192358330299818
0.007500653669623401 0.07195451366947392 0.051984356061350656
0.007477894176709793 0.07358506220371469 0.05198348515448037
0.007455599521961639 0.07519223856407631 0.05197079781549463
0.007439856801927475 0.07652540421773169 0.05172550688380234
0.007430529670860068 0.07759196851765338 0.051250418276065635
0.007422973072161596 0.07858420544704242 0.05071280836890035
0.0074166726391436425 0.07952365111848392 0.050130908632030846
0.007410742015550268 0.08044684072032632 0.0495368217628665
0.0074052153136961825 0.08135248648382681 0.048929171241765546
0.0074008965812303994 0.08220801879163048 0.04827815278543229
0.007412717639303294 0.08240823075909626 0.04703070854480512
0.00742448640046641 0.08261272972952388 0.04578261837299519
0.007436563816304594 0.08280692968634717 0.04452046078415589
0.007448862006941837 0.08299445529690452 0.04324741593451348
0.0074612919542824145 0.0831789446907304 0.041966745075160405
0.007474092216773182 0.0833508692808797 0.04066944481632001
0.0074869731304342485 0.08352191841676931 0.0393663049122247
0.00750043191636157 0.08367226979759024 0.038038514687691816
0.007514400721404279 0.08380478446126294 0.036688455230750094
0.0075281807479801385 0.08394736417956411 0.03534251147114664
0.007537178809931662 0.0842820096060079 0.03417577638421909
0.007547334367239846 0.08457253608380771 0.032962836924766536
0.007564396125810798 0.0845924661243172 0.031482990863588745
0.007581140540637151 0.08462802022467403 0.03001160758374316
0.007597959250146181 0.08466373207808675 0.028533695801265913
0.007614909629797015 0.08469737439619401 0.027047013343105664
0.007632278633255312 0.08471776803421355 0.025540393718138488
0.007649401790226577 0.08475093773337034 0.02403952924944408
0.007667543769070739 0.08474761920021473 0.02249520116764092
0.007685096054218496 0.08477051788251072 0.020969954399046475
0.007702767683965707 0.08479201941601316 0.019436187524035253
0.007720832618896609 0.08480157487131301 0.01788309184816972
0.007739315411710214 0.08479834649514045 0.01630957038296521
0.007758634773785065 0.08476635344835887 0.014698934569049527
0.007778861943528464 0.08470309420860611 0.013048085955261524
0.007799552872023744 0.08462580727335989 0.011374376643094208
0.007823074698188348 0.0844442758033982 0.009583305852168211
0.007847262297248015 0.08424171532670177 0.007760477848675451
0.00833498754475565 -0.07472710475191258 0.03703484226124332
0.008303964350701501 -0.07213373893434188 0.037033031833318575
0.008316635987980542 -0.07193732577520207 0.03553728567573938
0.008331755408444106 -0.07187184018893733 0.033953857300329515
0.008346929902490802 -0.07180611606663378 0.03236466117241843
0.00836218644603172 -0.0717416027430513 0.030768738662343587
0.008377498863673465 -0.07167685315201178 0.029166971398773056
0.008617078184538888 -0.07544873118223405 0.009808121443028839
0.008586819823867458 -0.07291893181886883 0.009805915475458393
0.008564796760225072 -0.0708320077520111 0.009511553372880288
0.008580832812738498 -0.07076249496141374 0.007832059843142836
0.008596900834180072 -0.07069123345869777 0.006147299235429005
0.008613000846098935 -0.07061821410421998 0.004457258511886608
0.008629161274445745 -0.070544920739393 0.002760875791475881
0.0070719728390325745 0.023425933464510884 0.04581347525519719
0.007044322418552938 0.025586561920575346 0.04599157026866357
0.007014821936800719 0.02783494123692276 0.04624929090816465
0.006984934659186348 0.030096543200897274 0.04652976513580448
0.006955411699796394 0.032333372831730434 0.04680348827176922
0.0069250211633274505 0.03460752657851912 0.04711911139103664
0.006894351040888161 0.03688920547611996 0.04745360366598095
0.006863879498681903 0.03915436452733462 0.04778801176854752
0.006834032427646956 0.041381776922063906 0.04810522861730043
0.006802942855636312 0.04366477479494768 0.04847991203906371
0.006772747241628672 0.045896613267273345 0.04882655719760698
0.006743668441483808 0.04806651052843214 0.04913582451045734
0.006713823623219776 0.050268142969233875 0.049483540638350865
0.006686236503576356 0.052351726016286904 0.049747152840289244
0.006656389657725076 0.0545409112680551 0.05010990493922357
0.006627025877184661 0.056699914959670694 0.05046052924885375
0.006597621126340491 0.05885464018633546 0.05082033173459777
0.006570418829587074 0.06089508623311629 0.051097037590098426
0.006546462955628076 0.06277089051774487 0.051246722920041676
0.00652122078651264 0.06470434913313167 0.05145576966788229
0.006497718309348301 0.06654766723734346 0.05159902775335162
0.006472897876276311 0.06844999986740052 0.05180317857199851
0.006450678191923918 0.07022090160635391 0.05190501679251225
0.006428799717669349 0.07197053349407745 0.05199823058639158
0.006408901831899595 0.07361986137798959 0.052013783003739766
0.006389453764143164 0.0752432583896317 0.052015452133074735
0.006373468676615688 0.07669604910463568 0.05187564721696797
0.006365235573589585 0.07777366587548207 0.05141112389276575
0.0063584114386174475 0.07878210204272096 0.050888761639567126
0.006353356809803229 0.07970459796123419 0.05029263651824473
0.006347495516123052 0.0806644355095461 0.04973232570274444
0.0063437474828062935 0.08152258070327811 0.049082798443672915
0.006339927207108652 0.08238334856384594 0.04843733849723508
0.0063453136024406425 0.08280770683226557 0.04739530069406084
0.006355528377828088 0.08300529350706731 0.04614277669189393
0.006365636972546603 0.08321006974779571 0.044892256454414414
0.006375963862518779 0.08340675392984087 0.043629645172090226
0.006386199849827605 0.08360991265491452 0.042368368616989616
0.006397467804896404 0.08376699231406276 0.041059258122790654
0.0064076477085155325 0.08397726537357714 0.03979508701836426
0.006419101570652096 0.08413040073345013 0.038472167108307254
0.006430801531939712 0.08427455755916025 0.03713544428967602
0.0064427817309126445 0.08440823267928182 0.035783310937262114
0.006454234527586138 0.08456886243794354 0.03445156556890622
0.006458591507952943 0.08505930529515338 0.033433265702886905
0.006472864466307046 0.08509427913649198 0.03197047919792306
0.006487489626579794 0.0851161380657664 0.03048825510141845
0.006501858485233299 0.08515287248173098 0.029013821969561038
0.006516307332999856 0.0851890296441577 0.02753211256480398
0.006530918164942056 0.08522089641216435 0.026039388121791462
0.006545414886373911 0.0852610847611136 0.024548107895716098
0.006560567131099173 0.0852746288013892 0.02302331330971996
0.0065762515860991215 0.08526732246482727 0.021470377197786605
0.006591331646191481 0.08529067718782912 0.019941077767741677
0.0066066974749958585 0.08530438544901703 0.01839482168780826
0.006622252214197854 0.08531289342341275 0.016835954000176068
0.006638620006438018 0.0852882699332353 0.015235618443366628
0.006655778583806366 0.0852317725846129 0.013594533383648133
0.006673229933363369 0.08516588398231051 0.01193549021616308
0.006692771640707993 0.08501065684271136 0.010174788115697997
0.006713511134338359 0.08480641103949882 0.008353245437002943
0.005921955123910142 0.020916797203266724 0.04538130883373531
0.005897590180394422 0.02316478986596482 0.045613345267632666
0.005872272354298982 0.02546453790519554 0.04589755151956498
0.005847327481827916 0.027735115680509348 0.04617196149973263
0.00582146094842933 0.030055161705479005 0.04649753666351947
0.0057962220821891125 0.03233058130881544 0.04680130258143805
0.005769707337942199 0.03467654231066414 0.04717344117123867
0.005744158971415709 0.036957465642181 0.047507626910338885
0.005718581364666162 0.03923357803885863 0.04785103975879973
0.005692963469949697 0.041505530965624704 0.04820422330398877
0.005667677003520465 0.04375105781561922 0.04854930158384052
0.005643095179096816 0.045947993681414 0.04886809851814833
0.005617887597410807 0.04817590643824793 0.04922474352556899
0.0055936632292074235 0.0503388617121589 0.04954132858786625
0.005569561673494222 0.052488300171254276 0.04985934891925886
0.005545878100134447 0.05460678993546891 0.05016431243506697
0.00552210194170583 0.056724661137434684 0.05048107515713118
0.0054969653121891195 0.05891663322144408 0.05087207563290108
0.005474785533478925 0.06092818520022025 0.05112481099812072
0.00545537125822223 0.0627716901694847 0.051247397544310624
0.005435120388405841 0.06465920686144772 0.05141748847251898
0.005414885083845336 0.0665406070887985 0.051593009053427674
0.005394773248538891 0.0684096041429183 0.051768559235469414
0.005376000690275588 0.07019549884471565 0.051883131548899675
0.0053573057730554804 0.07197205902084491 0.05199955189518962
0.005340541549418475 0.07363196354308488 0.05202431978877825
0.005323894890302402 0.07528076215440282 0.05204827674791046
0.005309234912209465 0.0768106990791706 0.051976520968599726
0.005301298241015144 0.0779499649938365 0.05156705493823066
0.005295926123695606 0.07893993928490123 0.0510290974658722
0.0052909877394409785 0.07990368411704812 0.050470577073296
0.005286685389334971 0.08082980309998683 0.049880904719251884
0.005283079875574999 0.08171507385368432 0.04925665609909796
0.005279811035578866 0.08258025966187876 0.04861611835348456
0.005281023528663061 0.0831901772896741 0.04774437223252903
0.005289258003701552 0.0834026362948278 0.04650731952074971
0.005297723750360192 0.08360414151554357 0.045255688898162116
0.0053062553067447825 0.08380411243355551 0.04399802388348767
0.005314943694733105 0.08399745346727683 0.042729521951502536
0.005323375177658968 0.08420744906355598 0.04147186662064789
0.005332679464457107 0.08437073229154796 0.04016559916651047
0.005341794266844232 0.08454699524720827 0.03886650245815981
0.005351333517615853 0.08470194021019029 0.0375420988501432
0.005361235814108232 0.0848391459707255 0.036195459633684035
0.005370831485627951 0.08499591220192593 0.03486214437576257
0.005375642183826418 0.08542004600963388 0.033781896678163226
0.005385329368316339 0.08557607699329584 0.0324385237298222
0.005397277539267578 0.08561000978874528 0.030970521288617325
0.005409252057304842 0.08564556618753671 0.029497435956196305
0.005421306734948165 0.08567980491363597 0.028016343542037192
0.005433401746907504 0.08571493604685487 0.02652936846159587
0.005445550847762121 0.08575022428662887 0.02503574362822858
0.005458108944840242 0.08576636188598369 0.023516075140377346
0.0054709306088790224 0.08577140810916023 0.021978134084610246
0.005483482291197169 0.08579438501771153 0.020451081186328546
0.00549639592424396 0.08580101653268518 0.018900262417409885
0.005509328840846097 0.08580992803566223 0.017344422449326824
0.005522839329068286 0.08579108089557858 0.01575265621638966
0.005536907382197315 0.08574577201761152 0.014125808507408966
0.0055514704866875915 0.08567756473187976 0.012467101766122923
0.005566379875411279 0.08559459897115346 0.010784609747978902
0.005584180211636911 0.08536136757659585 0.008935789701907004
0.0056114195318697786 0.08463079080419794 0.0065519221044545994
0.0047824992769130706 0.015945214447015965 0.0445951753164881
0.004762338046153057 0.018257951333320976 0.044850001887688506
0.004741934319954424 0.020582743117778857 0.045126678401449294
0.004720301830361443 0.02299469713703528 0.04548299304494652
0.004699472319321182 0.02533858329392813 0.045800504268154185
0.004678900988844711 0.027656166216263156 0.04611080367673942
0.004658633149457723 0.029944136305513347 0.04641106843639681
0.004636743350268961 0.032348259460454165 0.04681514469937631
0.004615826219645068 0.034671942004916356 0.04716981985554625
0.0045948432524061805 0.0369938600098943 0.04753643059578894
0.004574014277263961 0.0392974623248562 0.04790187072557367
0.004553527520703224 0.041568708826646206 0.048254761267817636
0.004533317534781165 0.04381266165858527 0.04859884394514108
0.004513332773892376 0.04603330288216917 0.048937071378805375
0.004493350139942755 0.04824736276667779 0.049282824576163564
0.004474265216066143 0.05038826176035954 0.049581695951248284
0.004455364442965167 0.05250936629971359 0.049876654874781046
0.004436194728319117 0.05464430390531816 0.050195294291699444
0.0044173120788747544 0.05675187760804906 0.05050367205738193
0.004398146708220663 0.05887421933426673 0.0508366740513545
0.004380551931870457 0.060874900347439864 0.05108009978361033
0.004363903587019533 0.0628004783106833 0.051271681774223865
0.0043481600894535975 0.06465445421352073 0.051413458241385324
0.004331917641317584 0.06653982252424367 0.05159234029241255
0.0043167235257428275 0.06834355038544365 0.051711950785909566
0.004301000430055328 0.07018087110065574 0.05187052934154751
0.004286032557490631 0.07195832780434969 0.051987659649296525
0.004272212621961245 0.07364784622726112 0.052038148068282775
0.004258730577379267 0.07530850903239061 0.05207256181323022
0.004246375199886805 0.07688361344704586 0.052040674050792546
0.00423833218842205 0.0781445462308496 0.051739155936132764
0.004233568141432701 0.07916755576067969 0.051231475181064356
0.00422993044612331 0.0801083745104344 0.050653526618824496
0.004226666966236009 0.08102128618468779 0.05005294789978393
0.004223571828522528 0.08192114790432709 0.04944277986536233
0.004221215198572215 0.08276748530478706 0.0487861045789994
0.004219961414670843 0.08353479780353434 0.048058899050865855
0.004225879761956005 0.08379386323814919 0.04686625135861605
0.0042326961743551425 0.08399138492514813 0.04561282389410032
0.00423904100880262 0.08422433727912587 0.04438760126411112
0.0042459206115416466 0.0844217207579781 0.04312490106667671
0.0042527087427508695 0.08462773340868462 0.0418655781352672
0.0042597366423957105 0.08481914284396863 0.040587849537539855
0.004267142024717218 0.0849864461651223 0.03928247296090642
0.004274876425119175 0.08513320251501416 0.03795244489983912
0.004282586441034253 0.08528413991070849 0.03662107581806168
0.004290250592005367 0.08544073651851586 0.035289812181367175
0.00429563921298731 0.08575726534966616 0.03410779587595436
0.004301094313984377 0.0860709362458954 0.032919256806208164
0.004310610404028527 0.08610664090421327 0.031455482024271786
0.004320136657341417 0.0861447055482143 0.02998737681094521
0.0043296943823122975 0.08618367421166412 0.028513493941365875
0.0043392837170902945 0.08622355261764014 0.027033805962459356
0.0043490779608063475 0.08625253061597704 0.02553650568214888
0.0043589926229641255 0.08627645877946727 0.024027239194623018
0.0043691055081665695 0.08629011102381479 0.022500614695820376
0.004379243478983933 0.08630531379747786 0.0209683958040644
0.004389638086377855 0.08630642771925645 0.0194146389964564
0.004400115391647621 0.08630530578568335 0.017851195921614937
0.004410776413899463 0.08629519203706398 0.016271030955946897
0.004422082178330507 0.08624523471900286 0.014642058317704154
0.00443355852188407 0.0861874904862921 0.012996889960999847
0.0044451511191651635 0.08612566999884402 0.011339217114618438
0.004458839897012473 0.08592790694964131 0.009530492600502871
0.004474663110749515 0.08559266907477997 0.00756682910689066
0.0035982472810292994 0.01401034351091407 0.04463632859983635
0.0035893886953490325 0.015687876564644154 0.0444011268384098
0.0035739444349856962 0.01803416748310066 0.04468034163086726
0.0035587967666731945 0.020343614746586136 0.04494440446546072
0.0035420914568133595 0.022804975741906652 0.04533759819332961
0.003526765965469935 0.02511915290176342 0.04563143444525125
0.0035100866961680355 0.027563855516828495 0.046039295623765575
0.003494328170081279 0.029908367424559434 0.046383211155506254
0.003477750573773328 0.03232872013374166 0.04679984543523413
0.003462207248784335 0.03463789661133121 0.04714301914639346
0.0034464034684063716 0.036966564776086064 0.04751482839973764
0.0034303841535405196 0.039310056343793975 0.04791189150341496
0.0034146642896264977 0.04161674392287268 0.04829318607550265
0.00339951100605334 0.04386016931683967 0.04863705004687546
0.003384509096838056 0.046082031569858184 0.048976468769375725
0.0033697516296356577 0.0482731827893661 0.0493038116282416
0.0033555603564269093 0.05040188670737744 0.0495928296660067
0.0033414369985838347 0.052517791940823455 0.04988357663934023
0.003327144851950196 0.0546443038083651 0.05019529429170205
0.003313007940772821 0.05674940346574536 0.05050161794949609
0.003299206555018252 0.058815474120858524 0.05078764117768003
0.00328612099268062 0.06080544213969047 0.05102181751460538
0.003273596612938695 0.06273489747624733 0.051216361340125194
0.0032624742213106994 0.06452211776934241 0.051301235171821946
0.003249830938220739 0.0664527220930598 0.05151808720624029
0.0032388771838082553 0.06821369345850414 0.05160066257560847
0.003226391955656441 0.07011849567476502 0.051816790917226685
0.003214775140148981 0.07193391383207404 0.051966515286148485
0.003204228353904264 0.07364103942889277 0.05203222183662426
0.0031940774213207895 0.07530550950797732 0.05206993661188153
0.0031845088993405226 0.07690964581840803 0.05206357846230314
0.0031766596414606212 0.0783447868060807 0.051916262438600036
0.0031728301174230194 0.07939189182022716 0.05143093622294792
0.003170036847105104 0.08033841253047158 0.05085913152486682
0.0031676924511237145 0.08124097317180129 0.050250331630464495
0.003165550283162049 0.0821233067977089 0.049625367507066975
0.0031638768070455362 0.08296027224230185 0.048961140022017124
0.00316235005819009 0.0837826365738541 0.048285095533236344
0.003165320766097575 0.0841797397892659 0.04722027447081251
0.0031701975052239365 0.08439857515723709 0.04598835483015912
0.0031751508266068124 0.0846123029729095 0.04474727219510499
0.0031802199589423172 0.08481729407829258 0.04349353997706301
0.0031851582319578986 0.08503669975945366 0.04224868724732672
0.0031903215154967667 0.08523721931385597 0.04098153551599126
0.003195735300312634 0.08541662354952329 0.03968966542830543
0.0032013785960539705 0.0855770237099287 0.038374740729631596
0.003207049704821441 0.08573726398361303 0.037054468097780346
0.003213205625264385 0.08585509804639219 0.03568819212908869
0.0032188950356567495 0.08601861394078786 0.03436037125615765
0.003220247307785391 0.08658381705624263 0.03341749699608143
0.003227351768241607 0.08662132250062637 0.03195806906731302
0.0032344956272978014 0.08665826246141378 0.030491469517994696
0.0032416471310545087 0.08669756491329467 0.029020532110645536
0.003248935018301473 0.08672749423538023 0.0275336069227754
0.0032563204669071298 0.08675167021895497 0.026034110745665584
0.0032637314421800428 0.08677669402238464 0.02452852096851743
0.0032711109171206063 0.08680774606439956 0.023022019655530968
0.0032785566413050483 0.08683597544723187 0.021505689918766113
0.0032861434397245728 0.08685468113238387 0.019972617763493072
0.0032939723718942338 0.08685486743667803 0.018413399735952463
0.003301971784901569 0.08684311703158776 0.01683445923283139
0.0033102191315426245 0.08681260882965747 0.015228502048539427
0.0033187514526610215 0.08676019562674336 0.013591902888691276
0.0033278854420772555 0.08665785775637269 0.011894990702452535
0.0033375966917095537 0.08650815036455378 0.010139580786653835
0.003349058272055148 0.08620748059930528 0.008215535472244517
0.0024069321533891604 0.01199061566453996 0.04462362668691994
0.0024001225469913712 0.013811684950994996 0.04448733554977907
0.00239316127177316 0.01565165939506774 0.044373816948675426
0.0023839811889003605 0.017827047351451353 0.044523314868846364
0.002373871235941165 0.020138677934820215 0.044788192818975614
0.0023630156449992307 0.02255755143603888 0.045147982126266806
0.0023519992931815303 0.024993918477586363 0.045534942094137554
0.002340740260172354 0.027460067709038638 0.04595889687250426
0.0023303526750253667 0.029786887651679694 0.046288600900425525
0.0023189362960514305 0.032262642713042244 0.0467481067228232
0.0023084664345208983 0.03458819684077713 0.04710389519457919
0.0022976133177729815 0.03696474484699541 0.047513388132166545
0.0022869575359107113 0.03930465887732004 0.04790759697426966
0.0022766017838976357 0.04159272791499724 0.04827397502315167
0.0022664040530811784 0.04385049279096742 0.04862926819044472
0.0022562856195759273 0.04608986156893258 0.04898279943017225
0.002246609421426866 0.04825683041041501 0.049290520204507526
0.00223707885896311 0.05039592578984131 0.04958795877803768
0.0022276174563728495 0.052518634393674435 0.04988426879638813
0.0022181400202651042 0.05463763517035719 0.05018978692339404
0.002208815467200871 0.05672796006745967 0.05048381437613364
0.002199823703680842 0.05876323826446306 0.05074404147865019
0.0021912839519163917 0.06072625558110811 0.05095537219104507
0.0021829956549144695 0.06264688102111732 0.051142115406080546
0.0021748726649878656 0.06453797213742535 0.05131467997767036
0.0021671592103850107 0.06636400302663364 0.051442454232652646
0.002159665732071286 0.06815300494382759 0.05154865217659149
0.0021517628046396242 0.0699967535732468 0.05171190612613258
0.002143523062398369 0.0718843112475791 0.05192355557886008
0.0021363485497708184 0.07361229661206675 0.05200719709444446
0.002129092202747197 0.07534749613309671 0.052106684774074485
0.0021230501152630526 0.07690295208624742 0.05205768912853209
0.0021175090775610713 0.0783824409772137 0.05194956643731685
0.0021139026656681816 0.07958066551878162 0.05159877817207725
0.0021118590097687472 0.08055275093819408 0.05105070433288916
0.0021102320121436876 0.08146398206259331 0.05045070001420632
0.0021087907158300846 0.08234769028495142 0.0498280281430199
0.002107717375177764 0.0831781275371613 0.04915893555951134
0.0021066603632756576 0.0840055572693813 0.04848854989663365
0.002107483416520111 0.08456606203545519 0.047574706486411045
0.0021108383374434 0.08476935892284315 0.04633030993275283
0.002114081194530872 0.08499061019479115 0.04509798905904466
0.0021172211647686287 0.08522841705266748 0.043876669768907195
0.0021205145538593616 0.08544671303555451 0.042632777091528684
0.0021239008004263838 0.08565412515029242 0.041374119155495936
0.0021274636186954243 0.08583904915648238 0.04008952030678875
0.002131028015919113 0.08602604322882429 0.03880198276294905
0.002134938162827974 0.0861672540153095 0.03746573373822498
0.0021389673987093818 0.08629445783966139 0.036110606174161564
0.0021428909966057937 0.0864388720092491 0.03476652162604055
0.0021443739154870848 0.08692281676576508 0.033746819700258224
0.0021480533339301926 0.08710512835476564 0.03243050592538943
0.0021527685306616125 0.08714745067846308 0.030971642617312112
0.002157776188493114 0.08715270283471815 0.029469600955528252
0.0021624271808031465 0.08720996362200228 0.02801211208315557
0.0021674046592748213 0.08722565746023292 0.02650664077959486
0.00217247531895228 0.0872318639593499 0.024984643164633058
0.0021773906961808317 0.08726242181356475 0.023480006804738773
0.0021823447177595425 0.08729090252777855 0.02196630291063756
0.0021874472734008292 0.08730248766080567 0.0204283678568713
0.0021926177596661234 0.08730819108499482 0.018877151697241967
0.00219801730109663 0.08728639986066583 0.01729028456156756
0.002203565748190284 0.08724809275683387 0.01567862274872661
0.0022091646186086157 0.08720660030692146 0.014055695771702126
0.002215168196136531 0.08711464574540634 0.012372022921670944
0.0022213400116927167 0.08700413091923825 0.010660217293781138
0.0022284438890097205 0.08677367709583861 0.008812946648605324
0.0022373907670305893 0.08630337760135182 0.006701016810473082
0.001211058284103537 0.00809295598455445 0.044732998158472925
0.0012071465765834362 0.010079859169378702 0.04470184124876303
0.0012038833906836976 0.011861798540304058 0.04452753593904618
0.0012004002841182213 0.013707202039187794 0.04440897386077669
0.0011964783671291235 0.015682846634585246 0.0443973341201927
0.0011924615573331214 0.017682521581157018 0.04441374363306638
0.0011873928051539847 0.019998636036234474 0.04468144688972486
0.001182114228769545 0.02237224789900749 0.045005972945543815
0.0011766319825184752 0.02480107896088668 0.045386360393691816
0.0011710465259636548 0.027254217398252067 0.04579943579160922
0.0011653521864979132 0.029733183856115453 0.046246775629461334
0.0011598730531434394 0.03213972843388163 0.046651864602886395
0.0011544635021955535 0.034518225029314786 0.047048812940512386
0.0011489893378758196 0.036909230776246416 0.0474694526930986
0.0011436267088573118 0.03925967413005249 0.04787180398549662
0.0011383702562179265 0.04157137750470086 0.04825689626303409
0.0011331795354951974 0.04385665048194215 0.048634220332282097
0.0011282252799271917 0.0460646298524634 0.04896239958077786
0.0011233776974521707 0.048234450917883254 0.04927232983599922
0.0011186431923336632 0.05036441495244853 0.04956220975545517
0.0011138660651316297 0.052500939839494776 0.04986973275730172
0.0011091577215277075 0.05461095820052575 0.05016775521315392
0.0011045783705642689 0.056676814567436506 0.0504413502559351
0.001100150246201124 0.05869220318284518 0.0506847506026159
0.0010958674219350558 0.0606591589521569 0.05089907152176565
0.0010916914597622182 0.06258924401855165 0.05109349596739926
0.001087641961488363 0.06447692369790214 0.051262910130256856
0.0010836869014003957 0.06633180056673715 0.05141500169813734
0.0010797524942043146 0.06817557122523693 0.0515679917178799
0.001075798866215854 0.07001987633566731 0.05173182723652198
0.001071805715989268 0.0718705722826648 0.051911656622252667
0.001068369574829282 0.07355479504692308 0.051957133658119325
0.0010648671413810646 0.07525375992571015 0.052024643831624307
0.0010616222935358988 0.07687394283987115 0.05203216570568947
0.0010586587542851706 0.07840901476178291 0.05197307018649355
0.001056306436762008 0.07976480561108235 0.05176250030393742
0.001055099763902653 0.08078941364265485 0.051262230290648414
0.00105430530662148 0.0816946603005223 0.050657959127823726
0.0010535806400850157 0.08257898457600027 0.05003693053636521
0.001053059987737055 0.08340433283995724 0.04936431224660759
0.0010526438243441427 0.0841993506564182 0.04866542047619393
0.0010524687952666633 0.08492553789815677 0.04790450824653081
0.001053974364582266 0.08517659015005397 0.046705878676074175
0.0010555888048328246 0.08539888270794532 0.04547648580588998
0.0010571851747320639 0.0856283338848885 0.04424935644200795
0.001058832568653725 0.0858455171109595 0.0430063664482539
0.0010604928273130498 0.08606121586593912 0.04175746028806787
0.001062259018985862 0.08624945446058935 0.04047799714449585
0.00106410366727159 0.08641809558753205 0.03917502055929534
0.0010660587740721427 0.0865583912959576 0.037839838521444236
0.0010680393547543385 0.0866941328747523 0.0364948660776272
0.0010699827587422083 0.08684271106814695 0.03515680416154976
0.001071129065599339 0.087213911042129 0.034029604481103815
0.0010721909918463013 0.08760983269085104 0.032923350165884435
0.0010747996040429207 0.08758198067959272 0.03139816479228025
0.001077314670255878 0.08758313508705895 0.029894293576020914
0.0010797668087004046 0.0876047388376266 0.02840364363148712
0.0010821979669308939 0.08763522131702234 0.026914945502278687
0.0010846454831014265 0.0876643748980867 0.025418058962182355
0.001087141966161341 0.0876833726729006 0.023904023452837708
0.001089649967759731 0.0877024581017874 0.0223830023256395
0.0010921586468817985 0.08772458449797915 0.020857952204406227
0.0010947776542581775 0.0877201772108046 0.01929861521123899
0.001097434061751733 0.08770907292595154 0.017724916986296135
0.001100172647733958 0.08767932330938383 0.01612434711750288
0.0011029611327879234 0.08763973126838953 0.014505697905328852
0.0011058785453304145 0.08756927996862113 0.012846805923228122
0.0011088452023462045 0.08748945473617753 0.011169667302276143
0.0011119806287993648 0.08736857215926586 0.009440638551762637
0.0011153388066451905 0.08719264006637767 0.007644146915127936
-5.451364137692548e-10 0.006235634892503172 0.044868939141352315
-7.136855027962605e-10 0.008163611821812466 0.04478513526644512
-8.729195831102141e-10 0.00998503746538787 0.04463149158247587
-1.0332356461241426e-09 0.011818839549302018 0.0444954908607631
-1.196369862606139e-09 0.013684877553420072 0.04439223066408332
-1.3646166815158232e-09 0.01560939691613017 0.0443419486035726
-1.535390998856402e-09 0.01756282749278487 0.044322998382709144
-1.7302131843900345e-09 0.019791333634188668 0.0445234320879041
-1.94124984283719e-09 0.022205311737638456 0.04487803979099869
-2.152906345500533e-09 0.02462638003315437 0.04525175591666303
-2.367960346637122e-09 0.02708631118378657 0.04566936796066556
-2.5895509949444817e-09 0.029621012867247887 0.04615941520007699
-2.798991052085179e-09 0.03201672798057925 0.046555555008428784
-3.0095457156148614e-09 0.03442519270589406 0.04697557727893409
-3.2224096398557247e-09 0.03686007229658633 0.047430547261518186
-3.4258950423842217e-09 0.03918767409746127 0.04781451571197459
-3.6306290821212327e-09 0.041529558644276154 0.0482234441698553
-3.828993423759587e-09 0.04379858233368161 0.048587521563120295
-4.023902352990077e-09 0.04602808071024911 0.04893284955394367
-4.21197230747914e-09 0.04817935032996512 0.049227543181018296
-4.400166953805993e-09 0.050332046258381724 0.049535759734715634
-4.585946507108678e-09 0.05245711674130915 0.04983373205610009
-4.770086180699441e-09 0.05456342918595131 0.050128502361238336
-4.949649976219665e-09 0.05661739968371715 0.05039202037502266
-5.124750817990862e-09 0.05862031993834499 0.050624751789253686
-5.2971235611488395e-09 0.06059203438063904 0.050842747405925204
-5.464793875627717e-09 0.06250995930570824 0.05102661566822736
-5.628568573556904e-09 0.06438332356911147 0.05118353599645287
-5.793071570439838e-09 0.06626501860219697 0.0513580701163836
-5.9548585837837335e-09 0.06811564640322537 0.05151663580883814
-6.114457438719565e-09 0.06994124458828993 0.05166408345032042
-6.272109668455019e-09 0.07174457597540584 0.05180253386728806
-6.42765135374515e-09 0.07352376554685025 0.05193011802396047
-6.5746946463068474e-09 0.07520574483090903 0.05198261951667227
-6.716695615264578e-09 0.07683004665267656 0.05199354415215507
-6.853313715391834e-09 0.07839277562856756 0.05195870727148988
-6.978771544865328e-09 0.0798278459808387 0.05181855063788465
-7.081261865739964e-09 0.08100019864201452 0.05145062711083459
-7.164457551106261e-09 0.08195184638560976 0.05088903492535318
-7.240105406753666e-09 0.08281715701570203 0.050252045193342976
-7.312129157612639e-09 0.08364101271662044 0.04957919902187424
-7.381317403507709e-09 0.08443243401943956 0.048878150057984404
-7.45101622241946e-09 0.08522969559719046 0.04818355827328141
-7.480499581858591e-09 0.08556694591056696 0.04706588403413953
-7.496761706795963e-09 0.08575296292005957 0.04580474256734901
-7.518287221322675e-09 0.08599918609226731 0.04459495749368142
-7.538619556737643e-09 0.0862317608854048 0.043368189641978416
-7.5578191224903e-09 0.08645137830306632 0.04212486073757771
-7.576197813345177e-09 0.08666160600571782 0.04086812691877412
-7.593375793152938e-09 0.0868580991739828 0.03959368393494156
-7.605125700977568e-09 0.08699250243218581 0.03825504580700351
-7.617424451354202e-09 0.0871331837176807 0.03691698308786451
-7.6304640292449e-09 0.08728233908259331 0.03558167424044584
-7.658672400121868e-09 0.08760500522507825 0.03440953456777496
-7.697696951432454e-09 0.08805139405791412 0.033354535251218786
-7.69757645118471e-09 0.0880500156658659 0.031857574491427065
-7.69751887041503e-09 0.0880493569886599 0.030354298597933427
-7.69981529054847e-09 0.08807562494469084 0.02887066068840055
-7.70218587626435e-09 0.0881027412560153 0.02738102811744758
-7.704375513413001e-09 0.08812778775672614 0.025882441322644945
-7.706447054912461e-09 0.08815148340044626 0.0243755434238474
-7.7083355359583e-09 0.08817308507638372 0.02285951143293735
-7.70933210217452e-09 0.08818448443509425 0.021326010226206782
-7.70988197107929e-09 0.08819077417168547 0.01978003783815896
-7.708365997860963e-09 0.08817343342717693 0.018202416365669882
-7.706518548359359e-09 0.0881523010355591 0.01661322178770086
-7.702452689145993e-09 0.08810579299292487 0.014989913502144736
-7.698105325695118e-09 0.08805606491678325 0.013355164519221252
-7.691971165072068e-09 0.0879858982619009 0.01169078979466609
-7.683903601121449e-09 0.0878936160492183 0.00999462836565479
-7.679604782732118e-09 0.08784444326339141 0.008335433532681513
-7.65397639504176e-09 0.08755128862812939 0.006407796285585188
-0.0012181093678125976 0.00434439108496304 0.04498871054239961
-0.0012145641747367535 0.006227255390815756 0.04486278947735228
-0.0012110294886505959 0.008102308824003979 0.04473989978653725
-0.0012075787272560591 0.00994688898983681 0.04460318869430269
-0.001204144257833817 0.011782009626311929 0.04446801774614989
-0.0012005709014334884 0.013655445731540095 0.044370156993627785
-0.0011970121326930283 0.015519808907649035 0.04427439382586357
-0.001193330976900008 0.017417093906007153 0.04421251144848681
-0.0011885364912476428 0.019650034982062248 0.044415728206739835
-0.0011831713101800566 0.022050929198047797 0.044759727232901336
-0.0011778003747303983 0.02444667756057256 0.04511329623611715
-0.0011721099789129938 0.026932576287022614 0.045550277887137336
-0.00116630305095174 0.029446487940708532 0.04602349255541727
-0.0011606119528030164 0.03191789242273402 0.04647816658981946
-0.001155028032606926 0.0343496249530123 0.046916089857985566
-0.0011493070953913827 0.03681545343277676 0.04739523461956524
-0.0011441666492411264 0.039099432966607395 0.04774430486417858
-0.0011387424549365915 0.041461915040379216 0.04816933408238894
-0.0011336488107751416 0.043718486097122866 0.04852310763695056
-0.0011286763348747895 0.0459323193389885 0.04885542623728745
-0.0011237935367246373 0.04811303341267298 0.04917363969468286
-0.0011189126886151403 0.050286889965764636 0.04949886031903106
-0.0011142388388791782 0.05239304673503897 0.04978109847094192
-0.0011095785143454575 0.05448918975398903 0.050067190095608394
-0.001105038055341037 0.05654392640242023 0.05033101833117565
-0.0011006815437676397 0.0585385957589572 0.05055653902830165
-0.0010964225267583835 0.06049898428178635 0.050764669192393475
-0.0010922591421490431 0.06242582657965723 0.05095564584222073
-0.0010882031401807037 0.06431586563114855 0.05112633080505574
-0.0010841556297732883 0.0661982084665198 0.05130111451875369
-0.0010800820460861937 0.0680829504782165 0.05148861525424575
-0.0010765082169423977 0.06981704939890637 0.05155708524253266
-0.0010725523475825234 0.07165746433041231 0.051727088326578075
-0.0010689313271575655 0.07339579803996377 0.05181870368522684
-0.0010653892265212268 0.07510666646642189 0.05189590294201796
-0.0010619815049932187 0.07677422826541608 0.051944432966379184
-0.0010588161319388142 0.0783676754309201 0.05193650702682295
-0.0010559527684972075 0.07987034675248117 0.051856338870050867
-0.0010536432338536894 0.08121068983233282 0.051638761328419436
-0.0010526051133027132 0.08218467824079789 0.051098229013718355
-0.0010518702935243698 0.08307083990098052 0.050481168703995105
-0.0010513742566955343 0.08388811673560354 0.049803550097428595
-0.0010509469351264703 0.08468524864072463 0.049108887877579444
-0.0010505325899801056 0.08547815563772876 0.0484115083986047
-0.0010513137198511833 0.08593269116434316 0.04740319237277024
-0.0010529123943475494 0.08615772002761529 0.04617998029130321
-0.0010545032131569153 0.08638701403317556 0.04495637840485783
-0.00105606310972533 0.08662703210751449 0.04373846951329957
-0.0010576276281224614 0.08686776133324708 0.04251695207061684
-0.0010593560099367082 0.08706472110668267 0.04124970307905129
-0.0010611080885312232 0.0872572976135827 0.03997352122473602
-0.0010630418164198868 0.08740161025166138 0.038646338577836614
-0.001064878782271686 0.08757525602820604 0.03734200502927465
-0.0010668471293283966 0.08771489544005157 0.03599971005300423
-0.0010686580735036807 0.08790053525913255 0.034696628482637715
-0.0010690738851561192 0.08847289970718314 0.033766135913376905
-0.001071246856902989 0.08856278338542373 0.03236089254758562
-0.0010739431730340764 0.08851193803283752 0.03081071131221108
-0.0010763852075194164 0.08853413013950173 0.02932539856337324
-0.0010788223906298678 0.08856078594729094 0.027837664616822078
-0.0010812733113799117 0.08858683407395201 0.0263424480070909
-0.001083756898604358 0.08860715861568297 0.024834537317140692
-0.0010862492207804925 0.08862830865981591 0.023320424632593206
-0.0010887557456724583 0.08864882265308538 0.021798585257531033
-0.0010913256534008189 0.08865546206473174 0.020255415465294746
-0.0010939789340447662 0.08864296982109665 0.018685238085955957
-0.001096711211085044 0.08861268160465985 0.017089075908376772
-0.0010994820704718184 0.08857557316551407 0.015477992385577843
-0.0011023031178159976 0.0885286182335781 0.013848660759895937
-0.0011051834051775077 0.08846950097124945 0.012198433136361708
-0.0011080815945012249 0.08840932677148466 0.010538770471268388
-0.0011110600024147857 0.0883316011837017 0.008852101400000423
-0.001113932334302198 0.08828577226651435 0.007190790620172638
-0.0024551994259303413 -0.00018419849686485135 0.044715929303542845
-0.0024439381090154387 0.0023589640354328423 0.04504891620878315
-0.0024365308319854286 0.004295820033033304 0.04495325756923463
-0.0024292493581174798 0.006208400281977 0.04484895173322062
-0.0024223805531898555 0.008052420385315284 0.044703087123966034
-0.002415517097123616 0.00989119887936818 0.04456187138557105
-0.0024085264499357816 0.011745172394252601 0.044440539179369576
-0.002401681758995629 0.013572199520659745 0.04430772274581851
-0.0023948299182721656 0.0153959243697121 0.044180977360140594
-0.0023867582136000327 0.01740211459931762 0.04420115505929173
-0.0023777115994457667 0.019552148391096313 0.0443411148812905
-0.002367687146097449 0.021845532647449817 0.04460231956607613
-0.0023566658937914536 0.024284210676794316 0.04498811648136081
-0.0023449536212004074 0.026820772521559677 0.045463669604997536
-0.0023336189078920024 0.029292574408811833 0.045903622385176646
-0.0023223994182433078 0.03173966144203949 0.04633861134934192
-0.0023107555583681233 0.03424359061810894 0.04683261891577889
-0.002299808794682853 0.03663503989835104 0.04725244995865535
-0.0022888213699213847 0.039025563723411094 0.04768552931366343
-0.0022781819254685145 0.04135683637945997 0.0480852785592733
-0.0022678586908096575 0.043633947965211084 0.04845512150461401
-0.002257826923951934 0.04586089815000238 0.04879768204134466
-0.002248016524076351 0.048048413751277164 0.04912111576806355
-0.0022383598121845263 0.05020677136509305 0.04943339142927544
-0.0022289448935397644 0.0523230471742987 0.049723593742472816
-0.0022197272499058845 0.05440406509288026 0.04999688801267815
-0.002210725346051046 0.05644728762305029 0.05025078283866813
-0.002201945963458928 0.058451923166300934 0.05048419596799608
-0.0021934342271608667 0.0604115491804702 0.05069130252068399
-0.002185102782629271 0.06233924397203339 0.050882609426067815
-0.002176856082848909 0.06424917324853197 0.05106977481530156
-0.0021688597894101405 0.06611721254533243 0.05123206553099913
-0.0021606495306565206 0.06801130721543036 0.05142721655988247
-0.0021536417752818088 0.0697251895819968 0.05147794503429931
-0.0021460783146551726 0.07151523014429534 0.05160390227550815
-0.0021388871020350765 0.07324649519533455 0.051688713816423815
-0.002131546325286116 0.0749947513617013 0.051797951228500616
-0.0021245863097577537 0.07668338692340604 0.05186450717309338
-0.002117769112000305 0.07834700155757907 0.05191822172524213
-0.0021119393876810138 0.0798644851804502 0.05185112732996344
-0.0021067256034449926 0.08129000300794004 0.05170965043786402
-0.0021031408676739053 0.08247937149075107 0.05136300412608086
-0.0021023313500738786 0.08327073728304446 0.05066171377441803
-0.0021009969692552225 0.08413625045075379 0.05002883605588543
-0.002100088153804594 0.08494050108988832 0.04934185064304869
-0.002099260811506438 0.08573262938814336 0.04864497581103172
-0.002099366781983605 0.08639235135670342 0.04782711368456449
-0.00210319184235474 0.08652783977313583 0.046523106801441505
-0.0021062944452033398 0.08676740373366532 0.04531086754348135
-0.0021094316757293663 0.0870041026143728 0.044091699428446096
-0.0021125986952213547 0.08723864727892588 0.04286620061865215
-0.0021159443046471285 0.08745028041548797 0.0416146614785452
-0.0021193005273846405 0.08766258491818285 0.04035915206760132
-0.002122749916936027 0.08786409217212332 0.03908868120402198
-0.0021267021456136815 0.08799805981699349 0.037748501623788455
-0.0021305392470346 0.08815050206768149 0.036420693739886545
-0.002134369366496252 0.0883063748717603 0.03509088307501218
-0.0021364254219603898 0.0887091078514583 0.03399679342795309
-0.002139260261354507 0.08900612607871677 0.03279606500546328
-0.0021445103345496567 0.08897379213977474 0.03126640678251552
-0.00214940022532786 0.08899410500360655 0.029781594031473235
-0.002154291222634457 0.08901741005003727 0.028292884895060377
-0.002159225871158417 0.08903791568357072 0.02679447332238044
-0.0021641885383160736 0.08905778741906112 0.025288448046372924
-0.0021691848393922777 0.08907629133365486 0.023774006423316174
-0.0021742150824618513 0.08909341820823935 0.022251067418248005
-0.002179268709653712 0.08911062470075704 0.020721048716993207
-0.002184553393164353 0.08909999152944514 0.019155191025446328
-0.002189962555507122 0.08907604698725474 0.017568015162215456
-0.002195508889903528 0.0890372114116143 0.01595761220250369
-0.0022010833892186898 0.08899817862461601 0.014339031432708538
-0.0022068311630340665 0.08893963816738659 0.012691941576033483
-0.00221260903434257 0.08888079117055597 0.011036226940776883
-0.0022183834492493556 0.08882611654968026 0.00937657239373374
-0.0022237182989468408 0.08883330727281918 0.007774488887423825
-0.002231982593594493 0.08845730917692995 0.00575403986180717
-0.0036892361421881842 -0.0016444658799434908 0.04517436686593479
-0.0036773024628713367 0.00038775328473555914 0.045128882751792554
-0.003665630254352487 0.0023877073920076097 0.04506978270424428
-0.003654439417250581 0.004332777214052286 0.044980233484786414
-0.003643762339499643 0.006219922901611719 0.04485740829694801
-0.003633560405063194 0.008053459755092751 0.04470385415434497
-0.0036233453250575343 0.009883978481727396 0.04455651453497578
-0.0036130082481047655 0.011722657112418822 0.044423744037178914
-0.003602809207544965 0.013542749737146531 0.04428563560424614
-0.0035923820389213794 0.015381818303267625 0.04417034059926467
-0.003579589036875417 0.01745803058881029 0.04424354749835707
-0.003567216877938856 0.01948587194816437 0.044290596181535524
-0.003552742681408303 0.021722182439482485 0.04450778895266788
-0.00353692462808213 0.024088668572897265 0.04483745245277665
-0.003517599171999539 0.02680356562377917 0.04545034042650781
-0.003501904704564779 0.029143254197543544 0.04578732956446557
-0.003484903667522709 0.03160797161918344 0.046235497956173766
-0.0034676540349383002 0.03409041862080253 0.046712040853143455
-0.003450883202764241 0.03651739651757474 0.04715934350030604
-0.00343482278356009 0.038866006154180455 0.04755857402915853
-0.0034183583515433637 0.04124812773379788 0.04799831930149234
-0.003402837064435026 0.043529097438056275 0.04837079998876459
-0.0033875786596340267 0.04577724465015709 0.04873004798024638
-0.0033726647467729617 0.047984631239633535 0.04906927229163588
-0.0033582601192559893 0.05013514335781433 0.04937486063379165
-0.0033443022294695163 0.052235295057200426 0.049651505246046834
-0.0033304768117878255 0.05431639067815963 0.049924480157011564
-0.0033168743451056832 0.05636960473531677 0.05018628571574496
-0.0033038155103831484 0.05836356760982858 0.05041044818584567
-0.0032910904612635577 0.06031920513366934 0.05061381675518606
-0.0032786024699302165 0.062246195739124766 0.050804118951313204
-0.003266436799271578 0.06413636793239341 0.05097411441495986
-0.0032542237263500575 0.06602594425237907 0.05115425934055673
-0.003242799467769207 0.06783361609533772 0.05127493411312739
-0.0032314949755211774 0.06962477692610197 0.051391436270696145
-0.0032201582675965633 0.07141421086737648 0.051516411618097946
-0.003209277950427144 0.0731547199802261 0.0516088101581178
-0.003198580183740587 0.07487297951361865 0.05169137256778972
-0.003188224900449651 0.07655373307834662 0.051750432574956706
-0.003178183029533093 0.07819998907838432 0.05178819394494738
-0.003168702056344942 0.07978826522004567 0.05178335896479874
-0.003159269867317316 0.0813678203594555 0.051779202600235275
-0.0031535236738077905 0.08259217211285108 0.05146435294354268
-0.0031501586825248592 0.08358771670205933 0.05094800597687216
-0.0031487587559475704 0.08439545146599109 0.05026417025122709
-0.003147639722110646 0.08517600645839779 0.049556790729740174
-0.003146604572822653 0.08594816217509266 0.04884271677734947
-0.0031469445888548976 0.08659033680741118 0.048009705685066295
-0.003150711748110635 0.0869105622985965 0.04687791695395699
-0.00315530805175656 0.08715465390092819 0.04567175002104096
-0.003159856843757951 0.08740516009056004 0.044467399711405564
-0.003164800793806747 0.08762073123904646 0.04322599388878634
-0.0031694383261287734 0.08786695658572669 0.042009074119882805
-0.0031744353916042995 0.0880817642422283 0.04075800116275602
-0.003179509938646524 0.08829153089898523 0.039497506638269564
-0.003185529483785139 0.08841607529942869 0.03815039459374536
-0.0031912765858023106 0.08856833739028525 0.03682450269262172
-0.0031969664852509725 0.08872832805938019 0.03550079126347938
-0.003202011690064741 0.08894996628605428 0.03423199195423493
-0.003204023304826275 0.08945172390082273 0.03323345103228631
-0.0032116620476972885 0.08943995491295492 0.031726353463595314
-0.0032191080135197847 0.08944904022849648 0.03023279126942391
-0.003226509160437887 0.08946539414388022 0.028739491728338507
-0.0032338885666263677 0.08948689305542884 0.027244389997795937
-0.003241309820714491 0.0895077647059091 0.025741702513931597
-0.003248829633605518 0.08952291267790419 0.024226209869855186
-0.003256432960582666 0.08953375625507065 0.022699216548056733
-0.0032640638314039645 0.08954538153978853 0.021165806758385808
-0.00327168971755497 0.08956072398469306 0.019628959704706128
-0.003279810840819039 0.08953501859534285 0.018042412965891375
-0.0032880383651796197 0.08950329495312248 0.016441850465146624
-0.0032964564918111306 0.08945812288660415 0.014819359804374432
-0.003304934499939064 0.08941123829043429 0.013186985666324036
-0.0033134562290496644 0.08936411191110899 0.011546193394959436
-0.003322047276855205 0.08931450869291907 0.009894549246990958
-0.0033303360250148267 0.08929524929687982 0.00826694099477937
-0.0033400274432470027 0.08915612930317074 0.006502857557451502
-0.00493478779260614 -0.003673539045934371 0.04523184454793805
-0.004918109487544713 -0.001576268191933572 0.04522333797487027
-0.004901667267313834 0.000497218129130006 0.04520791724764772
-0.004886017530959757 0.002503701590873708 0.045153989489575885
-0.0048718251163940365 0.0043918937673130265 0.04502338400062966
-0.004856999396537769 0.0063246425338194245 0.04493426243326565
-0.004844720111590537 0.008055538583259247 0.04470538820235559
-0.004830993266703515 0.009894292993485043 0.044564167115179965
-0.004817529899722037 0.01170832774563485 0.044413055158781856
-0.004803692400205169 0.013546811935883862 0.044288682315855976
-0.004789054742185206 0.015442264699903396 0.04421592097095073
-0.004772771839499493 0.017459028830718593 0.04424430438834037
-0.004757389126859172 0.019401755130990295 0.04422647877489205
-0.004738248215591953 0.021626185100779682 0.04443422049026102
-0.004717120760487559 0.023995662869819023 0.04476579215314347
-0.004694503122369534 0.026471531519048352 0.045193131550178844
