# .PCD v0.7 - Point Cloud Data file format
VERSION 0.7
FIELDS x y z
SIZE 4 4 4
TYPE F F F
COUNT 1 1 1
WIDTH 790
HEIGHT 1
VIEWPOINT 0 0 0 1 0 0 0
POINTS 790
DATA ascii
0.07955128664961603 0.030181625521395167 0.06131707034525108
0.07954942450152908 0.030248491205382325 0.0599418613280468
0.07954755408419717 0.030315653821482175 0.05856054538576655
0.07954640306416616 0.030383042494778127 0.05717371533738991
0.0795445175697792 0.030450804614320395 0.055780067635825825
0.0795426236463474 0.030518869663917803 0.05438018964244862
0.079541453860007 0.030587165840034833 0.05297468746661643
0.0795395445575901 0.030655842543836756 0.05156222776896402
0.07953762666209346 0.030724828338272496 0.0501434110675138
0.0795364377056576 0.03079405047301504 0.04871885705720713
0.07953450412108065 0.030863660403011976 0.04728720190599678
0.07953256177501172 0.03093358575240763 0.045849059579596674
0.07953135323336802 0.031003752805439495 0.04440506366182834
0.07952939487967992 0.031074315113667945 0.04295381910682339
0.0795274275915614 0.03114519934402513 0.04149595362696212
0.07952619903787622 0.0312163307961823 0.04003211500660475
0.0795242154148656 0.03128786516234752 0.03856087624343324
0.07952222267980652 0.031359728133355295 0.037082879103662925
0.07952097367511268 0.031431844004677585 0.03559878589248955
0.07951896426885247 0.031504370654452135 0.03410713688623879
0.07951694556808409 0.03157723277803729 0.03260858822059254
0.07951567566085199 0.031650353646553796 0.03110381705080889
0.07951363994322291 0.03172389337064297 0.029591330143846406
0.07949407480786952 0.03179961113436926 0.028054866523479494
0.07943546478853086 0.03187978149510799 0.026473211605231972
0.07930301164697057 0.03196809832035783 0.024811742909183088
0.07902214810423469 0.032072485725703336 0.022996090045612982
-0.015004696708997123 0.03547634758215003 0.08929394460749629
-0.015835828957974807 0.03561844857001071 0.08745475501026231
-0.015421303977016965 0.035649642620798616 0.0863395680658823
-0.012820746145310369 0.03548499152667175 0.0865190847162137
-0.013363202802665841 0.035602001673077664 0.08483550549927057
-0.014700469712215392 0.03579098786535451 0.08266586624448413
0.022826686260547013 0.03247654582530182 0.10394410310596591
0.02411302106801272 0.03242320256892823 0.103473347388675
0.025398669919719896 0.03236971449689778 0.1030062929138568
0.026678326779437322 0.03231656196549385 0.10253969770771232
0.027953788019918435 0.03226358370564167 0.10207463233023992
0.029225943682851363 0.03221069970507266 0.10161162937649673
0.03049307082232694 0.032158067685362536 0.1011496014220683
0.03175606376623985 0.03210560738564709 0.10068908090426043
0.03301494271430361 0.03205331796690103 0.10023006045772556
0.034270579202620555 0.03200112046567926 0.09977307384611969
0.03552128580280406 0.03194917056704303 0.09931703187054444
0.03676793824647767 0.03189738906363475 0.09886246815172267
0.03801055621402727 0.031845775138001096 0.09840937551364884
0.039249993143628314 0.031794250854964186 0.0979582888120917
0.04048459635748747 0.031742969902191075 0.0975081172086471
0.0417152234009841 0.03169185410515818 0.09705939543046324
0.042941893451753366 0.031640902667295856 0.09661211648482687
0.04416544224649899 0.03159003866167212 0.09616681624583209
0.04538425111164379 0.03153941381668634 0.09572240236584417
0.04659915980506257 0.03148895097051566 0.09527941060415568
0.04781018701759521 0.031438649346811204 0.0948378341455324
0.04901815117009045 0.03138843300738407 0.09439820981119765
0.050221466866695486 0.03133845175852985 0.09395944387003055
0.05142095646561695 0.03128862943151453 0.09352207304179991
0.05261663818624768 0.031238965269572417 0.09308609068315479
0.05380853013248582 0.031189458520735035 0.09265149019285726
0.05499742960768006 0.031140034455988806 0.0922188094803591
0.056181791818936955 0.03109084053001824 0.09178695325407038
0.05736241790521629 0.03104180178854823 0.09135645933803219
0.05853932551734503 0.03099291749843016 0.09092732129619072
0.059713295472669625 0.03094411387732214 0.09050007783392641
0.060882814690877196 0.030895536538055834 0.0900736325433707
0.06204866774585688 0.030847111477139984 0.08964852405683654
0.06321087184944857 0.030798837979660876 0.08922474609831829
0.06436944410592083 0.030750715335172808 0.08880229243103602
0.0655244015128083 0.030702742837663426 0.08838115685712816
0.06667650081885773 0.030654848091147577 0.08796187915892656
0.06782427526557772 0.030607174009942777 0.0875433614605918
0.06896848524339616 0.03055964798289853 0.08712614348911357
0.07010914733101581 0.030512269321400047 0.08671021919933222
0.07124627800448619 0.030465037341096363 0.08629558258351883
0.07237989363799718 0.03041795136186736 0.08588222767108608
0.07351001050466432 0.030371010707791166 0.08547014852830154
0.0746373582351606 0.030324144551271442 0.08505988602381753
0.07576052229498875 0.03027749275206155 0.08465034087000606
0.07688023582792936 0.030230984274112915 0.08424205389972547
0.0779965147103926 0.030184618457982138 0.08383501932387821
0.07910937472153678 0.030138394648265343 0.08342923138882682
0.07978859519499626 0.030135068672095575 0.08268599904467888
0.07978730542906376 0.03019950127086858 0.0814044728299079
0.07978671029245166 0.030264140111684445 0.08011801183612483
0.07978611260275381 0.030329056251240393 0.07882603196219501
0.07978551234350917 0.03039425147777711 0.07752849761802869
0.0797842048125566 0.030459798379539386 0.076224803166076
0.07978359784151118 0.030525557512524393 0.07491604760319834
0.07988769748983088 0.030581037837839213 0.0736871921617091
0.07988660363135963 0.030647393724933147 0.07236713352699492
0.07988550501561092 0.030714038201218596 0.07104133380925631
0.0798851134920806 0.0307809008682591 0.06971034652195224
0.07988400682559377 0.030848127883605084 0.068372956145074
0.07988289531453402 0.030915649195983455 0.06702971112746842
0.07988249549693527 0.030983393502744552 0.06568117740084817
0.07988137577880855 0.031051508914051448 0.06432611171571456
0.07988025112658648 0.031119924481752385 0.0629650748175315
0.07987912150758619 0.03118864219422533 0.06159802715015522
0.07987870980926837 0.03125758951602145 0.06022555162740101
0.07987757176361449 0.03132691722274952 0.05884636702636753
0.07987642865852995 0.03139655314356661 0.05746105090665271
0.07987528046019887 0.03146649933841893 0.05606956228830545
0.07987485651903259 0.031536682007147834 0.05467250156739639
0.07987369966656149 0.031607254663724396 0.05326854836545308
0.07987253762492197 0.03167814388309743 0.051858297549434884
0.07987210466720357 0.03174927489506412 0.05044236296553817
0.07987093379911109 0.031820803316645614 0.04901939406666289
0.07986975764341919 0.03189265476089045 0.04758999903398897
0.07986931546278636 0.03196475346850913 0.046154805463320014
0.07986813030367607 0.03203725720327708 0.044712431927633745
0.07986693975593945 0.032110090597540324 0.04326350021756664
0.07986648814007169 0.032183176883384144 0.041808651986247
0.07986528840713836 0.03225667601626748 0.04034647419430776
0.0798640831818701 0.03233051162854458 0.03887760254514955
0.07986362191227503 0.032404605923625575 0.03740269306544819
0.0798624073150534 0.032479121094850044 0.035920300349171375
0.07986118711901558 0.032553979754789034 0.03443107432412579
0.07986071597080874 0.03262910305759942 0.03293568571554745
0.07985948621091005 0.03270465548201174 0.0314326559737122
0.07985825074284664 0.03278055860050407 0.029922649571085536
0.07985776948452078 0.03285673249685647 0.028406352265561485
0.07984738320847407 0.032934336989690415 0.026873371455402584
0.07979952640878885 0.03301638356009053 0.025296590013576814
0.07969015225841491 0.0331055278308979 0.023651783714028096
0.07946948348494914 0.033207265115062536 0.02188884518271378
-0.016667425340839148 0.03681203237169211 0.08832436418667278
-0.018074603553801694 0.03701231931053369 0.08614166421719538
-0.017851597053168466 0.037062655983510516 0.08490586245277457
-0.016785521018310323 0.03703509059553938 0.08416657242820613
-0.014682176641463596 0.03691114970320269 0.0840483569111097
-0.016199381674586733 0.0371234038185187 0.08176616353115856
-0.01701070555175277 0.037270711708926124 0.07989430600330572
0.022627787730884363 0.033642621702068234 0.10257155175565402
0.023922098807798386 0.03358680939646098 0.10210460534006602
0.025206807520801677 0.03353168004854556 0.10163594136607493
0.026490830600432835 0.03347640041374641 0.10117099066154928
0.027769750411518135 0.033421385214143284 0.10070702589103897
0.02904447355936729 0.033366550542097174 0.10024458358019411
0.030315020666619008 0.03331189551048551 0.09978365624756277
0.031582275169628304 0.033257337575747545 0.09932478174346246
0.03284452702183421 0.03320303945323882 0.09886686235055964
0.03410266392110556 0.033148918343123814 0.0984104357791436
0.035356705956873236 0.03309497338121816 0.09795549474117468
0.03660751816727603 0.03304112310507636 0.09750257817904542
0.037853425817918396 0.03298752813073337 0.09705058674782255
0.039095298118313915 0.032934106744293194 0.09660005926432505
0.04033315464181164 0.03288085810377276 0.09615098862771718
0.04156784243348227 0.032827701806669905 0.0957039147976313
0.042797721308846126 0.03277479640999406 0.09525773693342537
0.04402364239656115 0.03272206126449726 0.09481299488311612
0.045245624770359316 0.032669495549689474 0.09436968172709792
0.046464497876259114 0.03261701990239097 0.09392833837005676
0.04767865533786425 0.03256479085985769 0.09348786260291614
0.04888893059926647 0.03251272881675315 0.09304879523222268
0.05009534225042128 0.032460832973398863 0.09261112951385578
0.051297908762782674 0.03240910253521388 0.0921748587466853
0.052497438122262374 0.03235745940988967 0.09174052491972368
0.053692365197539615 0.03230605766389366 0.09130702428424806
0.05488350186880353 0.03225481896833911 0.09087489874732727
0.056070866142689635 0.032203742548641126 0.09044414177643764
0.05725524925377368 0.03215275130734113 0.09001529615240159
0.05843511828099096 0.03210199737593706 0.08958725702841416
0.05961126827253932 0.03205140342473379 0.08916056711580664
0.06078371678476868 0.032000968698517165 0.08873522004539383
0.061953238661246246 0.03195061707572905 0.08831175932555996
0.06311833251123355 0.03190049878906162 0.08788907912481875
0.0642797769133242 0.03185053748895661 0.08746772289409135
0.0654375889875689 0.03180073243896894 0.08704768442245647
0.06659178574710284 0.031751082907252655 0.08662895753778077
0.06774238409897815 0.03170158816652512 0.0862115361064163
0.06888940084498973 0.03165224749403152 0.08579541403290078
0.07003285268249321 0.03160306017150963 0.08538058525966141
0.07117348271928742 0.03155395197390584 0.08496759456894673
0.07230985064933343 0.03150506944192441 0.08455533447929509
0.07344270316418994 0.03145633813068159 0.08414434973832127
0.0745720565513529 0.03140775733954684 0.08373463443712581
0.07569792699785477 0.031359326372211296 0.08332618270325437
0.07682033059104443 0.03131104453665387 0.08291898870042164
0.07793998751217729 0.03126283898401657 0.08251359801313668
0.07905410052870604 0.031214997454107964 0.08210779924806602
0.08010486195053829 0.03117347131360677 0.08165579673141107
0.0801042477336954 0.031240196866401185 0.0803706672799328
0.08010433106963266 0.031307136312872824 0.07908058459384451
0.0801044147635051 0.031374363242258264 0.07778496142673999
0.08010379561665903 0.03144195250049524 0.0764831934695111
0.08010387851702677 0.03150976029473493 0.07517637745962535
0.08010396177576984 0.03157786118999416 0.07386391270224565
0.08020875933810656 0.031635317488462926 0.07263178526494515
0.08020836169196921 0.031704036992422656 0.07130797248131959
0.08020796231454275 0.03177305569683247 0.06997839589904964
0.08020756119449468 0.031842375560005916 0.06864301779317677
0.080207871790406 0.03191192336873912 0.06730239878125399
0.08020746871509182 0.03198185116319716 0.065955307622664
0.08020706386943871 0.032052086092700334 0.06460229980518112
0.0802066572417604 0.03212263018518771 0.06324333626252127
0.08020696858574111 0.03219340896556219 0.0618789944278445
0.08020655995065257 0.03226457720090937 0.06050800548296825
0.08020614950490845 0.032336060788955144 0.05913094156566917
0.08020646179605273 0.03240778428696046 0.057748393043339175
0.08020604930613023 0.032479904555650856 0.05635906215324643
0.08020563497624683 0.0325523465330946 0.05496353383876096
0.08020521879406267 0.03262511237668545 0.05356176653966971
0.08020553180031753 0.03269812532407663 0.05215436831510406
0.08020511351858223 0.03277154509479775 0.050740001753911745
0.0802046933542595 0.03284529531831919 0.049319269313473524
0.08020500729399238 0.03291929822007239 0.04789279266504731
0.08020458499100064 0.03299371571531771 0.046459203846799635
0.08020416077440867 0.033068470429843164 0.045019118790110446
0.08020447564414024 0.03314348355692512 0.04357317308220032
0.0802040492487407 0.03321891925334764 0.042119967488162324
0.08020362090797895 0.033294699121535855 0.0406601317128823
0.08020393670382348 0.033370743302157335 0.039194315571754845
0.08020350614306082 0.03344721824060061 0.03772108781288208
0.08020307360440143 0.033524044495736476 0.036241092222369764
0.08020339032204754 0.03360114113463272 0.034754993164653414
0.08020295552110202 0.033678676939697005 0.0332613266046064
0.08020251870892925 0.03375657140552665 0.031760750725750575
0.08020283634361447 0.03383474250404451 0.030253944771369112
0.0802023972257444 0.03391336140447228 0.028739411133734516
0.08020195606249181 0.03399234651587138 0.02721782271873252
0.08019694214232509 0.03407221467237007 0.025684666829137948
0.08016364872516452 0.03415564565676059 0.02411655422978276
0.08007505120717812 0.03424571943433973 0.02248633788429588
0.07989146303398448 0.034346979608784925 0.02075375505163407
-0.012425423819709402 0.03752455745259723 0.0921358191632862
-0.01794247488902634 0.038120739510302995 0.08758084954824821
-0.018137089637091874 0.038212217173467136 0.08610501474796517
-0.01542455509356988 0.03802659573924832 0.08633765013092354
-0.011653952752213759 0.03773908839231244 0.08721140543624209
-0.013315835509105645 0.037970930456029894 0.0848637737614257
-0.01771073690906594 0.038466006643693026 0.08085899190307408
-0.018530055254682598 0.03861911552944131 0.07897707597339781
-0.015909660722857766 0.038441363916945574 0.07917260032183479
-0.013400075330929295 0.03827362121135401 0.079313328728978
0.023724871025604943 0.03475670257742478 0.10072578711727515
0.025013990861611934 0.03469942483363796 0.10025877414164125
0.02630152048041884 0.03464207805523331 0.09979494509841877
0.02758392215069183 0.034585006067237634 0.09933209733047893
0.028862979957508528 0.034528036548304865 0.09887132166096832
0.0301369608280338 0.03447133939558534 0.09841151172926582
0.03140676464810077 0.03441482813802074 0.0979532093941562
0.03267241192727277 0.03435850186285493 0.09749640725325157
0.033934779517077074 0.03430227550364895 0.09704164839415569
0.03519217023088966 0.03424631675318952 0.09658782484129846
0.03644546515715241 0.03419054028112162 0.09613547955989135
0.03769468427557221 0.034134945198271 0.09568460533876214
0.03894068614637464 0.03407944755144266 0.09523574628143769
0.04018180869059279 0.034024212871607604 0.09478779293092934
0.041418914615776736 0.03396915694661886 0.09434128928246788
0.04265202338877783 0.03391427891012739 0.0938962283099618
0.043881975681169916 0.03385949590039892 0.0934531550596659
0.04510714376405228 0.03380497132805052 0.09301095872199713
0.04632837236906556 0.03375062207723737 0.09257018424852145
0.04754568046655605 0.03369644730370792 0.09213082479232762
0.048759891231038466 0.03364236521597186 0.09169342627180532
0.04996941054636639 0.03358853714470243 0.09125687664906851
0.05117506556212248 0.03353488104902126 0.09082172176095302
0.052376874767875836 0.033481396106074375 0.09038795493405091
0.053575644221991015 0.03342800157394642 0.08995612289080065
0.05476981270338238 0.03337485674275849 0.08952511248493566
0.05596019016266912 0.03332188062581465 0.08909547037001772
0.057146794623781305 0.033269072420984556 0.08866719004068291
0.05833041539950118 0.033216352415790164 0.08824081895773628
0.05950952346510191 0.033163877898205005 0.08781524298224824
0.06068491194493508 0.033111568915465364 0.0873910095183898
0.061856598411856534 0.03305942468551642 0.08696811222358306
0.06302460032820117 0.03300744443122189 0.08654654479514073
0.06418893504664996 0.032955627380325515 0.08612630096995263
0.06534961981108989 0.03290397276541275 0.08570737452417593
0.06650741549409256 0.03285240262832034 0.08529031406158744
0.06766084778309295 0.03280107084335651 0.08487400396848654
0.06881068122595152 0.032749899219678705 0.08445899281242797
0.06995693263967623 0.03269888700887103 0.08404527452362362
0.07109961873665926 0.03264803346717335 0.08363284307004448
0.0722387561254883 0.03259733785544527 0.08322169245712666
0.07337436131175584 0.0325467994391298 0.08281181672748464
0.07450716778086014 0.03249634195692077 0.08240376544556621
0.07563575394331878 0.03244611597921933 0.08199642184435021
0.07676085682950223 0.03239604501933097 0.08159033547125463
0.07788249254077634 0.03234612836068933 0.08118550051477161
0.07900067707942143 0.032296365291137705 0.08078191119915593
0.08011612498548332 0.032246680727716276 0.08038011766886946
0.08042188235449654 0.03228316571594286 0.079334603526305
0.08042264713326441 0.03235241568051229 0.07804088637583487
0.08042341520014357 0.032421963377128264 0.07674160704117916
0.08042348334537985 0.03249188624025857 0.07543615797540143
0.08042425653596263 0.032562035516683054 0.07412564183105921
0.08042503307240884 0.03263248835000362 0.07280945469142858
0.08052982406745973 0.03269200566803745 0.0715734596376823
0.08053083303504305 0.03276302265681827 0.0702464634572742
0.08053113600392625 0.032834425969069395 0.06891309650241029
0.08053144029630371 0.032906141192020386 0.06757390500789828
0.08053174592086959 0.03297817037392131 0.06622885072524315
0.08053276795128655 0.03305043745196511 0.06487850145542556
0.08053307783797958 0.033123100424689016 0.06352161005261237
0.08053338909031782 0.03319608360747037 0.06215873912183134
0.08053370171734753 0.033269389121628405 0.06078984905006246
0.08053473711686021 0.03334293958919836 0.059415524653748
0.08053505412005607 0.03341689585225063 0.05803448074103695
0.08053537253267823 0.033491180921789813 0.0566472967641547
0.0805364185686559 0.033565716411296735 0.05525457062827771
0.08053674144924267 0.0336406653461899 0.05385498783400661
0.08053706577502179 0.033715949737280815 0.052449140791587856
0.08053739155571504 0.03379157184177178 0.05103698735043838
0.0805384515288779 0.03386745189764608 0.04961914331990985
0.08053878189898012 0.033943755911866755 0.048194254051886876
0.08053911376114897 0.03402040453127937 0.046762929680169985
0.0805401848222061 0.03409731693870128 0.045325799790529975
0.08054052137152512 0.03417466143128898 0.0438814787963035
0.08054085945118161 0.03425235760966681 0.04243059046732173
0.08054194180513347 0.03433032358064109 0.04097377847404099
0.08054228467242158 0.034408729979495845 0.03950962555755266
0.08054262910947868 0.03448749534005523 0.038038769427566066
0.08054372296666418 0.034566536671724137 0.036561868156006316
0.0805440722946687 0.03464602699720047 0.03507747205609091
0.08054442323307703 0.034725883762393606 0.033586233089602624
0.08054552880935373 0.03480602285735315 0.03208882405552338
0.0805458847449595 0.03488661974287827 0.030583762060824415
0.08054624233285113 0.034967590755296 0.029071713640181573
0.08054735984978184 0.035048850642764806 0.027553366654323896
0.08054772254415954 0.035130577356323925 0.02602720420201421
0.08054732512609597 0.03521277478674956 0.024493159951823218
0.08052248875085943 0.03529820929051609 0.02292780901452618
0.08045082022232075 0.03538952284891089 0.02130851624575819
0.08029811348258747 0.035490767246629876 0.01960040534593449
0.07992616534247804 0.0356182537216075 0.01766367110011091
-0.014047435271181685 0.03885592455496257 0.09119546939584067
-0.014440990481144111 0.03896871456570996 0.08962265640757944
-0.012740644482683416 0.03887624982906772 0.08927014913029768
-0.012283976886643067 0.03890583276199304 0.08819037507502983
-0.012617237149465166 0.03901342295755758 0.08663983745219028
-0.013675679780579764 0.03919307403146062 0.08464902279221251
-0.015763262386696286 0.03947529120994226 0.08202793854963786
-0.020060990126435363 0.03997780104209374 0.07805285198763795
-0.017968080564489286 0.03984720582446618 0.07792278052739354
-0.015222893162530393 0.03965116020808669 0.07820020104093864
-0.01336589400582433 0.03954295674999004 0.07794591936045339
0.023527553165334114 0.03593235487589252 0.09934062914139821
0.02482021280514235 0.03587299207566583 0.09887474026539986
0.026112154552785427 0.03581346925886202 0.09841260371465074
0.027398052289011376 0.0357543209714161 0.09795089004328464
0.0286797095401497 0.035695367736366286 0.09749069895790302
0.02995714724734544 0.03563660859046888 0.09703202293939128
0.031231254294094735 0.03557795478458757 0.09657540928036865
0.03250031063665798 0.03551958124038952 0.09611974124791026
0.033765209462390255 0.0354613989319845 0.09566556601556303
0.03502597116835238 0.035403406921156684 0.09521287625954813
0.03628346604167415 0.035345517626971704 0.09476222028684878
0.037536009716392205 0.03528790370335872 0.09431247989821007
0.038784476692055536 0.03523047729786277 0.09386420329577835
0.0400288868391972 0.035173237496488256 0.09341738334480801
0.04127009226010819 0.035116097863511116 0.0929725692924237
0.04250644349282334 0.035059228828858834 0.09252864160343635
0.043738796763005405 0.03500254369039004 0.09208614943387192
0.04496717143154033 0.034946041557552834 0.09164508583195768
0.04619240181604467 0.034889637117443126 0.09120600091339456
0.047412872605594014 0.034833498618607586 0.0907677739328345
0.04862942215444421 0.03477754048670223 0.09033095492813686
0.04984206933007301 0.034721761853871685 0.0898955371246756
0.0510516310546027 0.03466607850822344 0.08946207143771709
0.052256525435335544 0.03461065655846392 0.08902943603308067
0.053457573346549936 0.03455541153611549 0.08859818176098871
0.05465479317792793 0.03450034259530147 0.08816830201835049
0.05584898483466899 0.034445366603894856 0.08774034845345091
0.05703859912897585 0.0343906475712563 0.08731319826031558
0.058224439835890374 0.03433610211341048 0.08688740303453316
0.0594065248823315 0.03428172940576769 0.08646295633915496
0.06058563752487928 0.03422744737526576 0.08604041049130118
0.061759499135500495 0.03417349896876539 0.08561808299503637
0.06293118111243168 0.0341195588738827 0.0851982026199346
0.06409841658227544 0.03406586927874459 0.0847790865967642
0.06526198436448322 0.034012348387070374 0.08436128752004349
0.06642190171885248 0.033958995404957185 0.08394479919234515
0.06757818579705283 0.033905809543475746 0.08352961545506696
0.06873085364347042 0.03385279001863162 0.08311573018812723
0.06988065628657375 0.033799856815103446 0.08270369686539822
0.07102613855216056 0.033747167877938876 0.0822923904219292
0.07216805510401125 0.03369464295350072 0.08188236431342033
0.07330642256554781 0.03364228127715867 0.08147361257092711
0.07444125745702107 0.03359008208902797 0.08106612926255077
0.0755725761963097 0.03353804463393272 0.08065990849315105
0.07670039509971188 0.03348616816136942 0.08025494440406186
0.07782543811203896 0.03343437439356961 0.07985179129133721
0.07894630220362586 0.0333828178919968 0.07944932319950168
0.08006301445029962 0.033331497203166964 0.07904753417321603
0.08074021156235112 0.03332841527604535 0.07829627416184115
0.08074166076887002 0.03339998571975096 0.07699890971702136
0.08074241446354702 0.03347194191588915 0.0756953908874993
0.08074387467550387 0.03354413078134001 0.07438681805874642
0.0807453411995811 0.03361663169893221 0.0730725886380276
0.08074610777432212 0.03368952541582219 0.07175208255184104
0.08085230863584059 0.03375095980008769 0.07051337269946567
0.08085331115563132 0.03382443786694297 0.06918200695706678
0.08085431805008902 0.03389823656503052 0.06784483162467275
0.08085604132261875 0.03397227795092315 0.06650240917698158
0.0808570586105527 0.034046723888494404 0.06515350450340712
0.08085808036683412 0.03412149682028408 0.06379867493926805
0.08085982328622854 0.03419651779855048 0.06243849554938874
0.0808608556463965 0.03427195085709734 0.06107170309543125
0.0808618925711792 0.03434771744233501 0.05969886737905317
0.0808629340909165 0.03442381977119322 0.05831994823109227
0.0808647032536926 0.034500177526558824 0.05693553793446843
0.08086575566199888 0.034576957704575265 0.05554433472938464
0.08086681276506724 0.034654080393564254 0.05414692546462496
0.08086860244953242 0.034731464226211005 0.05274391566851522
0.08086967066501305 0.034809278473416035 0.05133397390525174
0.08087074367786096 0.034887442182047736 0.04991770013619401
0.08087182152046496 0.03496595771153531 0.0484950516100745
0.08087363863369479 0.03504474226216685 0.04706665197482357
0.08087472789179173 0.035123968211472796 0.04563112913804679
0.0808758220860823 0.035203553185990735 0.04418910099714307
0.08087766065021523 0.03528341328711628 0.04274120514309482
0.08087876649836384 0.03536372327885547 0.04128603815116566
0.08087987739217278 0.03544439969821474 0.039824231719106484
0.08088173782642827 0.03552535752592 0.03835643769371705
0.08088286061908806 0.03560677396258071 0.03688122057271126
0.08088398857001189 0.03568856443417419 0.03539922616245256
0.08088587130489394 0.03577064277840774 0.03391112088699083
0.08088701140652044 0.03585318868404163 0.032415436398930464
0.0808881567822638 0.035936116443964765 0.03091283293000041
0.08089006225994733 0.036019338729926624 0.029403991811890573
0.08089122004534371 0.03610303777185613 0.027887411061356393
0.0808931415216173 0.036187035883017485 0.026364506139241073
0.08089431189880969 0.03627151701734568 0.024833752189863112
0.08089548775349487 0.03635639352878736 0.023295834214006383
0.0808806322001081 0.03644360253523853 0.02173479664586425
0.08082588991893352 0.03653604466387982 0.02012655918962486
0.08069867250588891 0.03663770626693245 0.01843779438933507
0.08042501207708608 0.03675763794871007 0.016592810943129255
-0.016368910330616104 0.04034433274479854 0.08849843607290325
-0.01449526134996515 0.04023189904848515 0.08824102754830271
-0.013764745898639075 0.04023495017512595 0.08731682329436291
-0.013829590978962136 0.04031881899729606 0.08592048329649099
-0.014472023728260452 0.04046180452601998 0.08417377377993596
-0.015833152185187438 0.04067864010774744 0.08198598809296342
-0.0216036431809572 0.04134688629509355 0.07712155374562818
-0.020193471870895485 0.04128253974242152 0.07657157993708083
-0.0170824491027875 0.04104346716002575 0.07706463874355862
-0.015171109271976846 0.04092677027714299 0.07683721844795657
-0.01382554510762457 0.04086788328839528 0.076268313020256
-0.012831840746372336 0.04084507220684884 0.07548486506967236
0.024629041870528 0.037052055757859956 0.09748602220488697
0.025920955367957965 0.03699079222160853 0.09702281233831817
0.027211257358619623 0.036929455520892066 0.09656280852875698
0.028496407483340813 0.036868413398850323 0.09610376857114458
0.029777316070547066 0.03680757274156314 0.09564624363897278
0.031054004083939046 0.03674693255329563 0.09519022624426399
0.0323273584405086 0.03668640124253877 0.0947362687116031
0.033595663097504835 0.03662615932856462 0.0942832443223344
0.03485980927392163 0.0365661149340363 0.09383170529626292
0.03611981738834413 0.036506267089112164 0.09338164434009649
0.037376555765937736 0.036446525408907776 0.09293361473426551
0.038628344029676354 0.036387068070490275 0.0924864884091347
0.03987605471523725 0.036327804408556395 0.09204081855434873
0.041119707713694276 0.03626873347832147 0.09159659806501441
0.042360153170245274 0.036209766077757964 0.09115438110418397
0.04359574559928364 0.03615107808693685 0.09071303837968223
0.04482733926742294 0.036092580028686476 0.09027312397727685
0.04605495355515499 0.03603427098247482 0.08983463097443095
0.047278607717928745 0.03597615003370939 0.08939755249326681
0.048499129738872326 0.03591812942634908 0.08896244370181844
0.04971491668756778 0.03586038223124833 0.08852817395202883
0.05092680056045218 0.03580282042363161 0.08809529835086174
0.05213480012264021 0.03574544311219737 0.08766381019556335
0.053339726062909765 0.035688163672530006 0.08723426538151469
0.054540008675338425 0.035631152976039936 0.08680553231063806
0.05573646257803688 0.035574324134563975 0.08637816682970215
0.05692910606129242 0.035517676279355 0.08595216240553696
0.058118732895775016 0.03546112389580405 0.08552807559585107
0.05930380589107659 0.035404835697467614 0.08510477396671809
0.060485122665383084 0.03534872591085441 0.08468281403925426
0.06166270104907934 0.03529279368906279 0.08426218944454375
0.06283655875987637 0.03523703819054285 0.08384289385391694
0.0640067134037004 0.03518145857905419 0.08342492097863352
0.06517318247557102 0.03512605402362433 0.08300826456956634
0.06633673101708715 0.03507074090067666 0.08259348219596133
0.06749587708481203 0.03501568424507074 0.08217944021976128
0.06865138942969429 0.03496080018257912 0.08176669619364915
0.06980328511163542 0.034906087902897384 0.08135524402390232
0.07095158108391153 0.03485154660078557 0.08094507765488429
0.07209629419400476 0.034797175476028716 0.08053619106874749
0.07323816571062491 0.03474289247635582 0.08012914255749526
0.07437575943645697 0.03468885957811751 0.0797227977045811
0.07550982023597858 0.03463499448517372 0.07931771480164707
0.0766403645415289 0.03458129641702884 0.0789138879791145
0.07776740868369814 0.034527764598020025 0.07851131140374923
0.07889096889211389 0.03447439825727994 0.07810997927838059
0.08001106129621977 0.034421196628699746 0.07770988584162306
0.08105923763808176 0.034375953035907694 0.07725567174692408
0.08106137427200194 0.03444985396866714 0.07595464711957572
0.08106281833616397 0.034524153565022135 0.07464744313545682
0.0810649719324249 0.03459869376091486 0.07333516610345137
0.08106713484839112 0.034673556528830154 0.07201721020443175
0.0810686008151058 0.03474882525161508 0.07069295205639481
0.08107078102304432 0.03482433983078217 0.06936352288283143
0.08117721617083357 0.03488813433916507 0.06811577533135599
0.08117893167420792 0.03496433857145582 0.06677478240270596
0.08118065468818675 0.035040876429886784 0.06542791853637869
0.0811830988218068 0.03511766709066123 0.06407575340295074
0.08118483857046666 0.035194878442487976 0.06271703595955114
0.08118658598621142 0.035272430063448795 0.06135233067108975
0.08118905939094406 0.03535024008503304 0.05998221994774128
0.08119082387919235 0.035428478654362903 0.058605424268644235
0.08119259619528063 0.035507064313360426 0.05722252071253986
0.08119437639141386 0.035585999376850516 0.05583346854452054
0.08119688917217632 0.03566520055176958 0.05443886759832334
0.08119868690071186 0.03574484106862467 0.053037399349063374
0.081200492675927 0.03582483805657799 0.05162965812532
0.08120303606350099 0.03590510712996887 0.050216257165109024
0.08120485973057334 0.03598582388720552 0.04879584789352309
0.08120669161558253 0.036066904373998246 0.0473690379084325
0.08120853177420112 0.03614835105448141 0.04593578384735181
0.08121111635713502 0.036230078052668424 0.044496717286378606
0.08121297489727491 0.03631226420107478 0.043050448478425596
0.08121484188864442 0.03639482406770015 0.041597603172874975
0.08121745849837941 0.03647767063314311 0.040138827057877524
0.0812193442541162 0.03656098521453219 0.03867269865418366
0.08122123864370745 0.03664468124624068 0.037199857678174686
0.08122388791957352 0.0367286705427209 0.03572096424739912
0.08122580146702912 0.03681313695809123 0.034234564393507916
0.08122847345590012 0.03689790112066424 0.03274202908932755
0.08123040643490753 0.03698314860540424 0.03124188227787489
0.08123234836640775 0.03706879090729677 0.02973478765207538
0.0812350541339571 0.037154737845213906 0.028221430106685874
0.08123701590920113 0.037241177621733346 0.026700299783088854
0.081238986833847 0.037328020537066006 0.025172075194519694
0.08124172706741722 0.037415175180342826 0.023637456555282932
0.08124371825968218 0.03750283243822156 0.02209489938554343
0.08123731838436993 0.037591947793463434 0.02053672276189733
0.08119413805336112 0.037686076253989426 0.01893429647691819
0.08109007649196726 0.03778826973324273 0.0172627189878507
0.08087523963099608 0.037904844909933524 0.015470464357035973
-0.018688371609557664 0.041772121365922385 0.08714589772127301
-0.01626659192333929 0.041599735521980624 0.08720210300819445
-0.015381211243522208 0.04158706467219371 0.08636322001865307
-0.015150212113435702 0.041642783510239964 0.08513688837719086
-0.015520661453084894 0.041761740221243286 0.0835479587104421
-0.016510383993413424 0.041946171985236966 0.0815794883713605
-0.019082074742556243 0.04229772505424421 0.07864382231204803
-0.022726038446812036 0.042763650776030525 0.07503387039245654
-0.01918274906063555 0.04247241740348344 0.07578206294484863
-0.017034917184090503 0.042327697390041816 0.07569253195453726
-0.015501924505488096 0.04224759304007406 0.07523284455325396
-0.014338506518319138 0.042206431253457403 0.074548907504455
-0.013646577076272814 0.04221528650583047 0.07357315218823521
0.02443333023878358 0.03823738653604896 0.0960881196339626
0.02572879967120123 0.03817400497669553 0.09562606825415282
0.02702264321379566 0.038110548249490755 0.0951672375375669
0.028311309831350273 0.03804739680530588 0.09470936571288735
0.029596590615264373 0.03798435995460976 0.09425357302707257
0.030876746275646128 0.03792162567688621 0.09379872375500944
0.0321526803446911 0.03785909827907218 0.09334537444716173
0.03342441367044596 0.03779677673950507 0.09289351769605667
0.03469282651062133 0.037734566928434694 0.09244371110618407
0.03595621582410802 0.03767265437248689 0.09199481761945091
0.03721546614562776 0.03761094464837618 0.09154739475341445
0.03847059778155526 0.03754943676098612 0.09110143529303777
0.03972247250652655 0.037488037819605184 0.09065749772153425
0.04096942273724841 0.03742693094561271 0.09021444377781143
0.042212314434435405 0.03736602296031252 0.08977283187177837
0.04345116738027005 0.03730531289427759 0.08933265497462581
0.04468600122858124 0.03724479978437078 0.08889390610315129
0.04591765522543845 0.037184392254350045 0.08845714473932709
0.047144505028142714 0.03712427048434791 0.08802123129263517
0.0483673939585188 0.037064342816882166 0.08758672518810326
0.04958634116710864 0.03700460831348055 0.08715361962133028
0.05080216832195217 0.03694497678296818 0.0867224747956343
0.05201328483579776 0.0368856261029417 0.08629215019318467
0.05322051636675662 0.0368264658062324 0.08586320597292188
0.05442388157809103 0.03676749497824841 0.08543563550355945
0.055624184944210675 0.03670862458990184 0.08500999964388983
0.056819868909423143 0.03665003026003268 0.08458515706421907
0.05801174185473956 0.03659162268867703 0.08416166859108395
0.059199821971543665 0.03653340098436856 0.08373952776084201
0.06038489691454224 0.036475277257718416 0.0833192960242603
0.061565441454943415 0.03641742491148834 0.08289983135110399
0.0627422470727309 0.03635975579040664 0.08248169517157675
0.06391533150223278 0.03630226902540593 0.08206488118441749
0.06508471236579372 0.03624496375290684 0.08164938312814934
0.06625040717466368 0.036187839114774065 0.08123519478077063
0.06741243332987035 0.036130894258273746 0.0808223099594432
0.06857080812308519 0.036074128336031 0.08041072252018486
0.06972628665484443 0.036017455672757735 0.08000099491890525
0.07087740630319311 0.03596104536365435 0.07959198403711146
0.07202492583749703 0.03590481147717475 0.07918425233231557
0.07316886212036339 0.03584875318697137 0.07877779381296898
0.07430923190925331 0.0357928696718493 0.07837260252488337
0.07544605185729958 0.0357371601157262 0.07796867255093973
0.0765800535569397 0.03568154044937208 0.0775665669498864
0.07770981962788936 0.03562617664142025 0.0771651420521561
0.07883608521922947 0.03557098437330148 0.07676496093370469
0.07995886657468243 0.035515962848997544 0.07636601782286487
0.08107888002892877 0.03546102904507788 0.07596887611163111
0.08138108965068852 0.035502110421039755 0.07490751880396515
0.08138392741751937 0.03557868113130163 0.07359718885112015
0.0813867774517989 0.03565558284984952 0.07228119445982598
0.08138893500151595 0.03573290122540183 0.07095891362464651
0.08139180828719234 0.035810471795197765 0.06963147522832513
0.08139469407495786 0.03588837988497235 0.06829826096902175
0.08150184162525409 0.03595419671679163 0.0670471721614958
0.08150426889247209 0.03603281701892241 0.06570234794100593
0.08150670679830446 0.036111781909346254 0.06435162943273187
0.08150915541284642 0.03619109365850511 0.06299497780007346
0.08151232995669194 0.03627066852660361 0.06163296999002227
0.08151480177314502 0.036350680504759314 0.06026433883985127
0.08151728451925155 0.03643104627127749 0.0588896560235605
0.0815204981501026 0.036511681000532606 0.0575095113792925
0.08152300456673844 0.036592761032195144 0.05612260891086901
0.08152552213999026 0.036674201967672924 0.05472953305565642
0.08152805094451349 0.03675600622202618 0.05333024250320084
0.08153131734762065 0.036838087488908586 0.051925344723556977
0.08153387046247829 0.03692062531470479 0.05051350422670298
0.08153643504386743 0.037003533832418445 0.04909532290538354
0.08153974234287281 0.03708672559994844 0.04767142179504408
0.08154233173332026 0.03717038262649476 0.04624043497596497
0.08154493283206782 0.037254417918858494 0.0448029777690947
0.08154754571870954 0.037338834048417695 0.04335900618998145
0.08155090826032468 0.037423542023768866 0.04190915983372101
0.08155354663734221 0.037508727218137174 0.04045203108496903
0.08155693818955911 0.037594208678811254 0.0389889479122385
0.08155960241460297 0.03768017349580118 0.03751848136147423
0.08156227885192285 0.03776653235681381 0.03604127451182826
0.08156571380619948 0.03785319427621076 0.0345579909414761
0.08156841663275477 0.03794034896492399 0.03306716904825652
0.08157113193427068 0.03802790591660845 0.03156946625788365
0.08157461117202552 0.038115772917020216 0.030065560973607908
0.0815773534191444 0.038204142353729056 0.028553958160888793
0.08158010841137686 0.03829292250253014 0.02703532991514357
0.08158363283837838 0.038382019895810804 0.025510369801823585
0.08158641534827377 0.03847162965509195 0.023977548545943583
0.08158921088116883 0.03856165881387312 0.022437553244747666
0.0815927814283871 0.03865201262574851 0.020891092972500858
0.08159102290599635 0.03874347795834624 0.019332011633640678
0.08156246041951215 0.038838829438286565 0.017738543263181916
0.0814777103673725 0.03894188935658822 0.016080465053918747
0.08130083180791198 0.03905736518972732 0.014320260133734386
-0.018441027487227202 0.04302131468870297 0.08592674847970344
-0.01710595901146228 0.042960447017585585 0.08534573756752148
-0.016657654506401 0.04299473732843312 0.08424244244608278
-0.01677737176042693 0.043090380976479235 0.08279796828981847
-0.017642391907917776 0.043266877050025396 0.08090001511492301
-0.019589892178552615 0.0435611754958302 0.07833725338910125
-0.02558614223857003 0.04429552124400232 0.07329728864134871
-0.021314247508043338 0.04391742998620353 0.07448043537807283
-0.018916254852411662 0.043741800705588606 0.07453707928986536
-0.017191416456501796 0.04363888761031411 0.07418927670533243
-0.01597607533761486 0.04359123644405946 0.07353163150766673
-0.015163534759360442 0.04358749165737375 0.07262542585762108
-0.01451857188718958 0.04360211205802952 0.07161417251925886
-0.014258764195302587 0.043659116388481155 0.07035859392759047
0.025538364201945163 0.039362856301821 0.09422402471458607
0.02683397461660425 0.03929745639227546 0.09376524779911743
0.028126172171757002 0.03923217558461418 0.0933085617483026
0.02941408365804954 0.03916711130579542 0.09285339047190153
0.03069773036476281 0.039102262480301374 0.09239972644589695
0.031978004704286855 0.03903753115167221 0.09194813166199622
0.03325318056035048 0.03897311035417124 0.09149745994024722
0.03452415469028469 0.03890890182429663 0.09104827318943257
0.03579094782707426 0.0388449045146354 0.09060056408211992
0.03705443358993177 0.03878102176569204 0.09015489548452588
0.03831292189945257 0.03871744409494229 0.0897101200341805
0.03956729062697367 0.03865407454168535 0.08926680052813232
0.040817559967229855 0.038590912085701805 0.08882492982915055
0.042064585164641344 0.03852786133878441 0.08838507160542633
0.043306711390589725 0.038465110350434144 0.08794607743876717
0.04454479805123912 0.03840256343693013 0.08750851094145917
0.04577886482043175 0.03834021960436928 0.08707236516034317
0.047009748974553955 0.03827798471083273 0.08663820449568752
0.04823583017096489 0.03821604438540758 0.08620487959579715
0.04945794975977941 0.03815430419621146 0.08577295481782676
0.0506761269106345 0.03809276317481453 0.08534242338679238
0.05189118132741427 0.03803132840123953 0.08491385036768342
0.053101526409220445 0.037970183130508484 0.08448608559311682
0.054307985847939666 0.03790923415809379 0.08405969409730374
0.05551057832505374 0.03784848054022797 0.08363466927776445
0.05671010635662521 0.03778783055516057 0.0832115767992963
0.05790501635916634 0.037727465129023655 0.08278926579240078
0.05909611475323323 0.03766729226079698 0.0823683019029921
0.06028341974759521 0.03760731103059503 0.08194867869564068
0.061466949435219354 0.037547520524382795 0.08153038977583948
0.06264672179419534 0.03748791983392861 0.08111342878968364
0.06382275468864446 0.03742850805675837 0.0806977894235476
0.06499582145303079 0.03736919551246062 0.0802840382447339
0.06616442459369115 0.03731015915754081 0.07987102341201513
0.06732934120859307 0.03725130904124925 0.07945931149362206
0.06849058871477393 0.037192644283699186 0.07904889633391982
0.06964818441972775 0.03713416401053784 0.0786397718159891
0.07080214552226505 0.03707586735290299 0.07823193186132238
0.071952489113364 0.03701775344737997 0.07782537042952248
0.07309996043808731 0.03695973458728904 0.07742065481066862
0.07424311603218542 0.03690198388851859 0.077016632506472
0.07538270476946196 0.03684441338260855 0.07661387082653096
0.07651874331779346 0.03678702222751993 0.07621236387996494
0.07765124824136455 0.03672980958645226 0.07581210581253908
0.07878023600147877 0.03667277462780216 0.0754130908063842
0.07990572295734855 0.036615916525124075 0.07501531307970857
0.08102772536688968 0.036559234457089695 0.07461876688652253
0.08170220979238879 0.036556600377604914 0.0738586586370156
0.08170574403842634 0.03663553226914896 0.07254462041108772
0.08170929357959583 0.03671480575288802 0.07122489544439498
0.08171215365989204 0.0367945091245866 0.06989885841838145
0.08171573256727294 0.036874472853345996 0.06856764426210277
0.08171932706430535 0.03695478490170252 0.06723063137695678
0.0818264809670759 0.03702272004660736 0.06597558831990868
0.0818303321270214 0.037103679862259674 0.06462752025529223
0.08183348811636831 0.037185082443855245 0.06327293323370742
0.08183665798419415 0.0372668429926361 0.06191238942674948
0.0818398418222453 0.03734896387504222 0.06054584945546099
0.0818437564686148 0.03743135839914343 0.059173897624880734
0.08184697010435193 0.03751420673720736 0.05779525046211359
0.08185019799742671 0.03759742263194283 0.056410486930830506
0.08185416174218624 0.037680918263742987 0.055020204380890336
0.08185742003582946 0.03776487624525745 0.053623090145168806
0.08186069288174319 0.03784920920083924 0.05221973610231545
0.0818639803776347 0.03793391964818078 0.05081010035632738
0.08186801055978038 0.0380189182297831 0.04939479810024694
0.08187132928076002 0.03810439089066713 0.04797247667591387
0.08187466295744605 0.038190248730147223 0.04654374562576402
0.08187874453269922 0.03827640121103513 0.04510923387161997
0.08188211007621721 0.03836303683788729 0.04366755794018501
0.08188549088962849 0.038450065540298665 0.04221934096324548
0.08188962488899071 0.038537395578133744 0.040765225897969715
0.08189303822863181 0.038625218068934215 0.039303797726852385
0.08189646716110499 0.03871344174961318 0.03783569347322069
0.08190065464364338 0.03880197365322219 0.03636157044461208
0.08190411678000892 0.03889100756524287 0.03487998132849318
0.08190759484120247 0.038980451006347366 0.03339157735021053
0.08191183689501519 0.03907020975828114 0.03189703049143244
0.0819153488566644 0.03916048033097894 0.030394860371232624
0.08191887708451279 0.03925116900469707 0.028885732736015524
0.08192317482773565 0.03934218028473375 0.027370334574374988
0.08192673767216652 0.03943371346360451 0.025847151640244315
0.08193031713387622 0.039525673556338924 0.024316864528972193
0.08193467171572899 0.03961796376597825 0.022780175578204664
0.08193828653040097 0.039710786227418596 0.02123553585573712
0.08194191832348241 0.03980404466499607 0.019683641142885178
0.0819455672148724 0.03989774215753387 0.018124440205578296
0.08192473516892751 0.03999513593212415 0.016533076980121963
0.08185850851800663 0.04009903694260528 0.0148878293503098
0.08171029926881723 0.04021437489960044 0.013150495664617734
0.0813492897264928 0.04035873295612354 0.011185196741844983
-0.021313142428691423 0.04453268014725804 0.0842421895726583
-0.01930703898062336 0.04439668000816103 0.08404725190846576
-0.01847620816953588 0.044390096831508026 0.08316339761353497
-0.018385117905713955 0.044465432218308655 0.08183848367294597
-0.019055909824926387 0.04462561746424212 0.08005156908393998
-0.020657580380815888 0.04488993704268289 0.07769269099519954
-0.025770341229815308 0.04554647530427955 0.07318544773274574
-0.024075253202357483 0.045445578395176156 0.07279439092980458
-0.02081649913778827 0.04516939320183268 0.07337001483352817
-0.018894174315053247 0.045041903333498765 0.07313751475232999
-0.017674031273882895 0.044992761576347406 0.07247684236096544
-0.01669436329755447 0.04497048259050964 0.07166903364610663
-0.015996357943557693 0.044979867115124174 0.07068566182231184
-0.015620904161295912 0.04502571984225642 0.06949788041338834
-0.01536242229518514 0.04508499052037665 0.0682328559477397
0.025344282029859666 0.040557972273238145 0.09281323268222494
0.026643467333054505 0.040490417604483096 0.09235565422606123
0.027939219804051563 0.040422986524488 0.09190017140930723
0.029231546860933988 0.04035567892182187 0.09144677719058891
0.030518698891456808 0.04028869550048921 0.09099431613184489
0.03180158510460046 0.040221934072394334 0.09054335459774013
0.033080226671631685 0.040155393535784116 0.0900938851461271
0.03435550927672021 0.040088973380206304 0.08964647509040105
0.03562571993653274 0.04002287167793904 0.08919996783142914
0.036891748654827194 0.03995698760371236 0.0887549306177344
0.03815361605010492 0.03989132008454042 0.08831135620145603
0.03941218912379346 0.03982576993964573 0.08786981269243183
0.04066579071839771 0.0397605326609106 0.08742914245874531
0.04191529206268113 0.03969550875872025 0.08698991355874447
0.043160713240301574 0.039630697187923496 0.08655211893255504
0.04440290298571675 0.039566000071116304 0.08611632741561695
0.04564021918604544 0.03950161036979174 0.08568138046685603
0.04687351471325346 0.03943742990353971 0.08524784688312478
0.04810280913338638 0.03937345765414687 0.08481571978647964
0.049328933318162405 0.03930959702197275 0.08438556866971436
0.050550279439217194 0.03924603848684626 0.08395623420173584
0.05176768241829777 0.03918268515180741 0.08352828584918964
0.05298116132040581 0.03911953602471842 0.08310171691023971
0.054191529547600314 0.03905649575876104 0.08267709746927918
0.05539721281636906 0.03899375239958463 0.08225326752001227
0.0565990284935976 0.038931210308597426 0.08183079713267885
0.057796995159178355 0.03886886851890804 0.08140967977594804
0.058991909127813213 0.038806632912226136 0.08099048606245537
0.0601814551818215 0.03874478200672377 0.08057147823748453
0.061368754795120106 0.03868294281648835 0.08015495846271287
0.0625515048004342 0.038621392980336046 0.07973918882029338
0.06373049695193361 0.0385600387013924 0.07932474016834612
0.0649057491304913 0.0384988790491439 0.07891160622124646
0.06607727910371597 0.03843791309897129 0.07849978073318387
