# .PCD v0.7 - Point Cloud Data file format
VERSION 0.7
FIELDS x y z
SIZE 4 4 4
TYPE F F F
COUNT 1 1 1
WIDTH 782
HEIGHT 1
VIEWPOINT 0 0 0 1 0 0 0
POINTS 782
DATA ascii
0.04746192233961618 -0.051614133939883566 0.029268951878210603
0.04742747693339112 -0.05042767571235379 0.028442916004080943
0.04739939826332822 -0.04930055268898287 0.027578922449715604
0.047389115928427816 -0.04833645176413953 0.026605454352725155
0.047388968998356755 -0.047464799675125846 0.025569166348523464
0.04740630435299259 -0.046751642960126016 0.024423369428522634
0.04743836413021622 -0.04617106698262258 0.023184252295068986
0.04749833511249889 -0.04584132416779646 0.02176766412416975
0.04758035853441468 -0.04570808542626281 0.020208858354299586
0.04771769563148743 -0.04606923030761556 0.018295114660331013
0.047803915944230085 -0.04596661272402641 0.016701167129709427
0.04769269319507146 -0.044092615893454146 0.016366228617847867
0.04758228290829254 -0.04222996547597474 0.016030944728059826
0.047472235273928264 -0.04037460493186168 0.015698158645220395
0.047363135583299555 -0.038531723642190874 0.015364064788756737
0.047260523973167136 -0.03675047739600601 0.014992682930164813
0.04715821058425941 -0.03497564349140053 0.01462385282005696
0.04705633923030582 -0.03320847758232559 0.01425661620406532
0.04695490705282818 -0.03144893008266331 0.01389096277764823
0.04685405477754081 -0.029698216396730204 0.01352593902655258
0.046753491860108465 -0.02795375061179911 0.013163422335570218
0.046653359694175986 -0.026216757076664654 0.012802458449495291
0.046554222425361454 -0.024492150328173756 0.012439275166419905
0.04645550559116081 -0.02277485752294034 0.012077632119514348
0.046357347054622515 -0.021066057222206613 0.011716580748049044
0.04625960245260935 -0.019364462931801107 0.011357051929973883
0.04616380209629464 -0.017683335062315453 0.010988728692589878
0.03801891932726789 0.05371309395833368 0.06492269964057185
0.03799473669460411 0.05462034345671152 0.0642542419325074
0.03799700244559851 0.05529858794298037 0.06340726756126758
0.03799700238718492 0.05599641660166832 0.0625756276477773
0.03799832417572543 0.05668289290971662 0.061734954995432634
0.03799756876493587 0.05738721912671657 0.06090846432479513
0.038000684728643826 0.05805841146935048 0.06005538251575926
0.03799936265903842 0.058767588682787364 0.059232782668189043
0.037998512784862416 0.059472696694166716 0.05840697263956196
0.03800144002966434 0.06014568149340599 0.057554975812129705
0.03799926805795213 0.06086200526266361 0.056738365584549866
0.037998040506189684 0.061570259754643475 0.05591525211605086
0.037999928931937654 0.06225216617712992 0.05507035399412369
0.038002195302307 0.06293095855219044 0.05422271610177554
0.037998134750714105 0.06366300939556385 0.05341959830184018
0.037996246386468424 0.06437669463104051 0.052601291802912675
0.03799804021414772 0.06505949842301567 0.051756938884587156
0.03799615185929192 0.0657731124875045 0.050938717043780835
0.03799634062208483 0.06646935244757896 0.05010574757293024
0.037994452436137985 0.06718286453834654 0.049287644376808604
0.03799331959128088 0.06789004217313532 0.048464197752424665
0.037998512025535704 0.0685448299476969 0.04759522390846416
0.03799936178286894 0.06923566885197646 0.04675740898012626
0.03800266692483215 0.0699063083012682 0.04590175709315353
0.03799681233283828 0.07065237079742487 0.045112562434799997
0.037998228528415466 0.0713385790579269 0.04427059784180831
0.03799275287295713 0.07208124370606744 0.04347898470335476
0.03799284720802457 0.07277822354531166 0.04264674521850237
0.03798859990751109 0.07351058024515861 0.04184645043883922
0.037986429403168806 0.07422589842479327 0.041031013582067954
0.037991903119143425 0.07487913652016509 0.040159085515710236
0.03798218347894849 0.07565552615848148 0.03939971895289712
0.03797831584448257 0.07638430958086884 0.03859720231039476
0.03797416609275685 0.07711522358383016 0.03779696185948778
0.037978881665229704 0.07777473199327256 0.03693050149584792
0.03797897593139206 0.07847147151359268 0.03609854958842279
0.037975863409773734 0.07919387059129546 0.035290752868535
0.0379702056341461 0.07993647205496562 0.034502323550906266
0.03796615191529859 0.08066609127524832 0.03370198702555571
0.03796351272932423 0.08138432248431865 0.032891078249244865
0.03796200476275879 0.08209348947059064 0.032071663574557374
0.03795437275709832 0.08285103445236291 0.03129912241220356
0.03794843886096124 0.08359490040151074 0.03051389910386837
0.037945425500268075 0.08431555793901674 0.029706485344009548
0.03793337701654962 0.08510706336038648 0.02896885436366181
0.037762327710753114 0.09061153254249932 0.025328431999979917
0.03750421151220953 0.09329901877571473 0.02653126598094141
0.037349131058144164 0.09518295732056864 0.026933065168819048
0.03724343082301869 0.0966815473685056 0.026951258529950894
0.03714626606077202 0.09811078805226542 0.026906411527814755
0.037075836878708586 0.09933188939211884 0.02665327907707532
0.03701534841922635 0.10047452378615385 0.026323986665849675
0.036964972784208114 0.10153792839217363 0.02591650589211192
0.036931138075713035 0.10247382917422976 0.025378649446658186
0.03689327038282747 0.10343904977040141 0.024874688006113976
0.0368760106660256 0.10424708748512473 0.024206302577302052
0.03686836458488057 0.10498199072901937 0.02346098507066713
0.036863120833300414 0.10569854026081427 0.02269653650281883
0.036872364902468154 0.10630617052240382 0.02181460748707309
0.036898789479816244 0.10678552139089464 0.020792310380557344
0.03692703531175469 0.10725224179093934 0.019753979593153392
0.036985445963027073 0.1074952838946418 0.018467349972344338
0.037066759318225416 0.10757027613447728 0.016990079554622284
0.03716179197800453 0.1075465556817039 0.015396282375289394
0.03726675609493302 0.10745288766174604 0.0137163303690932
0.037401930976735775 0.10714023630701192 0.011781700062746203
0.037634539259816045 0.10611565730335448 0.009032469973352941
0.04673334503548735 -0.06194689667174458 0.03055796495073837
0.046485610102818965 -0.05870926927195946 0.03105233911560884
0.046325711502990995 -0.056314016324802596 0.03100728670686953
0.04623027046074642 -0.05453488237726223 0.030563944027061973
0.04614496714499229 -0.05285511628386724 0.030060898301366934
0.046089988875266455 -0.05146444720216509 0.02936955838531935
0.046035284116462065 -0.0500784300925341 0.02867895675001625
0.04600805161568013 -0.04895242129235572 0.027815519302493208
0.04598085131490541 -0.04782774389704758 0.026953102792545536
0.04597715107997382 -0.04692385095736645 0.025940898750806296
0.045977151007047495 -0.04605462926801818 0.0249050005534025
0.04600107018643963 -0.045408179092419676 0.02371431758351117
0.04603186003183453 -0.044824684433933004 0.022477940952040698
0.04609928528275374 -0.044579843529752805 0.021001453290284244
0.04619332368286482 -0.04457880487741073 0.019347911158172026
0.04629438213142369 -0.04463906076046681 0.017644071152479845
0.04637068372731302 -0.044467263234861165 0.016098671252795127
0.04626323999081466 -0.04260211468457509 0.015763713893549858
0.04616174336840823 -0.040795629989033355 0.015394175556149692
0.04606126240337966 -0.03900228867083999 0.015022455271131496
0.045961217924487256 -0.037216737570506586 0.01465234972711088
0.04586160709377252 -0.03543892603735965 0.014283848425311996
0.045762568074666804 -0.033670087526474324 0.013915993737854127
0.04566381551658313 -0.03190759673562693 0.01355067070751742
0.04556548824296142 -0.03015269622849953 0.013186920964951554
0.04546772267851937 -0.028406596365106285 0.012823789908732786
0.045370237177100765 -0.026666722050908365 0.01246315732810832
0.04527385871110559 -0.024940509244838815 0.012099354724443234
0.045177888843590606 -0.02322161475316975 0.011737094469200071
0.04508232498165906 -0.021509992135123335 0.011376366774903723
0.04498893574796182 -0.019821455101089902 0.011004942080080016
0.04490081794016376 -0.01818355135228933 0.010601238132128432
0.0369491998302969 0.05356565585709944 0.06480787262968324
0.03689166514056786 0.05477611751454825 0.06437621349919531
0.036891298610202385 0.05547682735023712 0.06354757903227265
0.036888458641304585 0.05619943737594557 0.06273630451996176
0.03688919142110976 0.05689035390685471 0.06190002581526427
0.03688735932162064 0.05760392535546016 0.061081814276976176
0.03688855006914943 0.058290817309777865 0.0602422851478408
0.036885985293368624 0.059010743286685485 0.05942937407639631
0.03688571046493641 0.05971050039147702 0.05860026378012906
0.03688763388239698 0.06039102055185824 0.05775545487230643
0.036889465892275715 0.06107241119240714 0.05691121464465421
0.03688763376551099 0.06178578026097953 0.056093244773071926
0.036888916135781914 0.06247201632258165 0.05525288744757151
0.036888549660035456 0.06317259751498061 0.05442440533227505
0.036884519491652626 0.06390486235018711 0.05362253708342746
0.03688305415701278 0.0646148328910075 0.0528021726938217
0.03688259622363982 0.06531607029556985 0.051974515493018014
0.03688222987344082 0.06601650322346458 0.05114620786678237
0.03688186353051808 0.06671692223920289 0.050317916692583675
0.03688305392327106 0.06740400601040308 0.049478165198277024
0.03688067303930848 0.06812162762766 0.048664769283173426
0.036883878009928324 0.06879157080907333 0.04781004797989713
0.03688561805769119 0.06947408781932873 0.046966081218179356
0.036883603154447164 0.07018851876766852 0.04615005732503974
0.03688140533452835 0.07090442150811949 0.04533549335847925
0.03688424410066882 0.07157771307732524 0.04448321600254279
0.03688094738364422 0.07230280296221903 0.043677011410730326
0.036878383664812796 0.07302160660124324 0.04286541932014992
0.03687691881759688 0.07373109694586938 0.04204561864256573
0.036870420162549405 0.0744826558520536 0.04126412919735328
0.036872158940721544 0.07516519222538698 0.04042016166696549
0.03687170127781095 0.07586609157025914 0.03959290259839304
0.036868589810121435 0.07658903068637918 0.03878600626790568
0.03686529589066749 0.07731336515396131 0.037980652793819014
0.036862825822687184 0.07803075879433391 0.03716909558160819
0.036860356085675984 0.07874805630924747 0.036357647112112534
0.036860081638949174 0.07944718032075038 0.03552928460130628
0.03685724647390252 0.08016733528568393 0.034720851514270346
0.036849749203345716 0.08092560326262815 0.03394891270046618
0.036849931967476976 0.08162077158987913 0.03311723096094438
0.03684984049756327 0.08231818464739543 0.03228769248930857
0.03684545322050177 0.08305056788059068 0.03149195772696656
0.03684289443361032 0.08376793343489747 0.03068199282455586
0.036838234747090644 0.08450222694500414 0.029888767857674914
0.03682964944200708 0.08526808142322861 0.029126905132204894
0.036625790290306576 0.09107078106996164 0.025793420453068483
0.03640212917730535 0.09354182744369977 0.02677838183624548
0.03625358939439067 0.09540845085131294 0.027163746029467473
0.03614799080664862 0.0969296007947259 0.027206330565612002
0.03605787860376789 0.09832448412034256 0.02712729004765696
0.035992441776529494 0.09952160056479281 0.026850379870209384
0.03593480315889387 0.10065496632994447 0.026512426239358677
0.035884195518774156 0.10173103792258181 0.026119215252117245
0.03584990171567582 0.10267762263707886 0.025593678201737247
0.03581506894047183 0.10362711521572099 0.025074145713411378
0.03579772102836344 0.1044392211362642 0.024411126219828605
0.03579159713811172 0.10516353643804144 0.02365551966694479
0.035786423643979576 0.10588026001441642 0.02289226163104563
0.035792890617530736 0.1065068604708998 0.022031879133292465
0.03581791841850759 0.10699066615780484 0.02101554951427348
0.035845229975363595 0.10745786154934273 0.019978888505428782
0.03589650824550877 0.10774229599011753 0.01873892601281779
0.035979364798746444 0.10778710181236029 0.017229695077935314
0.036070748474204335 0.10776997096724278 0.01564445145214144
0.03617219573532159 0.10767969154257401 0.013969560516830237
0.03629131880185951 0.10745903410044533 0.01213947503484153
0.03647237731290271 0.10677377083059719 0.009774847527141473
0.04523956869556478 -0.05989570339051575 0.030272519356375482
0.04502497195125744 -0.056917681668957776 0.030608284287862997
0.04487893685170242 -0.054616601215741245 0.030509628280007972
0.04479430229790208 -0.052918763401111346 0.030018357748691604
0.044719000061271955 -0.05131486353186998 0.029470095619400782
0.04466580242277322 -0.049928159267690175 0.028780518663678867
0.04461894395188631 -0.0486048501159988 0.028051735418703816
0.044592724028970084 -0.04748261391104641 0.027188962943490658
0.044568601341969355 -0.04638160531119345 0.026313522383778543
0.044568739038413754 -0.045514804557831356 0.025278015313437152
0.04456984115109604 -0.044657252693889815 0.02423607185948079
0.04459851705052143 -0.04406371080492316 0.023009596304615965
0.044632617657902364 -0.04352089437730838 0.02174536977095526
0.04470222295988886 -0.04331536745714859 0.020240369433938032
0.0448080833456512 -0.04345219737266792 0.018487050037543862
0.04489416773419164 -0.04339706463542209 0.0168629623836018
0.04495253548229637 -0.043075856790209754 0.015423531773280041
0.04485394441072873 -0.041267645249554286 0.015053377167011273
0.04475647951091846 -0.039473905421728794 0.014680082249409976
0.04465916060223598 -0.037685337802634555 0.014310308466059796
0.044562263996958056 -0.035904531452045196 0.013942139270277487
0.04446578695223589 -0.034131435960735035 0.013575564240307536
0.044369863291522066 -0.032367279662448845 0.013209624647680052
0.044274216645869495 -0.03060944824627365 0.012846207971800527
0.04417898147720633 -0.028859179114805844 0.01248435473374837
0.04408455951030146 -0.027120185682708853 0.01212121800437116
0.043990674509352345 -0.02538985584236164 0.011758685478547914
0.043897322193455865 -0.023668118555352613 0.011396749992929833
0.043806494701273645 -0.02197336020964158 0.01102125999976672
0.04372041683305837 -0.020325958425797874 0.010616225147921265
0.04363480863549982 -0.01868623380785578 0.010211837166077875
0.043557692093602246 -0.017127854175465362 0.009750668328488366
0.03579132759027731 0.054916269308264265 0.0644859527923839
0.03578972833389778 0.05562805656281822 0.06366662787566468
0.035784665091462574 0.05637140156849968 0.06287240227153906
0.03578208957691314 0.05709188924140479 0.062060381755831506
0.035781556711734185 0.05779371039110759 0.06123362915127978
0.035780935065496525 0.05849631601019517 0.06040754885187127
0.035778715227039536 0.05921336155471468 0.05959319171787575
0.035777028319976575 0.05992550780842176 0.05877502569953852
0.035775164034955946 0.060639186764095465 0.057958244143050563
0.035776850649271746 0.061320863841263895 0.057115319176773205
0.035776850590798076 0.062017740128486876 0.05628481425539028
0.03577312231052176 0.06274799489275235 0.05548202223816873
0.035771524680565166 0.06345907037433451 0.05466351613754927
0.03577187962565534 0.06415267843478206 0.053830479524483554
0.035769749651553565 0.06486840240484276 0.05301607057225932
0.03576850725943264 0.06557616610326705 0.05219508044748977
0.03576859593622941 0.06627209408436185 0.05136409930316754
0.035769128298553346 0.06696410509437101 0.05052975420486833
0.03576948319608643 0.06765770147711053 0.04969673236969707
0.03576957187772316 0.06835365361425355 0.04886572234965969
0.03576735344886615 0.06906986013855271 0.04805233960448074
0.0357684181738523 0.06975722592916522 0.04721389312662777
0.035767353331944716 0.07046324275984311 0.04639177065486444
0.035766909632424924 0.0711638022572702 0.0455649074679792
0.03576753067452428 0.07185508153665077 0.04472982904637468
0.03576495762558808 0.07257411043822609 0.043919502394153376
0.03576238494681608 0.07329303589861819 0.04310929231743543
0.03576203007322206 0.07399269649066792 0.04228189239287561
0.035759812579672395 0.07470840237655246 0.0414690893543212
0.03575777272378844 0.0754224937840649 0.04065499460989247
0.035756797192302514 0.07612737081004439 0.039832613722673715
0.03575458034761022 0.07684283963903954 0.03902008145166963
0.035752097814871917 0.07756049211488297 0.03820975655022529
0.035748817872662556 0.07828484531660712 0.03740588150155166
0.0357446523430309 0.07901660259377719 0.036609214367728904
0.035745095373677364 0.07970909193467085 0.03577591638457456
0.03574518393436729 0.08040459946612799 0.034945438415197316
0.03574093065299107 0.08113678374750333 0.0341498509638844
0.035738627188048815 0.08185237122403871 0.03333874537765674
0.035738538542977975 0.08254924781005013 0.032509843780517966
0.03573782980731707 0.08325132229497934 0.03168597304007115
0.03573614675312133 0.08396152282509362 0.03087005609972593
0.035734463857434846 0.08467165646782304 0.030054216003285117
0.035730213126588216 0.08540311362648989 0.02925944893212834
0.03550610285498312 0.09141947823121 0.026146475834514793
0.035306301277282195 0.09374810754420398 0.026988321157349893
0.03516593727573195 0.09558312319808354 0.027342436619710975
0.03505862372609728 0.09714316716916621 0.027425939760163498
0.034976212710096634 0.09849645269077528 0.027305038602472964
0.0349098184774541 0.09971654592877183 0.027052918733830922
0.03485698541720637 0.10082426313989495 0.02668922611730279
0.03480817717607136 0.10189741612214853 0.02629386443099846
0.03477006735869748 0.10288247139522044 0.025809820430713837
0.03474124670775025 0.1037913809408405 0.025248362019692827
0.034723090780883335 0.10461365840783349 0.02459708468601174
0.03471807401621931 0.10533013524534329 0.02383403797699407
0.034715148215863606 0.10602973283911882 0.023053254535657763
0.03471681995206187 0.10669262225314752 0.022232989203809783
0.0347368939784255 0.10720946177243834 0.02125364353347098
0.034765958780987934 0.10765587126630005 0.02019547348317624
0.034816582113080224 0.10793307717702472 0.018948679324325646
0.03489418754031108 0.1079995928493882 0.017464520362204417
0.03498495338597549 0.10796566283341147 0.015861825444618283
0.035082935283545405 0.10787867576800864 0.014191729588519386
0.03519366195189409 0.10769580118757105 0.012405190006110234
0.035331563501754405 0.10730517562467085 0.01037429274122964
0.04375335335378264 -0.057852509196189006 0.02999039479952814
0.043570369592672124 -0.05513349744107021 0.03016606442710923
0.043444997885399496 -0.05300004202296632 0.029964032603411184
0.043363341000709286 -0.05130947516567669 0.029473717290893153
0.043297404809789226 -0.04977933299747228 0.028881104262577117
0.04324597715706466 -0.04839657580070045 0.028193282717145385
0.043206685342666806 -0.04713670706505396 0.027425353996457402
0.043181197239110264 -0.04601556703058002 0.026565058802952124
0.04316386648407338 -0.044976336455905874 0.025650092667503732
0.04316373315213462 -0.04410798049244474 0.024617713970773614
0.043170263739100434 -0.04330543932371317 0.02353936379763011
0.04319920893020032 -0.04272354066811518 0.022305514311629526
0.043240760365327875 -0.04226446550862534 0.02098269837179828
0.043308133629680216 -0.04205716812342675 0.019477880317625818
0.04342462142165175 -0.0423282476572821 0.017626266817879543
0.043499064515362895 -0.04218365831433085 0.016064196983850698
0.04354363599731999 -0.04174468178112267 0.01470895338359579
0.043448507092892046 -0.03994394854834543 0.01433885161018833
0.043354061805276484 -0.0381536782295111 0.01396845684261927
0.04326002622339594 -0.03637117414255431 0.013599668855528102
0.0431662644123971 -0.03459509648065018 0.01323342865206889
0.04307290816059171 -0.03282670110008168 0.01286877259106517
0.042979954842337506 -0.031065938264774884 0.012505690416576731
0.042887533412864054 -0.029314023514769638 0.012143223330252029
0.042795901592198496 -0.027573397432675284 0.011779468615191968
0.04270479092954742 -0.02584144223939816 0.011416318142747017
0.04261653536588932 -0.024140425219145223 0.011036737456559809
0.042532525171055234 -0.022483429161335944 0.010630363529888776
0.042448845543488205 -0.02083295312943556 0.010225588622300774
0.04236870416453405 -0.01921943039101609 0.009798798547181908
0.04229347013409155 -0.01765561823013939 0.009339637569863612
0.03469106846284087 0.05506443920502713 0.0646019702810422
0.03468753956000974 0.05579457224015788 0.06379771033852466
0.03468031191587498 0.05655938154812584 0.06302117540257407
0.03467669919390509 0.05728994409627075 0.06221796837879695
0.034674119122281494 0.058010682157425886 0.06140719151481383
0.03467343112510875 0.058713619575508746 0.060582306118505846
0.03467085153974349 0.05943418380508381 0.05977172734142677
0.03467265710972136 0.06011380524075788 0.05892807726957705
0.034668530176697916 0.06084862973669014 0.058129390691430416
0.03466483396058407 0.061579294455300526 0.05732762063138802
0.034661825983483684 0.06230344255492104 0.0565207682688072
0.034660451050340324 0.06301239240906165 0.05570154171162589
0.034658818469861796 0.06372366063404078 0.054884362160806444
0.03465641286978818 0.06444196927654 0.05407322341487658
0.03465649871775254 0.06513732862391214 0.0532429225529385
0.034656240941197035 0.0658358363950593 0.05241528455840527
0.03465495234985589 0.06654374748609837 0.05159568406469822
0.03465641263584711 0.06722655855320242 0.05075467873087591
0.03465787304491446 0.06790942716949339 0.04991360251483479
0.034656670239498304 0.06861651514975237 0.04909338145730019
0.034653062441056044 0.0693453246063539 0.048292171773885895
0.034653749513224495 0.07003519858721663 0.047457184060916646
0.034653405886009535 0.07073438857014713 0.04663033575584585
0.03465263282278973 0.07143742609101755 0.045806919132803436
0.0346526327643058 0.07213349749262354 0.044977373436932644
0.03465151620431033 0.0728395632362902 0.04415676054663342
0.03464885400947101 0.07355938879904783 0.043348604289960235
0.034646793223109526 0.07427374807738046 0.04253573500093155
0.03464765177145621 0.07496206812161926 0.04169939796531036
0.03464533357220764 0.07567860400887882 0.040888740251316946
0.03464267232720652 0.07639808308044077 0.04008097919513437
0.03464061227605408 0.07711214612327777 0.03926844922094386
0.034640698045716206 0.07780721985660088 0.03843849020286444
0.034636836142102216 0.0785370001822176 0.037640867290726854
0.03463426199854007 0.0792553308080769 0.036832848831420684
0.03463117354294513 0.0799780585663924 0.03602919159584772
0.03463426188159862 0.08064673560663316 0.03517463696015244
0.03463306071434926 0.0813529001871307 0.034355485786763895
0.034629972472962046 0.08207541584677241 0.03355207732193455
0.03463091596750225 0.08276285123542143 0.032715208745522306
0.03463040123737466 0.0834629384287458 0.031890485451695816
0.034629286109464516 0.08416818643113189 0.03107082037375769
0.034629371823008875 0.08486305039106118 0.03024111240187871
0.03463203090797437 0.08553581275910221 0.029389702657267702
0.034398901648218155 0.09168421820363426 0.026414524704053255
0.03420910415699697 0.09397884910553628 0.02722315585181817
0.03408027002881152 0.09575198165021337 0.027515179572851878
0.03397765157769414 0.09729948736469796 0.02758668303151307
0.033897332017001486 0.09865580412849073 0.02746974596080254
0.033832776138558666 0.0998769685672774 0.027219590161839224
0.033777439725104684 0.10101856742937626 0.026892141767280497
0.03373343096885583 0.10206359761911793 0.026468307128819035
0.03369400221852187 0.10306880592713452 0.026006427738473503
0.03366852424789474 0.10395679768687849 0.02542379907048059
0.03365110133458069 0.10477716248912422 0.02477138785499633
0.0336416275766036 0.10553125926702878 0.024049551626921573
0.03364259893587765 0.1061990294084158 0.023235599015361763
0.03364462284283025 0.10685819899187343 0.022412246482599485
0.03366049910521242 0.10740402442013908 0.021465367179075878
0.03368969870302774 0.10784166153359864 0.020398692712671418
0.03374010587163411 0.1081076724818954 0.019140637166609964
0.0338124834961348 0.10819713459783692 0.017682825093449928
0.0339016875392726 0.10815307879463204 0.01607000658861052
0.03399731468518269 0.10806065832973605 0.014394916039360994
0.03410171549425296 0.10790129677044868 0.012635810134938474
0.03422920351837871 0.10756033362898182 0.010662120919088691
0.034454170625283546 0.10644198129997667 0.007795083037793693
0.04260807234912538 -0.060161736049883674 0.028464073563440884
0.042274931271620034 -0.05582002888878829 0.02970974961758066
0.04212176569165277 -0.05335667079347195 0.029725668182855713
0.04201605565068359 -0.051390316587043905 0.02941938278677564
0.041937088181604375 -0.04970428835650942 0.02893182391065169
0.04188029081426283 -0.048249836533883206 0.02829300961670589
0.04183062226751302 -0.04687100292157387 0.027606934931954485
0.04179834921655392 -0.04567264171381674 0.026800712319585085
0.041773726125118295 -0.04455392018609289 0.02594197910756263
0.04176239117488062 -0.04357195528725666 0.024990151883066247
0.04327417469834211 -0.05811720680282029 0.013191102216298989
0.041774756654827376 -0.041965861635036183 0.022837787219027073
0.04180299309097078 -0.041386332125602054 0.021602988244216748
0.04185130262915378 -0.04100900920750694 0.020222343289543532
0.04191671089748961 -0.04080257002893972 0.01871584200563725
0.04203235353070058 -0.041100301944027307 0.016842127835749454
0.04210683638798421 -0.04097877401762168 0.015261944483445644
0.04213762109547728 -0.04041503872149105 0.013996860861231752
0.042046054044538095 -0.038623062550807885 0.013625843258472825
0.0419547541292809 -0.03683755701401559 0.013257389122967533
0.04186372045988058 -0.03505849660750571 0.012891485208386344
0.04177320982210062 -0.03328842388732001 0.012526213126406949
0.04168296143135981 -0.03152471275564589 0.01216346876481994
0.04159335761009166 -0.029771141256359712 0.011800386929770423
0.041504519747680074 -0.028028871505231368 0.01143601329611571
0.0414187202534152 -0.026320314132661282 0.011053264477529856
0.04133680692181683 -0.02465364133160225 0.010645541964222571
0.04125521694830011 -0.02299354782719315 0.010239428961277663
0.041174073589530534 -0.021341223986378555 0.009833968827841821
0.04109898474478941 -0.019751599913877316 0.009386555536884
0.041026033237210664 -0.018185991546634916 0.008926574677815824
0.03359421887162177 0.05518889609900962 0.06469942042680654
0.0335862215257834 0.055963351703776476 0.06393057487082027
0.03357731230997375 0.05674633643241678 0.06316913724199064
0.03357156960024368 0.057498247958893633 0.06238370984215047
0.03356790858680816 0.058229779522158576 0.06158245420879982
0.0335681581134513 0.058923403239071415 0.06075101582249676
0.03356466419987912 0.05965310237328475 0.0599487238313105
0.03355776175669544 0.06041542441085407 0.05917323875803748
0.03355526755878245 0.06113517308187921 0.058363539862857694
0.0335546024590351 0.061837310195159145 0.0575395812657335
0.03355185938410606 0.0625592670184617 0.0567320468776627
0.03355011400318465 0.063271601537222 0.05591675345982067
0.03354803641664528 0.06398702288430236 0.055104183199469914
0.033546540697267556 0.06469683670453003 0.05428708263463916
0.03354629137491141 0.06539478720923703 0.0534601010456382
0.03354521121587886 0.06610057678016956 0.05263978817906362
0.03354388189836043 0.06680867033988552 0.05182153103010584
0.03354462953508161 0.06749717269745986 0.05098659702107644
0.033544380241126714 0.06819506263881181 0.0501596870614609
0.033545626396882765 0.06887893788366573 0.049320660527681914
0.033544213969202145 0.06958770638256856 0.0485032006240661
0.033541721784617236 0.07030648307664383 0.04769462128897983
0.033541306407766515 0.07100583703596203 0.04686916714520528
0.03354055880215935 0.07170825742246428 0.04604646091798459
0.03353972817484507 0.07241141567001258 0.04522447524403411
0.03353939590033429 0.07310993457531006 0.04439841482337076
0.033540060280418504 0.07379925104356594 0.04356411502400953
0.033535990948694964 0.07453213938308406 0.04276911110673126
0.0335346623617624 0.07523970432345567 0.041951469863662605
0.0335323376317748 0.07595633614845188 0.04114221968677517
0.03353242059170723 0.07665087355883615 0.04031290229202866
0.03352984715296113 0.07736962968509964 0.039505913309666685
0.0335305111547763 0.07805883427084714 0.038671754136470116
0.03352561426972023 0.07879852787210528 0.03788458771065972
0.033525448242169124 0.0794951870027662 0.037057539957630614
0.03352005508374796 0.08023905533654802 0.03627496190701396
0.033521714255802346 0.08091914333973604 0.035432489642453935
0.03352503315122487 0.08158437688568765 0.03457573589165114
0.03352553099249515 0.0822750548501448 0.03374302287494663
0.03352553093399043 0.08297020963946133 0.032914569555660134
0.033524535090731694 0.08367425600242484 0.03209470932556868
0.03352528186524051 0.08436273699931268 0.03125981738886141
0.033527771490448305 0.08503575895969251 0.030409762537907337
0.03353192172662706 0.08569415951811965 0.029545131350920184
0.033284872560919186 0.09202573157481558 0.026760306509781506
0.033114951395996156 0.09419792473288374 0.027446117674529702
0.032994189641353075 0.09593532898208129 0.027702744706591564
0.032899698894620494 0.09743968259058527 0.027730845087379052
0.032819977234019145 0.09881222244466609 0.027631421614847107
0.032758458177973994 0.10002420536087031 0.027372562137130962
0.032703643217308016 0.10117585993288941 0.027056405326350896
0.03266026966467001 0.1022268743739615 0.026639700685791634
0.03262101743970028 0.1032407426527211 0.026187843484398343
0.03259817036323843 0.1041126209936249 0.025589061554190495
0.032582016151618536 0.10492642661575069 0.02493051055982254
0.03257222161914313 0.10568541276319715 0.024214734218904965
0.03256893194000914 0.10638874196363929 0.0234399329559441
0.032574023246716065 0.10702092230442928 0.02258841457658045
0.0325871113794051 0.10758572216285689 0.021663091203716456
0.0326178746586511 0.10800203553421545 0.020574111392278382
0.03266389234323103 0.1082913223614273 0.019342550005535253
0.0327330442117191 0.10838841940874033 0.017894215243502765
0.032820215018222 0.10833757710672726 0.01627494681729086
0.03291544881614798 0.10822303485001772 0.01457621204131715
0.033015179813083995 0.10807498974625085 0.012830739384478096
0.033125154895571364 0.10784598123363304 0.010984342542143588
0.03330009255866246 0.10708322579906787 0.008522153973466007
0.04104034590512077 -0.057205079681834914 0.0287891519582526
0.04081872754988116 -0.053953257390121745 0.02932692010318183
0.040679123220082415 -0.05158715630826677 0.029287084298025345
0.04059182010702853 -0.049784694569006416 0.02887748075808394
0.04051578365658989 -0.04810586233902836 0.028390857320290064
0.040467374566528394 -0.046723678767424115 0.027707615587175938
0.04041945494321252 -0.045348757071823176 0.02702328135324522
0.0403939192544351 -0.04421263709740947 0.02617780315004531
0.040370156479438035 -0.04309632498358079 0.025320626570551064
0.04036456193302847 -0.042172412584315366 0.0243309546476434
0.041814774009472325 -0.056552798541783245 0.012590400523386114
0.04176560837969997 -0.05514106899006149 0.011887012383956452
0.04040973471069425 -0.04005077103855681 0.020902939362684225
0.04161748137840293 -0.051803657254732405 0.010859326059728114
0.04053984281034246 -0.039675715236894504 0.017865087548174563
0.04063649469814357 -0.039812790552055055 0.01610379316953492
0.04071690581096139 -0.03977708202929947 0.014459989567693676
0.04073487439050839 -0.03909087056403021 0.01328438025554779
0.04064657577066449 -0.03730497831416901 0.012914347284599115
0.04055840811785921 -0.035524221397283784 0.012547826393231987
0.04047049717239733 -0.03374988628920911 0.012183846846015478
0.040382966498595484 -0.031983226327167324 0.011821441745424932
0.0402963091658585 -0.03022927364788003 0.011456789546071211
0.040213230420571386 -0.02851565729376826 0.011068947021511288
0.04013344255944759 -0.026839209080243565 0.010659867582307248
0.04005397068814224 -0.025169400229499483 0.010252408250756684
0.03997481293320793 -0.023506191377936747 0.00984655942153101
0.039897181823439244 -0.02186186729486861 0.009432816128130794
0.039826143192768504 -0.020287630301773385 0.008971321722386738
0.03975487477013784 -0.018714115360334516 0.008515263733745337
0.0325029561238311 0.05526531294120335 0.0647592550870787
0.03248958206585893 0.05609630509129282 0.06403523684764939
0.03247847223828446 0.05690398888527615 0.06329390824856002
0.03246889811562655 0.05769580941515057 0.06254090388185846
0.03246318848839805 0.05844858168916578 0.06175748076508203
0.03245892766622851 0.0591866548993617 0.06096272489856097
0.032455471583452855 0.05991653406815778 0.060161709336678915
0.03245153416179975 0.06065104671880578 0.05936475682619008
0.032448561625324154 0.06137582622787313 0.058560189825934195
0.03244639280491449 0.062092528751072074 0.05774924400655418
0.03244358181985164 0.06281547627098644 0.05694364327324625
0.03244157425482535 0.06353039108444886 0.05613161684549112
0.032439326083952225 0.06424758425378996 0.05532166642269831
0.032437800698059426 0.06495759391892297 0.05450588397130518
0.0324380414711468 0.06565025823694104 0.05367560293997492
0.03243651620605275 0.06636017383709814 0.052859930185528814
0.032434991084384725 0.06707002268141671 0.05204433413163462
0.03243466997820359 0.06776810355737029 0.05121878673866137
0.03243057711919054 0.06850274999966277 0.05042477004655227
0.032434669861139326 0.06915801060677046 0.049562359814660395
0.03243330542100722 0.06986613775018552 0.048745615913183105
0.03243194109566132 0.07057420532078101 0.0479289407221678
0.032431299068933085 0.07127527131619099 0.04710622637272238
0.03243081755093402 0.07197477034680694 0.046282183209243766
0.03242977437925966 0.07267962358727376 0.04546294349549229
0.032429052204785744 0.07338136716772531 0.04464101763368011
0.03242824983292458 0.07408384382988703 0.04381981510957139
0.03242816954524727 0.07477942241684593 0.04299245435044463
0.032425121073170034 0.07550314772926203 0.04219065582049597
0.032421912777396575 0.07622825474810363 0.041390393246002355
0.03242207311566056 0.07692142062584417 0.040561116198087166
0.03241990783445346 0.0776364999880837 0.03975203431249558
0.03242223339698546 0.07830928043797641 0.03890393502460504
0.032418464396285526 0.07903930826687028 0.03810897351370979
0.03241774272539377 0.07974066556817982 0.03728749797419273
0.03241613919883871 0.08045022317307304 0.036473810303732535
0.03241437550868437 0.08116120359826728 0.03566161635962323
0.03241814344161802 0.08182071341174507 0.03480061012092578
0.0324180632039383 0.08251605609926299 0.03397352950062049
0.032421831994320395 0.08317579846648393 0.03311222904014205
0.03242183193578125 0.083870476951451 0.03228434335837299
0.032423355703197765 0.08455112796892628 0.03144283063732217
0.032427366397493745 0.08520900434939066 0.030578936879993357
0.03243442767444199 0.08583910141148249 0.029687402215891667
0.03245257650793364 0.08636814807727933 0.02869550546034777
0.0321902033061323 0.09221511544443634 0.02695205745236634
0.03203028128128602 0.09434614219023946 0.027596964400672053
0.03191236926077605 0.09609259704495243 0.0278636306459078
0.03182427156510333 0.09756657240421729 0.02786132526274454
0.031745498432298215 0.09895333346988328 0.027777275497578024
0.03168495056026565 0.10017402410123089 0.027528216629643665
0.031633639441151065 0.10130986258421537 0.027196346863098075
0.031591933341515624 0.10235817095258637 0.026777524289204213
0.03155193197595062 0.10338958372761142 0.026344890309370816
0.03152946618661369 0.10426424715234545 0.025749872645300376
0.03151635062697189 0.10505548113621765 0.02506808887014339
0.031504911849833346 0.10583140020614856 0.024371166512761
0.031499157696938784 0.10655693570940716 0.023621089616448265
0.031502564416638276 0.10720201683788788 0.02278447177600934
0.031518093449683184 0.10774136706999232 0.02183246446932874
0.0315472991957245 0.10816222271313247 0.02074932572444893
0.03159002932907656 0.1084667867806362 0.01953546339000567
0.03165640620616444 0.10856817009113073 0.01809285895543289
0.031742653080184105 0.10850055523362517 0.016455982494024357
0.03183648377345498 0.10837121127756455 0.014741653419820366
0.031933515816586905 0.10821833900690281 0.012991615014730673
0.032031845644638304 0.10805848452721606 0.011224054560410535
0.03217305605684119 0.10753567272797293 0.009035158033986301
0.03956851213603152 -0.05517596828144983 0.0285096813784681
0.039376801712898576 -0.05218009949498187 0.028888559454837037
0.03924617356703572 -0.049866471521055555 0.028822211179392432
0.03917240169204375 -0.048184503175224214 0.028337411580444005
0.03910506091449994 -0.04657645555457429 0.027808227259573326
0.03905877032211622 -0.045202178600157294 0.027124008090168017
0.03901607301215082 -0.043869269312443115 0.026415067701322237
0.03899325922525926 -0.04275536600907759 0.02555752972962022
0.03897047210238818 -0.04164276459980959 0.024700994020409428
0.03897023230745077 -0.040776373787613895 0.023673407783491807
0.038970352095202596 -0.039913896065933874 0.022643077615749296
0.0389936189427187 -0.03930210940176332 0.021434682100417157
0.03901967718005973 -0.038719461847046 0.020203510846080797
0.039080093150596705 -0.03850625064962204 0.018704850528462935
0.03916501474451155 -0.03855414211826469 0.017012546640754633
0.039245686363817756 -0.038552616061912015 0.015348898322293192
0.03932913241388414 -0.03857725507369053 0.013659279290323678
0.039335237196605186 -0.03777082880039917 0.01257245827157788
0.03925006281650636 -0.03598968693355342 0.012204358881758304
0.03916501437831027 -0.03421366254499009 0.011839763880451604
0.039080333714567546 -0.032445318207938556 0.011476745494958751
0.03899973938752284 -0.03072407947836453 0.01108568722920028
0.03892210703052972 -0.02903777121585671 0.010675241166028582
0.03884478312683438 -0.027358163089140797 0.010266425910339827
0.038767884460171355 -0.02568646577390521 0.00985827855487309
0.03869117150451601 -0.0240201311126938 0.009452696538132521
0.038618645494479915 -0.02240115218477129 0.009017300193294497
0.0385497919235242 -0.02082386063295194 0.008555933022824092
0.038480014761683 -0.01923996634113767 0.008105722907495616
0.03140340442086166 0.0554334671562125 0.0648909203486912
0.03139227820727641 0.0562453437051888 0.06415256123507374
0.031378206692916834 0.05708732072848993 0.06343900270324387
0.03137004941528923 0.05786737215120458 0.06267741148813066
0.03136290556432383 0.058636580130839 0.06190786648837909
0.031355842563383474 0.05940463698891729 0.061138027839268416
0.03135173038871939 0.060141991274253626 0.06034399233750798
0.03134808463885187 0.06087437007048929 0.05954627808442703
0.031343586810684665 0.061615324720524445 0.05875589626311267
0.031340485593971575 0.062341789665505465 0.057954012530318344
0.031337540003526836 0.06306652819623221 0.057150980371083904
0.031334749951766674 0.063789551553382 0.05634678819349015
0.031332502759948075 0.06450693271065955 0.05553813726222634
0.03133064324862717 0.06522028182457801 0.054726305349980464
0.03132994595218177 0.06592178537074328 0.05390464891402896
0.03133048818707048 0.06661073980061033 0.05307241369864352
0.03132808668575155 0.06732938224383739 0.052265438387697205
0.03132692477092129 0.06803545441717296 0.05144790837104746
0.03132870626055398 0.0687119449364536 0.050604998529591216
0.03132537564616783 0.06943968907613624 0.04980631588529011
0.03132421393240936 0.07014562189714862 0.048988947800470195
0.03132405899300665 0.07084146955209664 0.048162859287265436
0.031323361989580106 0.07154270062077861 0.047341521541679255
0.031322510151632565 0.07224543703501618 0.046521579372426514
0.031322355229077815 0.07294123646414225 0.04569554798554237
0.0313208840388662 0.07365003045593249 0.044881145277748724
0.03131887107670847 0.07436409857389831 0.04407161756483963
0.03132026453925198 0.07504458152262394 0.04323194305422512
0.03131740015520705 0.07576689998024955 0.04243012218429071
0.03131399455363171 0.07649438935133507 0.041633287892635984
0.031314071885569256 0.07718771109173367 0.040805424878804675
0.03131175027902552 0.07790441273117715 0.039999116704698245
0.0313128335667104 0.07858790791679571 0.039162241924343366
0.031312601356235585 0.07928421168969246 0.03833720160867632
0.031311982242705774 0.07998424962297312 0.037515681262394684
0.03131205956469336 0.08067753544025374 0.03668786126510465
0.03131074408907747 0.0813842424540917 0.035872738015094885
0.03131213682851044 0.08206486110649175 0.03503291667490893
0.03131670292106792 0.08271511110895208 0.03416391649046391
0.031319412225594624 0.08338332776344409 0.0333117541517155
0.031320960584993104 0.08406274576840372 0.032470157929447296
0.03132475479757774 0.08472084548170711 0.03160770348177294
0.03132800770316305 0.08538425618527157 0.03075007051813644
0.03133567801963625 0.08600594055598587 0.02985116678942007
0.03134017346120358 0.08665798771352368 0.02898148024095165
0.03109405803567768 0.09243135442134776 0.027170999145510466
0.030947101780190375 0.09449068399849664 0.027744070276662314
0.030833759293775718 0.09623085046706548 0.02800506453317525
0.030746740088285346 0.09772173770372572 0.028020880960726913
0.030672754329034723 0.09908811840359216 0.027916590667862673
0.030612948783606698 0.10032026916291414 0.027680158243436226
0.03056398907744212 0.10144985096903913 0.02734253941164899
0.030524595634845084 0.10248934480308458 0.026915219063420814
0.030487871018502977 0.10350262395475157 0.026464162575048356
0.030464047348060255 0.10439628242367782 0.025889906120540818
0.03045028323727036 0.10519710253776171 0.02521906406896579
0.03044062648719401 0.10595992844866753 0.02450889047792071
0.03043499618721941 0.10668576790822898 0.02375985110649914
0.030435727212940956 0.10735374078060411 0.022948731699411695
0.030451893053754214 0.10788228905932307 0.02198581621995399
0.030477603572633995 0.10832552723365757 0.020927949833850712
0.030519595383360285 0.10862352180276413 0.01970778485321406
0.030583907852143013 0.10872318995941044 0.018264172488983876
0.03066800205723699 0.10864873054321939 0.016620575249267633
0.03076316253799836 0.10847923918477415 0.014862268353842856
0.030859366358186688 0.10830467825256973 0.013088510432561595
0.030945211051392578 0.10822637180117506 0.011413437987246033
0.03106394468223038 0.10786054383817673 0.009403511097033856
0.03810436181821177 -0.05315744950313922 0.028231669725897746
0.037940805700801154 -0.05041423359489744 0.028452001535598404
0.03782876350278576 -0.04826583996870587 0.028282133616365668
0.03775789254473615 -0.0465910408684328 0.027798259811133097
0.03769901657172353 -0.04505570040567647 0.027224665917969793
0.03765445837174149 -0.04368531474314369 0.0265421789598122
0.0376185636601121 -0.04241495223549813 0.025794054075310602
0.03759659745302478 -0.04130343861725044 0.024938064665393056
0.03757938924497273 -0.04024652436565934 0.024045629394967294
0.037579389172077274 -0.039383825754992385 0.023017505100535296
0.03758239072636328 -0.03855479759383945 0.021965466111574683
0.0376074614098836 -0.03797268321194508 0.020736828973483112
0.037639744357952795 -0.037469989458521036 0.019448963523802043
0.037698318881872875 -0.03725892588053209 0.017947702333674043
0.03779241830717581 -0.037440407809334164 0.01615631289164232
0.03786072374130481 -0.03733118854756268 0.014568810024986223
0.03794351117871244 -0.0373792888123472 0.01285981075605458
0.03793856894251203 -0.03645358713719149 0.011862046431375839
0.0378565057673234 -0.03467717954178279 0.011495873263489886
0.03777829641233791 -0.03294697333619456 0.011102537134432822
0.037702965735017906 -0.0312519884052016 0.010689757721939197
0.0376278191449711 -0.029562480645508926 0.010279578138759127
0.03755297151107697 -0.027879694265041 0.009871030375430911
0.03747842105286834 -0.026203589233864344 0.009464104713468147
0.03740416600398857 -0.02453412583928849 0.009058791511402486
0.03733681268615438 -0.022943114597198666 0.008599721242403824
0.03726936087028756 -0.0213541270526858 0.008145164244849012
0.03720079479383343 -0.01975617219016984 0.007703693860004968
0.030319100476113192 0.05544889287019933 0.06490299879696204
0.030295149090773077 0.056403143997941274 0.06427678288163335
0.03028285021970754 0.05723093459447054 0.06355266314632635
0.030272583805684344 0.05803634145708436 0.06281185557658114
0.030264345724928927 0.05881954873635642 0.06205422869330407
0.030256561113224133 0.059597530470637594 0.061293154329454924
0.030250126852361316 0.06036075135518704 0.06052086068956941
0.030246088111688767 0.06109818014686086 0.05972819496101689
0.030241078594559295 0.06184573366589641 0.0589441751702946
0.030236294930894535 0.0625906636864551 0.05815846322002621
0.030233604759445053 0.06331323620675494 0.05735472994668944
0.0302300933294159 0.0640443508531478 0.05655833862529441
0.030227553638180468 0.06476507313537605 0.055753599791639796
0.030226059877357887 0.06547469053900268 0.05493977966301916
0.03022404355491259 0.0661897172635657 0.0541306621332685
0.0302245662055719 0.06687809418950258 0.05329913403058173
0.030222027442870832 0.06759844669631326 0.052494816067954475
0.030218891926775685 0.06832489718263296 0.05169596292051004
0.030221056757429945 0.06899612802209992 0.05084983179890851
0.03021956363860578 0.06970538388900521 0.05003642883623144
0.03021889175104983 0.07040607552937189 0.04921571084264853
0.03021814525086535 0.07110750648215997 0.04839570367763085
0.030217548065554652 0.07180736534972992 0.04757438432537253
0.0302162045581083 0.07251486613900543 0.04675988093157174
0.030216204499534896 0.07320853057010729 0.04593320375172927
0.030215010364471946 0.07391441071755345 0.045117444811293594
0.030213741703034147 0.0746209967546051 0.04430243469097189
0.030214338620774776 0.07530852483570954 0.043470333668048644
0.030213443106580435 0.07601124551317617 0.04265196877588501
0.03021075699958311 0.07673207888817413 0.04185022142090761
0.03020889191058501 0.07744448394715608 0.041041001613136285
0.030206281196245084 0.07816432861727557 0.040238824002020335
0.030207922068630003 0.07884124178982055 0.039397099913906775
0.03020822038029701 0.07953171848630541 0.03856785581418787
0.03020822032172617 0.08022519964173436 0.037741397054089576
0.0302095630021522 0.08090525247249719 0.03690229337741702
0.03020963754368604 0.08159802011250267 0.03607509331224229
0.03021045811064253 0.0822833646566466 0.0352408228322601
0.03021471109854578 0.08293465667021493 0.03437390174394295
0.030219487817721644 0.08358095437049456 0.03350175851386217
0.0302235940093725 0.0842341001652871 0.03263576016360853
0.03022755193874257 0.08488889679613437 0.03177095769110366
0.030232631571882412 0.08553283758682612 0.0308951604575603
0.03023771291255325 0.08617699484021346 0.030019068822132233
0.030243095021173835 0.08681843965035962 0.029139792679031773
0.03031902251291575 0.08885889624731486 0.02508810553340357
0.02999534901096367 0.09268785438741478 0.027430705021883772
0.029863767062152782 0.09464704904821941 0.027903209122049855
0.02975973518082807 0.09633480181314635 0.028111407262276678
0.02967124295877968 0.09786843527784245 0.028171729344331486
0.029602531930502114 0.09920835404682177 0.028040867543841996
0.02954626461854338 0.1004260998977845 0.027790111333984346
0.029497179216453548 0.10157273568691261 0.02747087028524592
0.02945782953832932 0.10262444728116288 0.02705703776244317
0.02942374996653338 0.10362430912029957 0.02659255637709168
0.029401121113238005 0.10451413711472285 0.02601490001924822
0.02938494867862082 0.10534191469177262 0.025373440760473154
0.02937683383081196 0.10609299264567984 0.024651474924856087
0.02937203757098113 0.10681249060863035 0.02389634051744266
0.029371332322101235 0.10749339113503409 0.02309992047881676
0.029386148408541583 0.10802901202940646 0.02214548061180338
0.029410450930221724 0.10847675775473115 0.02109336728983774
0.02945109188772005 0.10877347583706265 0.01987265100069069
0.029512976365257737 0.1088747279820656 0.018431638212918322
0.029594080959303676 0.10880072625583143 0.016789411695658563
0.029691477979000565 0.10857985536415726 0.014974607978950782
0.029789808363591283 0.10835485051333538 0.013144816992868624
0.029861870574162588 0.10837595433353181 0.011582172959298587
0.029960234033267082 0.10815907237409639 0.009741995806450687
0.030174390663025952 0.10688704859717307 0.006688768266996659
0.03695193119614536 -0.0556318170086324 0.026568614827211345
0.036647493390672296 -0.05114539420468811 0.027957840409137735
