# .PCD v0.7 - Point Cloud Data file format
VERSION 0.7
FIELDS x y z
SIZE 4 4 4
TYPE F F F
COUNT 1 1 1
WIDTH 772
HEIGHT 1
VIEWPOINT 0 0 0 1 0 0 0
POINTS 772
DATA ascii
0.05071777062369915 0.011983214156818245 0.0245884249626242
0.050758584768447315 0.012480407551852979 0.023401202370112617
0.05125719494904457 0.014465692006419062 0.013770139671074766
0.05126130189361717 0.015239822867832653 0.012787724403933942
0.05134078456136217 0.015474469373671917 0.011349966634356723
0.05144709643282545 0.015519959042331666 0.009746717680084782
0.05165806700429184 0.014822814475309198 0.007503558170412927
0.05584014336624947 -0.08595428040925335 0.04632873626596107
0.05584139224972475 -0.08506741618266311 0.04525315939542418
0.055842641189076954 -0.08418051228276141 0.044177534409501396
0.04736461439948361 -0.012488722642972572 0.08535738059721948
0.04736679668499205 -0.011745776344681436 0.08443937832337661
0.04740997141386983 -0.011343743326721167 0.08331544111834208
0.04728912621873212 -0.009578607604090017 0.08301664859556665
0.04709263368248782 -0.007190537162798216 0.08310525966351426
0.04704040980727299 -0.006001882658647206 0.08246863562442436
0.04693164520943821 -0.004348223809488017 0.08212227312216602
0.046715618011047635 -0.001814446984461593 0.08232898705490593
0.04656600031247115 0.00016638231720234042 0.08220285649239326
0.0464218998917474 0.0020971298027190888 0.08205401092307585
0.04627611518455566 0.004037039706543621 0.08191940072778497
0.046149881484749355 0.005812462566266996 0.08168882549794754
0.04605392775876022 0.007336819316643595 0.08130522970457035
0.045786672116098874 0.010252735695893245 0.08182162109770805
0.04565164005269362 0.012085697698307085 0.08165387641532051
0.045272615469384415 0.01589292748297122 0.0827773039918013
0.04518295797096513 0.017346062295851228 0.08238455346262802
0.0452625316418301 0.01742940887322908 0.08109679608606468
0.0453568604620645 0.01739637035125513 0.07972737383523973
0.045441656004658014 0.017443058882713025 0.07840531548208687
0.045550501356562335 0.017299378022628153 0.07695094813574035
0.04564937397839373 0.017239105653286735 0.07554612051525889
0.04577551828437898 0.01696392454888357 0.07399011025155755
0.04588838052365198 0.016798798346835342 0.0725013084922757
0.046002285027886246 0.01662899816834079 0.0710025107941697
0.04610641484179179 0.016540553906015276 0.06955274127451871
0.04622984217962468 0.01630237812320373 0.06799320751394178
0.046344835778048966 0.016134934577461513 0.06647533572135378
0.046461391006802286 0.015958849361952354 0.06494443981319226
0.04657754086090083 0.015789706259817238 0.06341132485643325
0.046693274844719974 0.0156275683105761 0.0618760724750283
0.046810964587802734 0.015453792999795546 0.06032547981329611
0.04692647685606817 0.015300863097418571 0.05878256500654938
0.047044966670212705 0.015128361150067993 0.057218505787487384
0.04716354724931042 0.014958959061394106 0.05564939672650199
0.04728247127563782 0.014790693342069505 0.054073804024989236
0.04741550028187174 0.014516628212525196 0.05241364114891378
0.0475249707373971 0.014429553097838721 0.05088247773309751
0.04764546696643842 0.014260660181035445 0.04928415173071221
0.04777075391263569 0.014058638235980636 0.04765375829869545
0.04789683276497968 0.013854539272381061 0.04601401308634423
0.048015926177440604 0.013708220806685434 0.044409734862800754
0.04814701794892154 0.013473637538852501 0.04273145178264731
0.04827202653427956 0.013289860700130551 0.04108347195907053
0.048403449855059934 0.013061071963886506 0.039393331545311105
0.048514572114074624 0.01299134747245001 0.03781682083772586
0.04867360586217833 0.012560533493193249 0.03595508470311848
0.04879700712610635 0.012405461855471311 0.03429690057605833
0.04893130854571072 0.012171744005130103 0.032569650200813205
0.04907227554841221 0.011891931193420413 0.03079778358501145
0.04919826316462417 0.011729696270646572 0.029109509300386915
0.049333671341039095 0.011500566264737166 0.02736026198269703
0.04946954687826228 0.011272276105003642 0.025603033764532657
0.049585061150769806 0.011201034871718252 0.023962736146195374
0.05444379205569885 -0.08595128363358007 0.046330494012401136
0.05444500969958759 -0.08506442500742634 0.04525492405457615
0.05444622739795525 -0.08417752670846518 0.04417930598198189
0.05444744515080529 -0.08329058873403261 0.04310363979139009
0.04612749276388552 -0.011274492380205614 0.08472226049956738
0.04615973199256551 -0.01078928059171469 0.08365016976779197
0.046145731043713924 -0.009909270639143652 0.0828158785706819
0.045912719775689496 -0.007168457412652152 0.0831187430138286
0.04580152594911963 -0.005468585909146284 0.082796168086568
0.045734773164214676 -0.004148598130862213 0.08224557824328316
0.045648272673922984 -0.0026639607994092263 0.08180125976500965
0.04548486858719343 -0.000533677649579678 0.08176549093066626
0.045323956286085196 0.0015702479861437468 0.08172296488314731
0.04519376626606796 0.003410813448375183 0.08152369893904854
0.04507767429544706 0.0051289012915978205 0.08125444385834085
0.04483582396717342 0.007895341262837197 0.08166216330482809
0.044634871990265404 0.010312300011697029 0.08185990206133165
0.04457520533589111 0.011545204011653987 0.08130455013767376
0.04415132243908587 0.01580541027071769 0.08272042205772343
0.04417009213193107 0.01637729761520812 0.08175136024538257
0.04424188455150534 0.01651054944423669 0.0804928478990671
0.04432186407469353 0.016578478614040826 0.07918677495845339
0.044429340518179185 0.016422158848257484 0.0777267568482728
0.044544674523463064 0.016204676282503494 0.0762192684978999
0.044649608366900864 0.016076467551501217 0.07476469620393322
0.04476785449769576 0.01584253235292099 0.07323220772576372
0.04487679830987825 0.015688637901406233 0.071746822234168
0.04498401715509996 0.015552425680135762 0.07026678672036735
0.04510750615858187 0.015287106765210168 0.06869139016541281
0.04521127263744598 0.015186319511385937 0.06722201975753461
0.04532624589380914 0.014997959930069027 0.06568534985882224
0.04544132065953763 0.014812567735642157 0.06414358865200853
0.04555527606160677 0.014640020516010988 0.06260366567809172
0.04567090611965844 0.014457715182485342 0.061049719779306955
0.0457876168103014 0.01427051851756983 0.05948505013167732
0.04590245228163906 0.014102240246417708 0.05792655880754444
0.046021220977768236 0.013906200697506366 0.05634090339742759
0.04614160543550844 0.013701143497090063 0.054741244750529716
0.046265510429843865 0.01347193397021651 0.05311644254667186
0.04636887447211642 0.013410542983826323 0.05160628592132338
0.04649730339186683 0.013153177426845741 0.049945741788902376
0.04661343544337994 0.012997659681502294 0.048352182163962976
0.04674207054760021 0.012746925043706447 0.04668057728809899
0.04686123421153258 0.012575304139426702 0.045059770760078055
0.04699137210790412 0.01232103882639174 0.04336935397037667
0.04712862112727116 0.012015082976709446 0.041631612195052015
0.047244133183733314 0.011884411231159353 0.040017939244912204
0.047351658168860916 0.011820159866569258 0.0384474546000515
0.04751552270974544 0.011318721200560433 0.03653498666303828
0.047644928467570125 0.011091679455720871 0.03482334087146782
0.047764862928053264 0.010942682995663977 0.03316376456723952
0.047894555247496536 0.010721788926744746 0.03144040273101173
0.04802617200408698 0.010490242394861737 0.029700257693022203
0.04817458042686884 0.010133060746164768 0.02785262594055682
0.048294461939953306 0.010001109724924129 0.026173546691875493
0.04844343387622644 0.009648898781149107 0.02431135923588218
0.04849637797595972 0.010040141044863504 0.02303410209672857
0.05304728909838573 -0.08594678848140958 0.04633313058961891
0.05304847549590453 -0.08505993825576813 0.04525757100069849
0.053049661946503394 -0.08417304835807221 0.04418196329793539
0.053050848450186434 -0.08328611878566433 0.043106307478097905
0.044905228768845624 -0.01092789386845433 0.08493030184267755
0.04487864567691652 -0.009935540166220835 0.08416557205313804
0.04490814376513922 -0.009434184059400441 0.08310433898168035
0.04486882144234218 -0.008331566626208375 0.08240847526256603
0.044624848814581446 -0.005448746338475419 0.0828083529270135
0.04449115351961761 -0.0035323068068612296 0.08262624996070533
0.04439562054035107 -0.0019513119397625567 0.08224396516171092
0.04429352386679164 -0.00031674348300386734 0.08190102159444643
0.04416991029467774 0.0015002251815164902 0.08167896878711386
0.04400402319394607 0.0036774383780375786 0.08169217481707453
0.04378734800952849 0.006286008092437012 0.08198974892300503
0.04364530325030556 0.008246407434170988 0.08188651854561035
0.04356925140516603 0.009636446503524132 0.08142554340365607
0.043163625100326466 0.013842768437668684 0.08278948850284037
0.04310154610623979 0.015102813147098604 0.08226376762616791
0.04315633209082711 0.015365163235771306 0.08108982020447669
0.043238941652717494 0.015392803214933415 0.07975817532564611
0.04332141592104371 0.015424385963834442 0.0784239585809785
0.04342407204095526 0.015287850107870371 0.07697281917532525
0.043545596222301884 0.014995323330295851 0.07541095797382816
0.043649892607545156 0.01485221753714322 0.07394186171527015
0.04376449347492525 0.014625900217831445 0.07240993646560906
0.04387019008951001 0.014478262594639635 0.07092422803508686
0.043984437285710325 0.014262513885952788 0.06938526765440556
0.04410033532320236 0.014036817761136466 0.06783220928375372
0.044201424521282874 0.013938696841159781 0.06635992225979637
0.04432332133969996 0.013670603551150518 0.06476308409928866
0.044437802931318215 0.01346830065067095 0.06320441467876803
0.04455251876919885 0.013267926688413423 0.06163976385125286
0.044667708241466306 0.013067510850649 0.06006771692362545
0.04478470290925127 0.012856071215350817 0.058480428186458766
0.04490243349665636 0.012642519353002424 0.056884087315342724
0.045020296378032544 0.01243186142766628 0.055282217786862986
0.04514000689220404 0.012210013145807108 0.05366463778998215
0.04525418736200524 0.012037548932504472 0.05207514189893864
0.045371178625191584 0.01184595279242917 0.050464258099811976
0.04549251563852961 0.011622836035288409 0.04882261962388562
0.04562290154381575 0.011330102479762905 0.0471216897027773
0.045733745419036714 0.011200659250089229 0.04553337793542972
0.04586399934953673 0.010917488015843135 0.043823126845050464
0.04599461508625046 0.010635794097032525 0.042105427201616585
0.046113549813393065 0.010452894389075429 0.040453626191756964
0.04623786527645531 0.010230636334481347 0.038764140149248894
0.046367125677295236 0.00997279922296107 0.0370393162684054
0.0464912516788884 0.009760557338566123 0.03534087192793778
0.046626779197605474 0.009461168957816402 0.033567041631644534
0.04675559272008418 0.009220042698126485 0.031829327882757386
0.04690432606694629 0.008824356117083654 0.029962652649268562
0.04700112533481777 0.00884714727899305 0.028413710027214878
0.047155980795757065 0.00841201132863445 0.02649780303295257
0.047322243682887774 0.007891685952876593 0.024504084837228324
0.04733182218403233 0.00861639489363153 0.02348982569539676
0.051650977942093466 -0.08594379180153694 0.046334888279867814
0.05165213310182166 -0.08505694717615137 0.045259335603439144
0.05165328831323262 -0.08417006287922119 0.044183734813781184
0.05165444357632942 -0.08328313890808037 0.043108085907667015
0.05165559889111537 -0.08239617526006493 0.04203238888186822
0.043633819415321816 -0.009361725620822436 0.08451198337035379
0.04357125305084373 -0.00804214124076752 0.08394955162918294
0.04360368978285515 -0.007575759448113173 0.08287001883834916
0.043579122637229045 -0.006598605620647291 0.08210214923135753
0.04336926215256303 -0.003968903321803274 0.08235657250130324
0.043181473981564356 -0.001543063995931293 0.08249757335135105
0.04304854503658419 0.0003886390507463755 0.0823417125809329
0.04291084995745939 0.0023580040299456817 0.08221792148987106
0.04277358022035086 0.004318818928053136 0.08209745247591546
0.042659801566847844 0.006067290177268758 0.08185076062695534
0.04257991033822914 0.007512957537603782 0.0814177942084282
0.04247418782482694 0.009183204443978854 0.08113425306372393
0.042066455336020915 0.013502687636944455 0.08256969102818493
0.04209252421924287 0.014004951504759278 0.08155021017971731
0.042160366905364906 0.01414262402825539 0.08029075768175475
0.04223438622366332 0.014228719034064252 0.0789930457273671
0.0423410237158088 0.014033128638347103 0.07750438432667439
0.0424486469183462 0.013832670353528809 0.07600560908572973
0.04256735229096416 0.013539758856290052 0.07443808392866069
0.04267613061870405 0.013336965532527334 0.07292344095745759
0.042782522298023866 0.013158584786129968 0.07141823873654984
0.04288250566776795 0.013039190420236935 0.06994620705998644
0.043004339824145636 0.012735124835329514 0.06834145784429224
0.043121806464200794 0.012472822825163044 0.06675745411534512
0.04322846948323962 0.012307250915672086 0.06523260587655177
0.04334565445901065 0.012055334609135715 0.06364077265309809
0.043461256329957815 0.01182101116147749 0.06205353368738836
0.04357759393583212 0.011584433226143664 0.06045710242341373
0.0436964457677497 0.011330510916567338 0.05884074698780356
0.04381476010892488 0.011085280817914434 0.05722271083216607
0.04393276172231587 0.010846810844277577 0.05560166753164497
0.0440548820816726 0.010577620578123614 0.053950734475493034
0.044177321067913805 0.010309985245430697 0.05229280380475537
0.04428769910299089 0.01014814950252646 0.05070352072901413
0.044398630083551424 0.009985503033699827 0.049106276042898966
0.04453439685601827 0.009618472489637764 0.04735161114667136
0.044643362983432446 0.009480406521689078 0.04575679682693318
0.04477257133508357 0.009177106797750911 0.04403207194460923
0.044891681480450835 0.008962439661745758 0.04236476325556099
0.04501004848713024 0.008758090322837586 0.040697156915060595
0.04514719043819367 0.008402063959687456 0.0389071742474858
0.04527553151414999 0.008123677156356757 0.03716676220350851
0.04540077883107515 0.007875313327248723 0.035440521621183996
0.04555019643755979 0.00743200203262584 0.0335563598289888
0.04565581367218009 0.007354282930002676 0.03194369768115113
0.04580120707085145 0.006953636107908945 0.03007366470465178
0.04593760630104068 0.006631734824412094 0.028255005189543825
0.04607153758964716 0.00633475099476094 0.02644649728610371
0.04621140345436953 0.005994001829232709 0.0245943279294199
0.046223295475848906 0.006699997589754814 0.023560946615789613
0.05025468463108071 -0.08594079515998537 0.04633664594763959
0.050255808553817186 -0.08505395613479044 0.04526110018361057
0.05025693252683823 -0.08416707743855201 0.044185506306970546
0.05025805655014714 -0.08328015906860703 0.0431098643144911
0.045186820679561174 -0.03542162124981496 0.07022825840170321
0.044476517049921845 -0.028049858977655218 0.07322997641862689
0.042445017984024634 -0.008515974875498933 0.08366185209962596
0.04226981028128101 -0.006145019815967712 0.08374371872128517
0.04229913848018831 -0.0056597773931574835 0.08267874508604653
0.042258226475031364 -0.004529312974612287 0.0820104179765225
0.04214556090067293 -0.002743536926906598 0.0817518263874949
0.04197180365602073 -0.0004036925710265149 0.08184669988646315
0.041828930917123495 0.0016483586215293444 0.08177204291462872
0.041710795561984 0.003470207374177414 0.08156122915502442
0.041601246382430096 0.005209859979703746 0.08130589075245595
0.04142681047893924 0.007533726933294016 0.0814310673300977
0.041054410745272336 0.011642153208964556 0.08271457464683543
0.04104819646239966 0.012431291467855987 0.08187723729756538
0.04111579663030294 0.012555115369704606 0.08060788616310313
0.041178336654386 0.01272685650843236 0.07936539940204265
0.04128512501684297 0.01250371903914732 0.07785923718421411
0.04139442952361139 0.012261858515490276 0.07633363438933133
0.04150442386509639 0.012017734929043566 0.07479928122670196
0.0416155548527988 0.011767399202330608 0.0732534694665809
0.04172307640917726 0.01155316748541435 0.07172452686884373
0.041831822526286394 0.01133189476372981 0.07018365458965592
0.04194930267670633 0.011037056481224383 0.06858551851368216
0.04207003247061024 0.010717655311798135 0.06696272954171434
0.042170645098849435 0.010580235763025636 0.0654568950778458
0.04228799216728364 0.01029891308919817 0.06384486011994644
0.04240313608318948 0.01004116000000943 0.06224129595495309
0.042522472171387216 0.009750718971288042 0.06060712127903434
0.04264410043595416 0.00944445919952358 0.0589537614089114
0.04276317085499149 0.009164904786275352 0.0573110211701186
0.04288571423331743 0.008859302084930853 0.05564169248085565
0.043011549405006004 0.008529414500214272 0.05394668013203524
0.04313185559655912 0.008252061487789508 0.05228080947484037
0.043251766236218785 0.007982434518013282 0.050612295208008196
0.04337162787309176 0.0077175136356310015 0.04893898560861626
0.043506230841017735 0.007329576216534239 0.04716765824139968
0.04362315300698899 0.007098810086979046 0.0455024232586872
0.043744354822607266 0.0068354157646406954 0.043805054928447495
0.04385228977403885 0.006690203234873626 0.04218699832297934
0.04396235600959781 0.006530592895958309 0.040550733026219976
0.0441036242232062 0.006108258037519687 0.038709793315690244
0.04422216745229746 0.00588477200923837 0.03700898168578476
0.04439015472117647 0.005244731474177755 0.03498410748127656
0.04455096690635442 0.0046716244288605435 0.03299853106472872
0.044666729146778 0.004486043596549083 0.03129869452609524
0.044788322937710456 0.004255280318905319 0.029555933390891465
0.04492109817672379 0.003934499380723988 0.02773490198461953
0.04506524820861657 0.0035226715451449064 0.025833618467123176
0.04513508014999541 0.003740505021615881 0.02441519602682246
0.045167093947616546 0.004277952375385585 0.023243441032404166
0.048858253060151076 -0.08593630020896043 0.04633928240687746
0.04885934573971105 -0.08504946958390508 0.04526374701128705
0.04886043846815732 -0.08416259928856246 0.04418816350401039
0.044104840716537835 -0.037881420882359296 0.07020331012451558
0.04340380307810867 -0.03039412044571227 0.07324595090264577
0.04269094725649778 -0.022820219838306677 0.07638710428833509
0.04196816115988142 -0.015178282950935151 0.07961667010987059
0.041087919472369665 -0.006071823906999674 0.08378841682059121
0.04097452163266964 -0.004245459596175893 0.08354737017064257
0.04093634986752592 -0.003132872094861905 0.08287297352044226
0.04087966254622688 -0.0018473684656238887 0.08230853618478273
0.040797319771998956 -0.0003228800615186489 0.08189718793030473
0.040677617564191894 0.0015489390458272578 0.08170957647819482
0.040508441026053776 0.003879421002359662 0.08181980443607537
0.04017860255957083 0.007704468619758376 0.08289113619279548
0.04005357892996037 0.00960794055987746 0.08275663106877784
0.04003984021215092 0.010471370191221296 0.08196213382136416
0.04010231684718772 0.010626549402597718 0.08071081496143648
0.04016646575281499 0.010768525211445001 0.07944668815305542
0.04026514220380066 0.010593498146516334 0.0779710173145979
0.04037496202488185 0.01031923068973195 0.07642341597307095
0.04048902716589934 0.010009886257237866 0.07484515650177787
0.040597809781986176 0.009753300659618436 0.07329418625972928
0.04070522806740936 0.009513229737256323 0.0717468216632241
0.04080657275189066 0.009332723813078592 0.07023213750653429
0.04091871301537362 0.00905727729688438 0.0686463348147639
0.041036206016172416 0.008737128289290741 0.06702244328379386
0.04115836333246044 0.008378838049360016 0.06536439383585291
0.041290947743897535 0.007930313821185475 0.06363590620474396
0.04140565765362406 0.0076487052286635104 0.06201358715998023
0.041531042903227164 0.007274726128932485 0.06031913897130686
0.041656735931325274 0.006902573577385052 0.05861726066327322
0.041776457287602625 0.006588846470267029 0.0569476810856428
0.04189847590047111 0.006258859221229651 0.05525826886309365
0.042042351365065414 0.005737212140107473 0.053424204286739774
0.0421508209293479 0.005537929210472914 0.05181028662263665
0.04227924721688235 0.005164273409567988 0.050063547146646625
0.042408811314344375 0.004785186866007873 0.0483038590631899
0.042546273299437574 0.004340564470149244 0.046487468475812255
0.04268379529697582 0.0039004581101686475 0.044664671556162105
0.04282220919976548 0.0034574974202012942 0.042830052802997454
0.04297697856251775 0.0028749507767187876 0.04088262295678019
0.043082075778754496 0.0027365448680976012 0.03925371575339259
0.04334167580225042 0.0012410407352637653 0.03660500425896995
0.043454245917826144 0.0010475041224379256 0.034914248080667565
0.04360454760845044 0.000527124597943629 0.03296898676714305
0.04372411435821661 0.0002813051968922342 0.031221116733031018
0.043917623547256444 -0.0006060223323674507 0.028975679869230497
0.044089323841212516 -0.0012961382247262954 0.02686746041860255
0.044234459950017346 -0.0017488804530229607 0.024929760806178092
0.04416980876789063 -0.00037532218367986037 0.024396315157025394
0.04415361169472015 0.0005761659533908281 0.023538834199778425
0.04746199990074427 -0.08593330366320617 0.046341040018459956
0.0474630613451083 -0.08504647863816112 0.045265511535048986
0.043040841286983156 -0.04062198315302096 0.07002312746360151
0.04232069301765348 -0.03273358868375398 0.07327547734451889
0.041634396359710064 -0.025204339580988888 0.07636104991276557
0.040989900074338975 -0.01811010342141456 0.0792305968197953
0.04047117547665787 -0.012268675168595311 0.08138330915870295
0.04049942180575075 -0.01177890126501785 0.08030331564898452
0.03977536471357139 -0.003968596798435753 0.0837174097777181
0.03963823876475137 -0.0018850625518025965 0.08364372226000336
0.03951897424544767 2.0181159157139916e-05 0.08346867867560531
0.039397499387664375 0.00194229527495543 0.08331236651176324
0.039266386930172086 0.003952855580639569 0.08321998585265453
0.03914470392613695 0.005867606796658209 0.08307610570248217
0.0390699590584887 0.00732640138604862 0.08265088641363824
0.03908291075770544 0.007940740256726253 0.08169117667282974
0.03916575791043716 0.007886099128495916 0.08030062733135196
0.039211763517008294 0.00818676818746833 0.07913396062919792
0.03932366021094401 0.00786055290663007 0.07755664543155211
0.039434312972980126 0.007550412576044274 0.07598202936804077
0.0395513811867368 0.007183493073042613 0.07436235730711613
0.039668193167772606 0.006823430051828616 0.07273901614240061
0.0397832465207963 0.006484428738657677 0.07112147459952645
0.03988772009338117 0.006249712407496721 0.0695655432109174
0.04002787475875223 0.005682583718284284 0.0677788303538917
0.040170104059921004 0.005101236223459482 0.06597261038684099
0.0403073314950857 0.004572229596442878 0.06419189834288352
0.04043658191799705 0.004123157858439086 0.06245608379297085
0.04056599924426466 0.0036774124449034384 0.060713372498493956
0.040721906570883086 0.0029893454943141218 0.05879400587422051
0.04094030539457204 0.0017251601521481308 0.05646322276643506
0.04115706805218491 0.00048444015425003206 0.054133223013654475
0.04142506062645557 -0.0012232756622239105 0.05145963129266795
0.045944159430271 -0.03271777947774507 0.009590419715929832
0.045446440096406575 -0.027354826731055437 0.011944284163674768
0.044959797126442956 -0.022110502279610034 0.014244906941992541
0.044482799706846425 -0.016971311909812214 0.016501346400305317
0.04401620862220245 -0.011943535219384682 0.01870771889530598
0.04606576458547605 -0.08593030715577099 0.04634279760756649
0.04606679479544226 -0.08504348773066478 0.04526727603624664
0.0412379772552846 -0.035176646864895855 0.07325413523670446
0.04057406419658318 -0.027653518901946117 0.076307204730555
0.039957084775975725 -0.0206303852880122 0.0791065069742253
0.039296798974911985 -0.013194643355533442 0.08219805510075989
0.03908745970964666 -0.010322584246892474 0.08256492555895945
0.039170288605516905 -0.010393132788344306 0.08114955330920115
0.03927474763480246 -0.010677280063962735 0.07959716886274407
0.039374495695512005 -0.010910225871015367 0.07806904730988967
0.03948718445510214 -0.011268502258648172 0.07645602407877736
0.03840600063212948 0.00027550332763148777 0.08227103078135997
0.03829328668611676 0.0021446793839899336 0.08208388733596836
0.038250821430692285 0.0033121169337744227 0.08146133465364616
0.03828027285304052 0.003765395615586642 0.08038797924690808
0.0383990449850619 0.0033366288476436856 0.0787488362012295
0.04012756346926765 -0.012973140318514154 0.06689477469882421
0.04023528886448292 -0.013252499377363114 0.06527755295220261
0.04034506178969078 -0.013547787892337293 0.06364224884890873
0.04045815983989445 -0.013871419384550887 0.06198052800664705
0.040577260360964616 -0.014249412082531387 0.060274929879671146
0.040689943261640965 -0.014560058353223437 0.0586052492699527
0.04079978982901426 -0.014838656257515515 0.05694872090184944
0.04091510702445414 -0.015166215355300161 0.055251507689154156
0.041037150706271695 -0.015554613591780841 0.05350503047280314
0.04116509534717455 -0.01599545598531421 0.05171422898336997
0.04129667889372285 -0.016466515463778142 0.049893563871630575
0.04143255888651193 -0.01697392737821357 0.04803844353814607
0.04157544928280132 -0.017543588733468063 0.04613060019341342
0.041725727650746704 -0.018178720263817172 0.04416703706023167
0.041870164495459106 -0.018751943882513944 0.04223544375549321
0.04200250803897393 -0.019203732478560775 0.04037805426758767
0.04213409012137068 -0.019643088302093048 0.03851963266385333
0.04228968200144147 -0.020306306102817306 0.03649335115152341
0.044909409326586165 -0.036543728909761486 0.008419545435006448
0.04441866261694999 -0.031093728937915843 0.010808451251675733
0.04393906082645477 -0.02576653397937012 0.013141954475022921
0.04347036051275105 -0.0205592326474337 0.015420992473692663
0.04301091241042153 -0.015455908168865717 0.017656452948420276
0.04256182858380826 -0.010466301032385383 0.019839812512746302
0.0446694043959388 -0.0859258124058786 0.04634543394883206
0.0401666403425196 -0.03784812751369038 0.0731092845529257
0.039503181844496096 -0.03010283979470263 0.07626469495811
0.03891471844384015 -0.02316699912818576 0.07898470828488921
0.03820083796708934 -0.014948224749404715 0.08251715052185046
0.03773369086688489 -0.009323601995127773 0.08453499887540858
0.03774143218718939 -0.008645978661928178 0.08358291739570373
0.037833143773389984 -0.008837772764127727 0.08209935425964993
0.0379432110973355 -0.009215634670449946 0.08049486091855959
0.038058064186634 -0.009638451378798651 0.07885459875232637
0.038166215955657924 -0.009987648352649148 0.07725170471852791
0.03826011087179037 -0.01018597949011657 0.07573517222873441
0.03836783624027634 -0.010522399375710034 0.07412501136979768
0.0384697119468835 -0.01079460817953154 0.0725475321122325
0.038572981444253716 -0.011076964524585675 0.07095612599914508
0.03867744884807316 -0.011367387010519647 0.06935196941330019
0.03878452776148997 -0.01168018939613874 0.06772573073989296
0.03888798231249155 -0.011951878392566062 0.06611815704937946
0.03899242523628201 -0.012229429945342707 0.06449911847059042
0.039098414710826104 -0.012518431318813694 0.0628648532064926
0.03920630123454622 -0.012822328103727465 0.06121292421327362
0.039319981461936944 -0.01318027006442779 0.059517243012463084
0.039438438636494585 -0.013581683287061164 0.05778418959367243
0.0395494430500416 -0.013903540316045293 0.05609545791151571
0.039661411627875905 -0.014230594996122559 0.05439492087762193
0.03978012705713332 -0.014620593018048134 0.05264344205698068
0.039904566029272635 -0.01506291936215437 0.05084747476906076
0.0400334538440781 -0.015544538415891374 0.049015280731067645
0.04016744629225362 -0.01607169785751128 0.04714206289620215
0.04030570809756826 -0.0166358077598322 0.045233177682555414
0.04044808426542847 -0.01723507708570665 0.043289384157447985
0.040588641674471765 -0.017810665438552198 0.04135132254370122
0.040715945612996275 -0.018249988767704062 0.03949829123985821
0.040871273825385836 -0.018959825253147433 0.037444469065919805
0.04116417110790028 -0.021013692971605047 0.034424169519610415
0.043377196912442205 -0.03489314378566455 0.009650795568180326
0.042905037856008105 -0.029482317436670347 0.012017003558050965
0.042443948915015295 -0.02419666932399489 0.014325728869969523
0.04199228661724571 -0.019019797449503495 0.016588105801847886
0.04155062965087792 -0.013956662592981228 0.018799243041618674
0.0411601709838609 -0.0093993958327106 0.02065744631269467
0.03912759796626646 -0.04099750371511174 0.07269687540584696
0.038448498082719315 -0.03284097719890133 0.07606315806350186
0.037851080330364474 -0.02559440156301812 0.07893979126904421
0.0373077744760385 -0.018955636655351882 0.08149800111981784
0.03667924503307899 -0.011422917032550162 0.08463317101528672
0.036347330538108916 -0.007099878712411967 0.08587745840968924
0.03639616689643386 -0.006869370419449461 0.08466162827257437
0.036497479677109534 -0.007197898588853169 0.08310076487833981
0.03661835655822035 -0.007730992967325212 0.0814066765110241
0.036730969865346366 -0.00817106567641912 0.07976097558956968
0.03683596097088491 -0.008525448211908482 0.07816003963917353
0.03694094947279998 -0.00887544913299737 0.0765539320504979
0.03704390374379891 -0.009199557698991057 0.0749561685721308
0.03714254372691674 -0.009473806446536281 0.07338212460396698
0.03724457788008545 -0.009779761353270522 0.0717804579047909
0.03734284943131625 -0.010041880454771723 0.07019905838047724
0.03744319356066263 -0.010321696814072967 0.06859880920962436
0.037544910997329116 -0.0106117501127167 0.06698429509623005
0.037648856950507986 -0.01092090349586744 0.06534959808908453
0.03775117027508184 -0.011208696898503123 0.0637209074354328
0.03785573401685169 -0.01151570150919351 0.062071744274200424
0.037960346647894536 -0.011818878366178509 0.06041707722661316
0.0380682137968262 -0.012151500987366892 0.05873478483320932
0.0381817539375121 -0.01253842214660289 0.05700787934918439
0.03829933038329339 -0.012962366931083213 0.05524731373173186
0.03841185865213496 -0.01332934639203065 0.05351614230435359
0.03852768021803903 -0.013725572761850768 0.05175636123462207
0.038648833795357905 -0.014171793028550317 0.04995340799356268
0.03877607961836321 -0.01467547267049768 0.04810152920539418
0.03890785410395905 -0.01522022863200334 0.04621133193125759
0.039044241190848886 -0.015806636622800685 0.04428188470184019
0.03917614792364049 -0.016341715670585344 0.04237760639123811
0.039311230774694936 -0.016903636183545567 0.040444109878950085
0.03947530129462899 -0.017754254429091565 0.038296051929939956
0.04232063406175923 -0.03874403459374276 0.00847860791625532
0.04185686344309391 -0.03325420821795855 0.010873355741798041
0.04140314709474297 -0.027883398002499282 0.013216186863111212
0.0409597809000348 -0.02263390887754535 0.015504146254662898
0.040525930934522406 -0.017496855314595328 0.017742715015974297
0.040101294122944865 -0.012468656339384876 0.019933466035222613
0.0381369940690931 -0.044855767635206156 0.07188700613372276
0.03737756776748403 -0.0355345311560088 0.07590102905076904
0.03678747583844004 -0.02813842691691376 0.07883733855521358
0.036290729601042446 -0.021808900505033646 0.08118593049406056
0.03571715917861843 -0.014645316863517999 0.0840703505452268
0.035109447544454817 -0.007126922685258941 0.08721178620467157
0.03502304550921618 -0.005416380350022343 0.08689378471132231
0.035070086883672615 -0.005186693302832723 0.0856833065860339
0.035167002833804126 -0.005506008756182679 0.08413393953617168
0.03529018632185763 -0.006110814190194713 0.08240173428090994
0.03540103627309665 -0.0065746075216671085 0.08074707807218509
0.035511141607016516 -0.007025471932115834 0.07909184151359064
0.03561922350394565 -0.007449436382522656 0.07744484001835367
0.0357202733798815 -0.007791832270938437 0.07584065924310857
0.035824933394660884 -0.008169318920449808 0.07420640842199533
0.035917605828656704 -0.008411678810288314 0.07264983142263393
0.036017388834712526 -0.00872740681237888 0.07103909656469698
0.03611444381442571 -0.009009245474057848 0.06944229781248756
0.03621292368930413 -0.009302362147603382 0.06783056537738108
0.03631143914081618 -0.009591643385487292 0.06621355359412517
0.03641190813514865 -0.009897783609218724 0.06457773218324059
0.03651344321671476 -0.010211099759251219 0.06292923344409307
0.03661288689680798 -0.010497586260971303 0.06129040695741239
0.03671760454446032 -0.010836383559404417 0.05960890023391857
0.03682178502828578 -0.011164942970676273 0.0579258891384285
0.036933321654761084 -0.011567629808256596 0.056184734988838414
0.03705234296939622 -0.012045341834096945 0.054383947937047095
0.037164650600181474 -0.01244651331106117 0.05262563463530545
0.03727732306777319 -0.012846746535843057 0.05085893807453462
0.037396228079882396 -0.01330820478820266 0.049041096463139366
0.037521478576350326 -0.013831681979924293 0.04717080694883341
0.03764908481933636 -0.01437465744025418 0.045276843997720695
0.03777658206453888 -0.014911016494077667 0.04337716641003064
0.037916678420633045 -0.01557435919289285 0.04137793283862751
0.03811846987161697 -0.01687894161457898 0.038914349423690264
0.04124802043354695 -0.04264073744405239 0.007296540341250379
0.04079369937950915 -0.0370782754088505 0.009714461498853522
0.04034840795287582 -0.031628077237449814 0.012086364363386837
0.03991297595086822 -0.026298072346274348 0.01440517488809212
0.03948731762512326 -0.021086749446150133 0.01667079951576339
0.0390706424904626 -0.015985407501483084 0.018888609880716334
0.03866266914131804 -0.010990601271826272 0.021060103802560737
0.04015176063678145 -0.025305679815359472 0.008467503050670011
0.04019078857644021 -0.024841441426383837 0.007137070741750184
0.03632233759650963 -0.038548594435637185 0.07556488266370573
0.03571841658318717 -0.030747563282493617 0.07870869107530074
0.03524105886576817 -0.02443663375470123 0.08102114134669716
0.034737963520822306 -0.017849856556819754 0.08353504194691685
0.034178446668447666 -0.010635535120328776 0.08646334231254732
0.03369543855064928 -0.004325526623087106 0.08889328807395375
0.03373464318122207 -0.004028474579734653 0.08773166206690275
0.03380141972710021 -0.004045416483959119 0.08637626056809239
0.03386927596521944 -0.004071738030302641 0.08500979572560843
0.03396879490057601 -0.004456224203975012 0.0834179262234038
0.03407613883711916 -0.004925384128069532 0.08176577265791518
0.03418370222377662 -0.005392278996680988 0.08010639904336833
0.034300951732228094 -0.005964249952177758 0.07837271700933032
0.03440087912088018 -0.006334967600758967 0.07675602468303908
0.03450336343651103 -0.00673013865286104 0.0751158023200264
0.034601167891625186 -0.00706800631463439 0.07350369312225627
0.03470428050742703 -0.007461264275182122 0.07184824788297373
0.03479491393297545 -0.007709815384500385 0.0702774178947595
0.03489265092990616 -0.008033961256351696 0.06865034531248759
0.034987460146138655 -0.008321026525462294 0.06703939379340984
0.03508395170844117 -0.008622669034287878 0.06541115856995461
0.03517863269958074 -0.008899862662518854 0.06379108389660604
0.035276575937728864 -0.009209131140791194 0.06214203254461215
0.03537694271743438 -0.009540950789242997 0.06046993188910743
0.035478478292314396 -0.00988126488077773 0.05878387743502489
0.03558099804960865 -0.010227955311100656 0.057085147929730407
0.035686524137238024 -0.01060326108589299 0.05535859072638766
0.035799554883544166 -0.011056499505062822 0.05357031474267865
0.03592032904039333 -0.011589794413057908 0.05171793281035597
0.036030339367449815 -0.011999725249949467 0.049940265200457246
0.03614999653145775 -0.012510329388357389 0.04808385139245902
0.03626723272080296 -0.012989193876548288 0.04623948358871416
0.036386381175604825 -0.013483699394726323 0.04437436353542762
0.03653262977766713 -0.014267635050504823 0.04229591232355162
0.03686811868539611 -0.01709886663776855 0.03875900038459962
0.03971511022287284 -0.04095427128584911 0.008540985907622645
0.03927877845813301 -0.03542562224136858 0.010940591515934517
0.038851691783987057 -0.0300146013695598 0.01328993293316083
0.03843437573719671 -0.024726169305944512 0.015584096003859904
0.03802604353024368 -0.019551346807415493 0.01782858743291854
0.03762629646205325 -0.01448532437025185 0.020025888681778348
0.03724274672633193 -0.009607782272112508 0.02211414850762805
0.038798512215533 -0.025149385641725974 0.00858728077899068
0.03883621033271597 -0.0246851732588107 0.0072574745906505145
0.03887398177909066 -0.024220057904491554 0.005925081705048851
0.03891206577284961 -0.023756535438673898 0.0045881486991089515
0.03528204188891703 -0.04190936681690943 0.0750427090472448
0.03464997002160266 -0.03350134734543547 0.07850806356226572
0.03416916586678271 -0.02693724706687467 0.08094352541696234
0.033628520710531656 -0.019678627984853314 0.08382803674986028
0.03321590513719922 -0.013975042794115211 0.0858341751485674
0.032414051941741046 -0.0036471650693137847 0.09063392138098847
0.032392766448962225 -0.0026496190496341776 0.08989923001222583
0.032455328989695865 -0.0026494283930376117 0.08856419090049217
0.03252686616123077 -0.002752806064299118 0.08716110041843048
0.03260610468355351 -0.0029440618744276392 0.08569842594135263
0.032682586619373545 -0.0030991125167629807 0.08425141729434865
0.03276390276763545 -0.0033076533408332165 0.08276501484769341
0.032868745814187146 -0.0037893336453678206 0.08110216643972762
0.03298475306868615 -0.004397328366364639 0.07935165840711136
0.03308287322434566 -0.004790316269933148 0.07772654752393757
0.03318598947584645 -0.005237250916662384 0.07605913306466239
0.03328658026813277 -0.005649962547184473 0.07440481542680047
0.03338450264082771 -0.006026959090209227 0.07276486657737155
0.033480253791670064 -0.006374207036974999 0.07113578908301693
0.03358070328950349 -0.0067715955530634475 0.06946622464631119
0.03367693587432937 -0.007115520402751763 0.06782291513006627
0.03376477282373671 -0.007357958665983044 0.06623778467349761
0.033855036555745864 -0.007624366181402664 0.06462944274418919
0.03394926970550806 -0.007932340549137551 0.06298594827015663
0.034044123642029765 -0.008243122985372553 0.06133255544401439
0.03414227220826299 -0.008587339507018787 0.05964871483838424
0.03424108417070388 -0.008934643573910717 0.05795439984872469
0.03434124093145364 -0.009292773841580948 0.05624429491018745
0.03444334293421488 -0.009668483383787951 0.054513637184694375
0.03455151778101124 -0.010108602481926465 0.052730171885517596
0.034668723343519545 -0.010646299943134041 0.05087032003477587
0.03478840847276029 -0.011206715008302448 0.048984638869333574
0.034894484712854085 -0.011607728933021755 0.04719934488179678
0.0350122288904233 -0.012135560023693537 0.04531624303183612
0.03517127170996045 -0.01312314458735614 0.04309992194099904
0.03862029635762319 -0.04487783783650273 0.007356602641306109
0.03819394104550604 -0.039277160477022455 0.00977852814934227
0.03777584671646246 -0.03378720808384461 0.01215615738213821
0.03736680669830609 -0.028416146888705585 0.014482296334360989
0.0369670885453135 -0.023166293163210783 0.016753996993596088
0.03657583155905459 -0.01802756745959605 0.01897761067464604
0.03619287697287712 -0.012997649845853054 0.021153759973945696
0.03740999954896834 -0.025456497401647626 0.010033570511757794
0.037446413976605954 -0.024994459993976315 0.008706009723433605
0.03748278451850633 -0.024530273504168087 0.007376824084888822
0.03751934084934265 -0.024066432946068084 0.00604408678637558
0.037555853261637094 -0.02360043845032428 0.004709719550973102
0.037592436808251126 -0.023133536093325635 0.003372752670598944
0.03425890221465597 -0.04568423820856704 0.07429908648290512
0.03358694175666221 -0.036475916342369574 0.07819271333935701
0.03309665290003804 -0.02956432525219549 0.0808038434357235
0.03267930064431627 -0.02358357717388815 0.08291052664415527
0.03221435349986479 -0.01703164438622118 0.08538957462550054
0.031109356096860278 -0.0025686323356085006 0.0926022053367695
0.0310918913218953 -0.0016119598652047373 0.09184850853893717
0.031125936886209994 -0.0012921204462920666 0.09071405107783362
0.031192272652152783 -0.0013685804642696864 0.08933743754580115
0.031270989720548203 -0.001594165203219644 0.08786459739938979
0.03134227546962151 -0.0017247776906492152 0.0864429977938446
0.031415978459741895 -0.0018816116336894395 0.08499916424302267
0.03149095358765687 -0.0020504920341536392 0.08354153999577138
0.03157668038001512 -0.00234701829504802 0.08199814870725702
0.03167401219293539 -0.0027808167579395082 0.08036158139481972
0.03178093348455064 -0.003326556428820293 0.07864624528066277
0.03188168446899228 -0.003792342049370012 0.07697214676762074
0.031971287661616714 -0.004118341966936057 0.07537811222511004
0.03207019930468688 -0.004552569914697158 0.07370710166921735
0.03216981259380973 -0.004990551121777598 0.07202503956606632
0.03226122143912534 -0.0053250277512484345 0.07040115559245802
0.03235519217998089 -0.005685930074610768 0.06875208047212172
0.032456140075523936 -0.006126013905486394 0.06704299488160426
0.03253993789921451 -0.006356070814243275 0.06546306844059363
0.03263129881626105 -0.006672458875988885 0.06381868776859428
0.03272117732343984 -0.0069668287324798905 0.0621808663548899
0.032814107891847584 -0.007293222584324632 0.0605136802692669
0.032909495702674554 -0.0076443614006546645 0.058821615557436646
0.033006363177141916 -0.008008488190535401 0.057112290520628606
0.033104359972571856 -0.008381355064216944 0.055388394341836567
0.033200230473515786 -0.00872446671060062 0.05367608327620499
0.033305870659879146 -0.009178058471577266 0.05187927491569949
0.03341947377875456 -0.009720199823908815 0.05001180937949945
0.03353023253822333 -0.010223573207299275 0.04816107576755552
0.03365017274051746 -0.010829135105850596 0.046228978667822995
0.033855488895693626 -0.012426217582276966 0.043589516277519114
0.037093219143810106 -0.04317983121069202 0.008602774997172602
0.03585398804729362 -0.028087472550622328 0.01803541288398064
0.03586270792746416 -0.02733367585267349 0.016944136682026156
0.03586706942219024 -0.0265296973233744 0.015889488982330224
0.03551098503324523 -0.02161830641434126 0.01791498098456029
0.03513655657164222 -0.016515279914592285 0.020117968391050955
0.03477035161217043 -0.011523394890510297 0.022271457302492248
0.036060144240663033 -0.02530041649232534 0.010152542239572238
0.03609523130936132 -0.024838403933135633 0.008825604971442969
0.036130276065959886 -0.02437424364086782 0.007497044321527202
0.03616549981285531 -0.02391042872039112 0.006164934957974266
0.036200681215901545 -0.023444461217199397 0.00483119713553698
0.03623593113384715 -0.022977586253908 0.003494861892068546
0.03255207042319069 -0.0399926360556106 0.07757957046015082
0.032026478039294266 -0.032370781476620036 0.08057263611300636
0.031597893229746515 -0.026030732612999874 0.08286437311804065
0.031175578977930548 -0.01979289604061346 0.08513384457584547
0.030764737780794253 -0.013723898706295312 0.08734091656864912
0.029968617330012808 -0.002716133474229554 0.0925146851242063
0.02996577130730043 -0.001938670286890487 0.09165353157070066
0.029966482683724656 -0.0012069606164841207 0.09076516722633765
0.02999520552436235 -0.0008336848826758225 0.08966035352203297
0.030024935761889946 -0.00047185592529674913 0.08854603477749479
0.030089673518517768 -0.0005548252289812039 0.0871574445863961
0.030161016066785395 -0.0007186267328377349 0.08571342936266396
0.03023446798079388 -0.0009056861351957601 0.0842486653042668
0.03030932979874125 -0.0011069822790962802 0.08276847282077501
0.030392529987438025 -0.0014100480336795007 0.08121797540600775
0.030481176551175864 -0.0017777559136490928 0.07961937510234021
0.03057593703827423 -0.00221811271481015 0.07796687590063728
0.030684461459545925 -0.002826861770318101 0.07619880735795392
0.03075957200907897 -0.0030109006235069513 0.0746923333333287
0.03086496092226446 -0.0035704706301026845 0.07293769945947226
0.030957232568178516 -0.003960856506564581 0.07128283283964604
0.0310473419335199 -0.004319703742930503 0.06964006224944796
0.03113814811061499 -0.00468277159228514 0.06798631106385855
0.03122785586609856 -0.005027700102811228 0.06633618048004014
0.031323608895998764 -0.005443164488218577 0.064631210099304
0.031401885081380754 -0.005637584401823881 0.06306437144160304
0.031500194852236686 -0.006075593252383493 0.061327522717462
0.03158857774773696 -0.006386367604525267 0.059667129822296994
0.03167940150381132 -0.0067228012183152 0.0579812332256015
0.03177359270122513 -0.007096089670713068 0.05626188541822691
0.031871296258229896 -0.007507758938076203 0.05450757522712435
0.03196474478103939 -0.007862564086253243 0.0527832641553459
0.032057385845617084 -0.008202894530707827 0.05106025561489347
0.0321713254186475 -0.008798042376312376 0.049151554656170326
0.03230241978680516 -0.009596063437449787 0.047090465955048455
0.0343034672899984 -0.030525400779024547 0.02605536653213375
0.03557776790501715 -0.04148992924853029 0.009842999314844225
0.03518709577616048 -0.035958537532588375 0.012227344325420553
0.03449366751333376 -0.026848964528755792 0.01730375188423039
0.03443166823322447 -0.02526101904474687 0.016835856609452138
0.034065937823225624 -0.02008207364376302 0.019067149537901285
0.03370809530852357 -0.015014354660127183 0.021249758242346817
0.03337170591440777 -0.010217124314882697 0.023261798315728555
0.0347114261726866 -0.02514570203706512 0.010270472396765706
0.03474508183404262 -0.024682467201734504 0.008945108770047339
0.03477890930198983 -0.024219580013688402 0.0076162118807242
0.03481269601559272 -0.023754544016655776 0.006285690542285449
0.03484654843875828 -0.023288603601540725 0.004952581560089098
0.034914558493417285 -0.022355244886609782 0.0022775895940866375
0.031486930814888896 -0.043327628670769947 0.07708880495476034
0.030959571414916714 -0.03539089196071171 0.08023189004011341
0.030547517515153645 -0.029036640706310735 0.08250558054804435
0.030144374401957556 -0.022823547806631372 0.08473456591663467
0.029760488179166586 -0.016889953509732103 0.0868364842883079
0.028864180129967235 -0.004103517154596448 0.09301627841700255
0.02885907050314246 -0.00329297783819954 0.0921724127358931
0.028857316827818592 -0.002527538594973011 0.09130210178614787
0.028856554391138094 -0.0017754075249685197 0.0904239643715283
0.02885937531185139 -0.0010710069820607515 0.08951708247440579
0.02886791780549887 -0.0004424633511304621 0.0885638812535533
0.028897550746532673 -9.309114284722364e-05 0.08743940859026839
0.028924333725478427 0.0002955155298308698 0.08633628048733083
0.02898204720359572 0.00027702289462461227 0.08497920266916889
0.029053895490475476 7.519336079730987e-05 0.08350285343011932
0.02912734360777257 -0.0001439870502761842 0.08200895278308451
0.029206317353889604 -0.00043193728240259466 0.08046496899527861
0.02929011828146276 -0.0007790790667269731 0.07887617715029183
0.02937953713078085 -0.0011953811373663359 0.0772355620796222
0.029471570983315074 -0.0016412160585282942 0.07556765505220661
0.029567384406513044 -0.0021315521185617525 0.07386246620410405
0.029653675709266213 -0.0024931680842105175 0.07223141424783319
0.02974427858101353 -0.0029062887390990944 0.07055871440408756
0.02983429590970482 -0.003307168040173447 0.068885417945033
0.029922482383172782 -0.003679757428820596 0.06722215678547111
0.030010696997422502 -0.00404817496308546 0.0655532513445935
0.030103000288517576 -0.004464685784764 0.06384395867088927
0.030190781932819415 -0.00481836361885718 0.06216783332159376
0.030276391283142218 -0.005139677351830962 0.060505046826331954
0.03036535739290355 -0.005499538163433848 0.058807986187000394
0.030451876184114334 -0.005823573833438678 0.057126711651283135
0.03054247594071559 -0.006195166095216753 0.05540459454490704
0.030636881486808643 -0.006610500546783027 0.05364366461294151
0.030730661972964347 -0.00701304710135392 0.051882431011823604
0.03082127819467108 -0.007370691567270438 0.050143298090514044
0.030968873629309373 -0.008443928843397785 0.04789540644389162
0.03297165746554394 -0.030369358260712243 0.026166805649545655
0.03407407421706096 -0.03981073726154205 0.01107536354821348
0.03312986717384698 -0.02724204977932937 0.018659251570035396
