# .PCD v0.7 - Point Cloud Data file format
VERSION 0.7
FIELDS x y z
SIZE 4 4 4
TYPE F F F
COUNT 1 1 1
WIDTH 779
HEIGHT 1
VIEWPOINT 0 0 0 1 0 0 0
POINTS 779
DATA ascii
0.07827897122692207 -0.034809239775320744 0.013075409784532643
0.07843937558933796 -0.034796126100326175 0.011407622269762496
0.07860604642311216 -0.034812766829170116 0.009710750269639468
0.07876828509128499 -0.03480220298138248 0.008027108239001768
0.0789326699973 -0.03479940397662101 0.006330613822072895
0.07078076024456843 0.009136271313549493 0.03793445248167354
0.07050191792303889 0.011390542710725982 0.038119980229938955
0.07040613242733751 0.012675728418577559 0.037574941482748425
0.0704206107841525 0.013380009376227853 0.036586484867654756
0.07049505326560392 0.013770520470960113 0.03535433656985465
0.07062649442633939 0.013864755439632392 0.033888192330133404
0.07077601534735624 0.01386760316085206 0.03234473837240104
0.07093252373532104 0.013837397141925056 0.030768705699509014
0.0710871333277748 0.013820521819280063 0.02919634363460094
0.07125083150831181 0.013759971226952383 0.027582419637941558
0.07141629167500797 0.013693936936048257 0.025956882469333142
0.07158171328720293 0.01363176903926444 0.024327134617829427
0.07174424665911178 0.01358814019289134 0.022705041540462545
0.07191180502548519 0.0135222943069353 0.021057668457283296
0.07208137806907713 0.013449832807127249 0.019397428458433397
0.0722507227269421 0.013382298344457089 0.01773366900539758
0.07242769560107203 0.01327957546834907 0.0160332751486712
0.07260616165306098 0.013173169103154192 0.014321891428036915
0.07280495706795034 0.012967387903993433 0.012519546405141857
0.07999881353730412 -0.088468612872739 0.04485402373869252
0.07966154175330475 -0.08558248651848949 0.04494930218503407
0.07931926948801418 -0.08267460830582662 0.04507106612645123
0.0789894450648384 -0.07984739265824375 0.04515849837963537
0.07866086146048192 -0.07703487291363265 0.045250439935564546
0.07833105801024731 -0.07422264336764578 0.04535551213376343
0.07801085023419074 -0.07147375714600518 0.04543550497741794
0.07769421927527226 -0.06875289127714579 0.04551140378085611
0.07737894607339357 -0.06604704642779385 0.04559097375577875
0.07707242230501686 -0.06339899093952195 0.0456477145804684
0.07676145536290974 -0.060732162994218075 0.045728650661333636
0.07647035974550466 -0.058186999640651216 0.04574631636897564
0.07618076446343987 -0.055657041161421894 0.04576637804245148
0.07590075602542654 -0.053188710936333206 0.04575940896419339
0.07561820601662399 -0.05071211794784475 0.04576923005323802
0.07535393672999445 -0.04834654677534578 0.04571976776538994
0.07512118081976507 -0.04616698094751298 0.04556169704139795
0.07487905008350138 -0.043939209304181215 0.04544443123209324
0.07460895903711827 -0.04155778393242776 0.04543709054663203
0.07435656875224853 -0.03928298091160598 0.045371301775324446
0.07413875157264056 -0.037209836914933625 0.04518349191727106
0.07408559842968993 -0.036073094275983375 0.04438585397367251
0.07426454875007872 -0.036247920146580626 0.0427186850415745
0.07441566986329698 -0.03626191047421046 0.04115150822668845
0.07456606766812868 -0.036268425209273814 0.03958300309335333
0.07474241410782223 -0.03641716634301129 0.03791203795913195
0.07493176934777851 -0.03663478621189009 0.03618681848847183
0.07487297110368558 -0.03546114532636324 0.035404371307394045
0.07499336964610127 -0.03528838410508656 0.033936625467302195
0.07513024495550537 -0.03520462845586453 0.032402264941542636
0.07527399087760163 -0.03515595481199213 0.03083770496270133
0.07542605412165061 -0.035150151485722536 0.029237064811698243
0.07557231124571616 -0.03510879409765738 0.027654904946230408
0.07572005757256935 -0.035072360788972856 0.026063005538555672
0.07587092523007763 -0.035049794699234194 0.024454918829932615
0.07601636198644414 -0.03499396127759591 0.022864105084494712
0.07617307337018804 -0.03499672002076476 0.02122495322128004
0.07632785883388628 -0.0349853970557254 0.019589204341603494
0.0764922015100358 -0.03502281510892069 0.017911376846512228
0.07664097561278461 -0.03497161684722355 0.016291109462810427
0.07679719680129395 -0.03495759496635947 0.014637096786173087
0.07694906287194772 -0.03491639544674763 0.012996339567624138
0.0771055889298678 -0.03489702829112523 0.011332761400902058
0.0772665885122888 -0.034898327306046584 0.00964692672350237
0.07024694230967711 0.003861786834757075 0.03702494714794835
0.06966625843615655 0.007781672245420146 0.03843935920370134
0.06930024951256687 0.010534587311157029 0.038994577165095246
0.06910679183077197 0.012353733754352447 0.03885416630717187
0.06906673570302316 0.013347446432795229 0.03808971953921175
0.0690858954253137 0.014023974982664889 0.03708265689085466
0.06918396805134418 0.014280339943746556 0.03574926637366771
0.06932976660722787 0.01428508191084149 0.03421554920405656
0.06947966995399008 0.014271326776760851 0.03266085509917782
0.06963528506545177 0.014230702810002271 0.03107831895325569
0.0697912076400592 0.014191963706569222 0.029490314094396397
0.06994822297223886 0.014150978627725241 0.027893533060355524
0.07011068317298097 0.014084882817267275 0.02626961200941591
0.07027092542496277 0.014034097426241343 0.024650690275073328
0.07043050752776707 0.013990385084281631 0.023030258004797355
0.07059341737367077 0.013932873242366306 0.02139139438935167
0.07075607744476149 0.01388033876002659 0.019749216789063218
0.07092029668952626 0.013823356116257901 0.018095999127701712
0.07108690326028955 0.013757676181523404 0.016428125737331045
0.07125021728454696 0.01371282004523372 0.014769943568420929
0.07141571696532584 0.013660343078833459 0.013097936423683842
0.07160071542751777 0.013510971068828093 0.01133704418462006
0.07185212381013283 0.013023797529616299 0.009282708301081077
0.07864838053999572 -0.08878688706208343 0.044667348995958256
0.07829928586788827 -0.0857939341048668 0.04482456275951474
0.07796495136964637 -0.08289720213050061 0.04493898943984287
0.07763099669709059 -0.08001041084464156 0.045061211069332474
0.07730208876033189 -0.07716132952807991 0.0451745360577363
0.07697958890175768 -0.07435787291294138 0.04527387426753049
0.07666096972998478 -0.07158483266435828 0.04536806285275252
0.07634235687861535 -0.06881914425883146 0.045470945605890156
0.07603583210670926 -0.06613217610852445 0.045538690126005754
0.0757343375576096 -0.06348190123263864 0.04559650251184899
0.07543103835401291 -0.06082792875138349 0.04566915998940302
0.07513938788690862 -0.05824932859060056 0.04570737614915199
0.07488136780964867 -0.05587453905573714 0.045629721604798945
0.07463854502831445 -0.05359457314283045 0.04550295152632805
0.07437015534454033 -0.05117091517940359 0.04547767890630966
0.07411064719591537 -0.04880516939469537 0.045426676770859264
0.07386074693715629 -0.046501253932441644 0.04534686596420984
0.0736466491262288 -0.04441086680921402 0.045139594458461885
0.07357555869832032 -0.04315374427337915 0.04439979279558204
0.07359614077610367 -0.04242820123897917 0.04331555763253597
0.07361363351390858 -0.041684362072068604 0.04224247449311003
0.07366327854960808 -0.04112525170613812 0.0410465478161357
0.07375676610424496 -0.040816940156408466 0.0396818076689226
0.07389219861417284 -0.040747035246118446 0.03815372848576837
0.07405187908679882 -0.040812804118454504 0.036528666248650477
0.07424625646059331 -0.04107309620656446 0.03476528764238984
0.07444890537632184 -0.0413760781983728 0.032964545602314765
0.07467089014895428 -0.0417844107104115 0.031083084082671686
0.07483510200132884 -0.04185963726135161 0.029420953132565708
0.07496166376554421 -0.04171776511825742 0.027901738189590797
0.07499957782493456 -0.041071718846743155 0.02672734919416181
0.07502487515513417 -0.04035360425885953 0.02560166545085102
0.07498923366413023 -0.03929172227405897 0.024716379724309512
0.07491575832459964 -0.03801802543900262 0.02398226737265935
0.07479483833647745 -0.03647991244746418 0.023439166835203806
0.07479941145293964 -0.03564698837312502 0.0223977405461373
0.07489993387554164 -0.035349907719571305 0.020971338163631503
0.07503108670388067 -0.03522126146876048 0.01941890859149692
0.07517794213350833 -0.03517695463830306 0.017799478382836853
0.07532606926733577 -0.03513633611840111 0.01617087742335005
0.07547641106406403 -0.03510458595082716 0.014529219737681232
0.07562688666501655 -0.03507012415060812 0.012882903051885164
0.0757798410755629 -0.035045883212810436 0.011222323630579567
0.06902953276342993 0.0029870719240017163 0.037907450381128915
0.06859986734492642 0.006139963564771811 0.038733570728696765
0.06825273120640857 0.008830529652739283 0.039230262152812945
0.06792379555775455 0.01141355245938791 0.03966095922209778
0.06779036493319102 0.012921667488400235 0.039287070116631906
0.06776314107491246 0.013848104353566648 0.03847340394202897
0.0677856694880426 0.014503436678542425 0.037452079559714635
0.06789213100808092 0.014703944983834594 0.03607741049388369
0.06803523161661654 0.014708549007141636 0.03454535204544151
0.06819033775791049 0.014651583152838266 0.032958596915840244
0.06834577090022116 0.014596415285529685 0.031366210638853975
0.06849980463203166 0.014552343266851786 0.029775529492923336
0.06865453423668072 0.014508072145642092 0.02817766218193135
0.06880899686301291 0.014468783087194403 0.026576705551401014
0.06896862727145389 0.014405419731873814 0.02494931060402461
0.06912431277069066 0.014366760038736659 0.023334558536040106
0.06928011420956752 0.014331057367919453 0.021715045599826843
0.06943957557736653 0.014279496188196683 0.020075388650488413
0.06959997068666894 0.01422664801587914 0.01842730449390345
0.06975931838931744 0.014183019946290731 0.016779405783406087
0.06992059628590604 0.014132866596328564 0.015118692643691867
0.07008322386673824 0.01407931043966476 0.013447636625519954
0.07024963509818384 0.014009612634793611 0.011755454186015923
0.07041866249561164 0.013930022720321289 0.01004715192503991
0.07064822555190363 0.013537716642584463 0.008065747059889328
0.0773197505385258 -0.08924990836877317 0.04439577688430346
0.07693407584406828 -0.08599506122228218 0.044705911699196244
0.07660079068851737 -0.08306800158361494 0.04483764510954702
0.07626844413753366 -0.08015443229674529 0.04497526079206948
0.07594448894474679 -0.07729949375110695 0.04509160483904717
0.07562113231882306 -0.07445574844615671 0.045214786980381394
0.07530429316025058 -0.0716589132165738 0.04532308311985528
0.07499384242328398 -0.06890798189364145 0.045416695817834696
0.0746938340022426 -0.06622711280766408 0.045480383365080146
0.0744413879834274 -0.06383876631325502 0.04537607368080432
0.07416865970847177 -0.06133480611640896 0.04535428225040811
0.07388383553067278 -0.05876489347401742 0.04538527473216125
0.07362306388934353 -0.056345178895937265 0.04533401307511259
0.07338899691324781 -0.054090615434481404 0.04518951080747091
0.07324315235428902 -0.05236595410243977 0.044718269304852676
0.07320299051791154 -0.05127168904089141 0.04385040291583331
0.0731537409183895 -0.05012455366708224 0.04301823737805893
0.07311679154941984 -0.049051255922520576 0.042140465769516744
0.07309899791375712 -0.04809179604800978 0.04119029559461923
0.07309721896354839 -0.047227014264791645 0.04017901047139061
0.07312012859749409 -0.04650730213768273 0.039072450794689406
0.07317557154614435 -0.04597778465339247 0.03783918673317738
0.07325967552717653 -0.0456146647324388 0.03649291788874898
0.07338406561002093 -0.04548481901042367 0.034987075846314386
0.07353092231280282 -0.045482991110303905 0.03338977213618233
0.0736822085483627 -0.0455034921203713 0.03177096639435956
0.07384614415329814 -0.04559387610491389 0.030098049334316146
0.07400830352857515 -0.04567013945685239 0.028427596962094237
0.07416408029710468 -0.04570571590461259 0.026777982258478494
0.07432005450845026 -0.045738790283615605 0.02512324112227654
0.07446676195528455 -0.045714866191503556 0.023501225358502187
0.0745871847214634 -0.04553648801577792 0.02198063666350225
0.07465902238920419 -0.0450767055575485 0.020652403798268493
0.07468802831194576 -0.044370145055705634 0.019495301079754557
0.07467619107352653 -0.04342966440160406 0.018503052397877695
0.0746351381614705 -0.04232296055424506 0.017630040696950067
0.07459737226972096 -0.041235910564032086 0.016744748677421817
0.07454992953337426 -0.040094821246712486 0.015900162803848372
0.07451294294935533 -0.03901406377650918 0.015013905254471438
0.07449192316691032 -0.03802441907981324 0.014062803877005703
0.07449307771705806 -0.037160341271303965 0.013020494681301897
0.06849428410719016 -0.0025233124990127753 0.036899236151655024
0.06792833335211333 0.0014562315414946014 0.038303829129014366
0.06752424520033126 0.004515226960876362 0.03904737408123293
0.06717315958728003 0.007268291161693752 0.039579812025418715
0.06685861526127526 0.009809171172799835 0.039968218012340184
0.06661618351873246 0.011941000608858054 0.0400608408460415
0.06650998124430846 0.0133098982711079 0.039582996540980686
0.06647796582763767 0.014264794600659214 0.03879273885854212
0.06650777217197998 0.014876736093598908 0.037739704777654925
0.0666091664200249 0.015093945183806468 0.03637952275195
0.06674681819097705 0.015113672843982906 0.03486086887097689
0.06690068174839409 0.015047448105852568 0.03326856028873659
0.06705656614698721 0.014973728147868404 0.031663234235718374
0.06721035883792854 0.014915107997250487 0.030062632587253002
0.06736391436603142 0.014861378763898148 0.028458778176257415
0.06751646582786519 0.014816714489392036 0.026855026506261093
0.06767009091342792 0.014769773437215306 0.025242326731074072
0.06782384240787061 0.014725736806126766 0.023624792573086417
0.06797887107555373 0.014678373608425221 0.02199735049057827
0.06813093970843899 0.014650638425851348 0.020378667879124512
0.0682867949108852 0.01460602867827121 0.018738966720350247
0.06844122050812196 0.014572758099019756 0.017101280113559436
0.06859791269037654 0.014530921538018715 0.015449182905712844
0.06875453710753272 0.014493110738406756 0.013793024027748235
0.06891543573687388 0.014436100777878935 0.01211332028314277
0.06907649349572224 0.0143820024496647 0.010428418157447383
0.06924249551310194 0.014305340490479324 0.008716702891381767
0.06948375667896269 0.013832682786991235 0.006659469017935182
0.07556793597900671 -0.08619786387071454 0.04458627219116057
0.07523706900519606 -0.08324784755434722 0.0447309329991043
0.0749071840772308 -0.08031178254481264 0.04488135604240567
0.07459314810862597 -0.0774814151931199 0.04498240891463279
0.07428828321450058 -0.07471503285663117 0.04505825731851176
0.07401026949431172 -0.0721210358479113 0.04504249421909362
0.07370806837149858 -0.06938519943772675 0.045125276770761
0.0734149494439067 -0.06671219432161507 0.04518246316611518
0.0731502254078576 -0.06421977435008508 0.0451407321961399
0.07293472087435818 -0.06203399969902429 0.044919935555186974
0.0728385735224504 -0.06058026601367367 0.04425111260969378
0.07278621583476111 -0.05939498836265855 0.04341778162729404
0.07272720718218027 -0.05817060974200222 0.042611431007221534
0.07266851795294677 -0.05694956988289396 0.041805525615255246
0.07261752190097918 -0.0557764140060209 0.04097157713987698
0.07257798216763313 -0.05467356173943849 0.04009467292708718
0.07255454670601776 -0.05366857903027278 0.0391562448666411
0.07254651512774037 -0.052756683634765544 0.03815834204145524
0.07255744726803562 -0.05195866662859966 0.03708636012300576
0.07259383725388928 -0.05131270569304608 0.03591395350172072
0.07265620924063663 -0.050821021542861 0.034637970033663645
0.07274178151021435 -0.05046610933256984 0.03326832217571435
0.07284936814623755 -0.05024008748780345 0.03180873672880935
0.07296832986691738 -0.05007902076743104 0.030300720146836435
0.07310172106287192 -0.05000059583790151 0.028731560102937204
0.0732278724245084 -0.04987619583751013 0.027187702797501268
0.07338800142255837 -0.04994925232476921 0.025503273141486038
0.07353324457908467 -0.04993085099141725 0.023874529148480206
0.07367975406352778 -0.04991643274207397 0.022236522723818652
0.07382661751662711 -0.04990060223932796 0.020592917310981396
0.07395621268074723 -0.04978021888560391 0.01901574833495434
0.0740732379468061 -0.04958333906267115 0.017486474173570632
0.07417710531886128 -0.04930698460892363 0.016008050543802554
0.07426349462784917 -0.04892649742909594 0.014598884751604146
0.07433977752929458 -0.04848529065488966 0.013229162527525207
0.07438876529449172 -0.04788415733255874 0.011970811136902293
0.07440143286416792 -0.04707190082852242 0.01086266030600963
0.07438923424458324 -0.04611589422783008 0.009858287411853572
0.0743676619233356 -0.0451062144379748 0.008893649801903936
0.06730264774293701 -0.0036323970668192818 0.03762675597612969
0.06681736663522446 -4.9093401545297066e-05 0.03872496559713989
0.06643841691057405 0.0029143136702291517 0.03938560376692751
0.06612169284144666 0.005513434141639406 0.039791984436394756
0.06582762064671165 0.007975957663812039 0.040110559171352644
0.06555472631006899 0.010311073654290681 0.04034668337225811
0.06535207884269095 0.012241140918771876 0.04028839044089566
0.06525086325441679 0.013592108241535394 0.03979810930297617
0.06522055964145343 0.01454002863784254 0.03900366736071703
0.06525104358996768 0.015144514630606232 0.037946026742037064
0.06535189756637191 0.015353826237063939 0.036580838706302354
0.06547540603210315 0.015438354912329644 0.03511373639637222
0.0656194518072581 0.015410770457608192 0.03355304271989362
0.06577073268613438 0.015346169136747911 0.03195642265711429
0.06592179173663289 0.015286406788965201 0.030356489796363573
0.06607428644822243 0.015222249145354305 0.02874591243913427
0.06622525753822357 0.015170184974235335 0.027137778340968144
0.06637598639749005 0.015123057562698494 0.025526440617049895
0.06652608982156841 0.015082977668141151 0.023913623124502792
0.0666772505497121 0.0150406361784991 0.02229180402303166
0.06682909977769738 0.014998101833912925 0.02066259793536268
0.06697955049735792 0.014966867410858675 0.019035396706170937
0.0671293431159309 0.01494282321533641 0.01740690701277542
0.06728191774534985 0.014907124097861546 0.01576152994994795
0.06743422379292219 0.014876523591059954 0.014113047894948771
0.06758780181000543 0.014842620066600587 0.012454430523531068
0.0677485002252456 0.014773669690178126 0.010758807971304962
0.06790449189963467 0.014734072612756888 0.009080273808795836
0.06807180768374634 0.014636906374798364 0.00734507018635977
0.06831800209379287 0.01411779376966854 0.005240094799038197
0.07420893684465155 -0.08645349457019186 0.04443546777535301
0.07390671757350777 -0.08364518905196427 0.04449516922134805
0.07359969741881167 -0.08081395832876087 0.04458166337086966
0.07327086592913419 -0.07785298104182498 0.0447593813835927
0.07296978493416797 -0.07507419445926994 0.04484143189758938
0.07268987419593338 -0.07243535870242057 0.044851645540731344
0.07247102507998934 -0.07018516947748993 0.04463676470124328
0.07235146747844887 -0.06856001717706811 0.04404759441498746
0.07224086676788381 -0.06699356072839241 0.04342741616079199
0.07213846844810824 -0.06548078332693896 0.04277875560746708
0.07208591937326098 -0.06427981030431595 0.04193980567419753
0.0720522742916783 -0.0631971842126044 0.04102881687728033
0.07202470873854906 -0.06215295096168827 0.04009505655432016
0.0720047760606042 -0.061156471540200985 0.039132171912134195
0.07199134450162326 -0.06020050045209807 0.03814428486748922
0.07198977774948563 -0.059317758236359985 0.03710993261322948
0.0720034324712433 -0.058528397468059545 0.03601529686746774
0.07203210192635323 -0.05783059902805193 0.03486053999543459
0.07208053348608 -0.05725281401989524 0.03362605798126983
0.07213869246249163 -0.056733152274408116 0.03235120051023671
0.07220910262982301 -0.05628661410743774 0.031025397155511558
0.07228596808265561 -0.05587756269890065 0.029671507041467704
0.07237068670048029 -0.055514233747297526 0.028283588678913008
0.07246648795935695 -0.0552158716370722 0.02684817509906562
0.07257846342843963 -0.055012802426635476 0.025344017090932258
0.07270082707688315 -0.05486958720888041 0.02379409833977203
0.07282772663431694 -0.05475066959932334 0.022222009155991762
0.0729546102790204 -0.05462857843880631 0.020646317240935685
0.07308193681986397 -0.054506061110582316 0.01906512526416071
0.07319397294828611 -0.05428909989107583 0.017543727658057895
0.07331122685505083 -0.05410053242503349 0.015997355420568793
0.0734274600004686 -0.05390304686270275 0.014451860674318084
0.07353565455945266 -0.053655006366303215 0.012936725056730991
0.07364533951153843 -0.05341317382039151 0.011412188589909611
0.07375088896916769 -0.05314422323097989 0.009901947952613233
0.07385014616787523 -0.05283557601404121 0.008415322872791842
0.07394187848372297 -0.052480201210067634 0.006957827888670776
0.06686948667816146 -0.010014290351658572 0.03606647106811439
0.0661793905472774 -0.005155509815822301 0.0380545251412156
0.06573209864620425 -0.0017347004031648128 0.03901948146452888
0.06539111246398908 0.0010542980490756415 0.03953915960754112
0.06508509520576844 0.0036311863560276048 0.039917463209915405
0.06480785560069907 0.006033251599158407 0.04017974111366818
0.06454933776666097 0.008319914171052767 0.04036852526549983
0.06431608856935724 0.010453930779225129 0.04045440649358528
0.06411929897193208 0.012371529883032084 0.04038724410569866
0.06398977556104608 0.013896329899823534 0.0400300003281735
0.06393765355080085 0.014972436079796647 0.03933504731002685
0.06394842428102888 0.015686006050742385 0.03836324297006133
0.06402108934852692 0.016045051086342188 0.03711629349620732
0.06414309853694912 0.016123610382874964 0.0356474240931261
0.06429876503405811 0.016013017581699707 0.0340246038699793
0.06447169889682806 0.015807850174134552 0.03231986151326288
0.06463888873329568 0.0156395243030657 0.03063595779079975
0.06478428415503026 0.015598860539518866 0.029045571372669998
0.06493543336346368 0.015529160763243455 0.027424934035088222
0.06508216742420272 0.015488060637145584 0.02581997897136773
0.06523030113064368 0.015442632563455183 0.02420440542996577
0.06537855694368547 0.015400111036735165 0.022583991653668478
0.06552674649639327 0.015361557397663927 0.020959595992674884
0.0656750505585752 0.015325957156202275 0.019330389894541666
0.06582402744477985 0.015290195404110918 0.017693792434346156
0.06597180216593339 0.015264748677145334 0.016058452389672517
0.06612156350841611 0.015231836140375932 0.014409617239985795
0.06627067869693008 0.015206142520703958 0.012759462139545541
0.06642046796495886 0.015180332752393721 0.011101847465199266
0.06657610360351604 0.015125849540181924 0.009412506204934057
0.0667307395616887 0.015080653504586927 0.007723364965280699
0.06690967402212321 0.014905525418324073 0.00591518641530403
0.07288351071306934 -0.08693543804750264 0.04415115442409595
0.0725411920978182 -0.08383144324548203 0.04438465477154041
0.07223673883276097 -0.08097913347362912 0.04448308881276225
0.07200162682962896 -0.07857889595332135 0.04432366040266433
0.07180864392663297 -0.07645403901799269 0.04400842121642817
0.07164853798280692 -0.07454391381182668 0.04357138519529086
0.07154632713875982 -0.07300676413964952 0.04291372117950287
0.0714551931668378 -0.07154260727940376 0.0422157909085204
0.07139075221745703 -0.07025018209456502 0.04141586196038938
0.07137684638286299 -0.0692795815482724 0.04041890031142148
0.07139007908807125 -0.06848096113083196 0.03931511779059682
0.07139366841114794 -0.06762114367978811 0.03824919066114474
0.07137213737711415 -0.06660298608246779 0.03728315418236339
0.07140870278140173 -0.06595063437519172 0.03608563219008076
0.0714497994171397 -0.06532581217533279 0.03486886191842381
0.0715118708139338 -0.06483133141518016 0.03356645976304978
0.07157156991881632 -0.06432048859403999 0.032271811935294104
0.0716385965484301 -0.0638538783772582 0.030945696825117552
0.07171344434391178 -0.06343430222440449 0.029585781927423838
0.07178368545424305 -0.06298425338990266 0.02824247461138002
0.07183702448834305 -0.062427660987578404 0.026966371682667745
0.07193072964047985 -0.06211955465911473 0.02552266020049604
0.07200573301572424 -0.06169362737636325 0.024153388948065624
0.0720884404757876 -0.06131333189478472 0.022749991831404248
0.07217294302808504 -0.0609420339864552 0.02133669483781675
0.072274883881877 -0.06067570122722277 0.01984815198692913
0.07237780483849347 -0.06041285299212418 0.01835250199922106
0.072487957031335 -0.060191674292076336 0.01682343638223366
0.07260656537337411 -0.0600193713190017 0.015255470831883389
0.07272905462458275 -0.05986776916981412 0.013667590063342894
0.07285663030354218 -0.05974405013241979 0.012054504095755203
0.07298910932863283 -0.05964691521746962 0.01041676817137377
0.07314160968318197 -0.059667684212504846 0.00868953130347605
0.07328860129894342 -0.059651409447723125 0.006981434076838655
0.073447817841768 -0.05970518983250728 0.0052163802826255545
0.07359151465626054 -0.05966167631925451 0.003513673217106328
0.06559188765413539 -0.010729775349192394 0.037101941362296276
0.06506088123323991 -0.006737877077143073 0.03844500371467119
0.06467859021312304 -0.0036481770094913823 0.03915475973067839
0.0643441072297852 -0.0008531496084783763 0.039666454378988025
0.06405602054984721 0.0016573829445901689 0.03998417678522337
0.0637767675381883 0.004108310221047906 0.04027144915060665
0.06353829770031302 0.0063105347350571606 0.04038657988978833
0.06331518823126271 0.00841598361464696 0.04044057704643722
0.06307209586747371 0.010633898992359447 0.04059011365336157
0.06287781328904544 0.012558226757822644 0.04052878726358394
0.06273942468020108 0.014149125902739645 0.04022269248794874
0.06269095079264653 0.015209066631361512 0.03951639163566284
0.06269302664237644 0.015971854338896307 0.038583487577536824
0.06276611705863785 0.016319800704682752 0.03732912732777943
0.06288059741091126 0.016428250781143405 0.035884682853906336
0.06301524023492479 0.01642223315776037 0.03434502081491703
0.0631604678265083 0.01635809675443617 0.03275301982824652
0.0633037204698966 0.016308991459379696 0.03116579448606932
0.06344975073438985 0.016247371552426393 0.029561573008025532
0.06359574421405735 0.016189574073095125 0.02795321873357076
0.0637506387141788 0.016084153160535686 0.026299361230131324
0.06392121307754944 0.01589250482064991 0.02456812878224185
0.06408149446106232 0.01576406370340805 0.022879818926279438
0.0642300498496603 0.01570664315615461 0.02124158315056096
0.06437509999164343 0.015672897571908317 0.019615402378890867
0.06451915769338915 0.015648388981351513 0.017989614948929367
0.06466404562859453 0.015622724762759499 0.01635566667181665
0.06480921601432613 0.015599041251283863 0.014716112966913053
0.06495726824692272 0.015562644290326944 0.013058602702258837
0.06510301344775347 0.01554292978744759 0.011407715194402812
0.0652482897906196 0.015529459193195094 0.0097547729173319
0.06539967499350098 0.015485249287092884 0.008068283197767312
0.06556046567909087 0.015392040812159002 0.006332133598289991
0.06578161019558021 0.014965119710953823 0.004300317309640811
0.07134800782931618 -0.08515588588823947 0.04359879256093313
0.07112550329719657 -0.08279939288111965 0.04339677896427496
0.07094501763653745 -0.08072317272546536 0.043036586027541346
0.07084081356799123 -0.07914916940801331 0.04238137382004048
0.07082190019255222 -0.07813316120241331 0.041392086589567834
0.07082865371021685 -0.07728443564412518 0.04030150533722304
0.07084081334727994 -0.07647060539539785 0.03918918515386677
0.07085703271728737 -0.07568274998894081 0.03806026617761188
0.070870779929577 -0.0748785129677898 0.03694078241204901
0.0708964858100676 -0.07415104439497705 0.03577270773221197
0.07092695112520743 -0.07345355887622163 0.0345846149792845
0.07092966035333086 -0.0725770210758408 0.03350826189080325
0.07096467403940278 -0.07190750748794944 0.03230022663318333
0.07102574830126293 -0.07140384801445049 0.030984583417877742
0.07110099129871225 -0.07098912263975488 0.029608959726007356
0.07116298233303231 -0.0704880479879132 0.028285658200166153
0.07126540168760055 -0.07024254425397497 0.026793369904846265
0.07134960579108164 -0.06987883513244764 0.025373577498357558
0.07143355110464873 -0.06951136400769681 0.02395233309040229
0.07151608741562177 -0.06913286853452538 0.022534454976079032
0.07160617748111582 -0.06879995536054856 0.02108241747935713
0.07170341624145571 -0.06850978812296121 0.019597585093009573
0.07180508425978703 -0.06824500591891813 0.018091122506407542
0.07190773715090133 -0.06798383806343106 0.01657743084705149
0.07202674512336342 -0.06782245566207895 0.014991080699135295
0.07215245527965014 -0.06769994058974305 0.01337254360251855
0.0723008849494412 -0.0677158946131951 0.01165289847504103
0.07245746546812658 -0.06777881838355332 0.009893753287038287
0.07266018880278934 -0.06812429542698517 0.00793083987473131
0.07287858686458777 -0.06856178900915677 0.005893978787417875
0.07313260946223438 -0.06921407172091842 0.0036957990604254976
0.06442666876791968 -0.012130382351698943 0.037644691659863894
0.0639705521237104 -0.008526587641146777 0.03869265910989045
0.063610064651375 -0.005518408694016874 0.03933028444069414
0.06329853894359347 -0.002817765865744004 0.0397608946951683
0.06302746577700157 -0.0003710466603698559 0.04002027129211855
0.06276595243898278 0.0020108080203879997 0.04024496966973112
0.06253221086012879 0.004217836405283504 0.04035270846589084
0.06229271459231548 0.006453760701183198 0.0404934190385573
0.06205660125806779 0.00866324026226678 0.04062601862976584
0.06185075732191572 0.010684548249069947 0.040628306381896795
0.06166350477720886 0.012588982825350203 0.04055210486556349
0.06152576132696334 0.014191903760206348 0.040255299706937364
0.061460764644693834 0.015356172412073765 0.03962912773689653
0.06146161221624449 0.01612574410274853 0.03870205887124628
0.061514041412096924 0.01658806975535021 0.037536941012062175
0.06161814629048866 0.016744540610819703 0.036131014372839776
0.06173508763079687 0.016827493521086145 0.0346623408177974
0.061883737506043514 0.016725708063030698 0.033042406288561754
0.062024816632623006 0.016672386310476295 0.031453396276292456
0.06216480612146796 0.016629043001022414 0.02986525808084306
0.062308913470980234 0.01656501010505773 0.02825354147426007
0.06245334040688217 0.0165027342187129 0.026635987408877126
0.06259755915628544 0.016445318109678808 0.02501508031212807
0.06274209217841438 0.016389700924607342 0.023388348047550522
0.06288392213326165 0.0163534882921208 0.021770153195140807
0.06302675130569413 0.01631503709241905 0.020142921645602052
0.06317703678128636 0.016236897385648263 0.01847564827375492
0.06335108675544222 0.01602487661076968 0.016689558441587093
0.06349948642532237 0.015965513851837476 0.015021997288152122
0.06364640135003582 0.01591845565795963 0.013357163948801931
0.0637894319863194 0.015897455878566058 0.01170677470297904
0.06393145603049419 0.01588584203134591 0.010056990631350016
0.06407300843741867 0.015880510737940112 0.008405243906910775
0.06422573921844642 0.015814835849819353 0.006694471991031681
0.06440208680337435 0.01561828074659638 0.004863037382935476
0.07117675963230574 -0.0814778656040348 0.024546600611746128
0.07111466274785662 -0.08015838921169433 0.023716039409110212
0.07109499041489183 -0.07911628146099703 0.022709146801515645
0.07112531330089714 -0.0783990203903962 0.021492050942251928
0.07117049839705304 -0.0777772062721459 0.02021113136455399
0.07122897657286179 -0.07724012662028229 0.018872369319233917
0.07130011512561293 -0.07678318853984734 0.01747785070795771
0.0713818904199615 -0.0763928796081092 0.01603565034886395
0.07148279482244357 -0.07612333741784022 0.014508820528264688
0.07159712312477434 -0.07593725209627311 0.012921062622662127
0.07173701507613138 -0.07591176933177535 0.01121927014740115
0.07191128950751145 -0.07610220784341565 0.009364002417709516
0.0721294933734657 -0.07656807227121687 0.007312107749648189
0.07241089738104979 -0.07743020850296661 0.004977359186624064
0.06403601948176653 -0.019235976647858477 0.03568680470605384
0.06330910835574405 -0.013855819832492233 0.03796008160431613
0.06289516790714442 -0.01045230836400557 0.03884967416813845
0.06255280754598494 -0.007506327203067542 0.0394292947006033
0.062257593676664905 -0.004862886509205688 0.03980616492110556
0.061990121879791776 -0.0023995216286289422 0.04006618020370423
0.0617397664530047 -4.923427013242554e-05 0.04025645047254689
0.06151722597338707 0.002122392718842736 0.040327308237516624
0.06127152733307003 0.00443138982925545 0.04051114726157162
0.06104739587181077 0.006601085482187574 0.040603315688483355
0.06084539713396414 0.008628831562450812 0.04060021232138017
0.06065348643715868 0.010589440027869823 0.040556589025026624
0.06048035889521972 0.012430020833967381 0.040431588897908266
0.06034236681619037 0.014051310220244306 0.04014813329250094
0.060250499805629444 0.015387607264567338 0.039653218238527355
0.06025166297023663 0.016155089907642584 0.0387246697328924
0.06027759793843673 0.016772087635600452 0.03767948984664987
0.060354870105409596 0.01707848456222366 0.036391095196091294
0.06047767954914616 0.01711135213666448 0.03488460293586182
0.06060031735724189 0.01714841357281449 0.033375163316707035
0.06074016849208714 0.01708492426189867 0.03177989140631965
0.060880496940343753 0.017022161230653088 0.03017805102773613
0.061021475293668734 0.01695910752421842 0.028568792023704714
0.06116105321401462 0.016908061662669338 0.026961954929374587
0.061302819336571474 0.016847533969395923 0.02534027330291283
0.06144472571038438 0.01678981534717705 0.023713568236533034
0.06158572797923837 0.016741122510490702 0.022086908856432552
0.06172615796923814 0.016699451321675662 0.02045871895850404
0.061869332439662444 0.016645138572745688 0.018812803760495322
0.06201088424097894 0.016604095290251697 0.017170462196857972
0.06215449993850007 0.016554522630632673 0.015513626211865639
0.06229505170727463 0.01652666830582794 0.013867514993246066
0.06243945280619977 0.016479830812971386 0.012198035416741249
0.06259313231134246 0.016382357760322985 0.010478042992489112
0.06275117501208047 0.016263334680901187 0.00873160163319081
0.06290240976960514 0.016188077645495347 0.007014342909318572
0.06306657151480623 0.016041487721182468 0.005227644376448959
0.06271375285654941 -0.019792353112877137 0.03685639244746419
0.06220173772920271 -0.01568767869772042 0.03820701055985615
0.06181702084908056 -0.01241074245303847 0.03899209546745075
0.061495270383471724 -0.009545858964245424 0.039500572602700346
0.061217436529991724 -0.006969191739949476 0.039817110519317966
0.060955636211976784 -0.004501746578987997 0.040068336775295255
0.060717755487114 -0.0021929244378561807 0.0402169799985585
0.06050531312363716 -5.139965841377547e-05 0.04025486136666434
0.06024023127580607 0.0024171339284922433 0.04054479822364726
0.06002808178321851 0.0045449742707005525 0.04059541746296408
0.0598378186903012 0.006529541973793462 0.04054994805805623
0.05965041987017869 0.008491133805735851 0.0404969396306919
0.059480877673228634 0.01033592573031572 0.040365423763211616
0.05931196786508935 0.012172315485383556 0.0402362112665447
0.059165590365955006 0.01386368538513394 0.04000511758485009
0.059074002086571355 0.015210081242493678 0.03951716943560163
0.0590482582784799 0.01614497105354956 0.03871687329291468
0.05906014968727372 0.016845845019507977 0.037736625805937174
0.05911755661988504 0.01726542928353192 0.03653669073351401
0.05921173638511456 0.017459490871344907 0.03515719655443411
0.059337612737979155 0.017460750179705387 0.03362103711733211
0.05946633783321238 0.017447799126909802 0.03206708166344002
0.05960524625600925 0.01737575606825359 0.030459396348827772
0.059737136600535604 0.01735031753094679 0.02888173284429313
0.059875137497181846 0.017291014647324965 0.027269928738174964
0.06001293631490224 0.017236564077905858 0.02565480556837163
0.06015086385227111 0.017184945955599662 0.02403473749276347
0.06028772906764921 0.01714339362813161 0.022415625070031808
0.06042709463065097 0.017090290629830307 0.02077979448915762
0.06056659197554623 0.017040047745753906 0.01913894869580418
0.06070690701806967 0.0169885344194311 0.01748964775642131
0.06084683607005499 0.01694302470261072 0.015837897904338316
0.06098445830287225 0.016915034684392427 0.014193393134052712
0.061126194856325825 0.016866009889865308 0.012523795705692842
0.06126841643443043 0.01681780471025479 0.010847308176405002
0.06141094904801959 0.016771475892508825 0.009164792403198674
0.061552553588755214 0.016734409377298587 0.007482553110711665
0.06171277474036901 0.016590518302537438 0.005700652595977851
0.061999442100512545 0.01570169074745209 0.0032649274504084613
0.061557402578232175 -0.021426612798314815 0.037266697746340505
0.061099184078897 -0.01759779079719609 0.038406572292384755
0.060744880771231996 -0.014461208697420125 0.0390781203423477
0.06044043991292171 -0.011659722304920295 0.03952844270366529
0.06016543280912217 -0.009058200708455033 0.03985074772355751
0.05991841389773159 -0.006646060490994976 0.04005041372730922
0.059698725395361744 -0.00441790828853067 0.04012919978185536
0.059453662072895465 -0.0020312992110108063 0.04033495379337476
0.05921929674210791 0.0002796038041535387 0.04049778590308856
0.05900635588329815 0.0024460474706482493 0.040566133641821434
0.05882033627011803 0.004433513316672855 0.04051272286996499
0.05864499594502202 0.006347404370765586 0.040414083025640535
0.05846857868137355 0.008263502039024984 0.04032621678988324
0.058316237335364736 0.010020880859391124 0.04012786067227608
0.05816501042315927 0.011767066360585055 0.03992897423657127
0.058027247062011005 0.013423446880423684 0.03966954878054396
0.05791987269546769 0.014882985087454559 0.03926649603082205
0.05786042724396598 0.01603565288126546 0.03863264432661573
0.05786841005239937 0.01675996006280256 0.03767009543167482
0.05789748625474552 0.017351258722248464 0.03660353611683398
0.05797046509292691 0.017666642383907194 0.03531939681084467
0.05807432812128542 0.017789748441536524 0.03388002709742205
0.05819939149079637 0.017782590162003897 0.032332045525705955
0.058325319092149205 0.017773369379959325 0.030775765902811003
0.05845716951787135 0.017730510304221514 0.029185860645918882
0.058589944787930774 0.01768541570060128 0.027587109171243407
0.0587252978372416 0.01762783801096529 0.02597115197350014
0.05886012129509068 0.017577173529740087 0.024353547111036156
0.05899490140712022 0.01753038853895761 0.022731858320340248
0.059130133465911394 0.017484419439243226 0.021103572352903388
0.05926598692500507 0.017438239108564735 0.019467804303045677
0.059402634335499103 0.017390810435884974 0.01782364261798719
0.05954008236570557 0.0173421243625001 0.016171015101066943
0.0596768093813346 0.0173015381634935 0.014517708116584205
0.05981450699634953 0.01725867871964254 0.012855030405941548
0.059953698487188276 0.01721039221649201 0.011180227953665745
0.060089751240755274 0.017184942842461692 0.009517273310212848
0.060232131034862094 0.017124701921016616 0.007817036638639474
0.0603850961387298 0.01700411258312745 0.006056977933113161
0.06060707214054313 0.016470241903942695 0.003930554062844094
0.06126326988283999 -0.06827535186921424 0.08053685898611587
0.06109557983985209 -0.06620449635914216 0.08020034715104599
0.061216515821433136 -0.06625650349570128 0.07872515868654653
0.06143335297343223 -0.06700772627293733 0.0768643029229471
0.06149443126769774 -0.06661413743125988 0.07561890010746897
0.06152427860695822 -0.0659909499747629 0.07449683604755328
0.06166654291238742 -0.06618584370531388 0.07292083769036015
0.0618502375179531 -0.06667807713918378 0.07117259160431172
0.06042411685810318 -0.02325386619057518 0.0375484216940104
0.06001389317496746 -0.019674860527545024 0.03849731143904089
0.05968439426877983 -0.016647639720060836 0.03907773352388838
0.059380292835192 -0.013799155475349378 0.03954834878834734
0.05911601155341812 -0.01122455107203707 0.03983922386356098
0.05887516479451663 -0.008813140541541531 0.040026719301170466
0.05868067600387173 -0.006716212565853752 0.03999976349410589
0.05839731821757315 -0.004035580388064397 0.04040675317438641
0.05819491663371935 -0.0018981695688721212 0.04043212805036167
0.057982941705459264 0.00029689533684895686 0.040510476291163056
0.05779998719784314 0.0022950054112889084 0.04045467959691762
0.057628694060154556 0.004211457542562247 0.04034797620326713
0.05746580976276486 0.00606806554778605 0.040205710974339004
0.05730992087804431 0.007874426652646538 0.040034411875888964
0.057165376688968934 0.009602417185579526 0.03981231345600367
0.05702947783203693 0.01127009865841394 0.039552201336289505
0.05691030664340753 0.012825250859962556 0.0392135779061451
0.056801057900808784 0.014312734439591912 0.0388294786924927
0.05670208996678336 0.015730635188624775 0.03839762996173496
0.05669269728155571 0.016566824590225182 0.03752048385223339
0.05671696785587153 0.0171856219515093 0.0364745357069588
0.05675976600362219 0.01768582980941702 0.03533442069764342
0.05683926260696658 0.017951499327977405 0.03400735869038274
0.05694407864973367 0.01805706639259619 0.03254927442239708
0.05705181798336207 0.01814680453017814 0.03107289758933446
0.05717715466167511 0.01812718637164845 0.02950317393367763
0.057306561402598766 0.01808507772109874 0.02790852051425019
0.057438322460689376 0.01803154823355163 0.02629755316123067
0.05757020660776612 0.01798084227691399 0.02468165631754643
0.057702049217252506 0.017934006514201906 0.02306167511919016
0.05783400842990762 0.01789004082774831 0.02143679139812177
0.05796820893534715 0.01783556494250005 0.01979594509311494
0.05810188290755087 0.01778806963428131 0.018153472202449783
0.05823518388495915 0.01774657024258397 0.01650859463515003
0.05836843428705382 0.01770903352329356 0.014859637376340218
0.05850612952076789 0.017647383287142215 0.01318292106449398
0.05864296867263846 0.017594833959836187 0.011506240010107471
0.058777925668944256 0.017557730249825265 0.009835074883476902
0.05891519551232274 0.01750996898131313 0.00814721329200302
0.059063468997684124 0.01739784589004384 0.006396192379999999
0.05928120794680168 0.01686071220421964 0.004268732539349729
0.06004255444200333 -0.07057627088021362 0.08220421594080968
0.059757804319348636 -0.06759006030665016 0.08234340983316524
0.059612460998487334 -0.06566107612411831 0.08193209453273986
0.05949211534080651 -0.06392395363465514 0.08142478888268803
0.05946078534396185 -0.06285769786253015 0.08056095333995703
0.05951272645864809 -0.062415580707111284 0.07935950342061157
0.06013291662936394 -0.06621727069198308 0.07583583074161102
0.06011780727076928 -0.06526432799601833 0.07489638060524773
0.0598968949231474 -0.06278005212125243 0.07480470203978956
0.05996999377322397 -0.062486115355759764 0.07350507317093333
0.06008725195990074 -0.06251757171810929 0.07201973972079725
0.060215792482595745 -0.06262925051140839 0.07048348903662238
0.06033981129298142 -0.06270393537821423 0.0689618737412378
0.06046579729552329 -0.06278965827945593 0.06742786532558981
0.06059468539844428 -0.06289321672179721 0.06587742318037298
0.06072724334650893 -0.06302012813861763 0.06430715209986704
0.06085503838917605 -0.0631084178967567 0.06275270890383361
0.06098762871417907 -0.06322822350839619 0.06117354896937344
0.06113158088404399 -0.06342730013395659 0.05954130537071811
0.061279764082637404 -0.06365319414178278 0.05788607351973507
0.06142960620951862 -0.06388701577114364 0.05621874509460012
0.061579805562275075 -0.06411924359975618 0.05454487798884161
0.06176337069742044 -0.06458908204296138 0.05272086600519843
0.06191787914148343 -0.06484361691284185 0.05101762163471568
0.06205802074216323 -0.06499011591670795 0.04937220592812558
0.06218205583938228 -0.06501664660035855 0.04779299113760932
0.06232610301993772 -0.06518362371344172 0.04612125889506352
0.0624254141176445 -0.06502548968683391 0.04464305744715952
0.06262342780640753 -0.06557162154742352 0.042722326420139956
0.060085632628876284 -0.03143982505167586 0.035003715712849826
0.05931092685718068 -0.025267229586192597 0.03770853085054543
0.05895720781118155 -0.022008424013393424 0.03841855166136571
0.058613323231341524 -0.018826928343291582 0.03909298757666302
0.05833076165809365 -0.01607461274731642 0.039482504435932764
0.05806785142670711 -0.013464373027727183 0.039786130662117614
0.05784123961493345 -0.011108818752907479 0.03992187512063783
0.0576041693696812 -0.008688479915701486 0.04011623501776862
0.05734922655507485 -0.006153482144634237 0.04040605905959277
0.057144421548208375 -0.003965147072119313 0.04045788475632811
0.05696205406013726 -0.0019341710993391326 0.04040584984100032
0.05678565981092711 5.142382926309752e-05 0.04033032407752063
0.05661131142008004 0.002018320052274758 0.04025051320439893
0.0564530906146438 0.003872027701278369 0.0400961478306156
0.05629827488673573 0.005698491930109906 0.03993002849257066
0.05615732682121821 0.00742787911717202 0.0396995030786062
0.05603020085866387 0.009061074683181847 0.03940410806058492
0.05591189185975913 0.010631993797449668 0.03906842617482026
0.05579686960564175 0.01217776172010182 0.038720033678206256
0.05569559008843295 0.013629168395336955 0.038305620940895124
0.05561175303008101 0.014962303764394003 0.03780563492804684
0.05555226505375534 0.016132284883243586 0.03718386939862589
0.05556332286993166 0.016835676165543656 0.036201992570917996
0.05558468311578515 0.017471622975989032 0.03516669627210678
0.055626375230521795 0.017974739150517838 0.03402565333602864
0.055706241506710635 0.01822903655135566 0.03268537690508455
0.05580879942564905 0.018337286586073975 0.031224458763751517
0.05590209355807892 0.018508807954910833 0.029808444683335822
0.05603004387868924 0.018457442992978357 0.02820797960281962
0.05615418780541653 0.018434367352670844 0.026623233888557307
0.056275258642825586 0.018434670647471618 0.0250505361556434
0.056410782610373356 0.018344922820849208 0.02339745575446006
0.05653932517094953 0.018303997457424392 0.02177685786402722
0.05667133113653787 0.018244371528747694 0.02013356752699158
0.05680154682302249 0.018199933320286632 0.018495427348027116
0.05693171719598783 0.018159424688827752 0.016853192559439234
0.0570621615294013 0.018120802040952178 0.015205152240681197
0.0571953209069668 0.01806850072484023 0.013538153501831185
0.057332537569045106 0.017994088707952827 0.011844813701136658
0.05746466294922584 0.017955855831323864 0.010174477264620674
0.05760317657003775 0.017880821030998084 0.008465036180479724
0.05776144401140363 0.01768471569675345 0.006643340363567174
0.057983247256276904 0.017092061566618633 0.004469099609546945
0.05887394526010732 -0.07247261944902383 0.08264991933697124
0.05852432451732484 -0.06893171094760087 0.08307141809525828
0.058292677630288336 -0.06631015766223103 0.08302239980284157
0.058131698809216384 -0.06423893692815213 0.08269108838916889
0.058026185535302935 -0.06259827056209843 0.08213655881213705
0.057971777508936846 -0.06135235847802767 0.08137403134619497
0.05798699453975223 -0.06064070709735131 0.08032390352983551
0.05804400129406066 -0.0602477602637595 0.07909881351588688
0.05813204222209037 -0.0600897429619322 0.07774170743086245
0.05823914860808764 -0.0600742646782893 0.07630136923641417
0.058349594128463626 -0.0600810837178527 0.07484327527363205
0.05845454979951862 -0.06004313636868536 0.07340471129892609
0.058562500136260257 -0.060024846359294504 0.0719498183403558
0.058671550256070494 -0.060011776944113526 0.0704865468692999
0.05877907419343947 -0.059984089619683933 0.06902611528412411
0.05888769846274892 -0.05996160778091186 0.067557279894218
0.059011776466402745 -0.06005205293695692 0.06601786959510897
0.059128375352999196 -0.060082905287593136 0.06450672837358418
0.05924097307304345 -0.06008049922800429 0.06300906880651913
0.05935579232450465 -0.06009146101400176 0.061497848472029715
0.05946638075846209 -0.06006761838649727 0.060001316068571786
0.059593995747818 -0.060167239695413766 0.05842588620574102
0.059713634499138774 -0.06020401142388143 0.05688144367749187
0.059837396612318385 -0.060267912136945156 0.05531459251715498
0.05995929559423818 -0.06031450126084181 0.05375184420396356
0.060078754749118904 -0.06033960280863837 0.0521958779157522
