# .PCD v0.7 - Point Cloud Data file format
VERSION 0.7
FIELDS x y z
SIZE 4 4 4
TYPE F F F
COUNT 1 1 1
WIDTH 769
HEIGHT 1
VIEWPOINT 0 0 0 1 0 0 0
POINTS 769
DATA ascii
-0.04587655472994023 0.013693668088398413 0.04147430426957188
-0.047588664698286876 0.013653834144521057 0.041416950727589885
-0.049274376630172034 0.013614902994910564 0.04134611318858378
-0.05094018413179735 0.013576615090604332 0.041266974041585025
-0.05258640952316346 0.013538961460452765 0.04117959577275948
-0.05421167435991592 0.013502002893149205 0.04108259489487959
-0.05581968664725073 0.013465591387238096 0.0409789203595845
-0.05739819791774181 0.013430235751839329 0.04085783919611213
-0.05895685045326177 0.013395544427912935 0.04072735322675125
-0.0605041838921615 0.013361168060728689 0.04059467728925703
-0.06202238134019322 0.013327848505565594 0.040444112831316104
-0.06352249341029204 0.013295132987375129 0.0402850308179562
-0.06500882334238622 0.013262846086421398 0.040121035796317595
-0.06648395775806692 0.01323088256431469 0.03995428425042302
-0.06794327378924919 0.013199438261445375 0.039780535946441764
-0.06939015586689518 0.013168374579975089 0.03960265731498147
-0.07083024372245939 0.013137456766336703 0.039425613960210326
-0.07225970076051869 0.01310684762299132 0.03924587333754559
-0.07368174073333894 0.013076413395273384 0.039066264176093546
-0.07511328175105614 0.013045438490187246 0.03890224873788556
-0.07640257631813985 0.01302036305680911 0.03861406167432624
-0.07718812372562445 0.013016613285690056 0.037864558242595436
-0.07745142496193635 0.013035124501402429 0.03662922129369933
-0.07744614812119577 0.013065203826190011 0.03513806620894705
-0.0774713741928012 0.013094114070046722 0.03366875971204314
-0.07749441792649608 0.013123251084052667 0.03219076468983573
-0.07751296600572533 0.013152716029455802 0.03070180191905819
-0.07752314827796014 0.01318267818228754 0.02919805657215313
-0.07751874889122601 0.013213409841736648 0.027673380498990097
-0.07751432894477939 0.01324428512021224 0.026141579119250524
-0.07750137879986663 0.013275674786489534 0.024594335784268062
-0.07748604065792564 0.013307314923478112 0.023037469130132382
-0.07746907444915369 0.013339174112940614 0.02147163760643822
-0.07745046819249352 0.013371254419478939 0.019896752709250065
-0.07742630346122553 0.013403729267542318 0.018308850620606776
-0.07739653835579796 0.013436603286616796 0.016707750804011268
-0.07737840534833323 0.013469119902419162 0.015110581057407868
-0.07735152544487123 0.013502176764956332 0.013496940266252977
-0.07732293486107 0.013535466175227323 0.011873761223822332
-0.07730290630189302 0.013568533865256928 0.010251416292303972
-0.07730260788550819 0.013600881401705385 0.008641409413378764
-0.07707477617559427 0.013643530178337674 0.006789737867960499
0.0007817135706686962 0.013636975447343262 0.03818437040560163
-0.002003368427436203 0.013566185463241287 0.038709765301289445
-0.004695940571112445 0.013498400978375803 0.039182183784291724
-0.007252522991353649 0.013435195401390989 0.03956799304895975
-0.009746845735629506 0.013373955843576944 0.03992122816314958
-0.012133257817773024 0.013316333724532975 0.04020660706857632
-0.014458521427665072 0.013260669389255974 0.04045853479831735
-0.01672014068059441 0.013207065201669501 0.04067442655968634
-0.01893066441999025 0.013155080805452624 0.0408632424917203
-0.02108142128911744 0.013105040451896031 0.04101770698344037
-0.02316895637398242 0.013057081866502918 0.041134457720194195
-0.025218991825069148 0.013010283021790324 0.04123291453689654
-0.027234230554355143 0.0129645528347713 0.04131480284550809
-0.02921442839357835 0.01291990706278652 0.041379557870579065
-0.03116972314082861 0.012875981671684284 0.04143486814986286
-0.03309214662480553 0.01283307351156448 0.041474108177191826
-0.03497864348047619 0.012791301427091383 0.041494464871623504
-0.03683728637859085 0.01275037542814258 0.041502066643911206
-0.03866494969698653 0.012710416357859277 0.04149407560721047
-0.040466743245354764 0.01267124147283607 0.04147432672115037
-0.04224761153655954 0.012632672573846874 0.04144660514905557
-0.044004345351244756 0.012594832833057817 0.04140804614454924
-0.045737367485062574 0.012557711268212353 0.04135874227369768
-0.047446215882653575 0.012521329817670906 0.04129805274438264
-0.04914519133660383 0.01248515856249424 0.04123771385133268
-0.050812005251733294 0.012450034179355106 0.04115884911663459
-0.052458365977671784 0.01241552381159806 0.041071013042179916
-0.054088845659741314 0.012381459409730683 0.040977883340751475
-0.055698629357350316 0.012348025562901507 0.04087517340115748
-0.057290561549994734 0.01231511890752754 0.040765106867429735
-0.05885580566137294 0.012283077774624968 0.04063984037518875
-0.060404702132335675 0.012251515244305273 0.040508063861150245
-0.06193831124671878 0.01222039415564746 0.040370531897060025
-0.0634438852800806 0.012190203718049367 0.040215868204175886
-0.06492191723769675 0.01216093132112927 0.04004417009768535
-0.06639366705161892 0.012131768547220464 0.03987400525287266
-0.06785916869003128 0.01210271482987698 0.03970536395109203
-0.06931451538160588 0.012073921267975254 0.03953469608707022
-0.0707535620654492 0.01204562666380753 0.03935635596897308
-0.07217732990723669 0.012017794919107943 0.03917108707612055
-0.07359530556786736 0.01199006157704686 0.038987376896471804
-0.07503204975608435 0.011961473438617616 0.03882772230836451
-0.07632488741651278 0.01193835688392447 0.038542413137862275
-0.07721925158616383 0.011930681080969606 0.03789341591211004
-0.07753269322978246 0.011945686258801493 0.03670495603650431
-0.0775390210338951 0.011972796874461629 0.03522506714898477
-0.07752935930392468 0.012000660071446923 0.03372336198117437
-0.07759533121383122 0.012025673534919833 0.03228628604889322
-0.07762405616355594 0.012052272284090957 0.03080750419026168
-0.07764830348122537 0.012079171109636175 0.029317761747664872
-0.07766342902402018 0.012106556223463131 0.027812480430804698
-0.0776755395939639 0.012134188334752525 0.026297378058024845
-0.07768075139695446 0.012162223865751234 0.024768588034471573
-0.0776813403884995 0.012190574773656801 0.023228179489902634
-0.07767416881829103 0.012219368836934249 0.02167295234142813
-0.07764595023847382 0.012249142112939775 0.020089628074756116
-0.0776339789831551 0.012278402052063321 0.018514819763291224
-0.07760630752858455 0.012308432530747393 0.016916875063732906
-0.07757928455537372 0.012338578589380884 0.01531188051436605
-0.07753954974662342 0.012369382024624117 0.013686333939299522
-0.07749252118487249 0.012400627608455665 0.012045467116665376
-0.07745394918360382 0.01243167771175487 0.010405138491008159
-0.07744054125021438 0.012461849592352353 0.008782515807700952
-0.07731741180854568 0.012496650831272523 0.007039238760466193
0.0009614884804930446 0.0124030573158424 0.03805171425351711
-0.0018236718782784211 0.012338712330232468 0.03857644552290396
-0.004493941890296949 0.012277825583153839 0.03903150332402949
-0.007063344781300995 0.012219962947003298 0.03942611012007646
-0.00954210329544719 0.01216481044593682 0.039766839770677964
-0.01195127551146552 0.012111697805530805 0.04006863828963775
-0.01428759747593733 0.012060744650877225 0.04032824912707306
-0.01654994504123336 0.012012001477985064 0.04054399536891451
-0.018752186590959785 0.011965026755861034 0.04072572628896487
-0.02090170925659568 0.011919588554167295 0.0408784937169408
-0.023004635248525362 0.011875494700054669 0.04100648185270589
-0.025065887253284846 0.011832591038776532 0.04111303323943205
-0.02707868129477836 0.011791109901600288 0.04119235328341003
-0.029059325818074855 0.011750519002903921 0.04125680496905548
-0.031014115386683805 0.01171061464611796 0.041311055518415574
-0.03294164581090908 0.011671448059770122 0.041353717998021844
-0.034827587234361745 0.011633502770872129 0.04137298426257496
-0.036684760053769694 0.011596357401847723 0.04137874856702517
-0.03851005821537801 0.011560121352458918 0.041368177043071386
-0.04031223334391193 0.01152450622336612 0.041348068827098794
-0.04209257988244569 0.011489472426444923 0.041319246248253116
-0.04386213493631469 0.011454650985194693 0.041290598376027776
-0.045594537136749436 0.011420935540521789 0.04124015554445404
-0.04731239613272942 0.011387566388170492 0.04118635719739938
-0.049010697777369105 0.011354716254090659 0.04112486035011054
-0.05067511458259727 0.011322876677503736 0.04104337538711422
-0.052319967442817805 0.011291565336615789 0.040953649134729875
-0.053956596406137425 0.011260397668517172 0.04086514075813463
-0.055572432723940746 0.011229805665335529 0.04076702198879112
-0.05717116052307242 0.011199666517197096 0.04066223889162068
-0.05873148386379501 0.011170716805169291 0.040532167779560146
-0.060282938491445615 0.011141944783625674 0.04040205079529058
-0.06181416616879021 0.01111374463123445 0.04026187600719772
-0.06332306133755183 0.011086193186419261 0.04010956241048691
-0.06481321778844129 0.011059169896643442 0.03994802887564103
-0.06629292815991156 0.011032389458340553 0.039784436596709105
-0.06776469529978768 0.011005766130966965 0.03962092491804764
-0.06922070203721348 0.010979574488894722 0.039450406965246265
-0.07066118109030761 0.010953809290418445 0.03927291853404663
-0.0720879159028518 0.010928410743095565 0.03908990618700081
-0.07350573249598685 0.010903211333291531 0.03890562572575934
-0.0749362022186113 0.010877450807150444 0.03873978682495388
-0.07625325689600304 0.010855586490967337 0.03847635193924592
-0.07724581913714068 0.01084513142475297 0.03791804586073544
-0.0775957033361786 0.010857474861758679 0.03676367580903678
-0.07763868239383698 0.010880809862519896 0.03531842733063911
-0.07775270134137474 0.010901715034398848 0.033933674280329895
-0.0778671592588639 0.010922700690631174 0.032543589967704456
-0.07781846088438504 0.01094963661022043 0.03099248025767931
-0.07783392770290343 0.010974389708350405 0.02949530274840223
-0.07785100114923171 0.010999199594272922 0.027992818044016377
-0.07787354161591314 0.011023927201463097 0.026488733313095925
-0.07788383733753235 0.011049213307271469 0.024965876710138557
-0.07785086249651618 0.011076187902013637 0.023393717978429374
-0.07785340066868474 0.011101996696146477 0.021848881171729673
-0.07782952209148064 0.01112888976851264 0.02027075206528811
-0.07780864482910749 0.011155799507747774 0.01868805045611821
-0.07776031998782379 0.011183841583870913 0.01707041402800713
-0.07771410203617557 0.011211938676363184 0.01544698004046291
-0.07767000796352197 0.01124009055036758 0.01381774227666488
-0.07763041772397128 0.011268209781184995 0.01218508715108213
-0.07758431114961722 0.011296703719894701 0.010537812919726719
-0.07754430553448044 0.011325107279232782 0.008888667093456926
-0.07750330431097513 0.011353683533928512 0.007230391002624903
0.0011108841527339153 0.011167094650760068 0.03794147498243683
-0.001625486507057794 0.011110614511279513 0.038429408588170344
-0.004287467919556864 0.011056070437844304 0.038877484531343875
-0.006852923242059383 0.011004122136933216 0.03926829477612431
-0.009330889943333975 0.010954520984926885 0.03960757191262049
-0.011741311541831945 0.010906695897121158 0.039909455382798
-0.014085947752142003 0.010860606274015088 0.0401745429357796
-0.016360429057215242 0.010816391984099616 0.04039875783193314
-0.0185964989072282 0.010773126508205777 0.040605769770001965
-0.020727751980705478 0.010732783091583166 0.04074373835154749
-0.022844081714210318 0.010692711628855732 0.04088144024423884
-0.024901978407877168 0.010654208283065635 0.04098469216624012
-0.02692876451645515 0.010616468487426624 0.04107433765346252
-0.028900275946372622 0.010580219088537856 0.04113092805711499
-0.03084326001612453 0.010544668800283584 0.04117511079546721
-0.03277135849313545 0.01050941279074961 0.04121749999250829
-0.03465691212778793 0.010475284664789258 0.041235726013218676
-0.036519218105752094 0.010441710192907397 0.04124490731242575
-0.03833769168083251 0.010409314607487256 0.04122807444362847
-0.0401467261690267 0.010377064645680716 0.041212824501937084
-0.04194099650934724 0.010345122764964952 0.04119472011913383
-0.04367530260749902 0.010314864883993096 0.04113629856530121
-0.04541715345846492 0.010284245511130975 0.041092880469671966
-0.047155700233900255 0.010253593483240531 0.0410555675782312
-0.04884134221876296 0.010224426144207122 0.040982754156706935
-0.05052431827838505 0.010195212799581096 0.04091617159919225
-0.05217717598772326 0.010166796753546196 0.040832559969024074
-0.053806415530093465 0.01013898307866232 0.04073711145465314
-0.05542086825793108 0.01011150317652144 0.040637130163465596
-0.05701405249272584 0.01008455976005631 0.040526885071962115
-0.05859047049934629 0.010058016813913408 0.04041003895529671
-0.06014378512780855 0.010032073904122035 0.04028089743131419
-0.06168992505390014 0.010006239017632361 0.04015313606260129
-0.0632037696302053 0.009981296873589361 0.040004604739312055
-0.0647076680208144 0.009956554396024515 0.03985467344729565
-0.0661865230965632 0.009932486206173059 0.03968983005129678
-0.06765586165518622 0.009908609001292082 0.03952365088470178
-0.06911815272135735 0.00988484632033824 0.03935826877495846
-0.07056717826192493 0.009861395185138452 0.039188016259914304
-0.07200234131719152 0.009838276590444091 0.03901221118835102
-0.07343156382956106 0.009815241638453648 0.038837933782375156
-0.07489170869620337 0.009791119547470636 0.03869896616847451
-0.0761945558968411 0.009771897360847789 0.03842221498286169
-0.07717445583369048 0.009762896253909175 0.03785188716589577
-0.07765413525729681 0.009769857921642098 0.036818129123162624
-0.07769343041620652 0.009790973272329214 0.03536971386051008
-0.07772299206311067 0.009812498404800451 0.033905698236548265
-0.0777923784664949 0.009832839650577673 0.032472804810396494
-0.07783222820608104 0.00985422841845747 0.031005579862541488
-0.07786612049803254 0.009875908867100542 0.02952609367111747
-0.07794930751995183 0.009896090729087474 0.02808733281394382
-0.07806205947147332 0.009915405054767509 0.026670922777531747
-0.07793475947364731 0.009942632452144499 0.02501534522956267
-0.07795372243994475 0.009965209142295981 0.02349416080423139
-0.07794177523145618 0.009988903478303295 0.0219356271012206
-0.07794453086352032 0.010012226363361871 0.02038422723807093
-0.07796754176400239 0.010034992528267249 0.018845641804156765
-0.07795944571049124 0.010058891615958654 0.017268927559767777
-0.07794270590365238 0.010083189217632954 0.01567606215931233
-0.07785528698486832 0.010109943345312834 0.014004370675569922
-0.07787359991983744 0.010133313258181462 0.012431308751553571
-0.07775164334491769 0.010161463404010281 0.010708113384629403
-0.07767015381152576 0.010188397489255263 0.00901741039384224
-0.07757791544344517 0.010215819753800872 0.007307113221516226
0.0013728795943726002 0.009933076527811505 0.03774814818736044
-0.0013774648138425438 0.009882524201211005 0.038245397279498994
-0.004035989521626149 0.009834143667116097 0.03868989478772161
-0.006607484908910055 0.009787823974862386 0.03908421697161524
-0.00909963420489096 0.009743377865045717 0.039433190862574075
-0.011524923822312627 0.009700491086614116 0.03974540234904356
-0.013848370215548966 0.009660088881414874 0.039993451002702296
-0.01617475543231317 0.009619439368701894 0.0402564649266518
-0.018406699450180142 0.009581099863010633 0.04045953031404226
-0.02056946390653408 0.009544419815603212 0.040621121075764044
-0.022628479990945416 0.009510322008027408 0.04071352624358893
-0.024699066846072038 0.009475773312289971 0.04082581185968709
-0.026726753934730285 0.009442214376160414 0.04091531338463167
-0.028655231143437987 0.009411146998780958 0.040936992137831585
-0.030654276561145444 0.009378068618739575 0.04102474207515794
-0.03260746438604201 0.009346071552837572 0.041086396110695034
-0.03447863788261479 0.009316129191626698 0.041092356477444025
-0.03632127992788203 0.009286822195369623 0.041084873590601756
-0.03815419188748309 0.00925764997072911 0.04107892253248013
-0.039947544063743956 0.009229415871997444 0.041050062679484745
-0.04174885718129828 0.009200844820992054 0.041036877169182084
-0.04351677871110454 0.009173051921651458 0.04100537792986109
-0.04527316800038855 0.009145450353188004 0.040973334695727004
-0.04696905016763736 0.009119370383266445 0.040899776065711435
-0.048690949608448775 0.009092468870332895 0.04085655976696467
-0.05036993356627323 0.009066619216819576 0.04078594082012604
-0.05204111020410773 0.009040869356182611 0.04071717426749033
-0.05367223991956199 0.009016102520417511 0.0406227266513875
-0.05528181085576045 0.008991817973667054 0.04051795698080274
-0.05688524469434464 0.008967594871655665 0.04041591284810914
-0.05845930101894942 0.008944074065399267 0.040296435720009405
-0.06001110725007003 0.0089210633820457 0.040165381925306
-0.06154758363589874 0.0088983746736482 0.04002855413236872
-0.0630632646236231 0.008876161716226837 0.03988098274908908
-0.06457381730842665 0.008853992097554072 0.03973628672916041
-0.06605922318188678 0.00883242394026328 0.039576645539396216
-0.06753422865801806 0.00881104945082265 0.0394149369638751
-0.06900132265034342 0.008789800268428549 0.039253299656202834
-0.07046214154909208 0.008768631332787174 0.039093148308169345
-0.07191516242072915 0.008747586009027319 0.03893305960157234
-0.07335658646108384 0.008726772191983319 0.038769503756238166
-0.07482494431094322 0.008705103150999718 0.03863771307165792
-0.07612896717894352 0.0086879877697889 0.0383617258325778
-0.07711901241282021 0.00867970315610886 0.03780048729810814
-0.07766779144345898 0.00868392978629504 0.03683085546487136
-0.07772687787848392 0.008702133967202602 0.03540104657718096
-0.07767879833759911 0.008723483393222877 0.033864082765825865
-0.07782672113577693 0.008739318504178235 0.0325053125061629
-0.07787428732777008 0.00875810700313976 0.031045599111538646
-0.07793584826014816 0.008776579764512214 0.0295927850573669
-0.07796619754932044 0.008796038082494132 0.02810357140792452
-0.07800514394116181 0.008815338305187529 0.02661591785529388
-0.07802730164547422 0.008835214714381501 0.025105245704559243
-0.07805265001135375 0.008855091222757992 0.023590763665275627
-0.07806030278200587 0.008875575702171432 0.022051970336426363
-0.07805479566728463 0.008896540111571477 0.020493021701633196
-0.07804381578982883 0.008917763057288567 0.018921289119558204
-0.07800704120773833 0.008939841991792867 0.017316376729708483
-0.0779497464749464 0.008962628017393148 0.015683117459853624
-0.07787254730169052 0.008986108021713369 0.014021756698389565
-0.07778235364032693 0.009010082974282168 0.012338922033446498
-0.07773744301726432 0.00903283207704631 0.01069366116043674
-0.07772236226998303 0.009054804887402712 0.009070819859650026
-0.07770879370619177 0.009076837715199463 0.007441694622309147
0.00200422515433174 0.008705717126406966 0.03728227743430779
-0.0011053487078491187 0.008653374212798142 0.03804350993599581
-0.0037799060466700007 0.008610690079545343 0.03849886989728091
-0.00638177852120364 0.00856948134444747 0.038914938050186976
-0.008891050484714835 0.008530211352281955 0.03927590590873126
-0.011317573485740584 0.008492667218673419 0.039588200952216546
-0.013665645639399038 0.008456761419933472 0.03985417038219308
-0.01598485110104403 0.008421366644295143 0.040110929775732884
-0.018221704652940096 0.008387715893329083 0.040316992822499675
-0.020397168554573186 0.008355337240260607 0.04048765311364377
-0.022504882715345675 0.008324385631946938 0.04061726674852967
-0.02451440215225531 0.008295574636675651 0.04068121890055698
-0.026519695988776848 0.008266738930807004 0.04075231579222971
-0.028504412623453823 0.008238258333448491 0.04081762976830644
-0.03044142759267887 0.00821076678686875 0.04085538424956936
-0.03237212546420215 0.00818330483637832 0.040898141348262584
-0.03426949041424032 0.00815650450911741 0.040924158455232895
-0.03613325962286046 0.008130376236959547 0.04093285850430123
-0.037941233532158 0.008105445803553381 0.04090582617573779
-0.03976082727391517 0.008080134071178203 0.04089748689988926
-0.04153761352515023 0.008055722518495562 0.04086333996478153
-0.04330369612600582 0.008031458024991259 0.040829398736333455
-0.045050322842060564 0.008007548916704446 0.040788314643854295
-0.046778681481701556 0.00798396931423266 0.0407408807268983
-0.04848731288658503 0.007960756100485182 0.0406856882607714
-0.050163576144717226 0.007938213150644476 0.04061186861175947
-0.051841515912838865 0.007915531178482323 0.040547915496414844
-0.05348523085087642 0.007893569229921397 0.04046330128752473
-0.0551097220505124 0.00787197194568293 0.04037047565077695
-0.056716972223601114 0.007850694039948685 0.04027094048986446
-0.05830308768914616 0.007829831521088694 0.040161142513030545
-0.0598692439012507 0.007809358748272999 0.04004186912270319
-0.06141248816482042 0.007789349835855105 0.039910314095217725
-0.06293727373774455 0.007769699787862665 0.039770130869564435
-0.06443904663117211 0.007750521799249133 0.03961708633122146
-0.0659334241116939 0.007731438251776372 0.03946479545376563
-0.06741648128647282 0.007712545694925528 0.03930969596245487
-0.06889151789020215 0.007693764599440731 0.03915464261690488
-0.07035468023420355 0.007675190317286289 0.03899609048371594
-0.07180689919423872 0.007656801347914949 0.03883476510010214
-0.07325372338592323 0.007638462128972736 0.038675623121791736
-0.07469440162966279 0.007620191564265441 0.038517946470587594
-0.07609921421565474 0.0076027263030683905 0.03833428618250606
-0.07719799422104595 0.007592779359237705 0.03787370887132108
-0.07768372211699426 0.007598042144180645 0.0368457014249845
-0.07775119870321473 0.0076137606359217725 0.03542382969609664
-0.07773441939286235 0.007631657540607293 0.033916458897732926
-0.07785342675837431 0.0076462345616128205 0.032530591212588444
-0.07790104618810662 0.007662671618139489 0.031071060163783304
-0.07794810479266878 0.007679198777606798 0.029604507865035046
-0.07798155049866035 0.007696145968785279 0.02811833220586607
-0.07802283617849631 0.007712973607085747 0.026633016178606916
-0.07806199048752671 0.007729933604867976 0.02513894432342706
-0.0780866415473579 0.007747341214459012 0.023623956430270487
-0.0780897267208307 0.007765379432405181 0.022080852028653175
-0.07808506571226137 0.007783699936948305 0.020522888106803583
-0.07808349432779021 0.0078020274775862965 0.01896064163626765
-0.07807489762020625 0.007820621510057765 0.01738402452483595
-0.078043589716914 0.007839887148068877 0.01577715702684307
-0.07799880203517295 0.007859591291382003 0.014148930938585713
-0.07793413845218794 0.007879902260934433 0.012492603922741707
-0.07789278585759624 0.00789970628950838 0.010851759593797528
-0.07783304840625888 0.007920081817884334 0.009184052228225992
-0.0777856819248558 0.00794023287863925 0.007520758356462709
-0.000934538220465353 0.007420495193903189 0.03791678287067013
-0.0035993728531391045 0.007384104927896635 0.0383642015688343
-0.006187496685726324 0.007349058622535848 0.03876922742189287
-0.008691635681428889 0.007315506875002486 0.039125534882152924
-0.011121357757662875 0.007283271715061508 0.03943944119111281
-0.013471494178704246 0.007252462883787417 0.03970617969321133
-0.015745170085374127 0.0072230279361713045 0.03992724774723566
-0.01798143148721776 0.007194206057556677 0.04013186364677157
-0.02014933081575815 0.007166612342976333 0.04029566651876665
-0.022264311834438777 0.007139948949004004 0.04042990637663074
-0.024324679840447117 0.007114255417884571 0.040532665812739455
-0.02631529144221728 0.00708983893223086 0.04059140697604402
-0.028295154285923996 0.00706553233978603 0.04065201634753379
-0.030235902853173513 0.007041902544423514 0.04069185410310899
-0.032153380343709015 0.007018636976394009 0.040723160472299735
-0.034035878410076936 0.006995972694346809 0.04073628586289202
-0.03589887068532677 0.0069736027200155955 0.04074335421345887
-0.037733505996094874 0.006951707158673691 0.040736981522365545
-0.03954212862388956 0.006930241787204266 0.04071877711672128
-0.04133151158839499 0.0069090724490971835 0.04069402669602723
-0.04309034590040689 0.006888430239396343 0.04065319850569321
-0.04483692978784698 0.006867946993889201 0.040611142322695915
-0.04656700525345836 0.006847710413349043 0.0405642005873047
-0.04827383749800773 0.006827859484414303 0.04050656113258183
-0.049967342561465844 0.00680819404044493 0.04044633633802458
-0.05163738979896021 0.006788922844405489 0.0403748136759175
-0.053287791085647795 0.006769970233992796 0.04029498374745144
-0.05492224347965963 0.006751262242308746 0.04020980518217293
-0.05653175569075036 0.006732985911786948 0.0401113702557398
-0.05812508728353488 0.006714963067372116 0.04000697996013558
-0.05969917371821676 0.006697258874955576 0.03989379814369054
-0.06126006251977012 0.006679749914607779 0.039776906114997124
-0.06278839541989129 0.0066628402633158185 0.03963914170126526
-0.06430981798013852 0.006645999159596576 0.039502787680045115
-0.06581474498477241 0.006629427388577567 0.03935927583038229
-0.06731218559830715 0.006612938055284293 0.03921647789293603
-0.06879428846572244 0.006596696542169366 0.03906728422607125
-0.07026520352795718 0.006580617207538804 0.038915276151074096
-0.07172350853578463 0.006564731143260335 0.03875905293572529
-0.07316550062961019 0.006549117925689763 0.038595104351354936
-0.07462063454044665 0.0065331554457151225 0.03845026873132551
-0.07603282142714379 0.0065180322043782 0.03827305547864818
-0.07718584582835719 0.006508355117668953 0.03786244647502174
-0.07767234323406363 0.006512850253942133 0.03683509732580781
-0.07775879816628395 0.0065259180838371 0.03543094867634161
-0.07775498643088924 0.006540980057883556 0.033935826058092144
-0.07782290566523031 0.006554570820558917 0.032501700901173325
-0.0778934012783084 0.006568168807592976 0.031063786033071805
-0.07793355005061486 0.006582484408734138 0.02959058692601979
-0.07797233891447225 0.006596895750981864 0.02810947590536561
-0.07801360570201765 0.006611320313049251 0.026624095561718186
-0.0780596781435246 0.006625707614280343 0.02513669798729684
-0.07808432418331168 0.006640628649029319 0.023621693522228204
-0.07809514630078157 0.006655921215377557 0.022086171732485893
-0.07810369044569815 0.006671335311161439 0.020541264486337807
-0.07809905172056503 0.006687110942578671 0.018976071200726974
-0.07808581422283739 0.0067031498956498506 0.017394907565530582
-0.07808501877055046 0.0067189904214412875 0.015818672752249296
-0.07804582677042615 0.006735753940176038 0.014196298152561015
-0.07799543871372955 0.006752844840201289 0.012554670343568053
-0.07797630594576804 0.0067693234117336834 0.010936761226739922
-0.07793180751530215 0.006786444756148273 0.009285083199327582
-0.07789579446563377 0.006803458696875096 0.007633986479084198
-0.07692381867077058 0.006841473415402403 0.0050073565667991815
-0.0008836980171808007 0.006184568797954605 0.037879063700954674
-0.00350529933456889 0.0061549464429567265 0.03829402763987877
-0.006069140014157315 0.006126139019248283 0.038680460374089565
-0.008536969070699785 0.006098774591516436 0.03900890674497609
-0.01093734656411438 0.006072396144234977 0.039299934223649635
-0.013265880068637936 0.006047081731116033 0.039549451674250224
-0.015531519633307456 0.006022691397981532 0.03976351451072846
-0.017744854034685897 0.005999057095389316 0.03994958199808463
-0.01991307431310202 0.005976065271740832 0.04011265128598002
-0.022033258306634884 0.0059537682087959665 0.0402499582684695
-0.024075303436329742 0.00593266787008862 0.04033740340787312
-0.02607877704938044 0.005912116539369041 0.04040522104425914
-0.02805214321328764 0.005891977240185073 0.040459689984340685
-0.029998825965189047 0.005872195660357606 0.04050321881614655
-0.03191837156195815 0.005852781663418809 0.0405351697989671
-0.03380941384711095 0.005833760439917603 0.04055416129840256
-0.03566046609130685 0.00581532682996451 0.04055060325004445
-0.03750077410052688 0.005796993963609153 0.04054781287876358
-0.03931314963495064 0.005779051493559026 0.04053166674608788
-0.041101716477651595 0.0057614324702553454 0.04050524942417688
-0.04286778367065369 0.005744116894713848 0.04046939032782859
-0.04461350841171896 0.005727070240117559 0.0404256438586017
-0.046340981992079644 0.005710258796324803 0.04037554538637245
-0.04805572444051531 0.005693590278607598 0.0403235425379343
-0.049749226171454886 0.005677210584333309 0.040262344885699464
-0.05142355976755819 0.005661086231842059 0.04019348279664209
-0.05308499912195358 0.005645111561925271 0.040122103454385216
-0.054721014685617575 0.005629502413294677 0.04003735067450154
-0.05634464974091841 0.005614037056459278 0.039950172225729885
-0.057952723545212415 0.005598771229466479 0.03985769921083021
-0.05953388568264445 0.005583902186140962 0.03974989072376739
-0.06109682340489475 0.00556928228514033 0.03963403382732311
-0.06263449039733504 0.005555035364839468 0.03950372983476652
-0.06416269287709214 0.005540889256953021 0.039372660183565944
-0.06568152616386297 0.005526842978530709 0.03924082871862322
-0.06718949027152094 0.00551292338418121 0.03910681447632541
-0.06868671266962573 0.0054991290986479485 0.03897062985945393
-0.07016310616988969 0.005485637836980049 0.03882306299076849
-0.07163461322929238 0.005472171488118342 0.038678342983528624
-0.07309116879616151 0.005458907500034672 0.038527263489385455
-0.07454068035134787 0.0054457076575899575 0.038376914626937764
-0.0759702180156972 0.005432801172336776 0.03821531952519974
-0.07715167329887523 0.005424235272208002 0.0378307661878069
-0.07768827343267598 0.005427092063754492 0.036849942843335315
-0.07778767267564063 0.005437750670742191 0.03545799756911505
-0.07778164328202525 0.005450340733224408 0.03396092775284998
-0.07788699291091317 0.005460995383079075 0.03256236388191186
-0.07789110773065566 0.005473515148536058 0.031061603722768727
-0.077943508708335 0.005485224620236421 0.029600111922497396
-0.07798538849450054 0.005497177954663497 0.028122022173170946
-0.07801052875235798 0.005509489173785094 0.026621121902756673
-0.0780442616207806 0.005521702131897185 0.025121721542610942
-0.07808123430980651 0.005533913280971062 0.023618676258015447
-0.07810288822369937 0.005546460187806458 0.022093770981392924
-0.07811300195927379 0.005559276319882382 0.020550451834338568
-0.07811538527461881 0.0055722939499364636 0.01899227054908631
-0.07811388189818086 0.005585444090439032 0.01742288894978422
-0.0781037753944786 0.005598814281445179 0.015837468616025974
-0.07807873545889726 0.005612522594991445 0.01422944651331337
-0.07804179049901644 0.005626515566470207 0.012601601455105194
-0.0780101737017943 0.0056404765390480815 0.010971229755561418
-0.07796892440778469 0.005654682605276615 0.009323053931628744
-0.07797100554613556 0.005668151418252391 0.007711325621250875
-0.07725817211224445 0.005695000354782566 0.005352947729671487
-0.0007668224407114121 0.004949168259363703 0.037792351819025904
-0.0033641015574956135 0.004925789093255796 0.038188701476601306
-0.005899930027252753 0.004903111179184398 0.03855355353565598
-0.008341362854208889 0.0048815681489642986 0.0388614076270864
-0.010730375051564489 0.004860619122562899 0.039143020029951514
-0.013046715905595085 0.004840532794518284 0.03938239521547954
-0.015292260466323648 0.004821290033968863 0.03958015577034052
-0.017483862597992006 0.004802674747325538 0.03974848950653659
-0.019640700286744694 0.0047844384117563445 0.03990165774599963
-0.021751661655956267 0.004766730051706576 0.04003064638418108
-0.023820699174701643 0.004749500771629919 0.040138047576311287
-0.025831308330197866 0.0047329723255722005 0.040210411783325906
-0.027801129149795878 0.0047169149613365225 0.04026102981047314
-0.029741474446415284 0.004701181159065329 0.040298451586380624
-0.03166232415876946 0.004685639909202423 0.0403303496923656
-0.03354997019952327 0.004670475652252056 0.040345514697329
-0.03541525199407036 0.004655545648501516 0.04035234677902533
-0.037254874073096744 0.004640895645566259 0.040347940942271454
-0.03906929707376933 0.004626521263099691 0.04033240242356656
-0.04086980610906471 0.004612272167042517 0.040314734462592094
-0.04264224304891895 0.004598340441664524 0.040283122375887825
-0.04439067998428703 0.004584673027100205 0.04024063769777009
-0.04611817978411065 0.004571230094191078 0.04018957870729639
-0.047839949422411376 0.004557806330184825 0.04014248579136692
-0.04953776171153673 0.004544650256981184 0.04008396464983771
-0.05121203484302472 0.004531757925594085 0.04001410668046773
-0.0528768356399163 0.0045189385336067015 0.03994464393811692
-0.05452631521803991 0.004506272797774535 0.03987049184604796
-0.05614892415742351 0.004493920520286452 0.03978154809319823
-0.05775682310739999 0.00448171622604433 0.039688033801907774
-0.05935187354342486 0.004469635194691417 0.03959142252454717
-0.06092438130811273 0.0044578124151367915 0.03948310678463873
-0.06247962188013273 0.004446176439289993 0.03936747024669107
-0.06402271721259856 0.0044346573148854275 0.039248856139175115
-0.06555382004335664 0.0044232536987244735 0.03912728304223401
-0.06707148538267754 0.00441198654647523 0.039001343309441716
-0.06857985500061686 0.00440079881246219 0.038874620713428454
-0.07006723107646085 0.004389855120396857 0.03873646970836614
-0.07153708193216812 0.004379108363845263 0.03858979223052278
-0.07299975371108669 0.0043684140968306764 0.038443831157896236
-0.07446222346396747 0.0043576741425175505 0.03830493422451353
-0.075924394462555 0.004346889558304996 0.03817305878461191
-0.07713420439017521 0.004339636049333284 0.03781457130690885
-0.07770344350515695 0.004341457941270225 0.03686407999142677
-0.07779603006679003 0.0043500814271157885 0.035465826556762
-0.07777174270934978 0.004360414013372262 0.03395160477798098
-0.07784656004461904 0.004369375207035386 0.03252409139628587
-0.07789110773064262 0.004378812118829034 0.031061603722756292
-0.07792895352772539 0.0043883890544494245 0.029586190564023895
-0.07796235907042531 0.004398074380929243 0.028099880976195757
-0.07801283647039481 0.004407557991197946 0.02662335215257544
-0.07805197007695797 0.004417250054697388 0.025129209954198373
-0.0780704192594519 0.004427287637586036 0.023608115351771486
-0.07811062975350325 0.004437055495959199 0.022101369844430674
-0.07812308879057167 0.004447273928881195 0.02056040416148769
-0.0781286063939376 0.004457641862967781 0.019005383036230283
-0.07811855934172218 0.004468286725588249 0.017427552013021652
-0.07811549711273019 0.004478879240823083 0.01584921485673163
-0.0781155534287784 0.0044894759645553286 0.014266532626570627
-0.07808184594644546 0.004500621273998849 0.01264215753421477
-0.0780400970877741 0.004511938541425466 0.011001683946009755
-0.07804313110581862 0.0045226456461481155 0.00939896768619003
-0.07798525188864658 0.004534309365763207 0.007725975057231049
-0.07750507603655166 0.004552321321695344 0.005608150170366977
-0.0006422929771432995 0.003713085433046458 0.03769996139437293
-0.0032185151297263737 0.003695758478782775 0.03808010160923764
-0.005727391069457299 0.0036790158181458834 0.03842414998187632
-0.008163361614019371 0.003662915442350474 0.03872718374411255
-0.010526282888101646 0.003647462802851625 0.03898828879725508
-0.012820109959141568 0.0036326231759086815 0.039209666305673685
-0.015052689551348308 0.003618323277649217 0.039396558118650726
-0.017241610319931266 0.0036043932085419506 0.03956183543544706
-0.019396807895866786 0.0035907372034314797 0.03971272740042364
-0.021481467874425342 0.0035777213122003583 0.039820215233072664
-0.023561823134015558 0.003564692797722075 0.03993534693009115
-0.02557962144067283 0.003552230484511923 0.04001228194656542
-0.027568960869229664 0.0035399984106519195 0.04007728476311512
-0.029499925870055455 0.0035282966225749805 0.04010625830510228
-0.03141156341599011 0.0035167379896542915 0.04012975854624212
-0.03330417019842963 0.003505320460395575 0.0401478404229772
-0.035171546029360845 0.0034941072258111816 0.04015530963852598
-0.03701046278075221 0.0034831321038116753 0.04014927907626048
-0.03882965737532623 0.003472308498005045 0.040136580645324216
-0.0406276343028068 0.0034616525128419707 0.040115789703686955
-0.04240205397737312 0.003451188944855734 0.04008475666202527
-0.04415243543136377 0.0034409239337446344 0.040042832100955716
-0.04588537591291747 0.0034307916430014944 0.03999526392380981
-0.04760638985849569 0.0034207367037167565 0.039946506038271046
-0.04931387195947001 0.0034107760316611415 0.03989510309458555
-0.050996793830697995 0.003401023214144468 0.03983157926948888
-0.052670118805818955 0.0033913260122677546 0.03976841769024475
-0.05432799253684939 0.0033817450258369166 0.039700527897759186
-0.05596222052613642 0.0033723655198290626 0.03962069667406265
-0.057569872555090496 0.0033632191134192594 0.03952611970789105
-0.05916882774119642 0.003354122185912919 0.03943205437043218
-0.0607492869324745 0.0033451767821417633 0.03932985837952829
-0.06231317523729135 0.0033363638882725854 0.039221023755178
-0.06386641429129875 0.0033276226514680624 0.0391106111529696
-0.0654091229762539 0.003318952310767662 0.03899863042722568
-0.06693263707765262 0.0033104440848005707 0.038877242580274196
-0.06845786936044213 0.003301879552892055 0.03876501943493171
-0.06995949799480705 0.0032935247284168697 0.03863916642729409
-0.07144808010560283 0.003285269717283374 0.03850898556647098
-0.07291758908405083 0.003277178886588746 0.03836884149515146
-0.07438449642854617 0.0032690788886584666 0.03823362342598863
-0.07584569879571168 0.0032610026061982177 0.03810048175961489
-0.07708102586643295 0.0032552928701505847 0.03776527115467104
-0.07774363690801678 0.0032556648105939385 0.03690153664097434
-0.07787122599785296 0.0032617573014392994 0.03553626815807864
-0.0777915432124543 0.0032700983767208203 0.03397025012294108
-0.0778747878916119 0.0032767282895515407 0.03255081099267626
-0.07792015678661995 0.0032837964357565162 0.03108924389586515
-0.07796036034040399 0.0032909529797374368 0.029616229730801413
-0.07799766943230496 0.0032981739812913257 0.028133829444689284
-0.07805513844685968 0.0033052100277943027 0.026664234086086813
-0.07808202933317249 0.0033126110028156635 0.025158411142784887
-0.07807582688049919 0.0033204068473422026 0.02361339589851058
-0.07811062975349065 0.0033277916219695367 0.022101369844418295
-0.07815412100913965 0.0033351159685443372 0.020591022576947504
-0.07815971038768088 0.0033428903344938465 0.019036231462014164
-0.07815597372451555 0.003350803820388067 0.017464851369264844
-0.07816315615061054 0.0033586343706724572 0.01589697359983805
-0.07816724025323568 0.0033665361919717196 0.014318595883505314
-0.07813445182081652 0.0033748836471079774 0.012695420901360943
-0.07810307450231274 0.0033832551350505683 0.01106577850327678
-0.07806680649541181 0.0033917209163986215 0.009423187706246727
-0.07805409045662698 0.0033999645713644884 0.007796761379672668
-0.07776747145519652 0.003411308647816939 0.005879364779261487
-0.0004992547576916917 0.002476316266750616 0.037593839024147535
-0.0030428064535496513 0.0024649788322605006 0.0379490321186276
-0.005549394210843495 0.0024538343147307794 0.038290653023505095
-0.00795478047158843 0.002443302388689141 0.038569900734048146
-0.01031677823002447 0.002433009508450312 0.03882945411467886
-0.01260041688157959 0.002423185948748599 0.03904220668524855
-0.01483518149693408 0.002413641387322309 0.039229868568635196
-0.016991986220404764 0.0024045686655592845 0.03936950141575618
-0.019143610302623848 0.002395491656858789 0.03951658881398307
-0.021261267137303363 0.0023866002442264806 0.039648719448362346
-0.023285929819299334 0.002378285848955216 0.039719321711872535
-0.02530623668170867 0.0023699649041361826 0.03979707138169025
-0.027279765744083972 0.0023619190246465904 0.039848406934343605
-0.029235174924915175 0.0023539592966342914 0.03989560356378735
-0.03114721776635404 0.0023462546139143806 0.03991830041988026
-0.03303460824423948 0.0023386815694746146 0.03993105660096624
-0.03490613922360297 0.00233118213126775 0.03994072729074494
-0.036747288927606814 0.002323854231350062 0.03993536666554631
-0.03857142086535059 0.0023166091055969984 0.03992556246712148
-0.0403787804932802 0.002309445637532922 0.03991135566198767
-0.04216332193300032 0.002302405197169976 0.03988759426783689
-0.04392543607198662 0.002295485941424286 0.03985436297036227
-0.04566285370282386 0.002288704057679453 0.03980953095101297
-0.04738389979948432 0.0022820038450019294 0.039759814703091645
-0.049093159503798944 0.002275354597321653 0.039708921738553116
-0.0507916247626371 0.002268749876357104 0.03965759300915084
-0.05246571034678221 0.00226228295135453 0.039594159333751044
-0.054124335749084485 0.0022558935552561585 0.039525992582198965
-0.0557651937798595 0.0022495980617708035 0.039450951546301516
-0.05738437904834687 0.002243424000147148 0.039365467531583764
-0.05899055271756831 0.0022373123768378357 0.03927683987714936
-0.06057647221301016 0.002231313726809874 0.03917860520511318
-0.062147372829683356 0.0022253924966952575 0.039075144087891756
-0.063706713887346 0.0022195251600238453 0.03896936120090305
-0.06525624401773866 0.0022136998970427777 0.03886270315387763
-0.06679366668189773 0.00220793302561038 0.03875303272807046
-0.06832072061160493 0.0022022127724345784 0.03864179445373522
-0.0698367334768642 0.0021965441681884904 0.03852828692573612
-0.07133089491986805 0.002191003553277466 0.03840259062716528
-0.07281365824471098 0.0021855181502705933 0.03827398633823009
-0.07428670485802713 0.002180076462141982 0.03814390438621157
-0.07578301903452589 0.002174445345296105 0.03804267539267164
-0.07708102586642718 0.0021701952467670974 0.03776527115466566
-0.07773074583730238 0.002170534858880049 0.03688952331829731
-0.0779425898715213 0.002173996328921583 0.03560311998724419
-0.07789735618735316 0.0021793098307398176 0.03406988998602073
-0.07796782651014683 0.0021838194826953525 0.03263887843673613
-0.07799199121974104 0.002188682190512884 0.03115759434994486
-0.07802927945374522 0.0021934729950810507 0.029682147681820537
-0.07803604099021644 0.0021985060511598526 0.028170721041248015
-0.0780858961514152 0.0022032511187541595 0.02669395927950996
-0.0781205581740258 0.0022081283054936093 0.02519584014434606
-0.07816077860360215 0.0022129879006975808 0.023696351331313592
-0.07817719068647666 0.0022180434525904814 0.02216670414219113
-0.07819212686930471 0.0022231334680096687 0.020628521643083986
-0.07820946357973574 0.0022282298525607824 0.01908557585377557
-0.0782112989995234 0.0022334638245714096 0.017520006552584788
-0.07820299079753756 0.0022387970080640094 0.015936891582951696
-0.07819542568128518 0.002244149958796348 0.014346986584573895
-0.07816977393661045 0.002249661771486425 0.012731184489447045
-0.07812432350978787 0.0022553462433080786 0.011087404442297277
-0.07811651285073595 0.0022607787208021425 0.00947403751035053
-0.07809917474334749 0.002266307963429804 0.007843121304791312
-0.07793104143259416 0.0022729871378560263 0.006048432393611913
-0.00033332649455614094 0.0012386952133621157 0.037470734160015284
-0.0028583518721012058 0.0012330877072795068 0.037811438639710204
-0.005347885754413195 0.0012275721295020572 0.03813952245733093
-0.0077659140763611245 0.0012222663606683696 0.03842748385592021
-0.010109115569156724 0.0012171825619162315 0.03867201593108621
-0.012383548171762127 0.0012123023187047745 0.038876899920779084
-0.014671372684821271 0.0012073576160515603 0.0391043319890671
-0.016794461488407075 0.0012029331340790625 0.039217309677195944
-0.01888306723939598 0.0011986034341245294 0.039314760086174516
-0.020958671349394276 0.0011942982607704418 0.03941305310693333
-0.023025301598621428 0.0011900044561437449 0.03951524910393789
-0.025047007971768287 0.0011858411821433037 0.03959300456644599
-0.026995878342694013 0.0011819019343594784 0.039623729799786234
-0.02892707015855861 0.0011780046520466012 0.03965045342911894
-0.030862602523046512 0.0011740761948087972 0.03969062802895307
-0.03277776396740767 0.0011701989250801226 0.039724500434089816
-0.03463660657230522 0.0011664935371614837 0.03972280918214954
-0.03647356893985143 0.0011628455843492183 0.03971288216816332
-0.038304565398641854 0.0011592019230579188 0.0397075013012792
-0.04011505369554652 0.0011556115891822654 0.03969470342239506
-0.041913462131822565 0.0011520464646390099 0.039681241757678176
-0.04367672340877993 0.0011485847899960241 0.03964786609067611
-0.04542676540616336 0.0011451528606799119 0.03961247475081242
-0.047160236685197976 0.0011417622648958522 0.039572139057617695
-0.048881732024909086 0.0011383976200472021 0.03953057269793114
-0.05058101996826497 0.0011350940314974129 0.03947899717631709
-0.05226190562437416 0.0011318388813203542 0.03942041566316212
-0.05392297686292519 0.0011286373327164393 0.03935342658465785
-0.05557467750956524 0.0011254538449908846 0.03928681541121942
-0.05720704362361595 0.0011223228605129608 0.03921188090518618
-0.058815403504960506 0.0011192608569467288 0.039124346859728654
-0.06041171436690057 0.001116226922782914 0.03903440367348948
-0.06199694068680711 0.0011132179012071064 0.038942787801462986
-0.06356309035295216 0.0011102617353036513 0.03884233073105681
-0.06512013848241521 0.0011073240345364252 0.03874168941540257
-0.06666736927102829 0.0011044074221135277 0.038640149817630476
-0.0681945650960234 0.0011015477906738934 0.03852844663855515
-0.06971387263931567 0.0010987029298210429 0.03841732042941737
-0.07121596788481993 0.001095905710792094 0.03829824591121961
-0.07270267010846676 0.0010931500485270057 0.03817269015755137
-0.07418345599048043 0.0010904027670825813 0.03804917854015771
-0.07569966120431848 0.0010875176497309618 0.037965798690696384
-0.0770156669335264 0.0010853294353276822 0.03770467892465701
-0.07775652689009876 0.0010851757814925335 0.03691354894914345
-0.07798432985290832 0.0010868494449828951 0.0356422209211148
-0.07792094475994726 0.0010895706764001913 0.0340921024051099
-0.07794342842745933 0.0010919970716888139 0.03261578397535997
-0.07801567388218827 0.0010942561301991933 0.031180128400284723
-0.07807061597647724 0.0010965878538596663 0.029721684157968442
-0.07810508547151507 0.0010990041705154882 0.02823710253022882
-0.07815430978959742 0.001101378405441 0.026760076327486615
-0.07818141390232486 0.001103843791113041 0.025254958692920604
-0.07820863962998864 0.0011063202388551518 0.023743087665943075
-0.07821432834006686 0.0011088866200580463 0.022203157395013773
-0.07824097762516752 0.0011113885991140867 0.020676720992262254
-0.0782436594802553 0.0011139899375372491 0.019119490781485393
-0.07825725824989027 0.0011165635319614075 0.017565824506112715
-0.07826779748053952 0.0011191605121426966 0.016001833844959623
-0.07825804131023611 0.0011218444897164322 0.014410058239921808
-0.07823804015855018 0.0011245790000977184 0.012800303934496327
-0.07819513215055773 0.0011274112339789417 0.011159469142222989
-0.0781827627907053 0.0011301437492964828 0.009541811468979422
-0.07816005691613287 0.0011329277315910772 0.007905726109629196
-0.07807065174010791 0.001135973507292864 0.006192735046247899
-0.00011838199673436245 0.0 0.037311263357993285
-0.002640422033903078 0.0 0.037648874368537755
-0.005134476697600032 0.0 0.03797946648670708
-0.007521154373458683 0.0 0.03824291998611734
-0.009859614711264952 0.0 0.03848285837282733
-0.012135534178568164 0.0 0.038687852866491956
-0.014377984362055674 0.0 0.03887949080958375
-0.016516962532522217 0.0 0.039003498231319544
-0.018643157910322283 0.0 0.039128915204808434
-0.020725941816469307 0.0 0.03923179969972007
-0.022770186983636975 0.0 0.03931549366430548
-0.02477280757001854 0.0 0.03937715192135649
-0.02677422786692546 0.0 0.039448308863439085
-0.028684406251089367 0.0 0.039457372710833605
-0.030576578617372452 0.0 0.03946182880614829
-0.032503631444145586 0.0 0.03950404092485077
-0.034365724633378 0.0 0.03950380016969979
-0.03619479679063281 0.0 0.03948629118366165
-0.03808125926565692 0.0 0.03952502650959139
-0.039840928219335214 0.0 0.03946950864180798
-0.041633508243224926 0.0 0.039450035347649404
-0.04340352193168573 0.0 0.039421037059060915
-0.04515755813920713 0.0 0.03938777508613961
