# .PCD v0.7 - Point Cloud Data file format
VERSION 0.7
FIELDS x y z
SIZE 4 4 4
TYPE F F F
COUNT 1 1 1
WIDTH 775
HEIGHT 1
VIEWPOINT 0 0 0 1 0 0 0
POINTS 775
DATA ascii
-0.07690996959615781 0.04342817270398962 0.03760669021687224
-0.07717159250098132 0.04349020557628627 0.03636844251717802
-0.07745680853857911 0.043549160098722124 0.03514805261194215
-0.07781667092338962 0.04359772226939976 0.033993911887289896
-0.07803109085547533 0.04366733173418416 0.03269876248575726
-0.07839943089822854 0.043715173803880215 0.03154527315278011
-0.0789475172773067 0.043737382754365124 0.030560399779721747
-0.0799264727380824 0.04369757584328819 0.02998824029665559
-0.0810017297834359 0.04364366793274941 0.02951191074741427
-0.0820037616305902 0.043600115157862614 0.028968194178853657
-0.08297014360445232 0.04356153481162839 0.028392700511538138
-0.08394971294690523 0.04352085501071349 0.027832845996642874
-0.0849786188634159 0.04347278825102398 0.027324518287194455
-0.08592626571661593 0.04343637596563611 0.02673897239098394
-0.08685982337839471 0.0434018569160575 0.026141941960873438
-0.08775379791885185 0.043372989400075834 0.025507679497528968
-0.08878158969320754 0.04332428189409026 0.025010249083131098
-0.08972064809215208 0.0432884395233379 0.02442642686231855
-0.09067407179160442 0.043250301513502835 0.023859769993154922
-0.09154653973157284 0.04322398695897868 0.02321300975134466
-0.09252349931872866 0.04318201422779577 0.022675575267025627
-0.09345281656088117 0.043146939383963134 0.022091899129834613
-0.09439201750236992 0.043110219923938126 0.021521006315595004
-0.09532536676464559 0.0430741998903472 0.02094664136359281
-0.09624656424853234 0.043039829874495124 0.020362115407997372
-0.09718036063458929 0.04300339823443328 0.01979336491565148
-0.09809226243519187 0.042970091920660106 0.019204030788638138
-0.09896436911445405 0.0429426398364389 0.01857469002673129
-0.09984509738092062 0.04291374749774889 0.01795658458274696
-0.10076481342533478 0.042878791313684626 0.01738257852925762
-0.10174991824797053 0.04283370627547549 0.016881919073692242
-0.10254067169829928 0.04281806954518881 0.016173069618380387
-0.10346778221914316 0.04278148856316704 0.015614517443682141
-0.10439535441475928 0.042744656390006984 0.015059166592890916
-0.10526227755470507 0.04271696944155791 0.014439511017045326
-0.10615174904695401 0.042685668980344704 0.013846950986261763
-0.10701499310655194 0.042658266618384524 0.013227429683090708
-0.10795697572664337 0.0426185280723492 0.012698311684367858
-0.10874685256371341 0.04260221719800051 0.012000575242088196
-0.10961873619228424 0.04257305499741442 0.011397040799579483
-0.11052989097983051 0.042537616032668916 0.010840447958087696
-0.11141046578127006 0.042506784535079195 0.010251486642751384
-0.11223908895072665 0.042483948413294836 0.009605028350077927
-0.11300777931244094 0.042470423649252784 0.008890930553284104
-0.11392176600242887 0.04243391885077667 0.008346880952820213
-0.11481791638729638 0.04240004829302862 0.0077847455848741864
-0.11561540053213937 0.04238164294152963 0.007109224012923743
-0.11651297234358271 0.04234724007233618 0.006553344698303543
-0.11728620184376365 0.042332469132051735 0.00585244894394038
-0.11812752403970839 0.04230674718083803 0.005233956252608529
-0.1189659079443724 0.04228136334494075 0.004613915545757241
-0.1197784631784855 0.04225999496195625 0.003964685669650858
-0.1206276140837052 0.04223262594017618 0.0033614619988345806
-0.12153818226535451 0.042195204180791 0.002835181180623647
-0.12253510922299371 0.0421436160477158 0.002417556033925794
-0.12385668346709 0.04203909811294169 0.002403535148381708
-0.12553501229337116 0.04187601366754526 0.0028390384928939083
-0.12708674470150788 0.041732717308581385 0.0031298795330507723
-0.12857945173200758 0.04159831794919742 0.00335818805343413
-0.1301207787002444 0.04145524083122151 0.0036581554604873112
-0.13169372203598206 0.04130621176077874 0.004009336047619716
-0.13346521418288035 0.04112367520781873 0.004624327881065704
-0.1352634900758251 0.04093574402478331 0.005287968607569304
-0.13722078293844595 0.04072046883202003 0.0061704816493168835
-0.13900432172886956 0.04053290602439397 0.00684618370210921
-0.14154807558780866 0.04021772475406662 0.008521871806430992
-0.14361413102097717 0.039980626431917854 0.009600693962450557
-0.14608651638037676 0.039674213332924764 0.011230483548916759
-0.15055283169340675 0.039031368014559524 0.015508597614631026
-0.1543933410173979 0.03849040084414519 0.019010973383436824
-0.1555929068944731 0.03839231604596104 0.019046277840910064
-0.15663904618763694 0.03831966802099982 0.01888453209816099
-0.15746848117977022 0.038283405081617 0.018437635127517893
-0.15798657115340123 0.03829993313844265 0.017573353923899193
0.041757198424144215 0.051999606235763225 0.03110168284556286
0.039198057733248026 0.05179082184341318 0.031249955296781318
0.03665811485090631 0.051583551174261257 0.031397919751064984
0.03413967884094421 0.051378087833133086 0.03154383063550903
0.03164122568969363 0.0511742547676648 0.03168858377095396
0.017728319590618602 0.049558044438250945 0.0398647688467727
0.0161812168850628 0.04946754882068174 0.0394072061145988
0.015041176751826757 0.04942722744848514 0.03866619782095787
0.022398694235811367 0.05044403971995318 0.03185912173184641
0.01344983601219324 0.04943195929481052 0.03669722998554198
0.01284642117306195 0.04945835952634658 0.035573712264796165
0.01222055266353328 0.04948205764043296 0.03446482605429424
0.011947521728578325 0.04955011826868454 0.033096894938005994
0.012169725534389386 0.049680718322162025 0.031361189227672503
0.007796868914595467 0.049233003034058906 0.03300787767305069
0.00562554863165049 0.04906133785499081 0.033049748253630495
0.0034704265629403874 0.048891005918505946 0.033090500643284115
0.0013302170949588965 0.04872185261232037 0.03313097104229901
-0.0007952340226500265 0.048553865745123916 0.03317116236747786
0.0005698248765813041 0.04882949983175828 0.030575842168092615
-0.0015456950768660271 0.048662299766589374 0.030615816842354426
-0.00577481940835417 0.04822420933204036 0.032286366252866405
-0.006963428209524558 0.04817376414143856 0.03164255166373253
-0.008149552908060242 0.04812342437747823 0.03100008259843212
-0.009333201283215242 0.04807318971000345 0.030358954843305197
-0.010514381081789259 0.048023059810236225 0.029719164202263004
-0.011295407858747775 0.04802441329914353 0.02876764019911887
-0.012058704186972413 0.048028068097938525 0.027801995297793314
-0.012822116702217501 0.04803172345305808 0.02683620340845705
-0.01358564543101215 0.04803537936462945 0.025870264497545092
-0.013841370035371392 0.048105219169560044 0.024495705020340486
-0.014080106682757332 0.048177577936641916 0.023102805803323412
-0.014117952623573016 0.048276538339414275 0.021541837734758262
-0.013534952856715743 0.04845734894793949 0.019466991878815176
-0.01541039823289092 0.04831582542473867 0.019399765705245375
-0.07905493094440502 0.0401247581641608 0.06902107681025094
-0.07993393914095098 0.04009596063479656 0.0684146332314467
-0.08043102281050835 0.04011767297190955 0.06748964472866698
-0.08073994512986643 0.04016448155188722 0.06640447656809856
-0.08075284718135822 0.04025091436657006 0.06506513174321771
-0.07984210057420887 0.04046099321963656 0.06293255144453619
-0.07889130701626218 0.040677354537487595 0.06075146310556656
-0.07822948332331242 0.04085593690624405 0.058804687882474505
-0.07760595472291765 0.041030165472969685 0.05687896542977622
-0.07733044197129363 0.04115831048126498 0.055244396966455056
-0.07699388165626964 0.041295263205542214 0.05354766648451559
-0.07668710396238071 0.041428798657441764 0.05186778787798674
-0.07648974320932556 0.041548100120178004 0.05027554599633416
-0.0762529840042579 0.04167328791954482 0.04864009107306777
-0.0761886640746276 0.04177555985741121 0.04715015379307508
-0.07613684970096768 0.04187658535573598 0.04566440580259784
-0.07619514411155653 0.041963007342994754 0.04427113032779878
-0.07626427777628059 0.04204833404772011 0.042881714556430195
-0.07648453162322494 0.04211328571490649 0.041624303458434264
-0.07657727169473527 0.04219609026566632 0.040245388757960576
-0.07675624818256638 0.04226737013847699 0.03894023530973534
-0.07705670952704813 0.042322170829209436 0.037742728234161416
-0.07732373891051536 0.042381856948408354 0.03651022933631615
-0.07757326318774532 0.0424442489158161 0.03525714431214566
-0.07785930241772632 0.04250184167266745 0.034034056267151114
-0.07802499423008719 0.04257649950748461 0.0326929916109982
-0.07841771723604413 0.042619735865974215 0.03156267260091167
-0.0791596858822618 0.04261419330308156 0.03076332925793457
-0.08007039616386241 0.04258490562156725 0.030126612707061184
-0.08112085134616426 0.04253579283873035 0.029627033496141486
-0.08212311992935589 0.04249325638666526 0.029084145291108587
-0.08316372617967427 0.04244509474705527 0.02858173406758735
-0.08403831405672435 0.042420262783637155 0.027919814298201118
-0.08503421242725451 0.042378062362406176 0.027379370531508684
-0.08598015983373308 0.04234278406196994 0.026792423683631272
-0.0869634931784748 0.04230199775747605 0.02624529303915274
-0.08792004904212636 0.04226485399823063 0.025674278426939867
-0.08887128168998487 0.04222829866669485 0.025100594302096157
-0.08981651423396336 0.04219243335414325 0.024523491183922108
-0.0907550809500332 0.04215735900759721 0.02394221615551495
-0.0916510325395326 0.04212827905749698 0.023319906319808792
-0.0926045863297546 0.04209071179637182 0.022758956596369118
-0.09355072572318107 0.04205404178369528 0.02219309904901573
-0.0943948654018878 0.042032049693650965 0.021523965145373025
-0.0953749942669378 0.041990100380977356 0.02099846828772356
-0.09629175726445172 0.04195722104108678 0.020409555036465077
-0.09724083650545051 0.041919442460021675 0.019857174849368053
-0.09815179841920696 0.04188708550612792 0.01926717320630955
-0.09904600921481171 0.04185704039243878 0.018661722242124756
-0.09997437287662736 0.04182180267829611 0.018095109187086567
-0.10083266446636607 0.0417967717099782 0.0174556589114096
-0.10182228467643878 0.04175211876644632 0.016960264642994993
-0.10270412817691066 0.041723288510517625 0.016350943382856864
-0.10355398194074011 0.04169908960153094 0.01570880351854448
-0.10446621009500084 0.04166544163336884 0.015137068449626478
-0.10533897405093173 0.04163754485805169 0.014524268810785501
-0.10620854218850806 0.041609990242442774 0.013910036633280276
-0.10709042759304555 0.04158044265333109 0.013311653468034867
-0.10798380437307653 0.041549011968499514 0.012728420477789326
-0.10880434005954598 0.04152845567298421 0.012065423365232197
-0.10966534948885337 0.04150165168747435 0.011449892985477217
-0.11053254393629092 0.04147377184366848 0.010843471472821609
-0.11145009738607564 0.04143806769891094 0.010296886260985016
-0.11233055533790276 0.04140785803759323 0.009710345819897104
-0.11314353951784645 0.04138784325071774 0.009048053469384254
-0.11403932538027822 0.04135499661608938 0.008483638816715322
-0.11487516553462085 0.04133122290792699 0.007851686539208813
-0.11569578799915958 0.04130967967501641 0.007203703811745621
-0.11663432363935267 0.041269758896771626 0.006696702948880862
-0.11740072776246513 0.04125636922115142 0.005988439787543043
-0.11822495874621869 0.04123390608776962 0.0053502475332556365
-0.1190878701400997 0.0412052885889126 0.004760229687155559
-0.1199095277853493 0.04118298056565616 0.004122728257483832
-0.12073916623610642 0.04115930474189296 0.003496667499064521
-0.12158426110825249 0.04113307430854554 0.0028913177369917498
-0.12261799895134828 0.04107695036971712 0.002519057623415144
-0.12398130661526457 0.04096841098450464 0.0025569258111144966
-0.12563615653854865 0.04081307513156205 0.0029641708561912172
-0.1272058652131992 0.04067046123496068 0.003278009694668127
-0.12875012698125754 0.04053115424304652 0.0035715201553802034
-0.13029343149598926 0.04039126633710843 0.0038750698059910604
-0.13182374601371466 0.040252721073742975 0.004173533873485735
-0.133601377341306 0.04007370639705959 0.004797163479341671
-0.13535630885969266 0.03989739791030232 0.0054063925299754345
-0.13731009516658613 0.03968803117878851 0.006285018402880482
-0.13929769551185225 0.03947207042572315 0.0072243528051015304
-0.14174740478020922 0.03917991314920671 0.008780137604275762
-0.1438215259862619 0.038947342128693 0.009870794795832194
-0.14648656077476582 0.03861704635466107 0.011754166142192601
-0.15227459897540246 0.03777372795401607 0.017774113819399195
-0.1546031228470092 0.03749370631890013 0.01928842926255292
-0.15573870170843107 0.0374085118291577 0.019240099397692056
-0.1567253830851226 0.03734742750869646 0.018999901596955637
-0.15752973191276692 0.03731618372504669 0.01851990504878026
-0.15792145392733675 0.03735324036809296 0.01748543920454393
0.041771458214294954 0.050667983859521926 0.031091937776108747
0.039210891301924344 0.05046438589286017 0.031241136248077617
0.03667209073704736 0.05026256976737981 0.03138826252072979
0.025027605685287502 0.048967224375722734 0.037875027947619655
0.019444096370838715 0.048395424439571205 0.040210126356570175
0.01767820723937663 0.04828128720122795 0.03989997299804032
0.016119803070584693 0.048191735132501995 0.03945058718773775
0.015147435474849369 0.04817271839715337 0.03859072673727476
0.014155099689535378 0.048151202851930267 0.037746352909994174
0.013201554453464881 0.04813431125905393 0.03687551471373374
0.012568549945388419 0.04815637042005961 0.03577433735992275
0.012104662104142905 0.04819915013985353 0.034548957539375535
0.012011851148068686 0.04828746579978653 0.03304993950884261
0.011792155930240356 0.04836060544726176 0.03163828876433844
0.007800256571760034 0.04797103415477738 0.033005377916191014
0.005628905721079047 0.04780376775229857 0.03304725757464566
0.007009035793751894 0.04807354385438826 0.030450883070365753
0.004849255972661781 0.04790722186436759 0.030491705438276673
0.0007071395338358877 0.04749484620140833 0.03203828030320638
-0.0005011383798357305 0.047444628293694995 0.03138778644868784
-0.0017068638859925045 0.04739451646800676 0.030738666719556718
-0.0029100450637864483 0.04734451038856186 0.03009091676627984
-0.004032958929990282 0.04730431187668562 0.02938464092040899
-0.004805115187167919 0.04730781641262426 0.028409326191103645
-0.005576310281961372 0.04731145628800527 0.027433029259439967
-0.006347624057775836 0.04731509672353554 0.026456582083147995
-0.006978656909155279 0.04733641124292023 0.02536946096700915
-0.007218996484093854 0.047407102190599085 0.023971703240258102
-0.007454684971321512 0.04747868345673124 0.022565491769644175
-0.0072131957133014235 0.04761102489049568 0.020772748122686202
-0.006608817839170722 0.04779000764123699 0.018679230241113065
-0.07909214712509172 0.039091131509461044 0.06905197602176094
-0.08005727275725144 0.03905196146651599 0.0685175763003279
-0.08059692500222698 0.03906758328975729 0.06762885320305345
-0.08098769894368685 0.03910254789116716 0.06661346858388245
-0.08096048516725751 0.03919189903050431 0.06524121168066727
-0.0802461521038575 0.03937099167384744 0.06327700566050715
-0.07923433270947938 0.039589642332798165 0.061045438564317434
-0.07834125564759126 0.03979375042835342 0.058900983475958124
-0.07769712007573187 0.03996617666572728 0.05695792189887605
-0.0774219744616404 0.04009096125955429 0.055324089392342624
-0.07709619637207721 0.04022295802935782 0.05363721571737751
-0.0768032491944915 0.0403512170295967 0.05196997715292939
-0.07660629781835399 0.040467371225020414 0.05037863485854688
-0.0764591668970162 0.04057745119283819 0.04882341177786481
-0.07636083476056782 0.04068155157563827 0.04730403761371388
-0.07626576469659824 0.04078568649291483 0.045780232946827815
-0.07628201564809867 0.040875456505199026 0.044349591701107416
-0.07634828004208677 0.0409589524083537 0.042957982012217844
-0.07656405997297372 0.041022812127352655 0.04169688705482427
-0.07673200288313858 0.04109337974711032 0.040387347145308505
-0.07686484781147529 0.04116898802263403 0.039040391243322925
-0.07725568591049142 0.04121016960402878 0.037927193038845286
-0.07742027332652707 0.04128210235919975 0.036600190761140905
-0.0776987520953285 0.04133894440455637 0.03537469907172752
-0.07795822248734513 0.04139862693931634 0.0341272053559285
-0.07817809810773152 0.04146396966836948 0.03283791494920024
-0.07855098877753997 0.041508753133260905 0.03168948045588277
-0.07917032453438161 0.041520067953399395 0.030773504637670923
-0.08013549552604532 0.0414840688048282 0.030189201237123542
-0.08122029860542018 0.04143147932733287 0.029723142391766322
-0.08223863462049996 0.041387790900220225 0.029196362514866347
-0.08317418298692975 0.04135531677184055 0.02859194514912794
-0.08418338731063657 0.04131250831212241 0.028062214032471278
-0.08512534098880642 0.04127881792416095 0.02746928392754061
-0.08605690673129679 0.041246412040972874 0.026868539985389017
-0.08705093109035572 0.04120515803177844 0.02633246213245083
-0.08793176012015663 0.041179505526813334 0.025686014005164293
-0.08892303023163373 0.041138283246569304 0.025152719725705486
-0.08989272665250159 0.041099890292363654 0.02460065614084439
-0.09081436276509675 0.041068069379196805 0.024002549557867514
-0.09172881299526003 0.04103710914504516 0.023399476043057477
-0.09265120879537886 0.04100487896250975 0.02280689822243026
-0.09364571290601797 0.04096228724197938 0.022291278780110668
-0.09458767980871724 0.04092694574577136 0.02172428998302256
-0.0955166928349388 0.040893276680019616 0.021146446739066738
-0.09638774514496767 0.04086770912090674 0.02051031461837033
-0.09729917849140612 0.040836246579512465 0.019918733256112764
-0.09825960026528952 0.04079761302607396 0.019381505224226048
-0.09917988106856035 0.04076455668583128 0.018804435981568113
-0.10012296325304221 0.04072805670550107 0.018254330569213162
-0.10095028790948435 0.040708084423327295 0.01758234769970929
-0.10182021758075555 0.040681850667946454 0.01695802675739616
-0.1027727505422647 0.04064350856079714 0.016425618419028565
-0.10364627981479191 0.04061646365005311 0.015809759810528623
-0.10456425848688716 0.040582807282298745 0.015244867171646359
-0.10543529368410859 0.0405558430678434 0.01463071226001178
-0.10632003233984932 0.04052673819103419 0.014033879550595596
-0.1071961011931356 0.04049876170396676 0.013429639696641626
-0.10808570551837587 0.0404686535803814 0.012842780348342964
-0.10890121210216713 0.04044932902587928 0.01217469878344496
-0.10977915230207719 0.04042067199507513 0.011578927571805508
-0.11065518676445735 0.04039215380962088 0.010983244742190312
-0.1115273457598473 0.0403640683634485 0.010385377420896569
-0.1123654147403631 0.040340922355063834 0.009750484106538615
-0.11324445133540356 0.040311537754294885 0.009164844387578475
-0.11411764125198431 0.04028288008612063 0.008574744362861875
-0.11492783917548816 0.04026353721349277 0.007913277391696949
-0.11580138512605148 0.040234557708878405 0.007327812652025478
-0.11659496112964646 0.04021750176692707 0.006650202081345702
-0.11750808651924644 0.0401822661856819 0.006115920169873612
-0.11834345037429511 0.04015864818492049 0.005491670889146871
-0.11916443799263815 0.040137095501646645 0.004852085688403063
-0.11997882472055416 0.04011643831100952 0.00420628908470283
-0.12084049500887228 0.04008844445234751 0.003619481869873098
-0.12168772149938928 0.04006251964082995 0.0030173606172734235
-0.12273909887288259 0.04000508237563414 0.0026673490313706694
-0.1241033210735265 0.03989913660510313 0.0027071056042742847
-0.1257729447927008 0.03974545200684659 0.0031334008255616275
-0.12737549670366088 0.039601351866573785 0.0034889518719700696
-0.12891211692398485 0.039466734649479286 0.0037739962327728027
-0.13038386014923042 0.03934151105308008 0.003988680894928098
-0.13201764118529347 0.03919032640910364 0.004418389985214932
-0.1337666860689538 0.03902029681811994 0.005006994340887472
-0.13557994816011654 0.03883928460883446 0.00569172532638601
-0.13723452750649737 0.03868228225825494 0.006188108106931101
-0.13967707165517151 0.0384001001326624 0.00771338196904775
-0.14174795955484776 0.038175212213254504 0.008780856411756577
-0.14430387150263294 0.03787216921776807 0.01049897747987577
-0.14720697648498762 0.037512265684246676 0.012697234393259427
-0.1527712444942782 0.036725953874870314 0.01842760426657175
-0.15479345419286134 0.0365018884890943 0.01954016007729792
-0.15582449339638502 0.03643556085741307 0.019354152004000647
-0.15678687035291208 0.036379913664598355 0.019082065254368785
-0.15752874426138633 0.03635951775439666 0.018518578468716018
-0.15781580498141246 0.03641254684628736 0.017342802639805754
0.04178571896188232 0.049336272075497706 0.031082192052347246
0.03922629261423832 0.049138168028939604 0.03123055268189867
0.03668606755405457 0.04894150037686447 0.03137860464717329
0.02156353711447584 0.04727385384880075 0.04028191178731694
0.019172107210718048 0.04709001540127463 0.04040015198884833
0.01763043736567821 0.04700512258421181 0.03993353154833856
0.016060724595682585 0.046916586252339285 0.03949231863956898
0.014900355883631422 0.04687590891465964 0.03876621693680632
0.014067574547106776 0.046873734190346544 0.037808859713850784
0.013275086935059688 0.04687631670087129 0.036822712892440435
0.012464162074413254 0.04687672449283731 0.03584970617993255
0.011989985911985468 0.04691713091605443 0.034632207446878116
0.011886657822512192 0.04700184257316256 0.03314132081426191
0.011636963305661663 0.047069448721432795 0.03175218512647188
0.009403536521542633 0.04690025243160771 0.03182231544623737
0.007293300612181197 0.046745105715464384 0.031812416065069404
0.006100898354243434 0.046699463158915655 0.031128306144685258
0.004874999547493319 0.04664960149363401 0.03047239785630934
0.0036528304102400044 0.04659998052153248 0.02981704820925757
0.002610932430837598 0.046571922218309234 0.02902838888729331
0.0018306821566628217 0.04657541088609285 0.028042195241650247
0.0010503149778108845 0.046578900076583385 0.027055853834880017
0.00027093534854499834 0.04658252402003172 0.026068513637485136
-0.00021622663803444464 0.04662175234067104 0.024854560516468283
-0.00044470404706775657 0.04669271887881369 0.02343645390924043
-0.0006683477469580645 0.04676457819259327 0.022009693235441607
-0.00015056712579336606 0.04692761804882047 0.019994336673820223
0.0004792015522496751 0.0471051090998004 0.01787911488447752
-0.07913936992507814 0.03805650361619111 0.0690911833573325
-0.08018050603978971 0.03800881160734591 0.06862043562346565
-0.08073065344682517 0.038022668436315334 0.06774106469683627
-0.08112919182248673 0.038055697320153396 0.06673282449410423
-0.08111086222397124 0.038141535598075295 0.06536873354341949
-0.08055672493017985 0.03829559087371967 0.06354176921550658
-0.07942762309119616 0.03852328291846504 0.06121108979616657
-0.07864838946922542 0.03870748799108733 0.059165589529594054
-0.07798642977262094 0.03887756194174113 0.057208487178750156
-0.07761445659137128 0.0390113492025197 0.055491673250272655
-0.07724287630618065 0.03914568125991444 0.05376559486080296
-0.07703899115410351 0.03925909608825093 0.052177392468121364
-0.07674067381402444 0.03938516081110796 0.05049748617311817
-0.07659846445571095 0.039491670961658294 0.04894726359842477
-0.07650729074348417 0.039592066932421156 0.04743493798205184
-0.07645103149098237 0.03968839450262659 0.045946690879896
-0.07644806768171541 0.03977824121305743 0.0444995679892779
-0.0765335277088342 0.039856994904503694 0.04312617233539345
-0.07664354706764587 0.03993290421948297 0.041769432998706224
-0.07680552124667567 0.04000237100487549 0.040454796690780725
-0.07699916171614146 0.040068007702016496 0.03916426215016472
-0.07723822888079274 0.04012798233966863 0.0379110091705992
-0.07755243413316798 0.040178348173659326 0.03672335278938543
-0.07784692429687523 0.04023154376699372 0.035513502953799736
-0.0780920429036312 0.04029150722136993 0.034253218710800726
-0.07830214415093434 0.04035638421612565 0.03295533305087284
-0.07864839357037834 0.04040348772230857 0.03178216110401738
-0.07929489329306616 0.04041086073744519 0.030892648906008013
-0.08030568134874227 0.0403696871342084 0.030352823124080497
-0.08130763758138426 0.0403295028372184 0.029807549469324013
-0.08234806667782202 0.04028397692699543 0.029302670738878045
-0.08331005514573286 0.04024877249671659 0.028724624432463153
-0.08427779523717716 0.0402126292187998 0.02815488213834083
-0.08518976412934032 0.040183841209873734 0.027532848009424515
-0.08617932445181542 0.040144424623549724 0.026989951852855854
-0.08716694534460973 0.040105085289411715 0.02644811971318939
-0.08808757534341566 0.04007466271443968 0.025842155202105255
-0.08901773390800238 0.04004279840190576 0.025248113124065774
-0.08994278753018597 0.040011479873890796 0.024651342702747325
-0.09087940049549637 0.03997843059047011 0.02406874097849271
-0.09178784079793062 0.03994908828150034 0.02345986172579173
-0.09272218964194118 0.039916043385440234 0.02287988743820496
-0.0937028180339306 0.0398764615999327 0.022350303228832635
-0.09460545413746402 0.03984746516848591 0.021742756650420858
-0.09556200689666933 0.03981086219719704 0.02119376905695286
-0.09648296369331466 0.03977902430592106 0.020610266623451556
-0.09735819914472693 0.039753395116911894 0.019981007745469792
-0.09833725101176077 0.03971315945886778 0.01946385971869352
-0.09916663896030853 0.039693656937517516 0.018790319266711264
-0.1001881826200604 0.0396471234159381 0.018324216102910684
-0.10107472354753233 0.03961933331645587 0.017716373704965205
-0.10194143579738024 0.03959420035158259 0.01708926040250397
-0.10282968159484851 0.039565903329348215 0.016487570938284568
-0.10373919975319656 0.03953445587923486 0.015911396522414967
-0.10467312022246139 0.03949939054267409 0.015364554560149069
-0.10553086891643482 0.039474987828067964 0.014736333067046192
-0.10640510981642104 0.039448112259830505 0.01412838334998695
-0.10728017836764586 0.039420984868893116 0.01352351317804018
-0.10817681624424319 0.03939063109352994 0.012945030531946233
-0.10905606508879373 0.039362624192480926 0.012349378953463608
-0.10984565975648597 0.03934739060069574 0.01165433662035431
-0.11080155058834584 0.03930806777825135 0.011150052296191204
-0.11165137935348163 0.03928390081712208 0.010527462956588685
-0.11245088092781619 0.03926691577566198 0.00984889274489803
-0.11334005131888747 0.03923679870942147 0.00927548762164887
-0.11416069554563912 0.039216524333851276 0.008624829803423606
-0.11507469577839008 0.039182495313739345 0.008084995602500589
-0.11593601374484219 0.03915601640897586 0.0074860423523818165
-0.1167007618103223 0.03914359600502431 0.006775189625939648
-0.11757554310898166 0.03911489806158452 0.006196019754741988
-0.11842601153233806 0.03908964462960226 0.005590210138089968
-0.11926072277485233 0.039066595086047574 0.004967595458913399
-0.12007603317533161 0.03904630755445747 0.0043235066625058605
-0.1209341544429477 0.03901954141758956 0.003733000707141887
-0.12182764116456901 0.03898735761955288 0.0031878208041480893
-0.12277170757154632 0.038947437039421044 0.002707279609154567
-0.12425567760231415 0.038826299182903506 0.0028946315114972143
-0.12597601020120053 0.03866897073735428 0.0033846267299611488
-0.12767211530153355 0.038514472026399654 0.0038578065739667267
-0.1290895850688749 0.03840129851422582 0.003995818978274779
-0.1306129355739819 0.03827147464463088 0.004276482465800979
-0.1322171529234316 0.03812867123320922 0.004670338850403577
-0.13391831924270844 0.03797033380635205 0.005199466450137746
-0.13580722853655525 0.03778246236445761 0.005981703631878776
-0.137659848041035 0.03759915165193726 0.006733552266866283
-0.14003057839779776 0.03733525546741939 0.008169064567545625
-0.14241957998654917 0.03706713183091279 0.009651058034274851
-0.14456496455997134 0.036835201364545274 0.010839012023532268
-0.14788858979979178 0.03641952664252326 0.013589507934182565
-0.15338234041779317 0.03566457421303 0.019231689540968544
-0.15495541252789044 0.03551609123910322 0.019754364960099025
-0.155944094548931 0.035458054690970874 0.019513151360356862
-0.1568602146564113 0.03541106371296822 0.019180073125633246
-0.15753615143351132 0.03540152540679296 0.01852852753279549
-0.1577140118074297 0.035470347263092936 0.01720537174994996
0.04179998066700541 0.048004470874685984 0.03107244567421058
0.039240411470888914 0.047811708075270444 0.031220850401295186
0.03670004530202314 0.047620342993924945 0.031368946130329534
0.0219792466245739 0.0460434429326411 0.039993070939796094
0.01940773169964649 0.04584415423430464 0.04023553258832152
0.017398740419994785 0.04570826553610653 0.04009629969076117
0.016163833698928876 0.04566036440498308 0.0394194851315508
0.015006539428715271 0.0456211629771334 0.03869079924883834
0.013845480020383494 0.04558136833021838 0.03796747035571113
0.01301784257717531 0.045579783272920844 0.037007433580755644
0.012529541435868374 0.04561732592064271 0.03580250179421385
0.012011769265925565 0.04565161771730223 0.03461639368321462
0.01157115546636861 0.04569498647227259 0.03337161278101913
0.01148993034421858 0.04578023936267928 0.03186009308580651
0.01180100185432087 0.045911463931947706 0.030053222494872633
0.010247714102697258 0.04582598909057459 0.029620488876368756
0.009340315557581302 0.045815577333606444 0.028711870189708777
0.008592993078826217 0.045823852962155076 0.027683917028376637
0.007830594800894208 0.04583039549391541 0.0266667569075425
0.007040697429988585 0.045833734240773416 0.025669989489470413
0.006708395503093156 0.04589096911254409 0.024324189947171948
0.006487911865715568 0.04596163955799818 0.02288869514803543
0.006396672638029788 0.046047891277006064 0.021348666160051877
0.007080871183568094 0.04622639572489873 0.019201890467293203
-0.07923877602291429 0.03701583688885198 0.06917371654547133
-0.08030221617933414 0.03696668378275742 0.06872202362237861
-0.08088344268252745 0.036976330105509256 0.06786927009415183
-0.081257061191923 0.03701148178826339 0.06684068833225637
-0.0813805951068945 0.03707752795154384 0.06559747082839895
-0.08089168611539233 0.037219311201097144 0.06382732386377976
-0.07985098729458079 0.03742984411306159 0.06157391592951367
-0.07892944596773366 0.037626563470002164 0.05940772909769276
-0.0782773883176121 0.037790735895447895 0.057460480492632804
-0.07783908081261182 0.03792907144449474 0.05568724150189508
-0.07744784418018197 0.038062159200163335 0.05394498954252863
-0.07727437042213825 0.0381686553868949 0.05238448867258766
-0.07697033290405725 0.03829196299728577 0.05070061236851825
-0.07676455720986469 0.03840350112789569 0.04909493948145183
-0.07665660679871938 0.03850324541001861 0.04756839464418239
-0.07661953515706471 0.038594510454344116 0.04609808752959632
-0.07663353126671257 0.03867973994397158 0.04466707656753999
-0.0767283630705215 0.03875512645725453 0.043303067532097284
-0.07683641559614696 0.03882917777362742 0.04194545942793909
-0.07694563888274397 0.038903416395222955 0.040583347850120466
-0.07716063754460767 0.03896451774104906 0.03931318312267951
-0.07742104926536386 0.03902009920628043 0.03808049625217408
-0.0776700673572211 0.039077392778627845 0.03683297641254246
-0.07792892703452786 0.039133686424470925 0.03559032099529419
-0.0781763806520574 0.03919170490551895 0.03433263620864224
-0.0784025246606721 0.039252736280438155 0.033050350099333325
-0.07872596840675328 0.039301482364134215 0.031855973551071226
-0.079400392969662 0.03930501797152964 0.0309935544774414
-0.0803956134396549 0.03926694548037253 0.030439286603704763
-0.08141749239881518 0.03922522909615886 0.029913716549858416
-0.08245517296834659 0.03918125865351006 0.029406719587129482
-0.08344207649548657 0.03914371767113397 0.028853543397353187
-0.08432534828470745 0.039119573499741246 0.028201558842346874
-0.08535033037214107 0.03907671320236743 0.027691273161017438
-0.08631637144980725 0.039041407136861744 0.027125872795399186
-0.08724325953465956 0.03901109877738922 0.026524199283358973
-0.08820012802791138 0.03897668379785952 0.025954943352765436
-0.08912038204530653 0.038946957995128796 0.025351508842460957
-0.09003923345786402 0.03891727749896997 0.024748994056651985
-0.09096968266264888 0.03888591166897459 0.024160624641471506
-0.09182669970289287 0.03886419691749209 0.023499614543960212
-0.09280818052078094 0.038825727277617 0.02296831138796407
-0.09378344063686567 0.038787907628231005 0.022433635582103206
-0.09469429293254422 0.03875856446981144 0.02183505585925105
-0.0956511772257937 0.038722877361742604 0.02128689129097211
-0.09651257434052907 0.038699915921409825 0.020641349260313968
-0.0974775711281386 0.038662816036551556 0.020106960761782533
-0.09841066545390337 0.03862986640120403 0.01954172129174997
-0.09933312081236256 0.03859820419154452 0.01896779680953148
-0.10022286152239707 0.03857084970330692 0.01836137613234129
-0.1011320652258822 0.03854070063177156 0.017778134758345554
-0.1020157679757302 0.038513899083745355 0.017169734138096582
-0.10296197405649771 0.03847837850358786 0.016631531938578414
-0.10385935737221264 0.03844940763080782 0.016042826068264404
-0.10471256158433001 0.038426393752674315 0.01540791813116088
-0.10559454918269001 0.03839928216050471 0.014806706540909043
-0.10648743658304688 0.038370523830947065 0.014219831669227911
-0.10734605903572492 0.0383463888839014 0.0135970699751789
-0.10824176274420827 0.03831696292987068 0.013017917576611915
-0.10912675866976745 0.0382888869603165 0.012429124052429574
-0.10991412859566668 0.03827435214158351 0.011731969572385814
-0.11087169643670669 0.038235832415527166 0.011229995939897208
-0.11163423252444654 0.03822458887303795 0.010507820565221315
-0.1125632196750937 0.0381897851458591 0.009978243351073723
-0.11344408658669969 0.03816161740486996 0.00939589348437636
-0.11424611096850545 0.03814449618040007 0.008724194320220091
-0.11510521654653894 0.03811916646637942 0.008120683284193575
-0.11595347962821734 0.038095254324380615 0.00750657009394029
-0.11678070167768362 0.03807422906877042 0.006869626520606353
-0.11763654573342885 0.03804899255915989 0.006268455745254975
-0.11847270937098087 0.038026455381176105 0.005645945426404841
-0.11936075895604459 0.03799632492344235 0.005087605662670636
-0.12016682320180866 0.03797788441642813 0.00443298466024461
-0.12098412094275951 0.03795772128305869 0.0037935620271735693
-0.12190509973845409 0.03792239583698418 0.003282186402883136
-0.1229534140377912 0.03786834551822914 0.0029297860102545648
-0.12443578641694625 0.03775064592947736 0.0031163159324502643
-0.12619717078631082 0.03759149213681391 0.00365823939704385
-0.1278137860306458 0.03745274966417129 0.004033978651318382
-0.12925897445215928 0.03733850177575196 0.004207543837867533
-0.13081534794279515 0.037207249234760285 0.0045307855966224
-0.13244056054667996 0.0370651209680505 0.004952464091139697
-0.1342362075188111 0.0368969631844321 0.005602970680065933
-0.13604966251289274 0.03672526436366363 0.006291015833634894
-0.1380307978488343 0.03652765061117524 0.0072092697313736465
-0.14029853497263461 0.0362861361651229 0.008514469997153995
-0.14266868540107708 0.03602797760956895 0.009973817625359815
-0.14510329201316757 0.03575874582644107 0.011540102783092698
-0.14885979395397322 0.03528885226152283 0.014860873605581915
-0.15386515336348117 0.034627709390185876 0.01986697896931694
-0.15508261159134532 0.03453692395004215 0.01992259749024239
-0.156064067397879 0.03448150154594567 0.019672644854833166
-0.15696469765482116 0.03443809077142236 0.01931969073421258
-0.15749960466058383 0.03445031022288758 0.018479439138517795
0.041814243329755585 0.04667258024808009 0.031062698641636355
0.0392545312717727 0.04648515941211637 0.03121114747182785
0.036714023981041344 0.04629909760976899 0.03135928697013762
0.021707931942307024 0.04473447023177197 0.04018158421858137
0.027468156964474022 0.045463429419773015 0.03460410445824308
0.023567665103809865 0.04512321680479471 0.035762602461529736
0.016821972790699247 0.044465210190636796 0.03895459331008844
0.017025518806975892 0.04457889125493236 0.03725680345746363
0.016010220657694196 0.0445569394510268 0.03642150293809521
0.015382296876848889 0.04457824148529874 0.03530957855560518
0.023110466276952124 0.045536535737066425 0.0281629952841575
0.015545832645571855 0.04478058220580797 0.032050818005048276
0.014176739325798993 0.044719033501690625 0.031469740988765815
0.014572817993923737 0.044856375129280535 0.02959755200744868
0.013669887350640342 0.04484742952873746 0.028674169328495813
0.016896149147237305 0.04530623760513329 0.024687907305367296
0.019325563049829964 0.045676496755782336 0.021263397348746438
0.017097934335879694 0.04551850811905786 0.021305243844003008
0.010934534718187672 0.04491117896214069 0.02432619530374064
0.010833835891736976 0.04499390102666615 0.022794244629813887
0.014560456391701948 0.04551512106488202 0.018339007571135324
-0.07876547907574027 0.03604368818577996 0.06878075568253683
-0.08042453942509059 0.03592530887090707 0.06882412336364457
-0.08105878210903983 0.03592834751142177 0.06801639734914305
-0.08145646308638438 0.0359596077902579 0.06700889322578352
-0.08167681611791339 0.036012196811732705 0.06584867041919412
-0.08126870148810378 0.036140287228339986 0.06414872973676145
-0.08021776465738573 0.03634610134949356 0.061888246738027675
-0.07925499615008907 0.03654221851300224 0.05968820146167797
-0.07859775214747489 0.03670236916288493 0.05773794112929398
-0.0781199478002052 0.03684154877747158 0.055931777311073294
-0.07772415223222473 0.03697141625762126 0.054186823514296045
-0.0775056837401562 0.03708034061445403 0.05258800748970344
-0.0772130387362236 0.037198774505313364 0.05091527799434786
-0.076964079066977 0.037312412934108675 0.04927233774654993
-0.07700569293221449 0.03739105723782861 0.04788040308894698
-0.07680587685348361 0.037499621091516694 0.046265511237300716
-0.07681576036298238 0.03758293642648776 0.044831663792760545
-0.07691315197869791 0.03765586344581836 0.04347084133854329
-0.07709470542255448 0.03771874415495734 0.04218119428941719
-0.0771499049077099 0.03779752419784706 0.04077075205604275
-0.07731134603857981 0.03786350418127105 0.03945217392831124
-0.07755593813389022 0.03791946295260268 0.03820554751884281
-0.07785733448693777 0.03796860987270859 0.03700749259555963
-0.07813677342140157 0.038020720108879864 0.035785026109152185
-0.07844579657121759 0.03806937181751112 0.034586334446710554
-0.07864863302306002 0.03813155034042693 0.033283308571616876
-0.07893416006455545 0.038183632377009606 0.032054067887284765
-0.07954069257524848 0.03819555410002882 0.031127744574798832
-0.08045604195811301 0.03816857396701326 0.03049738444087735
-0.08151674435722617 0.03812308973863521 0.030009636700728926
-0.08253825882818855 0.038082360325788926 0.02948743368879614
-0.08353524186014477 0.03804455715800735 0.028944519458405038
-0.08445529889119224 0.03801637213651863 0.028329114620773588
-0.08542870072873787 0.03798124669983656 0.027768598478018547
-0.08634803635073235 0.03795287278445907 0.02715727751963498
-0.0873070690538364 0.037919274910190856 0.026587812626939378
-0.08825199027319214 0.0378873321918648 0.026006914096604272
-0.08918731950217251 0.037856474105511045 0.025418933801373778
-0.09015227714459323 0.03782164338941437 0.02486345061614853
-0.09109381974694147 0.03778967810308909 0.02428696376663947
-0.09197340647428126 0.0377655996721005 0.02364969616907947
-0.09293993430332737 0.037730098049658795 0.0231037930809721
-0.09387399826937126 0.03769865899775639 0.022527236884325785
-0.09481715557607273 0.03766588060625861 0.021962704200071403
-0.09570847180149411 0.037639735963994586 0.021346725082534823
-0.09666546524440567 0.037604840371699796 0.02080184060014678
-0.09759684338798347 0.03757314802794361 0.020232808556721937
-0.09850220563858225 0.03754473508314774 0.01963880658680861
-0.09940689545562181 0.03751627303723235 0.01904644407496342
-0.10034139911999573 0.037483719024495536 0.018488394587903578
-0.10121354699090979 0.037459294686179645 0.017865896396724812
-0.10207286691977585 0.03743646012768587 0.017231550775624882
-0.10298389648524636 0.03740660632968983 0.01665538798246924
-0.10390643641230651 0.03737506440003345 0.016094321569833425
-0.1047547106816562 0.03735333602743051 0.015454258705836721
-0.10566226206932561 0.03732352350741406 0.014881536489620817
-0.10656701750436492 0.03729394044196159 0.014308229911943582
-0.1074172822864446 0.037271579500890856 0.013676591849463182
-0.10829597290690302 0.03724525345512183 0.013078755628728567
-0.10921407487655488 0.037213439565597056 0.012527620117499305
-0.11008282749381298 0.037188190345792294 0.011923247730804665
-0.11092990326827845 0.037165775341676706 0.011296332955033073
-0.11177793504095151 0.03714311668488264 0.01067243765354109
-0.11258094884505732 0.03712652389753901 0.009998657312750903
-0.11352124327589252 0.03709095353516384 0.009485191257360803
-0.11437641156618522 0.0370669483536816 0.008875774157821648
-0.1151993325648733 0.037047281893607356 0.008230732365794191
-0.11604271403659105 0.037024677800966 0.007611447747928546
-0.11689408235345339 0.03700084783066743 0.007003568685990724
-0.11769046154447721 0.03698456078096302 0.006332476682271826
-0.11853601298826227 0.0369613184239206 0.005721500215728981
-0.11941743367173391 0.036932930917073274 0.005155596504551052
-0.12024867092164876 0.03691144614374083 0.004531679691353929
-0.12112632624835601 0.03688331308374611 0.0039659203283327615
-0.12196048906839585 0.03686117513647915 0.0033496656633617006
-0.12312298640424058 0.03679244164561509 0.0031374337498446536
-0.12464353130411654 0.03667253096557863 0.0033720158276074885
-0.12638792279064093 0.03652013920978209 0.0038942315591648513
-0.12788608083848507 0.036402080694324476 0.004123879554338961
-0.12947204750105218 0.03627084066059651 0.004473870218453635
-0.13102815721588346 0.036143191567214454 0.004798150998902406
-0.1327136636082069 0.0359962599924207 0.005297346086922894
-0.13456376323459088 0.03582481781821288 0.006018746053963575
-0.13631579128675386 0.03566664357592254 0.006630559317750528
-0.13843862671864823 0.03545387637944592 0.0077322820414535975
-0.14069378233680907 0.03522074150141331 0.009023957721824905
-0.14286781850600075 0.03499818038867776 0.01023182935761563
-0.1457904064847551 0.034665044045652155 0.012434966316301144
-0.15238622136718719 0.03379192735505484 0.019477182891882883
-0.15406627233964257 0.033636281865479456 0.02013161304869837
-0.15524915778368947 0.03355303119156325 0.020142870238820776
-0.1561680076492686 0.033508329184396446 0.019810824401757632
-0.15698053498730202 0.0334791314647271 0.019340853703508132
-0.15739780392545455 0.03350847603687654 0.018342703820362627
0.04379302751132991 0.04555025627501332 0.029710407403107375
0.039268652016979544 0.045158522030577554 0.031201443893434933
0.036728003591204594 0.04497776421560399 0.03134962716653161
0.023797747655405654 0.04368072843124702 0.03872955070221712
0.023881273818885496 0.04377856315458573 0.03711008571626839
0.02282875648686411 0.04375432116120276 0.03628168907549251
0.02220088242083751 0.043775853942080584 0.03515507565993614
0.02155091936996756 0.04379508372280073 0.03404260254412622
0.021611684951547083 0.04389148659592171 0.0324211709167988
0.021251329478295167 0.043942511920791 0.031095174201706932
0.022419870737922898 0.04416027300932037 0.028661610404807858
0.020063187350728262 0.04399417718496822 0.028771415765703245
0.019918819360437212 0.04406935373989699 0.027278473067292475
0.02009261004942836 0.0441797106909911 0.025546559013666703
0.01929206853438853 0.04418352143156971 0.02452555413582541
0.021573560131855685 0.044526531609325015 0.02121766038738382
0.019330370319538825 0.044371984143493935 0.021259811376751925
0.01948579383081206 0.044481865852963695 0.019514358420103683
0.015642521948003585 0.044149379643496425 0.020776083370225795
-0.08049561215661294 0.034890674590446494 0.06888344575535044
-0.08125588443356963 0.034879041629683846 0.06818178584468726
-0.08168392737352725 0.03490584185692585 0.06720077006979963
-0.0819618314376453 0.03495018939009726 0.06609036742590124
-0.08182820060879736 0.035042612307218786 0.06462570313449245
-0.08081036540652248 0.03523854280728182 0.06239610979472676
-0.07968846286747588 0.03544750032408851 0.06006164752782589
-0.07896555752788592 0.03561065323780051 0.05805648993382029
-0.07842156038517573 0.03575353030303401 0.056194375198265645
-0.07806920363084696 0.03587449842950762 0.05448882394307758
-0.07779433366540967 0.035986870009944334 0.0528419733739488
-0.07753109936367486 0.036098368731525284 0.051196592551291886
-0.0772654835118532 0.03621064878439216 0.04954032154736143
-0.07718292744252153 0.03630170440297647 0.048038812887026994
-0.07704373386139718 0.03639990732698701 0.046479220261816945
-0.07704887788155684 0.03648134353288649 0.04504221285609816
-0.07712858288323904 0.03655423767649204 0.04366643566959727
-0.07728851381836821 0.03661785323821848 0.04235807851275608
-0.07732671505336786 0.036696370250727965 0.04093296681961667
-0.07749895591116773 0.03675911744143165 0.039625197005167645
-0.07772249026593198 0.03681596527416055 0.03835995281044119
-0.0780201534020532 0.03686411331895686 0.03715922523348675
-0.07833600941684149 0.03691027798539443 0.03597166523124734
-0.07860040051681794 0.036962903465607676 0.03473191882316273
-0.07882613077818179 0.03702047610635373 0.03345132239067494
-0.07904801297867298 0.03707878366973282 0.03216239892074774
-0.0796240525109046 0.03709406080345981 0.031207474505860644
-0.08052022082226479 0.03707017846824756 0.030559087975806698
-0.0815633401579221 0.03702813525013952 0.030054668318283295
-0.08259960807639827 0.03698673983231234 0.029547031669325985
-0.0836134559972121 0.03694791795712608 0.029020895632480614
-0.08451837696745268 0.036922387853629994 0.028391030246538718
-0.08546491458968736 0.03689157837664185 0.02780432944058331
-0.08646727135245647 0.03685368733369248 0.02727553281932038
-0.08738404388673388 0.03682627865707468 0.02666455080888025
-0.08833595380137166 0.03679435334975044 0.026091053280922316
-0.08931238168959627 0.03675920842126994 0.025544906810259838
-0.09019645640400803 0.03673548264472795 0.024908182048571093
-0.09117603851712452 0.03669963401060855 0.0243706409977949
-0.09208477606395887 0.03667254444785542 0.023763627713271285
-0.09303724067122904 0.036639800522041764 0.023203852686161264
-0.0939545255106301 0.03661135542021224 0.022610470670785032
-0.09485122607889424 0.036585387092738376 0.02199810180369749
-0.09583359158704136 0.03654839185832196 0.021477390002857366
-0.096707006450578 0.03652511696604888 0.020845446881932295
-0.09767046178421801 0.03649021533872496 0.02031048556934112
-0.09858740386356529 0.036461106983339125 0.01972916575355016
-0.09948410891762138 0.036434457643619314 0.01912875728411656
-0.10042729407083423 0.03640169130094503 0.018580434954986402
-0.10127083222187444 0.03638163206981021 0.017927596652268896
-0.10216362709803911 0.036355098737267125 0.01732980984390503
-0.1030599133174569 0.0363279821847621 0.01673810969667555
-0.10396577431293103 0.0362994867803879 0.01615922592957858
-0.10486410277312519 0.036271833120681156 0.015574529190977404
-0.10576850464238818 0.03624324884582229 0.014998945843855915
-0.10664655263541939 0.03621797651103215 0.01439657729097521
-0.10750055335856862 0.03619573777070462 0.01376956530492962
-0.10838426957814756 0.03616947479512015 0.0131778477033484
-0.10925471457361385 0.03614483287848387 0.012573463270714569
-0.1100582662141289 0.03612892149976206 0.011895399082129388
-0.1109946952165135 0.03609529881052339 0.01137017487933456
-0.11187804127691525 0.03606856829005143 0.010787113426017458
-0.11262755890540571 0.03605955020279889 0.010052325701495335
-0.11353496992166295 0.03602937680746773 0.00950107787601523
-0.11443175107139392 0.03600047526576231 0.008940151093629
-0.11527263231939577 0.03597893844668356 0.008316441162336041
-0.11611896864155957 0.035956557028791976 0.007701070172962177
-0.11698999394744547 0.03593072678047839 0.007116873766398357
-0.1178129743286539 0.03591126991804089 0.006477951322957531
-0.11864017417851391 0.03589114036966444 0.0058458197589587035
