# .PCD v0.7 - Point Cloud Data file format
VERSION 0.7
FIELDS x y z
SIZE 4 4 4
TYPE F F F
COUNT 1 1 1
WIDTH 620
HEIGHT 1
VIEWPOINT 0 0 0 1 0 0 0
POINTS 620
DATA ascii
-0.019264681419564722 -0.03760530063001394 0.02615417847563256
-0.017455314910012787 -0.037513890717669085 0.025880897149904103
-0.016276243142123115 -0.03748126480800887 0.02514782560434964
-0.015238118069520967 -0.03746176079246236 0.024312417710875
-0.014572350445236693 -0.03747727370020064 0.023199422034213324
-0.01400941789181176 -0.03750256509589243 0.022007544271784918
-0.013741864317338814 -0.037555921875978004 0.020589540561931075
-0.013605406402472264 -0.03762193803786657 0.019066988217854908
-0.019103300760634323 -0.036144221435450985 0.029468251511073906
-0.017421700901065984 -0.03606749654149213 0.029101173627324117
-0.015958510016954752 -0.03601016629474844 0.028580588212365088
-0.014656574043363513 -0.03596718232719777 0.027946091867088185
-0.01363380007214321 -0.03594932021917283 0.027108296888506578
-0.012755022984372533 -0.03594446141568142 0.026164676887987293
-0.012027358372271424 -0.035953335007191264 0.025108156286411
-0.011410645801138153 -0.03597236460590533 0.023967178264238775
-0.01094627717546015 -0.0360053970061046 0.02270899795428627
-0.01059469077734937 -0.03604889731983263 0.021361886634254812
-0.010362956582670724 -0.036103580570126345 0.01991901449920136
-0.01040611400097341 -0.03618377663246934 0.018259413257337598
-0.011791871942540555 -0.036388052871938484 0.015552531017424098
-0.021260896758055814 -0.0348963499875951 0.03108830417930014
-0.018530729667295298 -0.03473206334666418 0.0314695992123859
-0.016829161056375552 -0.034656250262597665 0.03111917762281291
-0.015377923159423712 -0.0346018653972038 0.03059297103096409
-0.014040540072667251 -0.0345571641759046 0.029988192471450292
-0.01294409108278427 -0.034533289843559196 0.02920973538821564
-0.012019035555529023 -0.0345242949520241 0.028306316819933786
-0.01115328040585728 -0.03452045586440382 0.027359493151033865
-0.010410893784187247 -0.03452742747461675 0.02632049850134993
-0.009834969531468063 -0.03454906748901566 0.025155335082695296
-0.009299713046787395 -0.03457438225898728 0.023957330536098442
-0.008857921972767746 -0.034608057673653374 0.0226857273670123
-0.008504950389509991 -0.034649735418938635 0.021342916786857735
-0.008300732289167279 -0.034704781474603756 0.01988159848858473
-0.008411897155577164 -0.034788089627400966 0.018170816082573316
-0.009011488282667568 -0.03491525120659592 0.016071823140264507
-0.021321372824304075 -0.03353999681251828 0.032628499721885584
-0.01868462476082955 -0.03338975361690814 0.03293826015317919
-0.01678621774091449 -0.03330038873060253 0.03272914981109254
-0.01525192471091813 -0.03324104499600439 0.032264182330405455
-0.013834376227192913 -0.03319121981843444 0.031719639190119275
-0.012702772747377244 -0.03316515281573406 0.03096998417801572
-0.011658147719150969 -0.03314628224511833 0.030158634756792424
-0.010770891854196385 -0.033140576919396765 0.02923233483438531
-0.009976794263026723 -0.03314270410065336 0.028237090335224313
-0.009273019941823668 -0.03315247329853288 0.027173899500382737
-0.008575689739517112 -0.033162829129232005 0.026104909497155604
-0.00792016486427538 -0.03317677616435554 0.02500322660198545
-0.007453476432511819 -0.033206840877751984 0.02375625685155025
-0.00714918885394078 -0.033250872271418874 0.02238191867991901
-0.0067675480179056335 -0.03328848354038327 0.021062908684106207
-0.006698315856447035 -0.033352990466766874 0.01949823554757535
-0.006904113835314751 -0.033441358425014424 0.017713079383321784
-0.007641438243135457 -0.03357578421696848 0.015503108131317223
-0.022028583793125 -0.03224028746000409 0.033703337676008915
-0.01921925647944356 -0.032082334464236535 0.03412974348346137
-0.017155499414403974 -0.03198332035767037 0.03403628651548701
-0.015445252003828347 -0.031912210135044194 0.03369733705673433
-0.013963631084298989 -0.03185915432730312 0.03319942724248781
-0.012753148431537797 -0.03182768366244675 0.03250885065154058
-0.01167603735866235 -0.03180683035816258 0.03172350855435596
-0.010670222734161183 -0.03179164782602655 0.03088762595575889
-0.00977164024675714 -0.03178507939591854 0.029973695775814102
-0.008954398042907707 -0.031785079396840936 0.028999744489182022
-0.008195216053241139 -0.03178979729189584 0.027982248265450704
-0.007548360835554435 -0.03180368157303457 0.02687957867605756
-0.006906619569088057 -0.03181804141039966 0.02577163980441849
-0.006433413007639666 -0.03184624290983822 0.02453379356701829
-0.0059605019781430735 -0.03187458746107042 0.023292881177237823
-0.005671800342038402 -0.03191817832611566 0.021907176346828705
-0.005453923031207619 -0.03196778179902823 0.020462199883069798
-0.005452863554396115 -0.03203547543400354 0.018843335843813758
-0.005795778322219447 -0.03213188273858956 0.016948264885417508
-0.006796379142961717 -0.03228316745184411 0.014525647649892615
-0.023721939882211385 -0.031016592202461866 0.03408064142162803
-0.02019099676891839 -0.030810262561227163 0.035008498138453636
-0.017929703061335345 -0.030700301867726407 0.03505068871510225
-0.015969674370294895 -0.030613004073488184 0.03488779758523697
-0.014430358228002538 -0.03055769276725939 0.03443009791874635
-0.0130970913587663 -0.030518027754738754 0.033828497240721456
-0.011911919806411653 -0.03048963194006185 0.03312288154798354
-0.01086168205765442 -0.03047155717341049 0.032321166506985244
-0.009861753085408542 -0.03045730740759739 0.03148419681642828
-0.008933311435176006 -0.030448551744930014 0.030595665490302126
-0.008089420982288376 -0.030446341515725745 0.029644972176235296
-0.007354459427198534 -0.030452619408620644 0.028612812496646878
-0.006682586611897079 -0.03046385533790433 0.02753242568967529
-0.006039616838212247 -0.03047740255210843 0.02642895265280709
-0.005541828515561953 -0.030502403522168202 0.025213398051042724
-0.005085028940223002 -0.03053073424991415 0.023963809006254
-0.004739255882148241 -0.03056793702991082 0.022625696813607876
-0.004434481492844977 -0.03060853607491241 0.021251906529694164
-0.004399539815738651 -0.030670668886417684 0.019663680877513634
-0.004609856188746597 -0.0307525231151768 0.01787684515180521
-0.005048389668175668 -0.030852869930654468 0.015901678280458686
-0.006396789396076186 -0.03102613666997524 0.013195755659189179
-0.02166780204622376 -0.02957412097720654 0.035531629354191574
-0.019083936068318152 -0.029445433768493356 0.035794796603188184
-0.01701965393006999 -0.029354344873550743 0.03570060782370904
-0.015254582569012964 -0.029284882274773386 0.03540128698040862
-0.01372969723513573 -0.029232830602796616 0.03493598037200457
-0.01242036522524076 -0.02919647894371595 0.034319770860473664
-0.011268747120479261 -0.029171645431881332 0.03359234714760162
-0.010209190826169723 -0.0291535343238816 0.0328000319027591
-0.009180514826852393 -0.02913764217690885 0.03198688346008255
-0.008237999828316689 -0.029128098316665872 0.031111528425733004
-0.0073888672454635596 -0.0291254811828866 0.03016754865582938
-0.006637004543343317 -0.029130124810142922 0.029150900896122878
-0.005981895720701735 -0.029142036147087075 0.02806078971725462
-0.005391609014365084 -0.029158863767859613 0.026920235844084706
-0.004847937497198307 -0.02917926898372352 0.025742311969683518
-0.004401445174534113 -0.02920708632554821 0.024487680504288845
-0.003996886330395744 -0.029238189085635313 0.023197688541391703
-0.00368269900292989 -0.0292762652159502 0.02183427207667321
-0.0034973594759920568 -0.02932427817308743 0.020366313063660102
-0.0036120195212465123 -0.029395303747259967 0.018658153985130765
-0.0038917464798898793 -0.02947920834155194 0.016812196609472974
-0.004642958562274202 -0.02959947040803186 0.014583790789694406
-0.006410438958135367 -0.029798008070852207 0.011533409927174387
-0.02706114223861389 -0.02860686512696323 0.033308419122380806
-0.020524105900899703 -0.02820834397782237 0.03633950566916477
-0.018210397411549784 -0.028104011215264884 0.03641523422176762
-0.016242893464169517 -0.02802354988175108 0.03625533773032091
-0.014627650161404548 -0.02796753307815571 0.03585147133746497
-0.013159205566077137 -0.027921631493867217 0.03534787960436503
-0.011896001091000474 -0.027890035011873603 0.034700436322518735
-0.010766903635018366 -0.027867798396641916 0.033958653519077564
-0.009664632256142225 -0.027847372004539427 0.03319968517406041
-0.008650151664553685 -0.027833099397374304 0.032378239163649236
-0.007701167071587189 -0.02782343137263289 0.0315098133371165
-0.006838578329211864 -0.027819888113385594 0.03057803543150167
-0.006067414338882859 -0.027822867613414456 0.029578091355582037
-0.0053984088789000295 -0.027833179995717692 0.02850077468301887
-0.004812042711422215 -0.02784946978378574 0.027359630512464428
-0.004262040724625271 -0.027868444785730428 0.026188907976404274
-0.0037932143565816423 -0.02789335333740691 0.024953804490470133
-0.003402115394131544 -0.027923983845537032 0.02365595633357992
-0.0031449272080599777 -0.027964441169976602 0.022250855024095573
-0.0029319723207709147 -0.028008280019886103 0.020806645440004823
-0.002808430862811795 -0.028058807590356057 0.019287366097337777
-0.003033298635653048 -0.028134941696438452 0.017487973292028725
-0.0035566590985255386 -0.02823320068208366 0.015443521265901983
-0.004533772887191201 -0.028365089957259514 0.013026619348956492
-0.007475524029458835 -0.028641643791673343 0.00902279437941328
-0.023418948878176082 -0.02706402739505064 0.03586707627633601
-0.019747529679734976 -0.02687433040348036 0.03688805830564551
-0.017504240656535053 -0.02677934226695198 0.03691678754402805
-0.01569305964204093 -0.026712914685167916 0.03664800609874497
-0.01410767387665296 -0.026661372891391182 0.036224853199041396
-0.012697102995681053 -0.02662137922075734 0.035681521100536295
-0.011469048582799901 -0.026593524339699724 0.0350103851981049
-0.010316449391384375 -0.026570651388544603 0.03428744977584264
-0.00921690283875587 -0.026551274868875745 0.033528275221421544
-0.008217386764185042 -0.026538603164665622 0.032697576976118414
-0.007285400258288832 -0.026530468934055598 0.03181827746549715
-0.00641815242654481 -0.02652671045630094 0.03089165118515058
-0.005650022831818313 -0.026529701812667297 0.029891133378216805
-0.004974846963531565 -0.02653906374510299 0.028820166418155546
-0.004357480743775011 -0.026552427446763064 0.02770425390415948
-0.003784291059988898 -0.026568881730043698 0.02655306955302772
-0.0032865061199431334 -0.026590595645124383 0.0253421255950928
-0.0028707333802050483 -0.026618058274596557 0.024065383303667198
-0.00259296460098718 -0.026655176469667495 0.022678430832114516
-0.002378329120221234 -0.026696825332274264 0.02123783144041863
-0.0021944551181120597 -0.026740786571172737 0.019768110780716996
-0.0023486025847307967 -0.026808449601320304 0.01802697123926289
-0.002694479986962317 -0.026889767616744952 0.01612587607035204
-0.0033980100850763972 -0.02699642005561575 0.013930313268341099
-0.005116138271152426 -0.027174564229513393 0.010910138818420734
-0.022575488467696248 -0.025721774488774107 0.03645961099368361
-0.01912441865381692 -0.025555003870978827 0.037328207239867184
-0.017006860176039584 -0.025472464028785734 0.03727005589506832
-0.015270961732279431 -0.025413938279395684 0.0369494508096207
-0.013707642051243418 -0.025366206377938006 0.03651210596814147
-0.012330030018753768 -0.02533017616971452 0.03594655052272944
-0.011077249391236055 -0.025302011708689474 0.035294814300986965
-0.009932951676974944 -0.025280710008775346 0.03456737301945234
-0.008902739330158616 -0.025266674908027396 0.03375884082234132
-0.007913212095751576 -0.02525520986555592 0.03292202788039317
-0.006993311890545417 -0.02524820451879151 0.03203498255326337
-0.006141370088231235 -0.025245578516050898 0.03109811634601789
-0.005378244302787105 -0.025248715195488287 0.030094966228182918
-0.004665344422446649 -0.025255136876087374 0.029053550369921632
-0.004010263719879059 -0.025265359920600847 0.02796749437948709
-0.003406069260307454 -0.02527895477431973 0.026841366661493893
-0.0028660069833853496 -0.02529681108376291 0.025664379463086417
-0.002427913177804941 -0.025321441426830127 0.024406573876570525
-0.0020984395268983103 -0.0253533266958383 0.023061512865987288
-0.0018642941463701268 -0.025391636149608317 0.02163816993320178
-0.0016854191043915723 -0.025433762431416485 0.020166687368403546
-0.001757235719446304 -0.025492677112665875 0.018492499740590307
-0.002028678332326228 -0.025565097208776817 0.01665281177519423
-0.0025584711488816914 -0.02565501663758296 0.014598310345118937
-0.003870561707331077 -0.025797484011527864 0.01190651340142812
-0.022134220537715243 -0.024409101086271662 0.036769603691523545
-0.01868739184169116 -0.0242508707370049 0.037636911271063
-0.016645692477667007 -0.024176992816536454 0.03752657805919901
-0.014923750069564423 -0.02412219452007541 0.03719741488823686
-0.013452136366799483 -0.024082376306101917 0.03669557815889074
-0.012049449734755913 -0.024046589449973753 0.036149131576691085
-0.010781916336285557 -0.024018898172302246 0.03550921320144346
-0.00963985904390846 -0.023998761242662918 0.03478130764655285
-0.008651317915429002 -0.023987942924096027 0.03394335980046853
-0.007720097762803357 -0.02398059757914693 0.03306452721106351
-0.006836734236770281 -0.023976164831721793 0.03215115004896246
-0.006002002872402656 -0.023974710693998837 0.031202077006264428
-0.0051931585750441545 -0.023974849176470334 0.030233779811096873
-0.004448090885542821 -0.0239789351093262 0.0292173728988096
-0.0037675819207233507 -0.023987041841922227 0.028151482109830206
-0.0031279112222294403 -0.02399772060123705 0.027053390818065626
-0.0025568095215968145 -0.024012714631648127 0.02590133613997958
-0.0020975794261032243 -0.024034753717444717 0.024661094247099113
-0.001742318479384719 -0.02406338835249738 0.023337380728577994
-0.001492224239117712 -0.024098735544984866 0.021927943807464545
-0.0013084354627048156 -0.024138397351388917 0.02046186658847271
-0.0013031409704988839 -0.024189462504761235 0.018849966586211575
-0.001522406602686155 -0.02425490957848805 0.01705349063930034
-0.0019492617541689294 -0.02433375813744961 0.015083040805219217
-0.0030146616503329837 -0.024453393072663303 0.012591173892928686
-0.00623735710344786 -0.024710488599944475 0.008348236349007498
-0.0230679786956825 -0.02317770605066197 0.03611363440200188
-0.018350871865057405 -0.0229552629248417 0.03787461996646191
-0.01639675051714773 -0.022890252925999395 0.037703391020997956
-0.014700697051970135 -0.022839796202471868 0.0373567100442746
-0.013216488527762638 -0.022801322600465763 0.03686479093146572
-0.0118515654718101 -0.02276956889777792 0.036292005487782664
-0.010583755705897646 -0.022743295541970247 0.035653069165267226
-0.009494610950202709 -0.02272725848344007 0.034887327359293174
-0.008549482186115065 -0.022719510967824905 0.034018097366996236
-0.007626432665825134 -0.02271301500730287 0.033133642814358155
-0.0067658087827116575 -0.022710129106309433 0.03220377079132669
-0.005922248833386545 -0.02270822743635439 0.03126156935175012
-0.005105724894234942 -0.022707899594959603 0.030299354734936168
-0.004321658481667545 -0.02270947332382659 0.02931271070748881
-0.003602240715949223 -0.022714851875390782 0.028276834538831563
-0.002959424006338307 -0.022724762949110053 0.02718181910325662
-0.0023739801785968573 -0.022738100744994546 0.026041449300369834
-0.0019058886960173216 -0.02275843318497139 0.024808790918713908
-0.0015360921680347972 -0.022784675536599255 0.023497133183871755
-0.0012668745061751863 -0.02281700099835061 0.022103449710806855
-0.001073893258840053 -0.02285399995263926 0.020645513774064983
-0.0010513289271259496 -0.02290131799464874 0.019048194945034513
-0.0011833878944542686 -0.022958077440707707 0.017321800368981732
-0.0015366833369793165 -0.023028327820034906 0.01541131763044129
-0.002417441247248242 -0.023130532725390895 0.013068908660401723
-0.004472571326551877 -0.023303802960780582 0.009767490809064805
-0.020702567198064348 -0.02176254958466475 0.03777534657691539
-0.01806872409052218 -0.021664730466540938 0.0380739215950468
-0.016188761424518472 -0.02160731478758217 0.03785111689016413
-0.014552903374671022 -0.021562902890887588 0.037462258120425584
-0.013124604364726233 -0.02152958878160674 0.036930770632559784
-0.011776124282719513 -0.021500484365344692 0.03634647458796436
-0.010549610234303286 -0.02147791574376748 0.03567785728648387
-0.00945604748590595 -0.021462524183813125 0.03491547566267328
-0.008488406162886597 -0.021453969074840925 0.03406292125523308
-0.0075813088933557315 -0.021448703017257213 0.033166939707841125
-0.006721915480206009 -0.02144603999654257 0.03223633594291192
-0.005866103637421349 -0.021443563361622044 0.031303450734021465
-0.005031773304177756 -0.021442263357556272 0.030354818142640294
-0.004233316680905819 -0.021442944293359675 0.029379325858678362
-0.0035106935929983263 -0.021447835917569772 0.028346240433421765
-0.0028501533423908043 -0.02145620018933594 0.027265109956620348
-0.002290426962335279 -0.021470217211252238 0.026105481172929712
-0.0017934150171138308 -0.02148779534608189 0.0248954512804897
-0.0014024419123766507 -0.021511381516191086 0.023600664863957843
-0.0011119604688520912 -0.021540702874384386 0.022224099190643276
-0.0009121144495996547 -0.021575242106405455 0.020772187023126
-0.0008557031318025543 -0.021618005924227853 0.019202193061371386
-0.000986089630114484 -0.02167149417401679 0.017477948223617035
-0.0013127288253542702 -0.02173631038290392 0.015589511818521251
-0.0020855697023472453 -0.021826693698069537 0.013334382804478684
-0.003740241990077442 -0.021967551986813987 0.010356435762400806
-0.030920181645113953 -0.020958059327538043 0.03219234226784001
-0.020395243635872418 -0.020466807987709106 0.03799124275626786
-0.017919030900549526 -0.0203827245763212 0.03817966085384045
-0.016116771008006237 -0.020332628990678694 0.03790224864287517
-0.01451481812494948 -0.020292552750593933 0.03748945701628709
-0.013074086237016114 -0.020260558350823566 0.03696704642651605
-0.011798982204742292 -0.020236921594601727 0.0363299709980871
-0.010600830663405725 -0.020217139702415843 0.03564067349179384
-0.009488939377114702 -0.020201715637015026 0.03489146716267533
-0.008490667897991466 -0.02019208754186068 0.03406126136062626
-0.00756213444653131 -0.02018602363841974 0.03318108855840407
-0.006675781896762323 -0.020182119014056914 0.032270563195186175
-0.005824566626909056 -0.020180021631019198 0.03133443517330908
-0.004981367920648738 -0.020178332389575324 0.03039262198614101
-0.004197544126381736 -0.020179730363390748 0.029406300564961296
-0.0034872555707852193 -0.020184974489221966 0.02836400982744197
-0.0027999987618207434 -0.020191445999225708 0.027303339959668493
-0.0022302910757274197 -0.020204109502627545 0.02615156693239934
-0.0017266300860404593 -0.020220297533431894 0.024946908708969096
-0.0013478947656347384 -0.020243133367478294 0.02364291961100856
-0.0010429023932813086 -0.020269957999721533 0.02227788270206743
-0.0008552453287297701 -0.020303102436160066 0.020816715699938815
-0.0007998466448742025 -0.02034339800254014 0.019246163713390718
-0.0009155150593504469 -0.02039295181253748 0.017533803088095823
-0.0012227703533859713 -0.02045291550457587 0.015661089197145983
-0.001973564765656466 -0.020536795869977233 0.013423978960452998
-0.003419075996204002 -0.020658174324603498 0.010614719954845586
-0.008702454142172189 -0.020985679466666157 0.0046830242294589874
-0.02978035167801374 -0.01959407747614073 0.03298868617394185
-0.020209893947033986 -0.019178816752815887 0.038121451743105605
-0.01793072165713494 -0.019109361470136536 0.03817140281660908
-0.01618063217366994 -0.01906488952187916 0.0378568907537456
-0.014587532661718694 -0.019027747982220206 0.03743752732887107
-0.013155610505072801 -0.018998182842145224 0.03690850590483585
-0.011842419549505101 -0.01897420126445272 0.03629860891177811
-0.0106680065392602 -0.01895680309501333 0.03559190673954926
-0.009587648137511617 -0.01894387121930462 0.03481941751193479
-0.008550613403100427 -0.01893298050211595 0.03401726716324294
-0.0075745412264741074 -0.018924998288096666 0.033171933578498514
-0.006699409928610456 -0.018921883771110298 0.03225303317591516
-0.005805485029323654 -0.018917841891924747 0.0313486690479815
-0.004971288415213215 -0.018916695187075765 0.030400181576394514
-0.004193073021712401 -0.018918278769748876 0.02940967205287487
-0.0034772115741986687 -0.018922921831918994 0.02837162462237902
-0.0028144865235676386 -0.018930191433016295 0.027292296757443546
-0.002209136616587004 -0.01894031257705139 0.02616777887123739
-0.0017266300860025452 -0.018956528937590537 0.02494690870899824
-0.0013389905789204515 -0.018977497895594827 0.02364981720657089
-0.0010774283269922025 -0.01900479392689431 0.02225099336385722
-0.0008697397791844197 -0.019034877225913772 0.020805366505683598
-0.0007976127234680663 -0.01907182462489071 0.01924792227333938
-0.0008819172376465234 -0.019116719302095114 0.0175603934273319
-0.0012362614394303972 -0.019175281518236345 0.01565035472653159
-0.0019905310225404316 -0.019254094593290767 0.013410407135469316
-0.003338011687204656 -0.019362975779676113 0.010679912503201827
-0.006131165265827687 -0.0195449334670494 0.006761920444398439
-0.024850106613298673 -0.018069388003763655 0.036433209239836284
-0.020211073979267413 -0.017900281353136527 0.038120622765174694
-0.01803362972094369 -0.017839981650556055 0.038098711317463285
-0.016261939582010776 -0.017797521048678565 0.03779914153519304
-0.014709937804972428 -0.01776469867330037 0.03735011068414362
-0.013299220725343064 -0.017738064847965127 0.036805383026046246
-0.012009399343925142 -0.017716743377747313 0.03617804825704529
-0.010811543681111202 -0.017699466991716265 0.03548770504295057
-0.009703438892490146 -0.01768616103754586 0.03473489934534407
-0.008654713351663568 -0.01767547959335545 0.033940867878986924
-0.0076625391906995355 -0.01766731112656232 0.0331069997602208
-0.006743298161674405 -0.017662413669628788 0.032220471785430804
-0.0058717174274209305 -0.017659660043343253 0.03129926314003556
-0.005032893572408603 -0.017658385507377965 0.03035397794578204
-0.0042433789026217195 -0.017659354138838162 0.029371738324632968
-0.0035185068986119394 -0.017663280731931977 0.028340316823281586
-0.0028724484527284933 -0.017670832855100974 0.02724811565367774
-0.0022692658985810077 -0.017680384304483827 0.026121698173281915
-0.0017767166107292565 -0.017695063581593413 0.024908317312369088
-0.001396875167611944 -0.017714998836673487 0.023604977122361426
-0.0011264435374608306 -0.017740071198489468 0.022212819549854934
-0.0009511520281185737 -0.017769653035187627 0.020741620492628676
-0.0008668763800244172 -0.017803581882795537 0.019193397395254386
-0.0009782467298234954 -0.017846748343726657 0.017484155333743645
-0.0013475990576871655 -0.01790211499286896 0.015561766573767566
-0.0021410306030660298 -0.01797751286209984 0.013290017942910182
-0.003502459282372139 -0.01807980281118136 0.010547662466997676
-0.005994266379606983 -0.018235520636065237 0.006872603681514211
-0.024211313206606133 -0.01675243927246385 0.036879503205919484
-0.02045548944162434 -0.01663176488390552 0.03794891980780574
-0.01825131386268375 -0.0165746887367824 0.037944945071965275
-0.01647116793851977 -0.016534929453545857 0.037650535469226865
-0.01492375006911395 -0.016504659408453966 0.037197414888558544
-0.013513105560276906 -0.016479949237965592 0.03665179771807642
-0.012230349764951909 -0.016460463283256923 0.03601852040809206
-0.01104415919003432 -0.016444926711480335 0.03531883634198313
-0.009882935943375415 -0.016430369965298085 0.0346038805809179
-0.00880530355313719 -0.0164192557127682 0.03383034924984879
-0.007807032060211716 -0.016411427775035115 0.03300037827398633
-0.006842364346269947 -0.016404981266039058 0.03214697297959579
-0.005975040101170115 -0.016402612499318493 0.031222189824639646
-0.005137106811809622 -0.01640147573450522 0.030275818417628664
-0.004347385822148497 -0.016402375661177974 0.029293310710419906
-0.003641328913260633 -0.016406829381368133 0.028247200059725364
-0.0029861936030721736 -0.01641346706683501 0.02716141415214146
-0.002408526092915919 -0.016423433671153023 0.026014974681173586
-0.0019404235080939802 -0.016438120845000043 0.02478218203263849
-0.001582891714829171 -0.016457601593718278 0.023460880086688896
-0.0012880595134875938 -0.016479853613255466 0.022086950495133817
-0.0011129637445150276 -0.016507345598718397 0.020614921477174752
-0.0010770545711478174 -0.016540948629578354 0.019027943522085033
-0.001236109802847607 -0.016583108981614803 0.017280074645162347
-0.0016684769628971252 -0.01663726996010687 0.015306453218493832
-0.0025149592526162445 -0.016709611285228264 0.012990901041475322
-0.003890149577368218 -0.01680522734061944 0.010235878913720242
-0.006699512019363418 -0.016963681151330325 0.006302410069827735
-0.024341075141816604 -0.015468717519323286 0.03678884483639816
-0.020826811408111268 -0.015366527221047198 0.03768806446270173
-0.01859235867740222 -0.015312715998914714 0.03770404015217349
-0.01677260933598762 -0.015274528648754488 0.037436434374401695
-0.01522115753301334 -0.015246456250313165 0.036985018890155985
-0.013797492515897625 -0.015223170754741245 0.03644758661458647
-0.01252609987543657 -0.01520564300663635 0.035804986626467916
-0.01130675154346411 -0.015190047736672737 0.03512820576101733
-0.010161594683941011 -0.015177251832718548 0.034400481562909535
-0.009041045336840359 -0.015165354743804576 0.033657337602938875
-0.007997971597411613 -0.015156411299218672 0.03285948372807618
-0.007059810937464772 -0.015151505656933512 0.031985645834001486
-0.006178476575102676 -0.015148791399005246 0.031070436845845262
-0.005334480841299727 -0.015147522160768001 0.030127788655735066
-0.004532051777699719 -0.015147872274773887 0.029154061222153527
-0.003819000565865094 -0.015151724592887316 0.02811249937667981
-0.0031870839996409606 -0.015158777657662693 0.027008286753091026
-0.0026170473946617867 -0.01516829435819962 0.02585517222213235
-0.00215445465953662 -0.015182086241783056 0.024617272187098305
-0.0018248709487858061 -0.015201190250455065 0.023273431761101193
-0.0015491612619366601 -0.015222507769373094 0.021883600361865596
-0.0013665568317193233 -0.015247609099696965 0.020416357397945784
-0.0014174045687140313 -0.015282097429182902 0.018760017411247554
-0.0016392933024261258 -0.015323546610511255 0.016960982945627145
-0.002164920808438664 -0.015377298811127689 0.014911447074872575
-0.003048779442857086 -0.015445613213199467 0.012563882032848195
-0.004554112480764205 -0.01553913787843649 0.009701914778076082
-0.02476096440158798 -0.014194273392388553 0.036495488578966895
-0.0213613406651067 -0.014104627307893957 0.0373125552647921
-0.01904916353230529 -0.014052621920035068 0.03738136544145615
-0.01721336818193997 -0.014017087558215733 0.037123381979259684
-0.015631544689894195 -0.013990320320450809 0.0366919375102388
-0.014205787420370763 -0.01396893130199996 0.036154400336721515
-0.012876298328323377 -0.013950846536931771 0.035552140736262505
-0.011645211938391187 -0.013936161851915221 0.03488249829514434
-0.01049080680296155 -0.013924129742522705 0.03416018254487296
-0.00937360555000083 -0.013913366928783507 0.03341327060186766
-0.008297749754012762 -0.013904028471585141 0.03263827701590166
-0.0073519989551255605 -0.013899283547015822 0.031768866814348595
-0.006455311716618117 -0.013896269388254001 0.030863932296548657
-0.005634289741585086 -0.013895947955504905 0.029902933135292686
-0.004840219941577628 -0.013896590837089181 0.028921683472871662
-0.004114363453196268 -0.013899685535322526 0.027888571799676853
-0.003497759240445708 -0.013906724068558264 0.02677147657009399
-0.0029542805550090145 -0.013916428810242418 0.025596730097310838
-0.0024848860288730346 -0.013928851284741554 0.024362676602709743
-0.002166613003380169 -0.013946798086861226 0.023008702532608394
-0.0018944935372077754 -0.01396649565092002 0.02161465017438008
-0.0017974260134522302 -0.013992642083070139 0.020078985652989656
-0.001908839187173328 -0.014026496688308963 0.01837315633589509
-0.0021785650743758045 -0.014066276840001436 0.01653418684310154
-0.0027680136992153104 -0.014117927324322163 0.014431583341702192
-0.0037403938793482694 -0.014183842528861623 0.012010638606649915
-0.005537598965479451 -0.014280354828324673 0.008910987290948913
-0.025577950480439038 -0.012929737597326012 0.03592470003677911
-0.022091337609419892 -0.012845535556042162 0.036799729140780946
-0.019721577318543904 -0.012796475601513198 0.0369063903582712
-0.017762758951720525 -0.012760298520277085 0.03673317291612199
-0.016157936450104937 -0.01273526678804824 0.03631601048408095
-0.01470981525602899 -0.012715141781016681 0.035792470654381625
-0.013366467157429063 -0.01269829029298994 0.03519823519235016
-0.01209663260065097 -0.012683729123433756 0.03455478660825567
-0.010909667432051129 -0.012671773432762275 0.03385444714799918
-0.009779570174781427 -0.01266160128288294 0.03311533186900012
-0.008687582043512554 -0.012652617855618359 0.03235061923577054
-0.007710215317391522 -0.012647307135753582 0.03150310029709952
-0.006816012354409262 -0.012644671744955248 0.030594868469498715
-0.006020117476202902 -0.012645220694574385 0.02961356382041902
-0.005260115987220815 -0.012646941044618935 0.028605056028975284
-0.004549276873372865 -0.012650273265688223 0.02755884483476878
-0.003960225904135417 -0.012657603002137951 0.02641896436160668
-0.003402976236001609 -0.012666005987850783 0.02525286751548589
-0.0029446356853536915 -0.012677693283429298 0.024008441976925865
-0.0025750410868309315 -0.012692351204162355 0.022692315216581327
-0.0023637515026231903 -0.012712293112290456 0.021249184717441527
-0.0023752960068267326 -0.012739685760651162 0.019626511871415342
-0.0025232115849729286 -0.012771712540285788 0.01788951770411784
-0.0029229618387486833 -0.012812236166390855 0.01594504857499157
-0.0036323704879935304 -0.012863234829636026 0.01374383941071311
-0.004788786083604946 -0.012929354981568397 0.01117199779107475
-0.007426336009285717 -0.013045245194135633 0.007392050257122529
-0.02766595789068338 -0.011696229425085617 0.034465910546208234
-0.023173325832213598 -0.011591859383250972 0.03603962756659829
-0.02058925194636646 -0.011541639992724636 0.036293488248049954
-0.018516820069331363 -0.011505875866484251 0.036197595148099004
-0.016811755495416913 -0.011480513347027411 0.03584908020908739
-0.015325395840859346 -0.011461339213664637 0.035350437755084896
-0.013931779511798026 -0.011444760039539864 0.03479007546375551
-0.012627280585593537 -0.011430687131766922 0.034169559345021694
-0.011435930785451964 -0.011419831771566696 0.03347031618882579
-0.010286782145127127 -0.011410155711200836 0.03274308738631465
-0.009193024635282043 -0.011402049740602835 0.03197765245531542
-0.00815976156591064 -0.011395672326383777 0.03116957465897524
-0.007274613974734945 -0.011393592124159335 0.030252775625383532
-0.006500376609122782 -0.011394747698809113 0.029253371320539512
-0.0057744333376013035 -0.011397323822520735 0.028217229113975173
-0.005092044086554448 -0.011401190192699638 0.027147349172525648
-0.004511476912539947 -0.011408070220408897 0.025998776863435158
-0.003971775254086152 -0.011416184757163198 0.024816962497489437
-0.0035424917222305896 -0.011427597731564997 0.023547797131387715
-0.0031584094508803617 -0.011440398064799647 0.02224041105417085
-0.003006211634321132 -0.01146013669919494 0.0207488266992501
-0.003100360681150327 -0.011487288124132501 0.01905878425302604
-0.0033182698993806103 -0.011518244927634657 0.01726364174233891
-0.003838465383497136 -0.01155836535369782 0.015220491190253316
-0.004658473652355 -0.01160763413049828 0.012927398523084
-0.006299195931121548 -0.011681739916173361 0.00996377500838791
-0.02481805261342257 -0.010345596437794952 0.03488419963387146
-0.02173450930121784 -0.010288346379219005 0.03548450913649481
-0.019499108629996487 -0.010252464705818216 0.03549991706526351
-0.017634098652975938 -0.010225889290266842 0.035261797046488796
-0.016048899120088833 -0.010206360887374406 0.03483090828965085
-0.014636633390417764 -0.010191184000095523 0.034281165715767725
-0.013298945422973552 -0.010177859699810445 0.0336819600052401
-0.012044023713837837 -0.010166610200452566 0.03302645605997978
-0.010878851997226158 -0.01015762849012945 0.03230856543357352
-0.00979899858694877 -0.010150814176143266 0.03153050344675734
-0.008781996041922646 -0.010145599002298068 0.030707928829745157
-0.007849952674133576 -0.010142566649530815 0.02982360302048298
-0.007081424989056229 -0.01014377348580007 0.028817587273609002
-0.0063873109366491265 -0.01014692438683468 0.027755081709584573
-0.005722116590143322 -0.01015084365711483 0.026669663535241694
-0.005137603308069949 -0.010156890570837705 0.025521516088097274
-0.0046470773537141685 -0.010165427491704956 0.024299437740005314
-0.004232376327207299 -0.010175992933199596 0.02301624477146058
-0.003899129631957321 -0.010188748009509347 0.021666614884137625
-0.0037908411145224363 -0.010207493528479791 0.02013774496458981
-0.003922158379038643 -0.010232655028043722 0.018415314413242123
-0.004286005045863017 -0.01026408596154378 0.016501833262915377
-0.004933212835297518 -0.010303176433315403 0.014354074719038767
-0.0060862163254426505 -0.010355895548874153 0.011791384586271936
-0.023416575291570263 -0.009039714363191662 0.03429634278708166
-0.020802066516764417 -0.00899994536095228 0.03457448110188416
-0.01875783474299786 -0.008972748953760134 0.034459271630173205
-0.01701961992305534 -0.008952288937034977 0.034133858152728236
-0.015489495405992648 -0.00893641097232265 0.03366539299098037
-0.014113058186051408 -0.008923920948215648 0.033090949692220095
-0.012787748738822269 -0.008912530527377688 0.03248359514184379
-0.011608237316037773 -0.008904382670250831 0.031773267221872514
-0.010489257775759875 -0.008897569647040287 0.031021160246317625
-0.009452995548705989 -0.008892602461247472 0.030210103434875957
-0.008523708062982194 -0.008890043422656075 0.029321016708106995
-0.007758479999967927 -0.008891206439785764 0.02830979862323274
-0.0070645059580699 -0.008893998922457421 0.02724443501291607
-0.0064335395735629075 -0.008898242714746126 0.026130302526345794
-0.0058597016737388374 -0.008903812361498767 0.024971101302313337
-0.005377924046800875 -0.008911517723782174 0.02373934580810383
-0.0050299827215583015 -0.008922332869178299 0.022401693354960173
-0.004766147282167343 -0.008935131685443468 0.020994982843117238
-0.004700068278115199 -0.00895255099436104 0.0194296246016053
-0.0049307080897842415 -0.008976910156455402 0.017625617237823965
-0.005401536693908193 -0.009006942659944287 0.01562367825156219
-0.006280448560434193 -0.009046586342417397 0.013287831339392264
-0.008479185981949577 -0.009117135168536815 0.009887367194761632
-0.026882864495949732 -0.00781440774187342 0.03184784896246362
-0.022630850160721028 -0.007749174060296003 0.03327557330866643
-0.020196330281176067 -0.007718463549175304 0.033431958152484675
-0.01825411476078659 -0.007697069943112024 0.03324739853113445
-0.016584731959611076 -0.007680832339960894 0.032874624045251544
-0.01503759891236417 -0.007666882334076244 0.03241977350037156
-0.01370570762414336 -0.007657028903401021 0.03181355717545026
-0.01252954789086047 -0.007650146558098052 0.031097114452678598
-0.011362399910945287 -0.007643410286787055 0.03037686746936802
-0.010291259144772802 -0.007638510533311765 0.029588182104833605
-0.00935745968316809 -0.007636263204519516 0.028699081567903018
-0.008530252468425092 -0.0076360852550017766 0.027730972244519925
-0.007840844830692861 -0.007638599564340334 0.026659027754651732
-0.007210130913053836 -0.0076422738762960685 0.025541534524566756
-0.00664927560368217 -0.007647334619279759 0.02436925370623433
-0.006250173173537099 -0.007655597788600429 0.023070888656810284
-0.005943453167839896 -0.00766571651892609 0.02169786931258849
-0.005765699102525779 -0.007678425099888704 0.02022068369355512
-0.005815518543185683 -0.007695691599248388 0.018560894455585675
-0.00621600602214234 -0.007719986475888665 0.01661922544975475
-0.006880503589413556 -0.007749632229913119 0.01445942424479385
-0.008599575834784323 -0.00780040975628035 0.011452403391114863
-0.026738269072881182 -0.00652303159709575 0.030358247110652103
-0.022331493439191608 -0.00646611260726292 0.03190711373616384
-0.019906860953736838 -0.006440643370478322 0.032060603155395384
-0.018015920878376057 -0.0064236176467488025 0.03184129499072769
-0.016362180345957156 -0.006410328837659694 0.0314581852251446
-0.014909869066320636 -0.006400224804446715 0.030934613797018118
-0.013641975751807756 -0.0063930511718158015 0.030280700097668367
-0.012496007922645658 -0.00638781690789904 0.029540376565540982
-0.01139685748961905 -0.0063833185608022985 0.028767920797596047
-0.010438269854589621 -0.0063810810818855 0.027892853658748162
-0.009514739926139992 -0.006379404001842173 0.026992610443176468
-0.008787297648835735 -0.00638091333455608 0.0259453441186982
-0.008220682537305568 -0.006385053687399629 0.024775390955549814
-0.007732187931572432 -0.006390489051135156 0.023543810822941824
-0.007408610743665611 -0.006398650098840172 0.022183108028153098
-0.007144852688077519 -0.0064078280351243235 0.02077219747473208
-0.007077431713789828 -0.006420276132633863 0.019204554839934995
-0.007381070686639957 -0.006438896885680378 0.017341617913391838
-0.007874823562637301 -0.006460738968358551 0.01532036678933768
-0.009372192950781344 -0.006499297144125206 0.01249794739807697
-0.022696317553780265 -0.00518818528171331 0.03005756469257681
-0.02015223165969382 -0.0051662687579056765 0.03029886270182114
-0.018209471881974415 -0.005151983067655929 0.0301171322427381
-0.016575813185520705 -0.005141615494907582 0.029718605294236866
-0.015190740702099859 -0.005134410138026358 0.029144056561180187
-0.013962116520791046 -0.005129196235212876 0.028458533023758226
-0.012852053172702438 -0.005125495676925196 0.027688287566543734
-0.01188594480883981 -0.005123647399513833 0.02681296379245851
-0.0109043702955684 -0.005121590317630873 0.025950393018533746
-0.010157394414778642 -0.0051225811145650755 0.024912206890109312
-0.009626541756458662 -0.005126397760309389 0.02370954733722408
-0.009166276314916788 -0.005131153974637338 0.02245068627393032
-0.008904414138404926 -0.005138531486393191 0.02103678360604222
-0.008694854691128628 -0.005146627337415128 0.01957792930775154
-0.008920465142316258 -0.005160487082224712 0.017776855757949572
-0.009599496240325078 -0.0051803881909759 0.015613873328504668
-0.011637850925967641 -0.005218347371089763 0.012373906096144527
-0.020992885285979868 -0.0038907924467255256 0.02809649566538469
-0.01896239961336399 -0.003879242721381524 0.027976584445258357
-0.017197844850184718 -0.003870216745606447 0.027671036425652773
-0.015908033372907304 -0.0038657536938467877 0.027022638314477265
-0.014710241198229501 -0.0038621656204098193 0.02630966779380528
-0.013645455646272953 -0.003859856833684666 0.025500460652584045
-0.012699569837916369 -0.0038586977953432226 0.024604000276328974
-0.01201932993480792 -0.0038601296500371464 0.023508192990660037
-0.01147340334454705 -0.0038628827026173074 0.02230936045451426
-0.011076632119171093 -0.0038671109246164004 0.020994529978941634
-0.010921007829443885 -0.0038737282129301448 0.019491346147053334
-0.011217696473161343 -0.003884830524536033 0.017634093348391944
-0.012401127945506463 -0.0039047362468131283 0.015080573090527405
-0.02071098602982152 -0.002602793066450948 0.02509273090947256
-0.018704195057975714 -0.0025952328923408326 0.024959346778912817
-0.017189024722168766 -0.002590823834420805 0.02447061817584656
-0.016122029694832618 -0.0025893037663932386 0.02365306582800425
-0.015161235008177176 -0.0025884677222970266 0.022757760880210087
-0.014468257895052794 -0.0025893728218523517 0.021661550688632514
-0.014043157549210539 -0.0025920304104870427 0.020361116930275647
-0.013941333952709023 -0.0025968139515253692 0.018810929626126627
-0.014371552897782358 -0.002605105441604808 0.016846985200058562