# .PCD v0.7 - Point Cloud Data file format
VERSION 0.7
FIELDS x y z
SIZE 4 4 4
TYPE F F F
COUNT 1 1 1
WIDTH 781
HEIGHT 1
VIEWPOINT 0 0 0 1 0 0 0
POINTS 781
DATA ascii
0.07934142978705726 -0.13860784980281282 0.013667994182285814
0.0792156291186034 -0.13678236632655782 0.012966055083880879
0.07909191113898377 -0.13497369407613125 0.012259754881727258
0.07896326195890171 -0.13313590672102749 0.01157651914606267
0.07883865670582998 -0.1313277451726702 0.010881220817306692
0.07871277573827944 -0.12951441780165007 0.010194709412782055
0.07857898198353382 -0.1276528393474371 0.009543382450463489
0.07845061364705327 -0.12582982420126776 0.008874461850719273
0.07832404057868148 -0.12402166684213012 0.008202218883225587
0.07819128958761783 -0.12217678410431554 0.007558574514002492
0.07806336332637558 -0.12036635973409338 0.006899480700543692
0.07793667275468852 -0.11856711275995191 0.006239233123080723
0.07780550218760425 -0.11674228317670876 0.00560097460626674
0.07768100056600065 -0.11496351231233187 0.004939488856900154
0.07761822307272671 -0.11358279350500544 0.004029366515707955
0.07761741187983433 -0.11259933927953164 0.0028668323782686245
0.06006884248292482 0.012326503209216133 0.05954428812155005
0.05978534644845662 0.014829522644908555 0.059882086216617336
0.05957276209483719 0.01688957477062014 0.05991715558668964
0.05938652300695651 0.018782683022047775 0.05984258095712014
0.05921104100460168 0.020605255106966536 0.059726063023180176
0.059044571279476606 0.022368355329698053 0.05957485398311346
0.058888371356757264 0.024064659137817135 0.059382952652795196
0.058743060122059924 0.02569079019082049 0.05914713337067351
0.05860385833499467 0.027276171857988696 0.058888313215011645
0.05847206522082586 0.028813164767790278 0.05860037772713078
0.05834743256301237 0.03030354955365444 0.058284112359169304
0.0582246993347708 0.03177933430363339 0.057962997332739685
0.05811020913132043 0.03320240281023762 0.057608150940531455
0.05800537776583391 0.03456456149248943 0.057212753531535154
0.0579105547056117 0.03586408059956886 0.05677477299451311
0.05783179699320582 0.03706510457968032 0.05626599006281263
0.05778395577305203 0.03807958668034567 0.055617373238383616
0.05775340283848597 0.038989877967633535 0.05489041677238615
0.05773649278345887 0.039818301561064307 0.054101218120691075
0.05772647111881684 0.040605438973573216 0.053280534033411986
0.0577204896697398 0.04136840930797586 0.05244132536223034
0.05771764888429746 0.04211267853355083 0.051587615080601
0.05772183525487885 0.04281545881332427 0.050701035552393636
0.05773140645953778 0.04348667482933394 0.04978899663323649
0.05774367422205389 0.0441423068483035 0.04886394338623268
0.05776508052625172 0.04474473201387741 0.04789525365740055
0.05779234789477219 0.045313447746800906 0.04689808264160039
0.057824892662764846 0.0458520789390921 0.045874947222988516
0.05786363418197318 0.04635547609255014 0.044821215343439136
0.057906339958538625 0.04683683463971372 0.04374731201422821
0.057959660161053 0.0472577795916439 0.04262107282811145
0.0580203294233947 0.0476375876240312 0.04145777418668384
0.05809172530632257 0.047957055310967 0.04024073817992885
0.058170281772684726 0.04823711169834477 0.0389867939552504
0.058255142430948134 0.04848294549498838 0.03769978934525181
0.05834804220051851 0.048684853893622426 0.03637096541653273
0.058457490577968944 0.04879448827051208 0.03495826430554211
0.058573816475555054 0.04886764637965524 0.03350847285301217
0.058705605070938284 0.04885571938324551 0.03197895680229845
0.07930953890341555 -0.16106158116961156 0.02222075770817522
0.0791489115600898 -0.158942118821368 0.021614047328782304
0.07900978839565392 -0.15697375766648236 0.0209304814665891
0.07889394054877509 -0.15516775050249976 0.020162309204377227
0.07877814784097406 -0.15336509738758541 0.019397475346545456
0.07866581044058647 -0.15158890365608368 0.018622890713203888
0.07855068592879907 -0.1497966929716682 0.01786251809277678
0.07843364497263781 -0.14799446747114975 0.017113107866392085
0.07831610998359188 -0.14619191288171818 0.016369208131290613
0.07819164940393711 -0.1443456702774084 0.015655989669442483
0.07807567514438415 -0.14255975507010155 0.01491327246486518
0.07795114252454086 -0.140719319466309 0.014207835256499268
0.07783061117102634 -0.13890891821088103 0.013490384659357701
0.07770741129652357 -0.13708375523479355 0.012787225090743815
0.07758460083705221 -0.13526436130573594 0.012086288096411935
0.07745943131331032 -0.13343239614416413 0.011398555279084288
0.0773332961933097 -0.13159722365253146 0.010718537015326213
0.07720566115499239 -0.12975533226079772 0.010048432432897436
0.077079806551125 -0.12792852478630445 0.009375031622602614
0.07695598813281526 -0.12611842461078893 0.008697213553592764
0.07682581180558493 -0.12426952582735074 0.008049121094237
0.076699575771233 -0.12244994171503765 0.007388886075630596
0.07656704426901544 -0.120592195328043 0.006758388976669971
0.07644352892496216 -0.11879704374114619 0.006094764839984945
0.07631961154106176 -0.11700243386236475 0.0054365898420304926
0.07618812305171588 -0.11516150367504224 0.004813671653599083
0.07613369086784261 -0.11382682409021727 0.0038734144479057875
0.07610743190453999 -0.11267704042824583 0.002816895352624582
0.059187799907670015 0.009697501248726204 0.05913152353427309
0.05881950914470648 0.012776648187796003 0.05986225849428911
0.05858730495032963 0.014991464559830636 0.059997106773856335
0.05839217963981876 0.016967867163967643 0.05997306881021791
0.05821261740855265 0.018841889647860877 0.0598850958086537
0.0580451043905333 0.02063606993004985 0.059748311624502726
0.057887294722735516 0.022365488199772965 0.05957277264581362
0.05773751210490821 0.02404094103035198 0.05936564037169001
0.05759913147446698 0.025641797826647716 0.059111177798104764
0.057465796075958794 0.027207857809783353 0.058837904267622976
0.057333828919564185 0.02876203531338023 0.058562444037830896
0.05721295331907801 0.03024442872160421 0.058240011389609714
0.05709706296229441 0.03169303909620613 0.057898276344847954
0.05698238431094382 0.033131229485615865 0.05755448196004337
0.05688934283427644 0.034433890023931935 0.0571136858435316
0.05680502293846509 0.03568082916442378 0.056635090877229954
0.05675528809704317 0.0367145704167241 0.055997354695874135
0.05672109983974122 0.037652371162549936 0.055288206119555705
0.05670151907950672 0.038500536934233054 0.05451135067375912
0.056691218816921636 0.03929192975739143 0.05369127165386761
0.0566850404314902 0.04005811897741329 0.05285198112860523
0.056682981229013496 0.04079927982980397 0.05199330245040862
0.05668621703182875 0.04150848728386636 0.0511094398804674
0.056694602516886815 0.04218681920276074 0.050200845184075193
0.05670814225569486 0.04283444677127668 0.04926725973077162
0.05672920059559704 0.04343741563979836 0.048297064557941916
0.05675602476583603 0.04400648544481439 0.04729837885079252
0.05679158376310938 0.04452418229099869 0.046256553756364005
0.05683221385949967 0.04501263306677694 0.04518899352111222
0.056873938596529866 0.045495632204528014 0.04411485157995487
0.05691572464506476 0.045979341074920355 0.04303913126423997
0.05698684259958653 0.046290804157508636 0.041818229275167984
0.05706275879538483 0.04657580500387848 0.04057153459197199
0.05714022262401487 0.0468536527076755 0.03931487364690267
0.05722554120633512 0.047087381871114886 0.0380169429071443
0.05732043841948936 0.04726719780817201 0.0366688184229238
0.05742772566949626 0.04737703825294043 0.035256051912194775
0.0575460245727203 0.047425419505805866 0.03378496290465011
0.05767607801521545 0.0474084434465436 0.032251321031507574
0.077769369685305 -0.16138374219189733 0.022043612491897124
0.07761655205993814 -0.15929579724138654 0.021418415309747585
0.07746321267086205 -0.15720822284939628 0.020800020978491596
0.07734986270473201 -0.15540303407325573 0.020030618209652906
0.0772382372561397 -0.15361280074707562 0.019258013705463484
0.0771305458466917 -0.15185277730436164 0.01847344897559855
0.07701678129860125 -0.15005354373483315 0.017716197850622173
0.07690279935733547 -0.14825579306579373 0.0169633643922959
0.07678887886638364 -0.14646145656617982 0.0162138505969609
0.07667172558002981 -0.14464786017145914 0.015480797308118632
0.07655164433635601 -0.14281722506269456 0.014763135105523684
0.07643248439041722 -0.14099605680729776 0.014045522797487386
0.07631396686564543 -0.13918241083991878 0.013329042944893899
0.07619283335164763 -0.13735400783464657 0.012626869925968509
0.07607586830348288 -0.13555719769877195 0.011911526779350534
0.07595198578224895 -0.13371639333438434 0.011228089713716638
0.07582796890803258 -0.13187792686738653 0.010549076852360673
0.07570408866898809 -0.13004364014007996 0.009873379387638603
0.07558061253589482 -0.12821533698337517 0.009199886094764631
0.07545674066315286 -0.1263876017239508 0.008531894372714788
0.07533115354391894 -0.12455155923416594 0.007874914402562938
0.07520413449164792 -0.12270918223679994 0.007227843086561048
0.07508070265168387 -0.12089421388757693 0.006569701600998068
0.07495216431998734 -0.11904827786318761 0.005936911540496637
0.07483191157027354 -0.11726110683031699 0.00527313882287761
0.07470474431967092 -0.11543095509803086 0.004642443828137777
0.07463234548480863 -0.11396885296885334 0.0037826484129741544
0.07460035762157204 -0.11277722448180849 0.002752508974112
0.05787311582557338 0.010540177897837177 0.0597235076302986
0.057601708937796856 0.01304262713535298 0.060050138938261055
0.05739862578541173 0.01510000430920394 0.06007419803426245
0.05721515999879198 0.017026564463530236 0.060014988037840555
0.05704441281004545 0.018867119350717665 0.05990321269234944
0.05688510915251847 0.020630292429895225 0.0597441403003377
0.05673375818788227 0.02233872696193734 0.05955334523248523
0.056589193098323 0.024000138625229428 0.059335857895715716
0.0564563778686083 0.025583366312416644 0.05906829480435288
0.056328630482563875 0.02713109019915072 0.05878125742598833
0.056202492705585666 0.02866531389646909 0.05849068493911053
0.056084263837051826 0.030146466300839836 0.05816693662928896
0.05597531119639014 0.03156627358588371 0.05780320279060608
0.055872613134573375 0.03294403339365243 0.05741332469120336
0.0557862770145795 0.034216795301380665 0.05694909690163502
0.055718763089842104 0.03536985269281884 0.056398051196806964
0.05568412589611709 0.03631643866526041 0.05569224243006582
0.05566298793069514 0.03717824284441423 0.05492289294756275
0.05565271427693392 0.03797213311191577 0.05410202473410053
0.05564649402494829 0.03874067569709594 0.05326194649899829
0.05564519224022355 0.03947868936088983 0.052398286307690944
0.05564721711153239 0.040196174339202195 0.05151853336728662
0.05565358208100833 0.04088703133068 0.050617600870673574
0.05566921145028641 0.04152122318161494 0.04967124966369274
0.05568876052603431 0.04213183120705699 0.048705216336051294
0.05571600733233914 0.04269593262938304 0.04770075832267695
0.05575199075714931 0.04320749825050074 0.046652395040413575
0.055792818515486085 0.043690544741718684 0.04557895844667853
0.055836327295690706 0.04415839161500351 0.04449094960151928
0.05588238363923235 0.044611952572426006 0.04338890669516754
0.05593889170687491 0.045003565888265706 0.04223326491003049
0.05602174270817894 0.045237826516300705 0.04094398129801252
0.056103516237851404 0.04548074334383784 0.03965751793210698
0.0561858237540273 0.045722599927162155 0.03836580786345278
0.056279319142246424 0.0458995987407822 0.03701499211042797
0.05638559805589559 0.046002642779262914 0.035596458193908886
0.05650316331154052 0.046041164225815556 0.03411721861787065
0.0566427921979739 0.045951473633087936 0.03252178109093268
0.0760913008299008 -0.1597149134526018 0.021186587324380612
0.0759405837918311 -0.15762294254636677 0.020569263698234308
0.07580717433193847 -0.15565799459125307 0.019887913788662837
0.07569499122149964 -0.1538471682819753 0.019126060388200306
0.07559049530938548 -0.15209376530720498 0.01833696826098441
0.0754813970874512 -0.1503106422523489 0.017569736470180897
0.07537261332977162 -0.1485326588636211 0.016804716144764253
0.07525577017272315 -0.14670085915916042 0.016075865564098457
0.07514332716578355 -0.14490310242383841 0.015332822508041022
0.07503202500291872 -0.1431163570313989 0.014588703566072003
0.07490981229555092 -0.14125623197915493 0.013892924415135288
0.07479706610050538 -0.1394655075083493 0.01316203550943984
0.07467854202924902 -0.1376375192818634 0.012458647581744753
0.07456118824993978 -0.135820849072678 0.011754182746790243
0.07443469066228409 -0.1339438160962112 0.01109158221862383
0.0743194182735218 -0.13214798230957148 0.010386044738986577
0.07419898904019277 -0.13031955849386023 0.009705848943618867
0.07407737947636604 -0.12848620986124848 0.009034474120242164
0.07395382072380192 -0.12664268511977983 0.008375231065158473
0.07382807436125664 -0.12478742265078646 0.00772922605271209
0.07371285805947797 -0.12300781560764573 0.007042328825102473
0.07358767089140324 -0.12116297911082063 0.00640178939747621
0.07346548167414428 -0.11934199574791371 0.00575236518830996
0.07333959375474916 -0.11749904240055287 0.005122791417095485
0.07321618136440097 -0.11567632228344493 0.00448652077874484
0.07312963149217876 -0.11410749600742087 0.0036940461603362507
0.0731021009893624 -0.11294140648278789 0.002646992282056171
0.05699338891475607 0.007796959535721737 0.05924212369763082
0.05663431411121342 0.010919398554750548 0.05998991186910929
0.05640931692084023 0.013153090166989734 0.06012816712393115
0.05621938728917117 0.015151291672549971 0.06011062534930739
0.05604510712789852 0.017042213823141472 0.06002616422840562
0.05588053887956525 0.01886517861934328 0.05990181917538645
0.05572951938409201 0.02059562406526705 0.059719109560359085
0.05558461713999371 0.02228232431949606 0.059512399457415266
0.055446769320111874 0.023919455511030696 0.059276965635796375
0.05531821121473783 0.025492854058136172 0.05900186765703047
0.055195186528354916 0.02702712031798865 0.058704537994989314
0.05507285245140728 0.028553646628882545 0.058407837273703744
0.05496099623692741 0.030009597573006586 0.05806483980172872
0.054857197593268014 0.03141090712207939 0.057686678634941535
0.05476379884062536 0.03274291708066923 0.05726167072133509
0.054694956712866456 0.033915685815518404 0.05672081268817275
0.054648635859439944 0.0349431638250699 0.05607281050885565
0.054624722259366994 0.035826980601016245 0.05531714131010157
0.05461248884123731 0.03663607401476704 0.05450515493776503
0.05460495234716713 0.037415111905033605 0.05367053044629089
0.054603246213340624 0.03815712437470825 0.052807467734566405
0.05460509440431343 0.038876690231229194 0.05192691949948863
0.05461049764200109 0.039573947726513625 0.05102871199386694
0.054625860163242286 0.04020884888461429 0.05008086679437024
0.05464436356677551 0.04082449245478115 0.04911688115431573
0.054671999690959906 0.041383562372093674 0.04810665350743448
0.054709224402627106 0.04188358298607714 0.047047460598930724
0.054746642755195654 0.04238339573177313 0.04598610540437509
0.054790409968064314 0.04284479247449757 0.044891516079712424
0.054839982768221655 0.043271394018767395 0.04376613897594811
0.05489539250114162 0.043663239824149935 0.042609536947755655
0.0549679097488588 0.043951041502169164 0.041364013460346405
0.055051599613526035 0.04417201643051455 0.04005907902128886
0.05513453004881721 0.04439989702885466 0.03875536641596489
0.055229053159375284 0.044558954740223866 0.03738939380735273
0.055338645383621064 0.044628397006201526 0.035942673802034086
0.055453658418179855 0.04466769900873291 0.034464407330236424
0.05558682525718707 0.04459955778956037 0.03288824838438442
0.0744334180314182 -0.15816773895984693 0.020266129437833513
0.07429096584475364 -0.15611597201805494 0.019631578338425715
0.07415762668474993 -0.15413411115246134 0.018964506153722582
0.07404772131772615 -0.1523253181825076 0.01820583102275064
0.07394426488504925 -0.15056606746686263 0.017424228321288038
0.07383419413273862 -0.14876200752325608 0.01667329594243583
0.0737278916769281 -0.1469880475752794 0.01591033808882303
0.07361529669556474 -0.14517184605505418 0.01517702037974461
0.07350067727410667 -0.14334422651749756 0.014455827030919133
0.0733885124046155 -0.14153728652859732 0.013728079818550787
0.07327224443363982 -0.13970414290546906 0.013021257158678745
0.07316259977546852 -0.13792133982283383 0.012290241835840543
0.07304288867103126 -0.13606999685408527 0.011605494291830332
0.07292771239041446 -0.1342540937917781 0.010905342119415129
0.07280902624124344 -0.13241649361315877 0.010223944820594522
0.07269149773233446 -0.13059031928566078 0.009541450038635102
0.07256614119308454 -0.12871215664310331 0.008896496852470293
0.07245246233443643 -0.12691961376157657 0.008205151163939606
0.07232945672327966 -0.12506466343607547 0.007557979674133852
0.07220991502098587 -0.12323736289200737 0.006899731602885872
0.0720877309016496 -0.12139484243675469 0.006256931821064238
0.07196898622672673 -0.11957968369636485 0.005603023110783811
0.07184736401611917 -0.11774771676506435 0.0049656583476759275
0.0717233964232963 -0.11590276148953094 0.004342625865361549
0.07161858462083179 -0.11419418724377128 0.0036386446452093546
0.07160484917789575 -0.11311953722649504 0.002532510987512504
0.05569417439177262 0.008549024510940306 0.05976755499887754
0.055428985845685945 0.011090147372191661 0.06010986373088173
0.05522803219164659 0.013193875083083173 0.06015697656373398
0.055044165954388886 0.015177915961466004 0.06012953552698097
0.054876034183573556 0.017051993955208455 0.060033148862297436
0.054721901737731074 0.018828302616616166 0.059875339524913584
0.05457791486839591 0.02053301168514221 0.05967390303648251
0.054438868708331485 0.022201035299351746 0.059453387261930446
0.054307422321698745 0.023814988251976865 0.05920071281903205
0.054181898221703946 0.025386254857720725 0.05892363425060121
0.05406321508136636 0.026909026826300864 0.05861739673419075
0.05394944423505069 0.02839626252875721 0.05829107155583402
0.053840385826449545 0.02984947449306541 0.057945396445550135
0.05374470535680848 0.03121213216907126 0.05753759828491645
0.0536667504052212 0.03245638488376429 0.05704560793204344
0.053614765946067455 0.033529214267545904 0.05642781175697226
0.053585385366158145 0.03445358539929816 0.05569963267198258
0.05356930961467258 0.03529078806267788 0.054906224747912014
0.05356134517771207 0.036075009457611606 0.054072857874615576
0.053558551160440365 0.036825591995666485 0.05321386116214799
0.05356008774022535 0.03754816484691098 0.052333200665033996
0.05356455840723523 0.038251894375173845 0.05143770279544152
0.05357755563590711 0.03890098129164277 0.0504989478525496
0.0535961540605021 0.039514524633804726 0.049531357604579385
0.05362428600031392 0.04006760504217449 0.04851464770163105
0.053659317225761206 0.04057742487073479 0.047461799779937974
0.053695938696102306 0.04107807597428176 0.04639966577222249
0.05374175074140449 0.04152132747777909 0.04528912034139376
0.05378947263296584 0.04195372210895859 0.04416723835882774
0.053843349413310586 0.04234847931564223 0.04301197866176276
0.053910918135925044 0.04265826683227614 0.04178394927391543
0.053992423553508674 0.04288210453876745 0.04048120730579052
0.05407232474468868 0.04311825595467261 0.039184181086774406
0.054167032881621446 0.043263717513751965 0.03780702985601159
0.054281437178559225 0.04328849639595267 0.03632335288075539
0.0543945966733837 0.0433241784103115 0.03484250422040902
0.05453182336546281 0.04321298354522446 0.03323078839999222
0.07278878131518612 -0.1566978474065851 0.01930589569452612
0.07265064345150576 -0.15465837887242662 0.018669333500001162
0.0725166918603867 -0.15265369460971 0.01801985887604962
0.0724069639268802 -0.1508313538836471 0.017273102535766083
0.07229964820920443 -0.14902983120271374 0.016519828966835126
0.07219161286641887 -0.14722602204575774 0.015773176186890447
0.0720818316584564 -0.1454124331781722 0.015037541786713904
0.0719741880518902 -0.14361755335173443 0.014296443135670245
0.07186018449347342 -0.14177923457863995 0.013586172044309008
0.07175038358946244 -0.13997473551694295 0.012861626254878411
0.0716414284658376 -0.13817945825730527 0.012137086517194362
0.071524402903762 -0.13632862519030808 0.0114511479506621
0.07140877389817869 -0.13449118377840474 0.01076303199761347
0.07129377105023922 -0.13266150301260593 0.010076032977842764
0.07117888593869749 -0.13083588622575948 0.00939234819233603
0.0710636166666582 -0.12901071217839022 0.008714180102207425
0.07094095672088384 -0.12713561104441418 0.008072493193902353
0.07082695535851793 -0.12532608338515472 0.007396505531060582
0.07070635407039527 -0.12347246415951185 0.006753684185141107
0.0705903774607624 -0.1216552789802986 0.006094222997974408
0.07047478069060607 -0.11984404533428816 0.0054369216373795215
0.07035020307130686 -0.11797208580295693 0.004823883405957574
0.07022974605420834 -0.1161328948744546 0.004196383417518601
0.07010383161616694 -0.11425835826086911 0.003597635082939865
0.0700828082304904 -0.11312991784319493 0.0025258396400883454
0.05482188082423091 0.005634820429987475 0.05917970869430961
0.054462810008990836 0.00886766390130711 0.05999017291927389
0.054237933474803185 0.011170445491111625 0.060166273582215046
0.05405078712146143 0.013208794081794095 0.06016751501552309
0.053875324089791246 0.015162138907997169 0.060118329826742034
0.05371563628510109 0.01700308745728324 0.0599982219612713
0.053565599560722287 0.018773945466848074 0.059836307105535
0.053430599497273176 0.0204385706253859 0.05960571597276071
0.05329571287160968 0.022098654694009845 0.05937906349923022
0.05316825614675223 0.023704756919154635 0.05912025268137949
0.05304616748768128 0.025271094078591072 0.058839117475321334
0.05292923780694724 0.026799298400250804 0.058536428065819046
0.052823094236257966 0.028251793236073797 0.05818388754114767
0.052721662535897905 0.029669741651873638 0.05781132523465349
0.05263812250927788 0.030965191375622703 0.05735239374603457
0.05257973304268087 0.03209044464112476 0.05676966660215088
0.052544404302404785 0.03306047470355944 0.05607243983994309
0.05252572811141769 0.03391883913157606 0.05529202594693672
0.05251543439264921 0.03472108609172375 0.05446962788938947
0.052510906400506756 0.035484885601744676 0.05361817078270015
0.05251159233995482 0.036214123644712604 0.05274018960126886
0.05251598310409841 0.036918964460979586 0.05184316970080527
0.05252737516814977 0.03757788422502939 0.05090995117128938
0.052545640266891694 0.03819201817616519 0.049940846854874876
0.05257038020929847 0.038764261996775795 0.04893757707984958
0.052602301648416665 0.039290269466535355 0.047896144234450766
0.05264074132271279 0.03977466647990702 0.046819649105691696
0.05268241323255453 0.04023910694319299 0.04572496053375835
0.0527328664444125 0.04064769838832899 0.04458278830365836
0.05278521858408192 0.04104539738689705 0.04342893599127323
0.05285004075339453 0.04136394485585715 0.042207465720740245
0.05293076995189867 0.04158169250838112 0.04089954093225634
0.053010347916224956 0.041809106497659065 0.039595047217098445
0.05309914251673789 0.04197954832986145 0.038238754703543376
0.05320978015596513 0.04201248459198137 0.03676266149878349
0.05332710492375548 0.04200575001010676 0.035247001064774186
0.05345305043378165 0.04194728685731991 0.03368103158547531
0.0711515286995938 -0.15526547531250212 0.01832752669633103
0.07101891060181871 -0.15324772545309728 0.017683436396609298
0.07088448581665048 -0.15122014762426716 0.017051618262952206
0.07076712167004456 -0.1493247489926005 0.01635083665268905
0.07065877834245106 -0.14750043364548915 0.01561501291955436
0.07054899416355188 -0.14566841581728496 0.01488913775292694
0.0704466175097774 -0.1438949401232842 0.01413469178562654
0.07033598134145118 -0.14206272875071768 0.013419896555542266
0.07022744801810049 -0.1402493465592336 0.012699624754039074
0.07011949920247601 -0.13844341185074283 0.011980468888376783
0.07001163243195746 -0.13664117003574772 0.011264624855792826
0.06989689004431826 -0.1347910735531226 0.01058302711395015
0.06978623851652681 -0.13297450270802713 0.009887075462857331
0.06966655499035523 -0.13109443978579283 0.009235361204596393
0.06955343210012162 -0.1292661176550569 0.008558213498281786
0.06944337392479583 -0.12746355629265949 0.007871080659491048
0.06932510697761136 -0.12560391281115169 0.007224895560276112
0.06920772940523835 -0.12375416049277954 0.006578691398558545
0.06909147701915892 -0.12191598459561914 0.005931346071163357
0.0689756145299446 -0.12008397372456636 0.005286171863802758
0.0688553168381804 -0.11822298596959868 0.004665343889724283
0.06871766033602698 -0.11623931620356082 0.004128756092716679
0.06856739859615825 -0.11416817700241161 0.0036552671299565076
0.06855879099726689 -0.11312645776564628 0.0025280634544204705
0.053523521981345176 0.006384799888160375 0.059700805014773095
0.053253869989715236 0.0090429883779381 0.06011266367812018
0.05305827519242778 0.011174459389480362 0.06016909343574556
0.052879040851655616 0.013185917532559266 0.060151355709307686
0.05271005583526818 0.015120717868479738 0.060088910289184616
0.05255563062681039 0.01694927522023204 0.05995979158670295
0.052413283319535944 0.01868946561526985 0.059775644336974354
0.05228213002319034 0.02034793804864138 0.05954027866171174
0.052154398292307134 0.02197897759336942 0.05929218323840568
0.0520310066767874 0.02357638525665362 0.05902655152851116
0.051915462003951085 0.025116170911487545 0.05872541896152833
0.051806025558274765 0.02661063270917674 0.05839721149109711
0.05170139975561272 0.028068940893845207 0.05804822652544972
0.05161155302736339 0.029423006293831877 0.057627273655690814
0.05154403479999377 0.030621847736443497 0.05709488745604091
0.051502583210035105 0.03164091827305554 0.05643069620315955
0.05147898424772328 0.03253725842855043 0.055675766742610044
0.051466451854559954 0.03335773787273094 0.05486433030469168
0.05146065933716897 0.03413216468856889 0.05401830202259261
0.0514614674478719 0.03486176977020716 0.05313806355618206
0.05146402676425742 0.03557957525093136 0.05224863917306094
0.051474401523106846 0.036244802096900286 0.05131812164932992
0.05149098290673731 0.03686860066117237 0.050354580372688584
0.05151283812897021 0.03745749433971696 0.04936262426647764
0.05154227756190914 0.037996243419029685 0.04832974396551304
0.05157919187832919 0.038485903179718006 0.04725613320867067
0.05162076680434861 0.03894555238615133 0.046156415706683385
0.05166865412230601 0.03936440445195799 0.04502151817343614
0.05172098390256413 0.03975514041059314 0.0438611521951669
0.05178269225299693 0.04008526069692653 0.042648519937440454
0.05186287367123222 0.040295067768465975 0.041334032143033606
0.05194110817216394 0.04052000354997992 0.040027360955051605
0.05202825150266056 0.04068855638893715 0.03866961515752698
0.05213641755812775 0.04072157454796682 0.037194306079338935
0.052254893125626097 0.04069014322727499 0.03565894095250677
0.05238255980568828 0.0406020150900675 0.034069127826226675
0.06951629546415325 -0.15383142708157516 0.01735286374977829
0.0693853231701298 -0.15180633148451272 0.01671768664863993
0.06924985400599934 -0.14975046599188613 0.016106894396186677
0.06912932785730477 -0.14781330408798765 0.015434683026415374
0.06901987431024356 -0.14596452700265106 0.014717469480126089
0.06891521342464117 -0.14415561008862765 0.013982688439473423
0.06881062316955718 -0.14235029037684388 0.013251235415578155
0.06870315783683571 -0.1405261171873482 0.012536349246545786
0.06859602764932261 -0.13870763292900135 0.011823692546666209
0.06848923104166461 -0.1368948110306777 0.011113254902826719
0.06838276645824157 -0.13508762508646732 0.010405025966661985
0.06826863103281941 -0.13322554285286003 0.009735522865436164
0.06815729234287873 -0.13138790344036055 0.009057177705671604
0.06804390771457303 -0.1295381054591227 0.008392120679878212
0.06793378034542787 -0.1277161089467037 0.007715971646258257
0.0678197019619317 -0.12586768338568233 0.00706196947988319
0.06770600606988723 -0.12402545537875054 0.006410160105882412
0.06759174012699556 -0.12218228852868296 0.005764971570145272
0.06747549078536651 -0.12032766460999833 0.005133058069906937
0.06735940460341482 -0.11847765195838234 0.004504424813822461
0.06718966209751072 -0.11623233650669496 0.0041331915555231635
0.06701353043385787 -0.11394459907112797 0.0037981487298054395
0.06701026006252103 -0.11294140701141508 0.0026469922845873683
0.052666742301882744 0.0032215222605246896 0.05895443749178997
0.0522877062421237 0.0067187601934793895 0.059932845391808154
0.052065937802625924 0.009075400249403343 0.06013530834893488
0.051880882493767606 0.011162417024060511 0.060160633693911114
0.05170798408214171 0.01315706918016657 0.06013097808205159
0.05154632184420549 0.015066461954802435 0.060050374684058716
0.05139940629752874 0.01686607977942889 0.059900376957830626
0.05126508013595854 0.01857190551728488 0.05969122748138611
0.05113689471229785 0.020230240977967773 0.05945530058781928
0.05101395100140036 0.021847720306772123 0.05919689626972863
0.05089402219387633 0.023440306312787207 0.05892722466591188
0.05078377679870862 0.024961113508220056 0.058611621931466684
0.05067841635008044 0.02644432869896096 0.058274495628667766
0.05058134308409154 0.02786627725200269 0.057897867188385355
0.05050572977878635 0.029135022444950587 0.05741245286316993
0.05045641749245422 0.03021765485464567 0.056791744476042294
0.05043020984801711 0.031137630361789237 0.056051186300812184
0.05041447185884557 0.031983939499343195 0.05525627150497614
0.050407201284162734 0.03277095355026244 0.05441705791755086
0.05040561520797019 0.03351833986101621 0.05354789116195513
0.050407729856154146 0.0342400737230506 0.05265905026595591
0.05041790931518229 0.034906185025192105 0.05172700006739944
0.05043325239962902 0.035537016380247366 0.05076688720849515
0.05045270922786805 0.03614001243585624 0.049784093974240495
0.05048013311205816 0.0366889167543798 0.048757594312171415
0.050513691719870336 0.03719662296434845 0.04769690016776962
0.05055367535544471 0.03766141669751083 0.04660011312284085
0.050597983563150435 0.038097898248771356 0.045478351565557795
0.05065104252805551 0.038476148710021696 0.04430717618553992
0.05071143556812023 0.03880616765937084 0.04309390454905221
0.050789142370568016 0.039020682828326325 0.0417832122412114
0.0508684336677373 0.03922675956676419 0.040461063431179445
0.05095323937841336 0.03939796429890535 0.0391056030662581
0.05105594974435817 0.03945116103311058 0.037647683757216444
0.0511735104136721 0.03940764349892262 0.03610339822408898
0.051304344002052776 0.03927863113797303 0.034480792145781425
0.06789660543508796 -0.15250216233587044 0.016321292370782614
0.06775360669061027 -0.15036146434120157 0.015756783099639293
0.06761875275704197 -0.14828903903641144 0.015160482483290938
0.06749195003799396 -0.14628378713282986 0.014532380771415998
0.06738809407492476 -0.14446194322077321 0.013804057715047169
0.06728479821993485 -0.14264758019685975 0.01307686847596573
0.06718109784699679 -0.14083315112010797 0.012355220475977091
0.06707460334955109 -0.139000076520838 0.011650170286272021
0.0669665362815549 -0.13715797044075517 0.010956204469046604
0.06685643762422976 -0.13530334471682037 0.010275543125517594
0.0667483603914852 -0.13346765212162026 0.009589361828865162
0.06664346874118536 -0.13165979269435835 0.008892093627817732
0.06653466458740565 -0.1298249117739766 0.008216978744629011
0.0664184654985192 -0.1279363944132118 0.007580680022513775
0.0663122666258585 -0.12612813340562867 0.006901094444202005
0.0661977753702866 -0.12425950190405377 0.006264767905875268
0.06608832808259663 -0.12243287048245888 0.005608419446777757
0.0659695115279288 -0.12053799350665384 0.005000906009938189
0.06584650544661978 -0.1186147518300078 0.004417793792540592
0.06564220575998032 -0.11607708589950028 0.004231848521349502
0.06543597894019362 -0.11353090411219907 0.004062528049503911
0.06544008157636404 -0.11258380305554705 0.0028768179101209546
0.051345140448046354 0.004141182314244318 0.059589915513879266
0.0510743441181808 0.006902901753881807 0.060060789603182896
0.05088275882571204 0.009074387357291325 0.060134600762743906
0.05070820338704316 0.011115243881089754 0.06012749442758719
0.05053959954824419 0.013107320145234524 0.06009583677510211
0.05038656851630085 0.014980606338640456 0.059989395148468794
0.05024588126257858 0.016759338536081858 0.05982414690229715
0.050116002039004015 0.018455242036722275 0.05960745446410565
0.049990383765257544 0.020116330126048854 0.05937305619165073
0.049872277015284856 0.021719244907074275 0.05910362882917297
0.04976144806280286 0.023266012988969353 0.058800004308773524
0.04965452252675121 0.024781305774741524 0.05847966055818127
0.04955302166253731 0.026254345709128102 0.05813430701770045
0.0494682113147523 0.027604433595729394 0.05770360124801188
0.04941057593798659 0.02875714629387599 0.0571305771217116
0.04937849888898199 0.02972526935344333 0.05642245738215573
0.04936150323242702 0.03058475344792777 0.055634283246874305
0.049351648492747986 0.0313928505847586 0.05480814118749633
0.049347889130851086 0.0321573148110213 0.05394931592935159
0.049348666809072024 0.032889476001479956 0.0530659549855505
0.04935670482378167 0.03357025633727306 0.0521429597506492
0.049371102053777365 0.03420634799489297 0.0511848740452473
0.049390830833534224 0.03480528143569883 0.05019700073700584
0.049416553842834963 0.03536263361719777 0.0491754044145552
0.04944776920510872 0.035882196694911384 0.04812253831683838
0.04948397634214419 0.036367723719587075 0.047040884248027104
0.0495259804476673 0.036813809894968685 0.04592569686389941
0.04957381092849829 0.03722051006261817 0.04477650225852675
0.049632745685715705 0.037551348472929846 0.04356344483526153
0.04970694027755758 0.03777796029760205 0.04226259544875227
0.049785578449520036 0.037975993461153434 0.040934070272282075
0.049869760360909364 0.03813803887398498 0.03957141463848324
0.049970171654897116 0.03819060624984855 0.038113755578132735
0.050086606368203584 0.03813584162621475 0.03656139698334904
0.05021123297911087 0.0380282727775329 0.034958158250504245
0.050576877372845566 0.03627203622879244 0.03197127319442589
0.06612500093358005 -0.14892276341079203 0.014795221153109828
0.06599729114535857 -0.1468853454405279 0.014183631703618305
0.06585754439137022 -0.1447553731937784 0.01363295115787816
0.06575441793965588 -0.1429225903019855 0.012915569079376521
0.06565067444222072 -0.14108803792319624 0.01220485491658524
0.0655488967775949 -0.1392723247916503 0.01148863098433589
0.06544159914717805 -0.1374158282925425 0.010802317944476114
0.06533860697590954 -0.13559679021099846 0.010099406338306804
0.06523083670956295 -0.1337430520686128 0.00942310324390322
0.06512550149354109 -0.13191186609022754 0.008739041229296751
0.06501705029507987 -0.13005931456383735 0.008073837705651177
0.06490758213991897 -0.1282020728674793 0.007417509597395899
0.06479962608732667 -0.12636006832325541 0.0067578326553864865
0.06469636208137206 -0.12455817999544827 0.006079225864069393
0.06458251472286385 -0.1226765819468556 0.005456159692759421
0.06446974683380657 -0.12080690465413224 0.004831946025976364
0.06431248672783692 -0.11859365481651296 0.004431124725563951
0.06408765285742893 -0.11585920020711893 0.004370308114985344
0.06383084081598336 -0.11288318740936076 0.004476463190770552
0.0638264003689228 -0.11187186118894554 0.0033343700477986293
0.050108066713924204 0.004466043434587064 0.05981439209537748
0.04988521249166318 0.006913126458982011 0.06006789394385892
0.04970536215700147 0.009029819099452774 0.06010346316045939
0.04953656392241443 0.011058017859420455 0.060087292970140205
0.049374221666826444 0.013032671545705365 0.060043107085797465
0.04922799061238377 0.014881872231253757 0.05991926856597901
0.04909181481806178 0.01665155490457826 0.05974717241681293
0.04896631871161452 0.018337530710921646 0.05952292901574774
0.04884770327531546 0.019968525638978663 0.059266340342671975
0.048734320072890906 0.021557082138531136 0.058985905834092356
0.04863112611538402 0.02306674990143226 0.05865455798624486
0.04852631496297179 0.024585204329521715 0.05833574117992979
0.048432306532081346 0.026020822263126797 0.05796198984988271
0.04836452443751064 0.027260646159280144 0.05744853990088
0.04832325896794391 0.02830374928430618 0.05679236677562144
0.04830316118362933 0.029190531286449772 0.05602140603246125
0.04829133926392755 0.030016202215677634 0.05520556079499822
0.04828752693420052 0.030783084415543283 0.05434585082555349
0.04828689155331745 0.03152672392882938 0.05346865228274206
0.04829146616587888 0.03223249857139582 0.052562473686986855
0.04830405092836008 0.03288035005244344 0.05161139084999067
0.04832364030238203 0.03347791960325175 0.05062059983384953
0.048348850016811794 0.03403552062643528 0.049597499131307066
0.0483782946249997 0.03456339024959382 0.04854959485649879
0.048412117281778896 0.03506069398778655 0.04747584531089849
0.04845008043930183 0.03552933658764457 0.04637735932702647
0.048493741266771744 0.03595836368802102 0.04524504301688281
0.04855045115097345 0.03629553644045752 0.04403658792022258
0.04862249155443073 0.03652519566164408 0.04273820496928954
0.04869875214656429 0.03672705036191504 0.041412931239995066
0.04877732674644144 0.0369148199107579 0.04007152966729394
0.04887645557319448 0.03695946336569189 0.038608340921012396
0.04898932466355614 0.03691006541980124 0.0370617882581849
0.04911191541698533 0.036795587039117506 0.035454516916664625
0.04934023383550564 0.035941126170271176 0.03322527836051098
0.06449899878038982 -0.1474863624891759 0.013835196427083252
0.06437036487342732 -0.14541915921122184 0.013245880373921548
0.06423809626597968 -0.14332620763078996 0.012678838716870144
0.06412449918552561 -0.14139009969567884 0.012026659377941396
0.06401839479532559 -0.13951871162190588 0.011342436651007148
0.06391834227997564 -0.13769995315040529 0.010632755572301145
0.06381428242953058 -0.13585174823869717 0.009946371155971412
0.06371713271853495 -0.13406288415364953 0.00923002102265219
0.06360966042785826 -0.13219345704541907 0.00856806652824943
0.06350300030968807 -0.13033396534911434 0.007906118703290277
0.06340275573948753 -0.12852958050084828 0.00721636583127605
0.0632943276312367 -0.12666244003786753 0.006571063371092589
0.0631853782431548 -0.12479450989421625 0.0059324152074409775
0.06307524857022022 -0.12292052854153412 0.005303753040116876
0.06295288918857549 -0.12095209450109701 0.004740721604824638
0.06276407959702245 -0.11845656674063931 0.004517748462418203
0.06251132498526844 -0.11545704755697694 0.004625863568211874
0.06218840536080413 -0.11190704241671279 0.005100286361540751
0.062172217386961874 -0.11080349037744142 0.0040209925669577595
0.04917174312280969 0.0017083283755872647 0.05936024522411132
0.048887517615199445 0.004678866392984649 0.059961451177619474
0.048699852355089265 0.0068947213001626095 0.06005510585348872
0.048528079195284866 0.008982200367545712 0.06007019434029459
0.04836443325822659 0.011001778648455363 0.060047784751539934
0.048212265810889464 0.012928112917882817 0.059969249757431564
0.048073821986017416 0.014744543835639001 0.059821730095012515
0.047943355590095 0.016495646443875522 0.05963582919258614
0.047820105034420274 0.018187606342379647 0.0594152721973818
0.04770574317905384 0.01980802637430501 0.059150458771334236
0.047598249931447165 0.021372673174010037 0.05885203307498604
0.047494136055178174 0.022908326149010894 0.05853892116938508
0.04740301731354312 0.024342385619680496 0.05815753585792183
0.04732012131182775 0.02571149876384704 0.0577337397282926
0.047269674491995005 0.02683350018948355 0.05713163351893702
0.04724150110072091 0.02778643332863312 0.05640647624390227
0.047227925018500996 0.028628946510946218 0.055600219758317304
0.04722120211189723 0.029419715992341056 0.05475577364540607
0.047219210463833206 0.03017492019344875 0.05388477497014482
0.04722331823363121 0.03088457947519241 0.05297918200310381
0.04723390224185827 0.03154617672405802 0.05203650399431653
0.04725047265944246 0.03216365376347963 0.051059180399579684
0.04727491345390212 0.032723332290349405 0.05003606171370206
0.04730425083237674 0.03324757112534232 0.04898383189002481
0.047335500812062094 0.03375861778605943 0.047919456002303296
0.047371802564363366 0.034233449173762254 0.046824632075768036
0.04741129692280132 0.03468596239104027 0.045709887492204226
0.04746016030571438 0.03507102560009179 0.04453901371842056
0.047529419503136064 0.03530841016036462 0.0432469557886056
0.0476071036645205 0.035486463487154285 0.04190284868360561
0.047686819364845145 0.03565215409634315 0.04054387400169107
0.047777504162555856 0.03574061291056224 0.03911711346959801
0.047883505335735314 0.035720824841200816 0.037596186668457376
0.04800065122417413 0.035623702099843946 0.03600503774924951
0.04815743822343574 0.035243976758425055 0.03417308387825185
0.05318821520612768 -0.0002528580391071844 0.0031747634479058484
0.06287491537064227 -0.14604654571977904 0.012880035089010589
0.06274556654734029 -0.14394982373361742 0.012313074233660959
0.06261809496945232 -0.14187299490244953 0.011741784581262293
0.06249762105066196 -0.13985880821093288 0.011140639332487268
0.06239475785976695 -0.1379955490547634 0.010456347411353983
0.0622948972056633 -0.13616061980691418 0.009760975067189814
0.062191150481429334 -0.13429657489503677 0.009088942242708453
0.06209282241517338 -0.1324808507456996 0.008393568549765196
0.061986668942293925 -0.1306034449831116 0.007741557532006393
0.06188416461642294 -0.12875962933920815 0.00707507788281897
0.06178330922654849 -0.12693271830416575 0.0064041176112375475
0.06167625148011285 -0.12505795458614166 0.005768760542257612
0.0615632743661371 -0.12313796386911946 0.005167909421385619
0.061405368496064934 -0.12085293162540722 0.004803026901837093
0.061192511895091686 -0.11812294741394691 0.004728556995149125
0.06091056350467119 -0.11483507735341092 0.005021106167025169
0.06048494212783982 -0.11038425578597238 0.006073450742567432
0.06048389539030151 -0.10940376046797334 0.004920573534057393
0.047923758918831 0.002095213576606969 0.05962610734413121
0.04769605030187482 0.004671638365252362 0.05995645673866462
0.04751825193524634 0.006845632241261168 0.06002099815895151
0.04735216424241988 0.008921392901618752 0.0600277111930137
0.04719730090780498 0.010903319174354775 0.059978616613939495
0.04705510030487623 0.012780634690691628 0.05986507517911205
0.04691916984395763 0.01460414568301277 0.05972201130569538
0.04679404378981825 0.016338623422513354 0.059523689995847784
0.04667469364474517 0.018023911843271012 0.05929772739710809
0.04656500611056955 0.019629957681655208 0.05902189194437041
0.0464618846505979 0.021181342289535332 0.058713135305189235
0.04636413847266451 0.022687636848893245 0.05837783539544755
0.04627611351191643 0.024115394451276584 0.05799094641723185
0.04621627119537365 0.025322197953008996 0.05744647424888277
0.04617780433481631 0.026361982175036824 0.056781806804467594
0.04616072846443045 0.027235657876175268 0.0559956266803624
0.04615158584190648 0.02804776631626754 0.055164336997919505
0.046148051627509235 0.028816534059558252 0.054300937520158854
0.046151463842137114 0.02953198311739713 0.05339733629152826
0.046160240522851094 0.030206539749377925 0.05246235079030448
0.04617414379906599 0.030842276859068762 0.051497063208277516
0.04619586921381424 0.0314189254484451 0.05048537142839954
0.046224216210407724 0.031945980923348716 0.04943388950578498
0.0462538221572888 0.03246440587325983 0.048373890696593036
0.046289472968157545 0.032938065472383815 0.04727696148475424
0.046327757621778744 0.033392993630064205 0.04616301925565752
0.04636967328741584 0.03382180785071248 0.04502596946358445
0.046427940124598464 0.0341290947631786 0.04378954654120654
0.04650416617220575 0.034303584522241415 0.04244316540483384
0.0465815120187799 0.03447214515351327 0.041087126196122536
0.046669706598193805 0.0345621894638799 0.0396626339375461
0.04677162550091869 0.03455281604607857 0.038151651189687386
0.046884805109512234 0.03446300198018015 0.03656835592250335
0.04702066262662976 0.03420859389312153 0.03484252300369056
0.051842915027131044 -0.0007312246537726774 0.004462134473730228
0.05199221169444844 -0.001000854913603244 0.0025537296387883046
0.061126451351290086 -0.14250755693810513 0.011367436812836085
0.06099145373104304 -0.14034168240120792 0.010854124467461035
0.06086987757081031 -0.13829520529909678 0.010277516086215188
0.060767416693851155 -0.13641613264022334 0.0096076068701198
0.06066746010192972 -0.13456180271908025 0.008928824558245396
0.06057020010501362 -0.13273372923176674 0.008240027321441357
0.060473466076576325 -0.1309133317198513 0.007552321236399373
0.06037212038147655 -0.12905700653031393 0.006892439191315769
0.06026983470656811 -0.12719606458075716 0.006241453612199632
0.06016704522251482 -0.12533423758962692 0.005597130576393328
0.06002271270512866 -0.12312548315902483 0.0051757068854339505
0.059827351718390535 -0.12049202485010424 0.0050297889999468826
0.05958342103223262 -0.11745703854261036 0.0051493337089403846
0.059243057441959936 -0.11362168117553106 0.005792181382038186
0.05878219383918984 -0.10878935928711092 0.007092698236510819
0.05876171968767239 -0.10764956469969422 0.006047963242653831
0.047032100430944704 -0.0011781441171523355 0.05883320073084891
0.046704276886558704 0.0022695776558173675 0.05974592794957956
0.04650809152212483 0.00463549449865569 0.05993148167980478
0.046339493377977714 0.006770951451405827 0.059969108970801155
0.046179746349755954 0.008829130556804066 0.059963252051432214
0.04603241063715029 0.010781679965729152 0.05989316461176547
0.045894539801282115 0.012652991122279633 0.05977491127004225
0.045764866116155545 0.014453741674383458 0.05961518578065239
0.04564472496678154 0.016173604391514274 0.059405840383759456
0.04553105201895614 0.01783762827515223 0.05916396195862078
0.04542763064060997 0.019415850788394973 0.058867305272673254
0.04532853635684057 0.02095610111310081 0.05854962014849474
0.045237438413081095 0.022429345240883303 0.05818930289154506
0.045163458566767914 0.023763418354185384 0.057732630154061215
0.04511395440921469 0.02490076121487117 0.057135495628806654
0.045091629364461594 0.02582116840493942 0.05638056845594641
0.04507838802199066 0.02666903134920462 0.05557295304572962
0.045074452862707434 0.02744304410686227 0.054710797820304635
0.04507612215215239 0.028172807693615465 0.05381552840392262
0.0450822043445074 0.028867959694981127 0.052893911130533655
0.045095089770258015 0.029509979892089644 0.05193140273026936
0.045114551203680235 0.03010098220751961 0.050928964545284894
0.04513988817061471 0.0306467598998868 0.04989042222083734
0.045169324318157275 0.031161440940974283 0.048826148664601166
0.045201676514848764 0.03165442488697434 0.0477430649928931
0.04523863862552865 0.032112716869158286 0.04663071146038078
0.045277225212804306 0.0325596532061706 0.04550700751153608
0.04532696783620097 0.03292169354881197 0.04431359178958455
0.04539543687600579 0.03314104153321923 0.04300338110371571
0.04547357687292213 0.03328826791874301 0.04163098298055046
0.04555868493897461 0.03338459403894667 0.04021250934607273
0.04565560824930733 0.03339324496546525 0.03871753838123704
0.04576142316664016 0.03333714581065417 0.037163532939981536
0.04588514542226352 0.03314799131564722 0.035493794123585554
0.046274052678676666 0.030945251542297048 0.032161679419845046
0.050644795457140006 -0.0014748893400475804 0.003847961941246314
0.05950104825889447 -0.14098878161413364 0.010470166159874172
0.059375925545965255 -0.13888248716741558 0.009927033090803616
0.05925492292819326 -0.13681657098149436 0.009367249008402023
0.05915211004889219 -0.13491401779687373 0.008716192757624475
0.05905175359421623 -0.13303640976531284 0.00805624757127621
0.05895885492633537 -0.13122724496732197 0.007360626099588208
0.05885581412807472 -0.1293329331747296 0.0067229746829921555
0.058763322460712884 -0.12753376177432763 0.006032864438824892
0.05865826909244908 -0.1256287916042631 0.005414150456938105
0.05852778891675496 -0.1235073189438497 0.004937153338839206
