# .PCD v0.7 - Point Cloud Data file format
VERSION 0.7
FIELDS x y z
SIZE 4 4 4
TYPE F F F
COUNT 1 1 1
WIDTH 758
HEIGHT 1
VIEWPOINT 0 0 0 1 0 0 0
POINTS 758
DATA ascii
0.006684304908970139 -0.03686884694886833 0.023162927361992325
0.00666458538436962 -0.03477334516211961 0.023021664208531745
0.006645204214862357 -0.03270408099446381 0.022871243580698142
0.006627161591535751 -0.030723367366003063 0.02266642536104302
0.006608876767051168 -0.02873220285631367 0.022478090250883875
0.00659146812492584 -0.026800215666231697 0.022255594638963927
0.00657379485805225 -0.024856285573867265 0.022050483160727774
0.006555389804699674 -0.022871589263148806 0.02188422151375019
0.006558243331466112 -0.02220516517670912 0.020749062993078604
0.006571322811202312 -0.02216854114970168 0.019142684930143983
0.006586519223651085 -0.022258812445043297 0.017434605909370793
0.006149211289583799 0.005439963205907172 0.036673571058976395
0.006109160547973926 0.008684574621753316 0.037592005727729916
0.006076009477828716 0.011497001747230895 0.038201132217560885
0.006047013544053112 0.014047369868466442 0.038626117241149005
0.006020515591248975 0.016438183709234555 0.038942795592108115
0.00599620678397995 0.018689171581023456 0.03916455530759899
0.005973530563676766 0.02083492285854177 0.03931667140090728
0.005952046707479381 0.022902702044613588 0.039419248662113104
0.0059311999004859305 0.024926495902895474 0.03949813168186339
0.0059114102659815855 0.02688123936353337 0.039532995953718286
0.0058920382855841774 0.028805786373180597 0.039553946131465234
0.005872856008135884 0.030713972550620194 0.039571728931663275
0.005854111963858495 0.032590993949556946 0.03957429287763792
0.0058350819231878966 0.0344802791209014 0.0395964120311455
0.005816500408694736 0.03633793783390443 0.039602632739708266
0.005799714713835303 0.03808401320800814 0.03952727067657369
0.005785552729229335 0.039670065725333714 0.03932913829032286
0.005776221019113579 0.04096643987568016 0.03889911497830867
0.005770987026283617 0.042018284633438374 0.03827091944635014
0.00576825931797765 0.04292101197789727 0.0375209868528909
0.005767726216711928 0.043693925086064345 0.03666355146176681
0.005768533360707712 0.044388024251258706 0.03573991174729896
0.005770529441514143 0.045012689225960745 0.0347569675285162
0.005773671149315103 0.04557090984176454 0.033716330270420536
0.005777580193715423 0.04608518895149638 0.032636379861276654
0.005782841337267647 0.046521795668809374 0.03148744837184475
0.0057884494842206785 0.04693960789167834 0.03031945566290256
0.005794852374663297 0.04731282096191197 0.02910965899851431
0.0058018549275968105 0.047653017744111625 0.027867562533747336
0.005809724094332912 0.04794503311785042 0.026579344282050832
0.005818714832528967 0.04817452942672962 0.025231629111821696
0.005828930785177572 0.04833598827394875 0.023818610428228415
0.0058398070552766355 0.04846224470419541 0.02236865026465823
0.005851774043792955 0.04852895136939739 0.020859340786427483
0.005864986640425214 0.048527695237130686 0.01928220218621096
0.005880284371436395 0.04841118466018218 0.017593288699643106
0.005898193091983878 0.04815036837726 0.01576439361959847
0.005922161511508453 0.04755089620122671 0.013615086139939114
0.00523740214596515 -0.08125069082379094 0.09249051203525949
0.005150805021552233 -0.07274657023672737 0.09528882006010558
0.005067024955623052 -0.06451909399784345 0.0979960973789584
0.004985912462636241 -0.05655372495722355 0.10061734468894712
0.004907369698457688 -0.04884056661396413 0.10315538064067512
0.004831263097473447 -0.041366647526622335 0.10561469425756309
0.004796166950442119 -0.037513022602387314 0.106263663796862
0.004780188372117672 -0.03534385111124766 0.10606490983810568
0.004764315905349731 -0.03318908479160532 0.10586747577708175
0.004748548496627875 -0.03104858062418131 0.10567134850941132
0.004732885106341787 -0.028922197476706046 0.10547651510361725
0.004717324708552854 -0.02680979607290851 0.10528296279827756
0.004714830233097854 -0.0258354299640266 0.10449429431168947
0.004722627588951157 -0.02575268589747942 0.10323115159608268
0.004730437973759722 -0.02566856146718982 0.10196441794111571
0.004738274235371039 -0.02558415832190969 0.1006934874357017
0.00474614939196151 -0.025500584512965052 0.09941773636059328
0.004754037837355648 -0.025415621379049735 0.0981383448582051
0.00476195254878249 -0.025330375344713385 0.09685469338601996
0.004769906676370663 -0.025245959291832154 0.09556614427468216
0.004784362050925715 -0.02571439616890242 0.0939655089996399
0.004792378139469599 -0.025629106062377893 0.09266666438335258
0.004800421134676366 -0.025543529672556575 0.09136346008788143
0.0048084911722454165 -0.025457665555615794 0.09005587412589047
0.004816575113999981 -0.025370386709512027 0.08874452555378612
0.004824699602234721 -0.025283941107970442 0.08742811441885298
0.004832851545217638 -0.02519720338435144 0.08610725479001424
0.004841031082349332 -0.02511017205541588 0.08478192408018723
0.004849238353975732 -0.025022845627865997 0.08345209954911659
0.004857460000286954 -0.02493408870830871 0.08211842335346897
0.00486572311978896 -0.024846165878863513 0.08077954719893773
0.004874014400340838 -0.02475794340478854 0.07943610809957802
0.004882333986149351 -0.024669419751668475 0.07808808268951897
0.004890682022407469 -0.02458059337458679 0.07673544744308522
0.004899044922037533 -0.024490320364770668 0.07537886831092186
0.004907450251596557 -0.02440088215380165 0.07401694717616658
0.00490133930800844 -0.02310592289635366 0.07338632409766754
0.004909780106183064 -0.023016347797188974 0.07201894260460162
0.00491825002704166 -0.022926463643411887 0.07064684333264437
0.00492673533261381 -0.02283512468877613 0.06927071257835765
0.004935263904699487 -0.02274461588297727 0.06788910933627673
0.004943822055304951 -0.022653793177409398 0.0665027144621631
0.004952395904565624 -0.022561505608372168 0.06511222922641102
0.004961112208739652 -0.022478106058841985 0.0637110608685213
0.004970368092995649 -0.02243592115226095 0.062278424743031635
0.004980524252630019 -0.022464056352983874 0.060795138116933545
0.004992789401463148 -0.02266028944625409 0.05919720851392707
0.005586321945464781 -0.06639818617074866 0.022678798342161965
0.005562336613723481 -0.06357473119185092 0.022896095597300214
0.005539416578263693 -0.060844345172592074 0.023065207890164696
0.005517137461896042 -0.05817257813286958 0.02320845939568461
0.005495779885116114 -0.05558151654481741 0.023310261509779218
0.005475513255978658 -0.0530842088560709 0.023360863932331
0.0054555828804036385 -0.050620141902799065 0.023400862260832933
0.005436016871306042 -0.04819138363430875 0.02342852235906684
0.0054170608105277105 -0.04581719966355208 0.023430126821752884
0.005399303873127816 -0.04354384278633572 0.023372805199901314
0.005381762402962965 -0.041293180798208984 0.023310350671037317
0.005365421500043068 -0.0391426194906192 0.023187888702061787
0.005348639280141859 -0.03696265715428926 0.023096298029504525
0.005333572695255238 -0.03492252667274531 0.022915125101841072
0.005317765389370349 -0.03282931406848877 0.022781316966682397
0.005302855905213589 -0.030811247072352888 0.022602975653659707
0.005288829943143895 -0.02886677922362202 0.022380393786383235
0.005274639174937037 -0.026914010766715235 0.02217253324231705
0.005260334345662691 -0.024956956795888607 0.02197660032714488
0.005245319616069202 -0.02294955644459218 0.021826689518482156
0.005247414226782466 -0.02226843477972834 0.020702122343806084
0.005257960175629971 -0.022238027458853227 0.019090851869349335
0.005270026129046597 -0.022321140972879683 0.01738785984808744
0.004921114330094674 0.005305997704458276 0.036572552930069335
0.0048877520196284815 0.008652119528221813 0.0375674001811791
0.00486049644815971 0.011520766971685248 0.038219247183267746
0.004836365550318384 0.014142330909618583 0.03869889168687041
0.004814634144222178 0.016573511950912834 0.039047065334061604
0.0047950040355489235 0.01883811477554742 0.0392799336679413
0.004776460040497953 0.021014092679601803 0.03945621172249203
0.00475899180754579 0.023102752134697535 0.03957588848300991
0.004742487247297007 0.025113070925832648 0.03964500501760854
0.004726518569950954 0.0270777293775758 0.03968850418955061
0.00471108881811615 0.028996757188338718 0.0397058961932385
0.004695797330223638 0.030900458192728797 0.03972090452614796
0.004680529573815931 0.032797468976901334 0.0397403417558862
0.004665348322347772 0.03468311402272867 0.039760404826207074
0.004650549848473811 0.03653536154587422 0.03976310231601998
0.004636447602015962 0.03833109319315592 0.03972917233973222
0.004624632385806775 0.039952634757356 0.039561269517232434
0.0046162401795906485 0.04131700142557998 0.03918863439677067
0.004611063702101891 0.04244115341712601 0.038622011703723425
0.004608534469077512 0.043368538552686686 0.037894524603329705
0.004607659569536222 0.0441734514964891 0.03706592193117236
0.004607866033457449 0.0448987338008649 0.03617071932854393
0.004609287872257327 0.04553509467233241 0.03519997471790148
0.0046114040567916395 0.04612118522006925 0.03418544042809113
0.004614484536192122 0.046637661691658894 0.03310985293562341
0.004618362302162257 0.04709713652761305 0.03198312375674223
0.0046226256039464545 0.04752987715585816 0.030830675941520225
0.0046276196371413955 0.047911072122361786 0.02963052417048545
0.004633103449134425 0.048258483548243636 0.028397486287466578
0.00463916668911213 0.04856588442114407 0.02712559437868911
0.0046460608766962135 0.04881546155239791 0.025798513283555646
0.004653855321765179 0.049002641010117254 0.024411342667189972
0.0046622977804447316 0.049145920345697924 0.022979710256206265
0.004671407657844744 0.049244225446795076 0.021501997998777167
0.004681468482525288 0.0492776652961362 0.019959566502818438
0.004693059380762024 0.04920550544326957 0.01831446951958099
0.004706278840116981 0.04902149398147693 0.016559448796728604
0.004722978479139522 0.04859530664397904 0.014573282181022384
0.0047479224228572856 0.04759204866785144 0.01204356648515098
0.0039082826498100815 -0.07975131389378476 0.09464059673616843
0.0038439814141672554 -0.07131396029645565 0.09738967802252804
0.0037817617504355694 -0.0631497423250642 0.10004976552303094
0.003721524191040092 -0.05524560823818575 0.10262511179124728
0.0036631755064339827 -0.047589324823748114 0.10511970268530779
0.0036345912006078506 -0.04345048122733558 0.10587921707863235
0.0036223567138127257 -0.04123880756030951 0.10567969410811753
0.00361020431510308 -0.039041973261569385 0.10548150984979571
0.003598133181078251 -0.03685982948191524 0.10528465087544842
0.0035861424993132054 -0.034692229356255155 0.10508910393585444
0.003574221721566105 -0.03253789478276531 0.10489544632554795
0.003562399296650781 -0.030400082330084732 0.10470189404123167
0.0035506548226125682 -0.028276365492758138 0.10450961793912852
0.003538968420392796 -0.026164395708774713 0.10431977764053965
0.0035400006243509535 -0.025525259926246657 0.103352528588016
0.0035458518894333035 -0.02544080646383845 0.10208670148238011
0.003551732153974728 -0.025357179946545183 0.10081608516693938
0.00355762229773443 -0.0252721673994038 0.09954184974630503
0.003563532010250352 -0.02518687241605666 0.09826338094811954
0.0035694711098716294 -0.025102405013713358 0.09698004650493278
0.00357542028602613 -0.02501654253720703 0.09569304288595176
0.0035813893261039897 -0.024930393371304538 0.09440174204317622
0.0035922549114182113 -0.02539839280176376 0.09279579745429703
0.0035982803408483883 -0.025312477822001356 0.09149354674673468
0.0036043260176540502 -0.025226274140337568 0.09018692005909501
0.0036103920440634773 -0.025139780299127557 0.08887589529721096
0.003616468544613951 -0.025051868903488816 0.08756109539150309
0.0036225755459502423 -0.024964788670188753 0.08624121233878565
0.0036287032075632626 -0.024877413840290963 0.08491686405874407
0.0036348516344726564 -0.0247897429163057 0.08358802785387279
0.0036410209324111162 -0.02470177439058263 0.0822546808725676
0.0036472010591386134 -0.024612372472642696 0.08091746925042734
0.0036534123846189456 -0.024523802494543112 0.07957503641986069
0.003659644902487953 -0.024434930324974347 0.0782280233497607
0.003665898721390283 -0.02434575441472614 0.07687640655912681
0.0036721739507144923 -0.02425627320398077 0.07552016240618034
0.0036675808457342952 -0.022961042368602358 0.07489118090660749
0.0036738824356681615 -0.02287142396504288 0.07352952399322338
0.0036802057175318887 -0.022781497068489698 0.07216317985537177
0.0036865404347200745 -0.02269011898267781 0.07079282908568074
0.0036929074019665894 -0.02259956858655293 0.0694170426931065
0.0036992963998831833 -0.022508704872321816 0.06803649587139832
0.003705697066168552 -0.022416379954638133 0.06665188407649247
0.0037121304334390257 -0.02232488297497659 0.06526174716041883
0.003718575627418407 -0.02223191803435931 0.06386750568706023
0.003725202045458738 -0.022155902165965302 0.062457376000718046
0.0037323090626712337 -0.02212921650733851 0.06101033364610936
0.003740158175572118 -0.02217988195807402 0.05950770062737204
0.0037510759113561997 -0.022558972629513174 0.05778541228914197
0.004190278680845138 -0.06645565624328942 0.022640599955290053
0.004172603801793208 -0.06366572013420152 0.022835280244223655
0.004155709747461761 -0.06096677930364225 0.022982918380594075
0.004138991151012521 -0.05829378571001209 0.02312654029093625
0.004123003033906053 -0.05570568581749119 0.02322587377356261
0.00410775579488526 -0.05320311438333214 0.023279604584601432
0.004092914844933903 -0.050750135304980515 0.02331153271298836
0.004078244190703218 -0.048321527319391766 0.023338594167200855
0.004064144537788455 -0.04595947620314672 0.02333127116962891
0.00405076788529748 -0.04367962615881682 0.023277940043668954
0.004037503871867729 -0.04141734920650669 0.023223121906096655
0.0040251915391396895 -0.03926059607122717 0.023104553304049924
0.004012806640832045 -0.03710152170594988 0.022997668503245083
0.004001303745504422 -0.03503990665994838 0.0228312973119687
0.00398949014121547 -0.03295082428071 0.0226940636454519
0.003978385983737157 -0.030940623627948083 0.022509564917511826
0.003967595661824403 -0.028967769271720623 0.022307079518637585
0.003956959275942572 -0.02701549012482346 0.022098461369816247
0.003946415411163659 -0.02507733636537879 0.021888253477084507
0.003934852345619829 -0.023038524320229348 0.021761040097365403
0.0039360693478758795 -0.022320768819995784 0.020663294964146428
0.003944230086673467 -0.022316075568083737 0.01903263215424733
0.003953163811785094 -0.0223871567771583 0.017338348344184296
0.0036927385232274883 0.005111259428902892 0.036425708399738355
0.003666552155655595 0.008576718378675463 0.037510235349087706
0.0036451085024816017 0.011547628361037232 0.038239722180123004
0.0036264609515624067 0.014224999082829537 0.038762245367533366
0.00360992105812103 0.016680491868140856 0.03912949284894851
0.0035947928741897122 0.018985937843591427 0.03939444432650013
0.0035806221929057113 0.021188143148076266 0.039591765012669033
0.0035675141241837947 0.023277124145222927 0.0397124223009257
0.003555109059489506 0.025289749089412783 0.039784087471531504
0.003542971917095166 0.027270156278295377 0.03984079675422997
0.003531383506378328 0.02919038210753866 0.03985995804910042
0.0035197666808202657 0.031108483077197713 0.039887310012763355
0.0035083668884200525 0.03299995333199501 0.03990318130489723
0.003497078020880155 0.03487549573871157 0.03991594618463129
0.003485917192406768 0.03673348149907146 0.039924137809452254
0.003475112972513238 0.03855133615628675 0.039909144111725636
0.0034657678995554846 0.040220236989155944 0.03978110548139674
0.0034587258240016796 0.04165783755348834 0.03947012185117954
0.003454295773962098 0.042835184651199065 0.03894916121939812
0.003451866778360248 0.04381399559102295 0.038266334970503746
0.003450848853132884 0.044653406221565384 0.037468651798960695
0.00345091238744434 0.04538657220496772 0.03658223402391192
0.0034516575111304144 0.04605322573518916 0.03563935717019345
0.003453085107592163 0.04665371886977615 0.03463942575180934
0.0034551968709183186 0.047188325627966377 0.03358177585217975
0.003457812859886458 0.04767493675566098 0.03248091796979535
0.003461017609473249 0.048105696136360454 0.031329381123369526
0.0034645945818018377 0.04850188960119989 0.03014491723569246
0.0034685827836965504 0.048859998536610494 0.028923952156448274
0.0034730126391083554 0.04917736278384882 0.027663597783983362
0.0034779613278431982 0.049446863892421866 0.026356968662618663
0.0034835443378251466 0.04965778362401774 0.024993841062700306
0.003489721260399729 0.04981438799445531 0.02357717755230282
0.0034963584215896306 0.049929793540444356 0.02211796507534025
0.003503554601731162 0.049994906703469455 0.020607370681950288
0.0035116928590018543 0.049973757967177956 0.019011982412351136
0.0035208334240955977 0.049861253565492925 0.01732587697208915
0.00353223822725483 0.04953889836101344 0.01543898192859322
0.0035471600575824017 0.0488901397964806 0.013240730037782145
0.0025924832638991747 -0.07826832323932292 0.09676847983517392
0.0025500400660173274 -0.06989678614812983 0.09946919071610086
0.0025089569882613427 -0.061793664189994435 0.10208352684384736
0.0024691836391863634 -0.05394872836152326 0.10461434937169986
0.0024485647724944923 -0.04951292084677239 0.10548667791883934
0.0024402360867951025 -0.047257428286004155 0.10528639732973574
0.0024319638671118455 -0.045017227294967876 0.1050874745833916
0.0024237475411504677 -0.04279216289057747 0.10488989591780293
0.0024155865443244422 -0.04058208217707637 0.10469364775631251
0.0024074803196256277 -0.03838683431101214 0.10449871670450167
0.0023994283174975485 -0.0362062704669181 0.1043050895471419
0.0023914299957111754 -0.03404024380367632 0.10411275324521027
0.0023834913206678488 -0.03188974116680199 0.10392110174329783
0.002375605177071249 -0.029753468740006117 0.1037307184289992
0.0024648714573981528 -0.04447162325955284 0.09460777132034154
0.0023599501697408086 -0.025516433053312082 0.10335723953335682
0.002362585361384947 -0.025213305165626365 0.10220884880726105
0.0023665011660378324 -0.025129348235884086 0.10093914380952745
0.0023704235422032415 -0.025044005572677996 0.09966582441862099
0.0023743589423392683 -0.024958379535233666 0.09838827706138523
0.002378313904633922 -0.024873578890918957 0.09710587019432093
0.0023822755696542215 -0.02478738346866366 0.09581979896183426
0.0023862504549825216 -0.02470090040723144 0.09452943603437625
0.0023902451652278575 -0.024615243308300727 0.09323413578998865
0.002397498446896775 -0.02508168715246878 0.09162348635562265
0.0024015243369959545 -0.024995144729149654 0.0903178176092212
0.002405563770460233 -0.02490831117128045 0.08900775650531009
0.0024096168157459476 -0.024821185007292523 0.08769328084226577
0.002413676874593347 -0.02473263845049245 0.08637501744010767
0.002417757328181947 -0.02464492095834614 0.08505165021221003
0.0024218516016347386 -0.02455690638062269 0.08372380094449386
0.002425959765279432 -0.024468593205488776 0.08239144682837218
0.0024300818899216934 -0.024379979910828797 0.08105456490023849
0.0024342112657467566 -0.02428993031012666 0.07971380529074171
0.002438361503590968 -0.024200710482957355 0.0783678031248903
0.0024425259176400456 -0.024111185902495225 0.07701720334239856
0.002439464149982838 -0.02281682435469723 0.07638915626265566
0.0024436460021043747 -0.022727163980819587 0.07503318590999267
0.0024478422163671356 -0.022637195677576438 0.07367255861651109
0.0024520528668863038 -0.022546917855905846 0.07230725035027
0.0024562711237222034 -0.022455189136305842 0.07093794093420963
0.002460510847291439 -0.02236428575531102 0.06956320304883118
0.0024647582800588876 -0.02227192481672352 0.0681844253461883
0.0024690273788297266 -0.022180389367360887 0.06680015983197224
0.0024733112919333032 -0.022088536277944715 0.06541109073479567
0.0024776030716011045 -0.02199521551823208 0.06401792276317281
0.0024819168211610326 -0.02190272043167968 0.06261917642793396
0.0024864224830977366 -0.021838700977524217 0.06119704274614607
0.0024912428055250367 -0.021822919320192258 0.05973840913050715
0.002496673798949329 -0.02190308016974868 0.05821171105625628
0.002793896196627414 -0.06651601563427245 0.022600481133450534
0.002782552668943809 -0.06379658165980301 0.022747814746613082
0.0027711251064149 -0.06107097186837723 0.022912889267878822
0.002760104844776419 -0.05841784859653587 0.023042691400765203
0.0027494140895891273 -0.055824402166282705 0.023145191948985844
0.0027392093513412636 -0.05331524563891832 0.023202974739549465
0.002729421063002414 -0.050878851356141896 0.023223080942770757
0.002719600903492414 -0.04844369232544432 0.02325417918052408
0.002710305030897773 -0.046097854186555876 0.023235124289053055
0.0027015818972327497 -0.04384848714265843 0.02315996516913127
0.0026927321670359426 -0.04158476472453654 0.023105511858288963
0.0026841710717752944 -0.03937215104814318 0.023025753954074357
0.002676049368338867 -0.03723404292576887 0.022903544376967733
0.002668253658260641 -0.03515224488586849 0.02275107013699318
0.002660365534614992 -0.03306100427358055 0.02261494626770949
0.0026531037781320653 -0.03107259563913861 0.02241428024348535
0.0026454650152812464 -0.029030133575534522 0.02226180584950821
0.0026385391923573554 -0.027103397007031904 0.022034296338165893
0.002631364242819144 -0.025142469257844635 0.021840452332397287
0.0026234403373501915 -0.0230702210008063 0.021737651162097305
0.0026245040010882603 -0.022391380294391805 0.02061090726267112
0.0026299384756779524 -0.02238561249218446 0.01898076133741272
0.0026358645355989566 -0.022451970981551717 0.017289738035437374
0.002464088687460766 0.004763850774423595 0.03616374103398179
0.002445147611312168 0.008457271151245893 0.03741967725673839
0.0024301936494729643 0.011529032248572268 0.03822554749770135
0.002417399436858399 0.014261728542106444 0.03879039344511526
0.0024059111678892127 0.016787409340755788 0.03921187225055961
0.0023955359522685057 0.019136633701640426 0.03951118038084245
0.002386050962819859 0.02134425048708266 0.03971334391477993
0.0023772291682406946 0.023445458008081344 0.03984422823348088
0.0023688704577672273 0.025471099458933222 0.039926847920847885
0.0023607871595571696 0.02744988730911463 0.03998304142249143
0.0023528982134461114 0.02939426983302662 0.0400221857243776
0.002345256929639306 0.031296439425266664 0.04003766206930254
0.002337490020754631 0.033212497224883064 0.04007411081102935
0.0023299296882748686 0.03509271501318317 0.04009156879402742
0.0023225847738183106 0.036935974499050006 0.040088727792751244
0.0023153228300352214 0.03876217638833762 0.04008143243542994
0.0023088989994513166 0.04045936457264104 0.039977549452927474
0.0023037551603458323 0.041962930226625283 0.039722089749570366
0.002300395148128105 0.04319968018327042 0.039251788343517224
0.002298386233477439 0.04423511864438673 0.03861783445434097
0.0022974132604622536 0.04511690098581955 0.03785757012115648
0.0022973165544963666 0.045869459421629566 0.03698957215984405
0.0022975581092798407 0.04657242223164121 0.036079643124769634
0.0022984464320794026 0.04718103817165281 0.03508896584078053
0.0022996924749641785 0.04773807202129893 0.03405291242773095
0.002301285279462404 0.04824546282655384 0.03297244525407278
0.0023033962840325935 0.048678660571459975 0.03182561404126938
0.0023056997538760775 0.04908534070890408 0.030652896797751017
0.00230826390395383 0.049455831228341685 0.029445444691463263
0.002311169924601508 0.04977867694289101 0.028192658312788166
0.0023143223011799293 0.050067948662751494 0.026906298479080326
0.0023178644254521555 0.050303300972650344 0.02556778147279476
0.0023218430262633392 0.05047841705144973 0.024170677695669218
0.0023261510792453974 0.050609011580860674 0.022728226776409954
0.002330773528749642 0.05069754882780453 0.02124198895829582
0.002335845151677194 0.05072515884705375 0.01969419533881117
0.0023416603264844685 0.05065049167332747 0.018046195428448097
0.0023485518941282414 0.050427128907348795 0.01625389048556669
0.002357206136870315 0.04995914100170551 0.014226615599617076
0.0023716008691893452 0.04868746574131616 0.011442480722461401
0.0012897857127517364 -0.07679874607370846 0.09887582564888436
0.001268773005147646 -0.06849218622197362 0.10152896692749094
0.0012484339650163088 -0.06045193470545529 0.10409704848812756
0.0012373074397161 -0.055704329631018346 0.1050857880859418
0.001233054089107013 -0.0534036458772566 0.1048847625213789
0.0012288298795764983 -0.05111872485071872 0.10468511424770865
0.00122463451266457 -0.048849405111142996 0.10448682915885643
0.0012204676939731043 -0.046595527415373206 0.10428989334072289
0.0012163291330969678 -0.04435693468010671 0.10409429306793055
0.0012122151801583962 -0.042132292349133904 0.10390061823798727
0.0012081356427317462 -0.039924986338941926 0.10370704518138277
0.0012040834702054446 -0.0377324865928243 0.1035147705824645
0.001200058388160651 -0.03555464463160607 0.1033237814201268
0.0011960470286094076 -0.03338675422590698 0.10313645479094868
0.0011920721531197232 -0.031236698603881063 0.10294858825882452
0.0011881236086983345 -0.029100885757765538 0.1027619662250106
0.001232774920164825 -0.043796214857454496 0.09360134447902999
0.001180636185984566 -0.0249860571488717 0.10233086014323683
0.0011825919036414728 -0.024901770594703387 0.10106206522167782
0.0011845508997160486 -0.02481609860505285 0.0997896606099564
0.0011865196191669601 -0.02473124963820139 0.09851242815662495
0.0011884916605125963 -0.02464500921958568 0.09723155286978724
0.0011904702680259759 -0.024558481652289632 0.09594641274234222
0.001192458729203297 -0.024472777668481882 0.0946563676079723
0.0011944505787006704 -0.0243856731042148 0.09336262907810883
0.0011964490936278744 -0.024298277057391238 0.09206456124353227
0.0012000838157927728 -0.02476427687729965 0.09044856702814943
0.0012021012417945376 -0.024677104427564267 0.08913946824082589
0.0012041254621283054 -0.02458963839650724 0.08782596064157563
0.0012061565111751078 -0.024501877298527208 0.08650802192069254
0.0012081910824390195 -0.024412692956141124 0.08518628280346377
0.0012102358816676855 -0.024324335565164834 0.08385941908668249
0.0012122876140969662 -0.024235678585091014 0.08252805643804853
0.001214346315048824 -0.02414672048962374 0.08119217193724562
0.0012164120200855823 -0.024057459742087284 0.07985174250799573
0.0012184813667476862 -0.023966759760987888 0.07850742229219349
0.0012169540005138374 -0.02267439432634155 0.07787961898838561
0.0012190353973446993 -0.022584694981746978 0.07652929259102562
0.0012211205131750667 -0.022493554902825452 0.0751750273953298
0.0012232161990027328 -0.022403237565687018 0.07381542825348447
0.0012253156539714 -0.02231147293035224 0.0724518525360188
0.001227425776445645 -0.022220531207310212 0.07108288482437247
0.001229539718976118 -0.022128135558421802 0.06970990222158141
0.001231664427787988 -0.02203656296767542 0.06833146878996255
0.001233796492566003 -0.021944673342920162 0.06694826307628327
0.0012359324552765017 -0.021851319728493523 0.06556098395421855
0.0012380793348965385 -0.02175878934919523 0.06416816422931709
0.001240230165361962 -0.021664788189009243 0.06277123139215862
0.0012424096796882175 -0.021577362895810415 0.061365000032578054
0.0012447067875412793 -0.021525354301867916 0.05993072837297414
0.001247179713054439 -0.02152742140441921 0.05845587133881858
0.0012500414858641448 -0.021652187164222736 0.056894950712778725
0.001391513974634236 -0.0638720041439319 0.022697403744872557
0.0013858201272719869 -0.06115267052878326 0.0228579786043549
0.0013804256090229204 -0.05853640076702926 0.02296256697558874
0.001375185456384513 -0.05597634230122156 0.023041930602549665
0.001370036487399884 -0.053452069087117415 0.02310947037633798
0.0013650581326505357 -0.050988659091760535 0.023147622699949744
0.0013602725078238212 -0.04859280047274139 0.0231511466929038
0.0013556254676140177 -0.046246976494756786 0.02313151210103681
0.0013512315215428818 -0.043987105755678324 0.02306311916833581
0.0013469157929371291 -0.041757550355726314 0.0229841292826673
0.0013426151657620765 -0.03953829549250182 0.022908394073803184
0.0013384936190404214 -0.037380814391559936 0.022799298904619014
0.001334527728988311 -0.03527741988113764 0.022661675478768906
0.0013305285400695833 -0.033168707780410756 0.02253760719188902
0.0013268392817747474 -0.031161881590450025 0.022349815217074354
0.0013229740978295875 -0.02910499564384922 0.022207459350770897
0.001319394286731462 -0.027141790772600094 0.02200627199068217
0.0013157624661966848 -0.025167053182770738 0.02182241019908604
0.0013118984211442706 -0.023125092251955748 0.02169716168250141
0.0013124855642000224 -0.02246323445165027 0.020557597594857924
0.0013152077247008912 -0.02245883502808471 0.018926141247282757
0.0013181598981584404 -0.022521699948551632 0.017237441674339327
0.0013211772902622983 -0.02260079242101737 0.01552912070838025
0.0012232409197049762 0.008252776841532639 0.037264641247420294
0.0012151470140302244 0.0115135340481759 0.038213734178214664
0.0012085519804706263 0.014306610192841573 0.03882478903794129
0.00120262703042785 0.016887209871667253 0.039288768087954895
0.0011973666612401293 0.019258296858669866 0.03960542636371911
0.0011925816580383975 0.021478513514499642 0.039817910127594225
0.001188064082409185 0.02361167977239187 0.039974380387320096
0.001183824337385034 0.025655170973863495 0.04007175047610745
0.0011796848162196354 0.027663022226431855 0.04015172293911562
0.0011757576341000575 0.029601727087022356 0.040187253570629244
0.0011718910873069637 0.031517196754076215 0.04021425262351602
0.0011680717466971049 0.033413567430144786 0.040235813089739725
0.00116425860387729 0.03530317741098549 0.040261728445404876
0.0011605905007344916 0.03714466237211883 0.040258353078639564
0.0011570496125782653 0.03894360246686823 0.04022968496321572
0.0011537099846337783 0.04067827196446311 0.0401573824879598
0.001150895657872652 0.042253116323771656 0.03996174670850333
0.0011489948009367468 0.0435544683032183 0.03954635576536786
0.0011478054030274799 0.04464364133966625 0.03895881677851204
0.0011471905085436494 0.04556229328285327 0.038231298671429326
0.0011469946807763894 0.04635715427121384 0.03740096575974311
0.001147072913730799 0.047071499990518184 0.036502868109065056
0.0011474192926843381 0.047707587333368606 0.03553784938456017
0.0011480071541456452 0.0482737079631666 0.03451195624778802
0.00114877380488021 0.048788567474776445 0.03344034806983287
0.0011497290372230076 0.04924966793616242 0.03232015198004973
0.0011508677268697674 0.04965885725914293 0.03115222687506619
0.0011520846197098774 0.05004690884283158 0.029962775425546984
0.0011534959210217622 0.05038046351790065 0.028722134491886264
0.0011550297611829235 0.05068057491144018 0.02744814700182785
0.0011567238540513831 0.050936652296248774 0.026130904865286964
0.0011586717715350772 0.051122201903755216 0.024746083846528044
0.0011607434352596156 0.051274889274354585 0.023326502485719713
0.0011629587123801798 0.05138928780690816 0.021866759640454037
0.0011653969172885986 0.05144310851654521 0.020346037199783895
0.0011681607445946601 0.05140762940861282 0.01873721665763206
0.0011713050035992631 0.05126795491508307 0.017025307676179213
0.0011752655496963603 0.050901652889425 0.015095846493711151
0.0011805562504652834 0.05016541693414406 0.0128126430848029
6.586876734221372e-09 -0.07534508863322503 0.10096162610600048
5.8661809557595775e-09 -0.06710128944153138 0.1035686481543969
5.4227357461526135e-09 -0.06202886725918849 0.10467627824330802
5.21752776391048e-09 -0.05968156145396558 0.10447452168853136
5.013740738604317e-09 -0.057350509502166636 0.10427416219122063
4.811359962092031e-09 -0.055035543162249734 0.10407518529061524
4.610370928523597e-09 -0.052736496506624764 0.10387757672484013
4.410759330873944e-09 -0.05045320588199409 0.10368132242750525
4.212405364591599e-09 -0.0481843008839562 0.1034870194760226
4.0156121890593716e-09 -0.0459332492518269 0.10329282133004011
3.820048994763539e-09 -0.04369626696564616 0.10310054734483381
3.6259109231103694e-09 -0.04147558618303576 0.102908966891269
3.4326714073989647e-09 -0.03926518368270182 0.10272109558688419
3.2410364350636178e-09 -0.0370731350200153 0.10253267901801322
3.050684021241294e-09 -0.034895757117258674 0.1023455234676405
2.861700859428242e-09 -0.03273404163249327 0.10215901599731061
2.673874391545355e-09 -0.030585557184574508 0.10197434629152932
2.4872925019402646e-09 -0.028451309053316665 0.10179090024649526
2.302136908223428e-09 -0.026333375846008367 0.10160747399786954
2.157108712918626e-09 -0.02467444659824869 0.1011848496328128
2.1495903060480827e-09 -0.02458844606974625 0.09991335855220884
2.1421436605172215e-09 -0.024503266395419998 0.0986370456974888
2.1345753965926702e-09 -0.024416695568839186 0.0973570947682548
2.1269819472863776e-09 -0.024329836655144044 0.0960728844669507
2.119460306305161e-09 -0.024243799133076893 0.0947837753618572
2.1118162488655064e-09 -0.024156361329959186 0.09349097771985035
2.1042440292054464e-09 -0.024069745255391073 0.09219322906669333
2.1448016262277333e-09 -0.024533670141047237 0.09057916856718717
2.1371512117411966e-09 -0.024446159622091623 0.08927103075776732
2.1294750466371655e-09 -0.024358354550480965 0.0879584898726031
2.1217730006851185e-09 -0.024270253436551814 0.0866415236436748
2.114044942774897e-09 -0.02418185478057927 0.08532010965255202
2.1061922104301296e-09 -0.024092030015321675 0.08399488254553408
2.098411586346142e-09 -0.024003030072561604 0.08266450996953642
2.0906045511999223e-09 -0.023913728022541048 0.08132962148965633
1.9912640608392127e-09 -0.022777405231232895 0.08061126700374957
1.969765013614703e-09 -0.02253148481043299 0.07936397796035138
1.9619198047541037e-09 -0.02244174610419486 0.07801926314200561
1.953948953640106e-09 -0.022350570218115706 0.07667063353462603
1.9460498187117145e-09 -0.022260214669719836 0.07531670564489443
1.9381235862877875e-09 -0.022169549162184055 0.0739581331894395
1.930070852843541e-09 -0.022077436651659343 0.07259558957957044
1.9219904452781586e-09 -0.021985007586167005 0.07122836343634342
1.9139817807280522e-09 -0.021893399165256067 0.06985572312379329
1.905945453310715e-09 -0.021801474318108305 0.06847834155105109
1.8978813194522887e-09 -0.021709231402430806 0.06709619411031498
1.8896892253147303e-09 -0.021615524791790408 0.06570997888035673
1.8815688932371365e-09 -0.021522639043579594 0.06431823039285
1.8733200071542213e-09 -0.021428282808970522 0.0629223744939792
1.865042427395531e-09 -0.021333598357051065 0.061521663123523695
1.8579433943899562e-09 -0.021252394909458516 0.060107144759451
1.8545482751710546e-09 -0.021213559299545937 0.05865986675067114
1.8561900506947114e-09 -0.02123233905301869 0.057169367271407534
1.872622705626102e-09 -0.02142030675550516 0.055561644062093796
5.592206283369798e-09 -0.0639673859636759 0.02263365226867947
5.357100933951503e-09 -0.0612780941192938 0.022773679839859562
5.128028287491109e-09 -0.05865780835683654 0.02288051269069058
4.904602732605627e-09 -0.056102117795991835 0.02295645124715112
4.6864536346487285e-09 -0.05360678287035403 0.02300373984967463
4.471088908941284e-09 -0.05114329745234436 0.023041357484966163
4.260809180412217e-09 -0.04873797762517307 0.023050830492209573
4.055735146554287e-09 -0.04639220400731858 0.02303060607168944
3.855290709059317e-09 -0.044099386801897955 0.022984673944603184
3.6584617762609855e-09 -0.0418479261517099 0.022920639975184176
3.4671078125210645e-09 -0.0396590918510083 0.02282306686073543
3.277507415786209e-09 -0.037490316019714864 0.022721524619375044
3.093658467429763e-09 -0.03538732909289355 0.022583183004117047
2.9083450566548536e-09 -0.03326759066745272 0.022466601979688083
2.732727190827296e-09 -0.03125875635508196 0.022279871011956998
2.5537151119797634e-09 -0.029211096768932854 0.02213043466510739
2.3784422888313513e-09 -0.027206209284618088 0.02195925162348089
2.2031829119254533e-09 -0.025201475607215196 0.02179714756088663
2.0244319149583926e-09 -0.0231568024492817 0.021673762773238736
1.9691234862230097e-09 -0.022524147764485247 0.020512405115211352
1.970244282968815e-09 -0.022536968218184905 0.01886785806640534
1.974579484864758e-09 -0.022586557183230105 0.017188799093106277
1.9798991683175163e-09 -0.02264740730545156 0.01549397031174804
-7.067054852415872e-10 0.008083769571806343 0.03713650951706171
-1.000762875566126e-09 0.011447394208699724 0.03816331960524644
-1.2520608567437262e-09 0.014321908188983878 0.03883651289463613
-1.482228630428464e-09 0.016954720755185115 0.039340784930818495
-1.6929361957494201e-09 0.01936493447175014 0.039688032866084744
-1.8892676489969423e-09 0.0216107046248471 0.03992086269914674
-2.077777579327356e-09 0.02376700697939299 0.04009600207446318
-2.2582450636808582e-09 0.025831314469976496 0.04021041203555564
-2.433888349189284e-09 0.02784043955496407 0.04029213647307278
-2.605564960917338e-09 0.02980419117830274 0.040348348500963915
-2.7731961578939466e-09 0.031721668648207135 0.04037781596528123
-2.9398887781177073e-09 0.033628410051049495 0.04040859125032226
-3.1029794054953527e-09 0.035493949456114726 0.04041596837915101
-3.264147499908654e-09 0.03733749764631544 0.04041509309099445
-3.4215952991781076e-09 0.03913849061809255 0.0403889380328889
-3.5747677877592417e-09 0.04089057973324556 0.040331793916590086
-3.7159979176887736e-09 0.04250606418050107 0.04017064960828737
-3.83712432450842e-09 0.04389158882659905 0.03982625444082094
-3.93741357169389e-09 0.04503876413504965 0.039288614588283644
-4.021707823002312e-09 0.04600297800631087 0.03860107709871757
-4.09364240937489e-09 0.04682581378171802 0.037796302156698824
-4.1582380889623944e-09 0.047564702243625356 0.03692111058228298
-4.215773557588369e-09 0.04822283130083149 0.03597709524358028
-4.2667454390388016e-09 0.048805881667607576 0.034968032905974944
-4.313476617763826e-09 0.049340424046485865 0.03391579095865943
-4.35513824989514e-09 0.04981697756814507 0.03281148738751877
-4.391816939400102e-09 0.05023653286654434 0.03165517801928036
-4.426271386900245e-09 0.05063064580044596 0.030473681374031336
-4.456513941613531e-09 0.05097658029370061 0.02924662215273749
-4.483690980273903e-09 0.051287449368435045 0.027984908247421836
-4.507339961908241e-09 0.05155796217230202 0.026683322004124987
-4.526075051562066e-09 0.05177226660021228 0.025327102835497994
-4.540342839065583e-09 0.05193547104466961 0.02392001993088244
-4.551433114141949e-09 0.052062328981285266 0.022474642682754398
-4.557945850124961e-09 0.05213682597069652 0.02097587811688767
-4.559547537320198e-09 0.052155147106426325 0.01941945791293509
-4.551409508722036e-09 0.0520620588727021 0.017753859650567694
-4.5288664344001595e-09 0.051804196112205325 0.015928216319513522
-4.483710179060246e-09 0.051287668695445265 0.013853047642780336
-4.3301500106821455e-09 0.04953114497438488 0.01061001694037672
-0.001277049060268345 -0.07390443153612314 0.10302749475783762
-0.0012641904344021832 -0.06849087423891043 0.10425786734577622
-0.0012597509248214692 -0.06609545379277093 0.10405539522740073
-0.0012553424882566747 -0.06371679937352548 0.10385434025172832
-0.0012509647996161207 -0.06135473557187621 0.10365468759234495
-0.0012466175383272402 -0.05900908941690003 0.1034564226289437
-0.0012423003882583547 -0.05667969033383652 0.10325953094375062
-0.0012380130376420278 -0.05436637010273482 0.10306399831803192
-0.0012337516951974588 -0.05206773420061056 0.10287042780008432
-0.0012295265090697615 -0.04978730484852095 0.10267695434481242
-0.0012253301651157214 -0.04752244227545677 0.10248480158740267
-0.0012211487169465928 -0.04526819934259746 0.10229640555932659
-0.001217005880900459 -0.04303285027757542 0.10210745857801681
-0.001212891060786264 -0.04081261776217987 0.10191978935064644
-0.0012088039733750273 -0.038607348974619704 0.10173338495967602
-0.001204744339242731 -0.03641689314614199 0.10154823266109869
-0.0012007151824088124 -0.034242248249047536 0.10136371519695447
-0.0011967063317627044 -0.032079827351078616 0.10118163421542231
-0.0011927274180248298 -0.029932925806312793 0.10100016342214524
-0.0011887716422648742 -0.027799136208159658 0.10082049557419664
-0.0011848516594378281 -0.02568277928272167 0.10064021964303191
-0.0011832249239010217 -0.024361047540930825 0.100036918476757
-0.001185189263785076 -0.024275537950419923 0.09876152396376153
-0.0011871569110881526 -0.024188637508767985 0.09748249612611745
-0.0011891343389370747 -0.024102556109750428 0.09619860146477938
-0.0011911151181148722 -0.024015077787330752 0.09491104001081443
-0.0011931025071603989 -0.023927307549405363 0.09361918195931998
-0.001195099808122836 -0.023840356838353616 0.09232237918039587
-0.0011971005275030395 -0.02375199998973815 0.09102185854954953
-0.0012007358591290948 -0.024215476309978834 0.0894024443095719
-0.001202755509588745 -0.024127333022181563 0.08809086879150438
-0.001204781965604429 -0.024038892720556704 0.08677487369643852
-0.0012068152616329048 -0.02395015390130728 0.08545443664790112
-0.0012088554323639493 -0.023861115050473558 0.08412953511810287
-0.0012108991567925747 -0.02377064721211325 0.0828008076901652
-0.0012096085726398284 -0.022559527269098767 0.08212850661881832
-0.0012114230431300216 -0.022389224345095937 0.08084159543527261
-0.0012134855763769584 -0.022299447561331565 0.07950245518869198
-0.0012155551447804317 -0.022209364555213107 0.07815874722843028
-0.0012176283910637885 -0.02211784466654626 0.07681112977526816
-0.0012197121265713968 -0.02202714281767887 0.07545822094030857
-0.0012217995894648471 -0.02193499755362821 0.07410136525273994
-0.00122389763804615 -0.02184367047830832 0.07273916073369874
-0.001225999464281305 -0.021750893391825066 0.07137297147160371
-0.001228111973918084 -0.0216589346182966 0.07000137515206745
-0.0012302283122527721 -0.021565519173356307 0.068625755658835
-0.001232355432973826 -0.021472922140287454 0.0672446700927593
-0.0012344899221728796 -0.021380004345320724 0.06585880036064984
-0.0012366283181438522 -0.02128561976527865 0.06446884876112374
-0.0012387776474493816 -0.021192053702443703 0.06307334103814372
-0.0012409309365745789 -0.021097014029462013 0.061673711623683125
-0.0012430952612908224 -0.02100279290665752 0.060268465037242924
-0.001245338135310431 -0.02093126923716676 0.05884334184641349
-0.0012477280653329938 -0.02090446979456262 0.05738366562764424
-0.001250338257556546 -0.020945763588898825 0.055873552031831364
-0.0013921279516870232 -0.06407278036470904 0.02256320855648125
-0.0013865878699555283 -0.06140217812020188 0.022690281431212656
-0.0013812663552248484 -0.0588086141096309 0.022778589403889493
-0.0013759855322413267 -0.0562348821685994 0.022866222116459833
-0.0013709901039854217 -0.05375886518156925 0.022899807657595195
-0.001366000921529396 -0.051291256520760276 0.022939682185266652
-0.0013612344975909793 -0.048900745838630744 0.022938359005261644
-0.0013565854580023233 -0.04655353498751463 0.02291851112733201
-0.0013522484139761605 -0.04431089952004841 0.022836900377836256
-0.0013477851667125177 -0.042034037856175155 0.02278989577518159
-0.0013435330422768789 -0.03982936301853929 0.02270279197442332
-0.0013393569315188697 -0.03765403060437966 0.022605245167456323
-0.001335292394870871 -0.03551904055707483 0.02248912027352601
-0.0013312240611964867 -0.033388088410286954 0.022380075687256085
-0.0013273255904682607 -0.031315392508985795 0.022238979378229884
-0.0013235380862620888 -0.02928227757942664 0.0220787605983771
-0.00131972031388596 -0.02724462230293878 0.02193121322303765
-0.0013160671988362667 -0.02526295857412386 0.02175202510779839
-0.0013122884036746946 -0.023247081445382234 0.02160714587482543
-0.0013129115210489266 -0.02259604899609019 0.020459060522242722
-0.001315619621589381 -0.022587038160270245 0.01883050859842267
-0.001318593549962593 -0.022656332451124805 0.017136468006579975
-0.0013215409804056314 -0.02271366789463808 0.015444005848054332
-0.0012243563969584802 0.007911456309223908 0.037005871368834486
-0.0012156257249560428 0.011367788518308108 0.03810264077676723
-0.001208480941989324 0.014329046763077724 0.03884198369483083
-0.0012022593513916853 0.01700004987695708 0.039375710849080814
-0.00119669445422377 0.019463543501678726 0.03976442005701031
-0.0011917104164154812 0.021743784521954468 0.04002450747157582
-0.0011870417828770106 0.023922199988137827 0.040217518683953346
-0.0011826400218728768 0.026014049028166064 0.040354262128300566
-0.001178483716862735 0.02802629780862581 0.04043923041098674
-0.0011744164997784918 0.030006423430981255 0.04050925896390406
-0.0011705089483306534 0.03193342763096518 0.040547208469805474
-0.0011667145409006206 0.03382154276029947 0.04056391013385802
-0.0011629446555611084 0.03569745558122217 0.04058050386005202
-0.0011592913263219165 0.037533784897478606 0.04057463893133939
-0.0011557648171566957 0.03932770315545575 0.040543553270693755
-0.0011523235159829751 0.04109180288956199 0.040497099309158124
-0.001149253197852762 0.04274163125852731 0.04036519819131851
-0.0011467918559685843 0.0442075875812587 0.040088616499631524
-0.0011452258681426992 0.04540641878728968 0.0395954855223421
-0.0011443111289857258 0.04641165968185368 0.03894400178341717
-0.0011438618258694628 0.0472791069758951 0.03817867634376898
-0.001143775053215899 0.04803979753857929 0.03732399810224618
-0.001143951799856117 0.048723365536854746 0.036403801047974305
-0.0011444282799251463 0.04931975921164855 0.03540842962696722
-0.0011450761866766458 0.04986688801615485 0.03436935727548379
-0.001145881075889943 0.05036927586628365 0.03328982178412171
-0.0011469128481288143 0.05080697747769991 0.03215183352398698
-0.0011480792007653713 0.05120710825083963 0.030978220433284298
-0.001149420257661548 0.0515583566687256 0.02975849255053148
-0.001150858415353461 0.0518833892952571 0.02851199824851458
-0.0011524582235434807 0.05216386131987133 0.027222037205032412
-0.0011541966244672903 0.05240668948570276 0.025894141388282665
-0.00115616968701173 0.05258468342504696 0.02450332224330426
-0.001158275385771114 0.05272739017106681 0.02307531829553222
-0.0011605397948221952 0.05282764674542062 0.02160308907677172
-0.0011630173582360425 0.052870303439814303 0.020072163740187943
-0.0011658320596932045 0.052820654089626995 0.018449834076505744
-0.0011690606654700636 0.05265765486454049 0.016715318033070525
-0.0011731633767278343 0.052252347918191444 0.014747371634369344
-0.0011789595804361861 0.05137591534652547 0.012329177416580517
-0.002583730686682804 -0.08086540133848563 0.102473787014562
-0.0025561666075367986 -0.07509488184045943 0.10383026199642242
-0.0025470915386154353 -0.07264978905227903 0.10362709128940892
-0.0025380806808761496 -0.07022199666129375 0.10342535812847006
-0.00252913335522645 -0.06781132169984166 0.1032250473102296
-0.0025202488921162434 -0.06541758377126639 0.10302614384494438
-0.0025114266313708156 -0.06304060500491626 0.10282863295276526
-0.002502665922027291 -0.06068021001208357 0.10263250006007721
-0.002493959004274472 -0.05833496616749928 0.1024383557154914
-0.0024853265987964607 -0.05600848194394897 0.10224431098843503
-0.0024767467276181968 -0.05369681011716798 0.10205222666152367
-0.002468211949538914 -0.05139859031659516 0.10186270422268723
-0.002459749639601479 -0.049118588509285355 0.10167324650905163
-0.0024513451590230137 -0.04685416767723388 0.10148508350298166
-0.002442997917034521 -0.0446051686494382 0.10129820197809847
-0.0024347073308865594 -0.04237143441560415 0.10111258888756666
-0.0024264728257136024 -0.04015281008960303 0.10092823136105947
-0.0024182938344011703 -0.03794914287367174 0.10074511670178349
-0.0024101697974556143 -0.03576028202333059 0.10056323238356535
-0.0024021001628765893 -0.03358607881301834 0.10038256604799042
-0.002394084386031948 -0.031426386502392545 0.10020310550161063
-0.0023861154139201723 -0.02927993443991911 0.10002544319827708
-0.002378186373380203 -0.027145492059174325 0.09985016564421084
-0.002370348433760259 -0.025031829754708357 0.09967244052859622
-0.002369056820435623 -0.024048063876290326 0.09888586318879616
-0.002372987709380788 -0.02396083461042442 0.09760775717923875
-0.0023769381302837372 -0.023874422214653523 0.0963247904805668
