# .PCD v0.7 - Point Cloud Data file format
VERSION 0.7
FIELDS x y z
SIZE 4 4 4
TYPE F F F
COUNT 1 1 1
WIDTH 786
HEIGHT 1
VIEWPOINT 0 0 0 1 0 0 0
POINTS 786
DATA ascii
0.03865929223289336 0.08922030810164183 0.030005934941542522
0.03875435481636913 0.08918982126765995 0.028464762458683845
0.0388469115745163 0.08918168336555576 0.02693853815757563
0.03893981509257846 0.08917423398116203 0.02540573904364235
0.039037232844813294 0.08913611749181888 0.02383457665923966
0.0391290057099864 0.08914387571343757 0.022302416294766203
0.039221406695231144 0.08915020490435677 0.02076153571724426
0.03931011835974825 0.08918741064145874 0.019245079874370408
0.039399330925002675 0.08922404912701365 0.017720987915625264
0.03948726400327582 0.08927339162485326 0.016202988187562828
0.03957748252133548 0.08930891350336428 0.014663533780577387
0.03965341332134305 0.08945343426755598 0.013231275319101232
0.039754338432534106 0.0894160708999755 0.011601012925218479
0.039833774471772956 0.08954063560033387 0.010134369907904228
0.03992234234181994 0.08960091989761987 0.00859279625373488
0.040026679904737704 0.08954874452995071 0.006923558591457324
0.04012194148655767 0.08956667760327963 0.005321379180236729
0.04021621795583815 0.08959520011398375 0.0037229270917036317
0.041542550476308185 0.01403710218152382 0.05206362520497415
0.041412945625570304 0.01594882773257672 0.05199747842803837
0.04125886178371159 0.018072318391222864 0.05209677945823277
0.04111023009057222 0.02014202334359455 0.05216711981270461
0.0409623362393947 0.02219976957899089 0.05223911816510923
0.040817572642954235 0.02422456780100013 0.05229695369030796
0.04067772370423266 0.026200937865509477 0.05232861782526055
0.04054216159290932 0.02813464628634632 0.05233795442705358
0.0403954382265484 0.030160870901687897 0.05242754039822073
0.04025814414278187 0.032099513043271855 0.052460559406296625
0.04011272907865348 0.03410375215278422 0.05255401594451181
0.03997964616632531 0.035995606062864116 0.05257091663650859
0.03984952018858482 0.037856959641042465 0.052573695781393426
0.0397187941718047 0.03971871995261533 0.05258623197356588
0.03958134014240328 0.04163370758511159 0.05265017139918421
0.03945378992692803 0.04345840813583174 0.052652667548276355
0.03932503643392205 0.04528875773193136 0.052668969576044944
0.039191796229826444 0.047152828721132745 0.052721665444102395
0.03907292919863886 0.04888909326043139 0.05268134662637991
0.03893831512793136 0.050755363634199135 0.05275487122609879
0.038803936134750854 0.052614687910939706 0.05283266144911575
0.038686036463923455 0.05432906107836549 0.052801920384458856
0.03856233456459691 0.05608829533873233 0.05281675129072372
0.03844135385028203 0.05781996556241742 0.05281798519948361
0.03831575282348414 0.059586193651760766 0.052856896455107216
0.03819154217856449 0.061336097201961204 0.052891530814005605
0.038077234173859976 0.06299821072810635 0.052861766048435566
0.037953149679599577 0.06473811354066039 0.05290616563399253
0.037832772656644614 0.06644243503024794 0.052929688424369736
0.03771827301543672 0.06809326179719927 0.05291664566247528
0.037592631433080524 0.06983270792674828 0.05298816668015699
0.03747590450436061 0.07149343370342737 0.05300134320723737
0.03736583401931662 0.07309466079389165 0.052971812008316466
0.037244974731667116 0.07478113346827248 0.05302483775748168
0.037134000130494026 0.07638154239433326 0.053011713527764515
0.037024402009155834 0.07796653391083808 0.05299346861215121
0.03691616186563564 0.07953633596031096 0.052970147160869174
0.036814755842781 0.0810461048785549 0.05290172222925554
0.03670112874087048 0.08265216898596106 0.05292713265021992
0.036593103955692895 0.08420831183895061 0.05291641377035483
0.03648693200241757 0.0857453909591277 0.052896789107911846
0.03638552953133268 0.08723979864256615 0.052846610383841364
0.03625234563939594 0.08898825291742568 0.053036131903954786
0.036232331867662664 0.08981599907890098 0.05239126645318559
0.03633624796239186 0.08964239794498674 0.05082446332877966
0.036426005209525734 0.08958667250250951 0.04935885170857779
0.03651053994328913 0.0895762187549114 0.047928427847333865
0.03659616858913758 0.08956009802907433 0.04648608618447986
0.03667736083187765 0.08958261620446906 0.0450734192137735
0.03676227219843881 0.08957842986312292 0.043629097577080556
0.036845091718444946 0.0895940214805156 0.04219691016514027
0.0369304256350513 0.08959267707282237 0.040741989338555384
0.0370185751752426 0.08957214731772928 0.039261874242231876
0.03710633615407998 0.08955792838372251 0.0377808703566313
0.03719795235564432 0.08951651385163156 0.03626647404788241
0.037288112571770435 0.08948992596477756 0.034759259513852836
0.0373820004008962 0.08943737441066713 0.033219362504983585
0.037471127805595215 0.08942557063365414 0.03171215748650763
0.037563264642180155 0.0893935161248105 0.03017771985626616
0.03765483573632 0.08936925783061922 0.02864364742897657
0.03774247564995316 0.08937894827574344 0.027136215820192322
0.03782977577501732 0.0893944951696432 0.025627604443785756
0.03792020745901352 0.08938899960756075 0.024090619469937014
0.03801022219124963 0.08939004664890982 0.022552954061008823
0.03810047543346594 0.0893925618658249 0.021009467935657944
0.03819201675327798 0.08938848895855578 0.019451847672670997
0.03828189051630961 0.08940056855844891 0.01790344028972307
0.03837449931335132 0.08939502185134257 0.016329356186756683
0.03845014703210165 0.08952234490840066 0.014886424234292095
0.03853638491157947 0.08957180368905626 0.01335552914376259
0.038639406018915155 0.08949693590447327 0.011686336143624632
0.03871012440207121 0.08967064722798884 0.01027225716159974
0.038799600965401984 0.08970514817861314 0.008703908626141066
0.0388867230769084 0.08976069158739536 0.007150669623067096
0.0389779130002581 0.08978883266086246 0.005560655996996455
0.039078018120412304 0.08975341737689313 0.0038942168393221732
0.04034904359261845 0.014097236264641877 0.052107518436126155
0.04022721290171883 0.015971690396010596 0.05201425748275934
0.040077874441352766 0.018092010569531747 0.05211131041718814
0.03993350491606996 0.020161533309701662 0.05218159464612099
0.03978718771323034 0.022243258275708666 0.05227155853124993
0.039651038707610727 0.024227440817673307 0.052299108517854465
0.039519392588354414 0.02616581482570024 0.05230213297402164
0.03938308315524808 0.02814123226004467 0.05234294761891434
0.039244392845783814 0.030132904754723577 0.05240622346489621
0.03911110331363514 0.03207087107439677 0.052438609417509885
0.0389760570694043 0.03401952767651889 0.05248912152857327
0.038845799944891894 0.03592028548591575 0.0525125699149131
0.03871348448826004 0.03783447119789485 0.052556181509855915
0.03858286902411892 0.03972852814942296 0.052593911894853795
0.03844994698832787 0.04163812565999481 0.05265364941864886
0.03832584649947814 0.0434645405623485 0.052657521014571995
0.03819763287432652 0.04532262670440046 0.05269591822078262
0.03807612911549096 0.04711667093640198 0.052692741815208666
0.037955492871736426 0.04889848423100268 0.052688898995281064
0.037825310131145984 0.050759593802854996 0.052758291410604896
0.037701757688174006 0.05255766500762227 0.0527863123005885
0.03758005549915005 0.054334881669008794 0.05280667676312106
0.037467072745482236 0.05603139855469402 0.052770010523623456
0.037345094663117945 0.05780197932774839 0.052803130932237596
0.03721831247669496 0.059609693737509795 0.05287640777913516
0.037101652368446786 0.06132484893939055 0.05288214228963478
0.03698618175085545 0.0630253018883199 0.05288449830820002
0.03686456505289308 0.06477444718147501 0.05293681484706875
0.0367452906455109 0.0664988175902147 0.052977501702079155
0.036635908944747636 0.06813364958401574 0.052951076354232074
0.03651478591152987 0.0698650413849885 0.05301587675987912
0.03640543185431097 0.07149114319684075 0.05299936994021043
0.03629540055777742 0.07311889273797428 0.052992798882711356
0.03618127302637252 0.07477737956298036 0.053021569515169564
0.03607784703598238 0.0763405821799773 0.052975863876463414
0.03596900020701479 0.07794585176309587 0.05297527170593491
0.03586574336656143 0.07949969915445226 0.05293774315249883
0.035756277139877266 0.08110207330201707 0.05295148477711087
0.03564764817260071 0.08269325458024873 0.052963854472486915
0.035548181951561585 0.08420330628251982 0.0529119164764183
0.035447662032205125 0.08571843455839112 0.05287244248276024
0.03534695201139989 0.08723135288833028 0.052838942386454424
0.03521297450779259 0.08901822352466338 0.05306348542877709
0.03518103417749628 0.0899500182674105 0.052514222645289155
0.035269072454011854 0.08988340424764668 0.05104673127553094
0.035365801817488496 0.08974804746462861 0.04950845746809818
0.03544402482636542 0.08976946376568012 0.048108514936482605
0.03552140544319031 0.08980079151363063 0.046711561659238954
0.03560484145380104 0.08978517367251188 0.04526415956828578
0.035686184031804534 0.08978991228956884 0.04382928027778732
0.03576729628451823 0.08979961477138404 0.04239253221247252
0.03585007583202486 0.08979874713120162 0.04093908589581985
0.03593697739927344 0.08976737277084285 0.03944957005993999
0.03602386449190389 0.08973940208890158 0.03795625219924481
0.03610932939301619 0.08972626835453629 0.036470240984389446
0.03619678831168937 0.08970020755239283 0.034964599729174706
0.03628289943044507 0.08968835011652787 0.03346571309393437
0.03636897602673578 0.08968002707721945 0.03196322090110326
0.036455283076472084 0.0896731042646765 0.030455010792079518
0.03654559669897125 0.08963728040976571 0.028910846053274375
0.036637804655400744 0.0895896996779399 0.027347408187040123
0.036726665041366555 0.08957235283546405 0.025806757505106026
0.03681659622837753 0.08954983033304786 0.024253460403470928
0.03690779419127215 0.08952063445473113 0.02268585841161136
0.03699649636151598 0.08951468693678793 0.021134402458974633
0.03708210803350724 0.08953655300952107 0.019604101199794666
0.03716718689521493 0.08956586298670027 0.018074290386532077
0.03725489928514066 0.08957764646350136 0.01651909439097582
0.03733551819791828 0.08964848526734454 0.015018155038240943
0.037420916783882964 0.08968490519627731 0.013474253179008466
0.03750216192294154 0.08975703387038458 0.011960773490455434
0.037590227760152396 0.08977902594963033 0.01038720108441854
0.03766819843636966 0.08988290981222652 0.008893411024485098
0.03775877422167651 0.08989188544575366 0.0072912499229634276
0.037842073052742425 0.08996064094661838 0.005745705778928634
0.03793842880973151 0.08993167581775491 0.004087203626266078
0.039161562385751345 0.014104250539569707 0.052112638381376475
0.039046280022400646 0.015950815705989885 0.05199893755965357
0.03890205213872617 0.018064440678130955 0.05209096663601892
0.03876055297096346 0.020146900852562266 0.05217073866731864
0.03862370042640278 0.022180437654289287 0.05222469771453381
0.03848411256877779 0.024234144479924447 0.052304136314351435
0.03835522075558639 0.026182902422861754 0.05231501814773165
0.03823053438738847 0.028087595583024094 0.052302283381886916
0.038091856672191664 0.030117055259985093 0.05239414236946183
0.037958877791960374 0.03208842622222341 0.052452063061697585
0.03783526154733158 0.03396824065399123 0.05244960523860043
0.03770534691787554 0.03590122321493805 0.05249780347645466
0.03756858641962268 0.03789203540823016 0.052601013489088466
0.03744837045108424 0.03972585311615057 0.05259181741452468
0.0373167479496457 0.04165933120287546 0.05267034265864279
0.03719295408991029 0.043516220088319846 0.05269842183651191
0.03707455429726261 0.04531915316809082 0.052693154506064266
0.03694876100674379 0.04718467527722425 0.05274714062553887
0.03683181430151148 0.04896506020365282 0.05274243998054057
0.03671308132759287 0.05075705555908916 0.052756239310446595
0.036591953626377 0.05256605185195051 0.05279312935522068
0.03647356008964652 0.05434569087321306 0.052815509590827536
0.03635858893445045 0.05608994403025336 0.05281810585306623
0.03624014966868353 0.05786083556059446 0.05285173878825855
0.03612591886331699 0.059589435067770646 0.05285958784082445
0.03601348534077009 0.06129752859138632 0.05285933885389987
0.035890399616083805 0.06309619542521178 0.05294398512187615
0.03577409849905455 0.0648297216402905 0.052983441530011555
0.03566190022922135 0.06652230434146267 0.05299741887497045
0.035554786882423306 0.06816548647755699 0.05297821740454567
0.03544230248498063 0.06985195470517097 0.05300466146445765
0.03533425070198253 0.07149496043936049 0.05300265870235776
0.035223241261927114 0.07315977561662929 0.05302820679261544
0.03512122378589791 0.07474133822036422 0.05299019033884861
0.03501231195070546 0.07637930830234851 0.053009758339031265
0.03491159543419223 0.07794141943669552 0.05297137204780977
0.034809943862627736 0.07950775989804976 0.05294487270548559
0.034707044403712466 0.08108099659425144 0.052932745203699505
0.03460400402244308 0.0826514479005444 0.05292648831784075
0.03450025273980702 0.08422404202539108 0.05293054714133949
0.03440335952054253 0.08573333197926775 0.05288589774225827
0.03430602946789978 0.08724261357441693 0.05284916628536851
0.03417332925145525 0.08905236864258237 0.053094648927654975
0.034121408223535994 0.09016363992117055 0.05271021024054867
0.03420291858818088 0.09013026830098197 0.05127440152785245
0.03429248449212389 0.09003124653870509 0.04977100254770622
0.03437047218245193 0.09003441126659095 0.04835542231022072
0.034446675523702834 0.0900557898886093 0.046950437582728766
0.0345309069773179 0.09001201508035678 0.045477767137772074
0.03461098111287946 0.09000671735559385 0.044034501221596634
0.03469142748126846 0.09000139500392429 0.04258452613573177
0.034771074672263466 0.0900059412568121 0.04113725757121828
0.03485134115119233 0.09000838362901248 0.039681285367975716
0.03493409502009354 0.08999308857843746 0.038201422690719855
0.0350171577728602 0.08997843243695841 0.03671520687548119
0.03510488959126695 0.08992802969715308 0.035187068311264336
0.03519074289494686 0.0898966920086719 0.0336702155637183
0.035277966628345876 0.08985731043376732 0.03213814031487172
0.03536536358116045 0.08981989071307078 0.030600591230432406
0.03544909777254897 0.08981617104938522 0.029089186778438303
0.03553480577526184 0.08979942610301667 0.027557573432486715
0.035622249341747333 0.08977173252051601 0.02600758932591668
0.035704022625731226 0.08979401403152398 0.024500696081096007
0.03578990314841141 0.08978582947437835 0.022955757722837533
0.03587878683349665 0.08975644333972604 0.02138172030337837
0.03596766446490893 0.08973056919193423 0.01980360704455769
0.03604895998528192 0.08976983661151716 0.018285119693192575
0.03613497031504917 0.08977400871088126 0.016723105331025778
0.03622020914230094 0.08978777748311806 0.015163620568787617
0.036305576798832465 0.08980382641083984 0.013599086226940782
0.03638510293200802 0.08987026565113276 0.012080247875035421
0.0364660849538922 0.08992810136042029 0.010545306919857611
0.03654613132215129 0.08999659390242293 0.009014603735812754
0.0366312757042086 0.09002742842953626 0.0074364905087832
0.036714947791403225 0.09007332735314344 0.00586707711468587
0.03679524651463632 0.09014933624451538 0.004322847907754723
0.03689713024084826 0.09005708740980756 0.002588388114147744
0.037968969964164934 0.01416135758991971 0.05215432211643117
0.03785926581299587 0.015987593043346793 0.052025928636222074
0.03772238778103039 0.018072318082859418 0.052096779458826736
0.03758437407607519 0.02016250855320434 0.05218231834729892
0.03744857021711091 0.022225863810096336 0.05225858332365607
0.03731882376503556 0.02422552520707516 0.05229767197045215
0.03719205081726082 0.026191445557090465 0.05232146027193063
0.037067217233225966 0.02813370509539237 0.05233724109929583
0.03693336212359653 0.030157142049510643 0.05242469833608554
0.03680366707726977 0.032135539420890036 0.05248816882049906
0.03667035866732751 0.03414310365504686 0.05258433629093917
0.036551767896766875 0.03600558554256017 0.05257864743463081
0.03642501909415179 0.037940590263613794 0.052638828842631824
0.03630781874447946 0.039780235153552335 0.05263439876888637
0.036184064265916915 0.04167700045984046 0.05268425210787131
0.03606375505957146 0.043536362022913444 0.05271436285229486
0.035944797703319584 0.04537819180347119 0.05274012992711674
0.035824052162142725 0.047232003785945664 0.05278500021149224
0.03571195822075725 0.04900004458282664 0.05277057476450214
0.0355927693231574 0.050829800289727334 0.05281505375334089
0.03547635367846158 0.05262894024726683 0.05284424623723388
0.035367763726775095 0.0543506794449069 0.052819586084618786
0.03525601320472569 0.05609736370652002 0.052824201214257405
0.035139843363476156 0.05788044950720911 0.05286793749751789
0.03503698795295295 0.059535940139970045 0.052815173077292166
0.034916934497615994 0.06134573757593231 0.05289957759810343
0.03479900012284173 0.0631312322649728 0.052973384597618245
0.034688829756272396 0.0648407741522406 0.052992764923066094
0.03458046662129754 0.06652934962102508 0.05300339345045629
0.034473883412898115 0.06819731693397607 0.053005352967192665
0.034371503817845275 0.06982269828747345 0.05297958859089785
0.03426401946696551 0.07149037953106913 0.05299871217801955
0.03415545291252794 0.07316356043801964 0.05303148483020087
0.03405719296111775 0.07473908526931672 0.05298822889662991
0.033946551386587386 0.07642249129766698 0.05304755360398594
0.0338525205151759 0.07795176102273982 0.052980471073600266
0.0337504522362196 0.079549522735257 0.052981810688700226
0.03364624434867175 0.08116237958676159 0.05300510427204547
0.03355080777896939 0.08269253369206525 0.0529632103163698
0.033454310005194596 0.08422833174721722 0.05293440143876754
0.033363141904010796 0.08571275874038187 0.05286731631462682
0.033265344473187984 0.0872524659600657 0.05285811155835651
0.03313219801142159 0.08910183019279105 0.053139791360655275
0.03307138139810727 0.09030565060027879 0.05284049823772191
0.033134946186601684 0.09040862076515627 0.05153111194083543
0.0332307133848968 0.09023041330458598 0.049955643905093605
0.03330932957984799 0.09020682398355612 0.04851609557124037
0.03338305698041891 0.09022927113967472 0.04711295038698715
0.03345879290109771 0.09023710445827732 0.04568972489060241
0.033534149337214894 0.0902512935050459 0.04426600939943748
0.03361049235891254 0.09025991634531844 0.04283050920831877
0.033689862544822285 0.09024529909179252 0.04136619234518685
0.03376887439992203 0.09023697729326524 0.03990106240540242
0.03385276538962212 0.09018962436550393 0.038391360990850776
0.03393336766990223 0.090174023540803 0.0369052147213671
0.03401592706198938 0.09014481011387054 0.03539875463769587
0.03409780806115116 0.09012474078028337 0.03389406173652959
0.03417866373053601 0.09011674784783874 0.03239411827951638
0.03426057540239896 0.09010297468073963 0.030881349269500202
0.034344820996493 0.09007258470397733 0.029344812170085277
0.0344310929142467 0.09002833609270527 0.027786962372434998
0.03451779934202439 0.0899838646226474 0.02622126643686562
0.03460408707926303 0.08994642256707996 0.02465500956133254
0.03468796699922966 0.08993279143144411 0.023105326679391025
0.03477069795789113 0.08993221494781956 0.021561535444076352
0.03485226057860303 0.08994478681910134 0.0200238859209505
0.03493656370712998 0.0899376451660095 0.018458568416153065
0.035020749321540354 0.08993487379350978 0.016890236440366524
0.03510393135152614 0.08994386330453585 0.015326623971379738
0.03518449871248886 0.08997797159328658 0.013781888499838801
0.035260278280889054 0.0900550969157573 0.012275269044443204
0.035344603440394085 0.09006443557334565 0.010689899752508392
0.035424036619892046 0.09011761136152319 0.009143614164575709
0.03549715714508775 0.09022604782032217 0.007649320338035226
0.035587783109954176 0.09019338102347108 0.005996383514615344
0.03565366998169462 0.09036741993294439 0.004558950421887531
0.035758079754868215 0.09022867365915183 0.0027751087935212193
0.03676915889627527 0.014294538781501831 0.05225153399670007
0.03666891517315255 0.016060132227174617 0.05207916544154628
0.03653853531469328 0.0181225290974088 0.05213383030503821
0.03640477340194371 0.02021322453954344 0.05221994542833436
0.03627509595582842 0.022257751906290035 0.05228237024941812
0.0361492332894965 0.024259041778164514 0.052322809341947385
0.036023474499190855 0.026254083353003 0.05236869309131048
0.03590315536647485 0.0281901494318485 0.05238003409942188
0.03577371336777156 0.030211198213752566 0.0524659023660064
0.035638823451982694 0.032280494999529175 0.052599257088016105
0.03550978740999873 0.034286708052586656 0.05269498276209622
0.0353987898000477 0.03611079181456167 0.05266014515106904
0.0352834278867762 0.037972952544808036 0.052664033167707014
0.03516297199526074 0.039880039377361176 0.052712545813270284
0.03505149783426337 0.04169466788773085 0.0526981601172305
0.034934329581219045 0.043560003870434405 0.05273307380528658
0.0348165100083079 0.045426796341110964 0.05277880323688955
0.03469832684508379 0.04729222080688372 0.052833169708721095
0.034589333039379194 0.04906402152101125 0.05282202558629756
0.034475316934581314 0.05087968810846577 0.05285538830452835
0.0343637064673365 0.05266749991768693 0.05287558830008726
0.03425143039476069 0.054457068207574455 0.05290652181506361
0.034145480019337954 0.05618143083429772 0.052893262642899064
0.03403949869555493 0.05790169528728606 0.05288548389405057
0.03393128279986447 0.05963886133907004 0.05290062478900581
0.03381412623878125 0.0614565635537479 0.052992080960830634
0.03370976922321933 0.06314795163810721 0.052987413895613844
0.03360688821428087 0.06482103672102524 0.05297611555245901
0.03349676141716057 0.06655831054700112 0.05302795279987588
0.03339558623097626 0.06820663188104081 0.05301329404519395
0.033292155982818886 0.0698719688529707 0.053021813889646774
0.033191235092817725 0.07150946527638141 0.053015155263578806
0.03309229866516508 0.07312419271093817 0.0529973893238978
0.03298985174912203 0.07476761894408102 0.05301307171259495
0.03288931497070327 0.07638898814238054 0.05301823061709787
0.0327926440157453 0.07797022646964846 0.05299671779975884
0.032689121819433196 0.07961104706862682 0.05303622708692163
0.03260138935672574 0.0811013462950329 0.052950838628213814
0.032504606866343974 0.08267163166079555 0.052944528449613226
0.03241064630107952 0.08421188670228147 0.052919626030419
0.03231599366759847 0.08575461136727103 0.052905117202500296
0.032219669394253594 0.08730875314642084 0.0529092159744754
0.032098490039141954 0.08908650573963878 0.05312580518868398
0.03202593118327776 0.09041500876677244 0.052940829137301304
0.03207735631192843 0.09061028611682126 0.05171709772771915
0.032167099463950015 0.09045919009676262 0.050167735790710766
0.03223983956026232 0.09046610754659457 0.04875772466300715
0.03231236975845022 0.09047794187632124 0.047345898743378745
0.03238685326149335 0.0904751400597773 0.04591387358436938
0.03246323704694947 0.09045830144894068 0.044461956695299676
0.0325395129267228 0.09044560070883034 0.043007187916377254
0.03261363488378005 0.09045538529632902 0.041567130159902654
0.032689909881098454 0.0904489741341375 0.04010488274848045
0.03276828651588962 0.0904269601388819 0.03862072964860702
0.032846800904970726 0.09040696925206759 0.03713151084907235
0.032925452323124584 0.09038901648828201 0.03563722243174988
0.033007215985850664 0.09034672911411884 0.03411195915868731
0.03308857837167373 0.09031138229451319 0.03258615741013404
0.03317286135411615 0.0902536337498912 0.031030770508141847
0.03325406365140396 0.09022650525464965 0.029498259577840358
0.033332957127274895 0.09022302507151064 0.02798205871456305
0.03341428657533092 0.09020146937842194 0.026440456057511053
0.03349775356538835 0.09016459876022997 0.024875912683523183
0.03357556152683333 0.09018054679504739 0.023357476978756397
0.03365615695798735 0.09017546740906507 0.021810383761688312
0.033736972175747254 0.09017182249255712 0.020257345521935644
0.033818851965126934 0.09016231016918075 0.01869078454111406
0.033903081929203105 0.09013589043652215 0.017099083071223764
0.03398628266902989 0.09012183377834171 0.015512481920019527
0.034064665798936904 0.09015264663390887 0.013965246970749468
0.034144616361381386 0.09017326662400021 0.012399953585758627
0.03422667284775796 0.09017918392862906 0.010811599152652285
0.03430582245458223 0.09021331506007363 0.009245638929262001
0.034375739142319464 0.09032934233091605 0.007760005215561583
0.03446224337757482 0.09030737813858664 0.006119166576075696
0.03453614582925112 0.0903957767205959 0.004589650236752951
0.03462505351111877 0.09036041124738653 0.0029184660630456882
0.03558238077588359 0.01430154555589791 0.05225664846710676
0.03548018741073192 0.016120725158145832 0.052123634855244294
0.035356057604625034 0.018161900596381564 0.052162882659188115
0.035223514518383084 0.02028439810701732 0.05227275031737416
0.0351020171148295 0.02228770225018506 0.052304711713452745
0.03497519434283328 0.024340413246589254 0.05238383769611349
0.034856791444521466 0.026301521565711306 0.05240446449199587
0.03473909543691346 0.028250336944023458 0.052425664964961205
0.03461359717347085 0.030273621806414575 0.05251348441277148
0.034488457901045835 0.032287877969052525 0.05260491517925303
0.034357014141974174 0.03436075067705463 0.05275203227182912
0.0342559979485235 0.03611985824308539 0.05266716850282427
0.03414374060042723 0.03798823257082423 0.05267593356694372
0.03402673900930734 0.03989963687920001 0.052727890785800646
0.03391211578613034 0.04178209512002351 0.0527669835670001
0.03380209731544928 0.04361340493565968 0.05277533710553606
0.033688980044373734 0.04547104900560439 0.052814013886436306
0.03357859572852332 0.047296521105462674 0.05283660972607873
0.03346397638687022 0.049159514850802444 0.05289882213139552
0.03335845482099397 0.050927025394891356 0.05289366074156937
0.03325815298830066 0.05263816168633978 0.0528517417440334
0.03314989864549554 0.05442382899191023 0.05287936044577851
0.03304001460079633 0.05622097682627253 0.05292574985038756
0.03293747680363435 0.05794091105336874 0.05291787121776742
0.03283063876936499 0.059698800939550656 0.052950390482731036
0.032726942825965874 0.06142123590240095 0.05296259405734044
0.032625036713401806 0.0631216773082442 0.05296536719741818
0.032522149293310744 0.06482735284031499 0.05298144357577367
0.0324236780485321 0.0664855064522259 0.0529662139918311
0.03232197504766103 0.06817092113479983 0.052982850693852
0.03221797769163826 0.06987427794085677 0.05302379287453124
0.03212338384353203 0.07148198083369328 0.05299147658194936
0.03202104961119389 0.07316053232687869 0.05302886240640814
0.03192612934957224 0.07476311387037843 0.053009149468382755
0.031829837660834234 0.07637484011357137 0.05300584787618162
0.031735661775411754 0.07796210181513091 0.05298956948246547
0.03164165960036241 0.07954366178021982 0.05297662702342809
0.031544871917020045 0.08114784992677465 0.05299218587058763
0.031452674199333924 0.08270406436782546 0.05297351643995735
0.03136288984991921 0.08423333619075657 0.05293889797914836
0.03126876722925307 0.08579999751320722 0.05294610952363199
0.03117750664369859 0.08733548200784103 0.05293348375871648
0.031068576837299397 0.0890342514925116 0.05307811409459845
0.03099041819198718 0.09043783901027191 0.05296177486188414
0.03101021435542873 0.09091537345578837 0.05199846435651401
0.031105146383689147 0.09068760965235811 0.0503794964933465
0.031179434638544414 0.0906574871991207 0.04893607340523087
0.03125109788735866 0.09065510618833339 0.04751186174300348
0.031321294923547315 0.09066948172938094 0.046096877449515405
0.03139225913020202 0.0906797210678168 0.04467154562931491
0.031463772214451464 0.09068790170405072 0.04323773733376979
0.03153773645775782 0.0906764253312492 0.04177854480603821
0.031610067111548595 0.09068322640014509 0.04033010013863292
0.031688475057952345 0.09063705273335404 0.03882376966282536
0.031765502229696055 0.09060694965997718 0.03732578270159542
0.03184035213642313 0.0906001433932277 0.035843388099523976
0.03191718766462262 0.09057835122636054 0.034339312819070544
0.031995878831838076 0.09054288898129942 0.03281457709739449
0.03207346772590428 0.09052085127110782 0.03129579247058856
0.03215261686108162 0.09048794290232842 0.029758893515758778
0.03223160277781783 0.09045990778181245 0.028219437052939333
0.032313447065325525 0.09040937358980317 0.02664987448659112
0.03239322612737904 0.09038100390854792 0.02509502262567559
0.032474687396980714 0.09034089190954536 0.023520666491312847
0.03255251663804901 0.0903369268918271 0.021975557541875024
0.032632507081285 0.09031691163230143 0.020406539964163584
0.03271019758039707 0.09032090477779814 0.018854709635908795
0.03278916114014266 0.09031686268665778 0.017287104551035104
0.032870485124906736 0.09029518371027223 0.015693514551432364
0.032948900129657246 0.09030283314213355 0.014122899551523238
0.033026691514523886 0.09031936974860799 0.012554111520963362
0.033100169475214616 0.09037737567048043 0.011021796566630715
0.03317515061878063 0.09042527260099126 0.009471595778986375
0.03324203944150065 0.090547581553586 0.007993858588190184
0.033325374077591154 0.09052841356629399 0.006357237471599164
0.033407169108792156 0.0905262966473287 0.0047309542117032755
0.033488511013379386 0.09053164247790202 0.0031048004098335746
0.03429370843618773 0.016161440277103423 0.05215351588174322
0.03417383503873305 0.01820126360012625 0.0521919287446822
0.03404720141395372 0.020307791468155867 0.05229010630388675
0.03392904217819162 0.022318613521806918 0.05232776997922467
0.03380619719812634 0.02437390835779152 0.052408958972740116
0.03368970196557096 0.026356534106512453 0.052445947400944104
0.03357836667031638 0.028279482878397655 0.05244776185094374
0.03345592311836451 0.030314604354796326 0.05254472316558717
0.03333094939729022 0.03237091599192732 0.052668552294476256
0.0332096040045294 0.0343835969206705 0.052769635253294256
0.033112054322997554 0.03614161587768139 0.05268402304915859
0.03299530171957248 0.038096053699555876 0.05275990641521572
0.03288952590440692 0.03993081016849914 0.05275229962999339
0.032781626990035125 0.04178297789718399 0.0527676785735855
0.032670473938147544 0.043664164134432804 0.05281550955254305
0.032562247731355305 0.04551008582940691 0.05284507444165237
0.03245889329707104 0.047300821293872974 0.052840049655307086
0.03235619289156247 0.04908022495123371 0.05283505666578037
0.03225652160643361 0.05082388009841221 0.05281026749421058
0.03214856886028754 0.052648220965456516 0.052859918183298715
0.03203922970454206 0.05448199294117345 0.052926889236327046
0.03193972726581975 0.056210267276089465 0.052916952008018936
0.031841000984345384 0.05792620611782906 0.05290572688704087
0.03174057710082267 0.0596550632570545 0.05291407679599863
0.03163825643629155 0.06139875059325095 0.05294382629065053
0.031535258994385 0.06314476692211174 0.0529847417614418
0.03143987167465434 0.06480919295417831 0.052966124938570336
0.03134296611986768 0.06648472333697752 0.052965549979299587
0.031241802215525524 0.06819886919651236 0.05300667651276275
0.03114749014325948 0.06983963654354175 0.052994105035900685
0.03104758214416163 0.0715323650091792 0.0530348843069417
0.030949976162802414 0.07319762023035248 0.05306098356550071
0.030862075164598383 0.0747616120878199 0.0530078420281358
0.030765032645368506 0.07641281310876291 0.053039083176917634
0.030677211946054612 0.07796801053783198 0.05299476829632521
0.030588635756463627 0.07952681071184642 0.05296172287080281
0.030497265969942924 0.08110933995813546 0.052957946091924946
0.030408483689303666 0.0826622606978456 0.05293615297540427
0.030316154226049028 0.08424620436918284 0.05295045982033947
0.030221283840677717 0.0858510403758776 0.05299221092546025
0.030137467621592112 0.08734321834341158 0.052940507824801475
0.030034025205382345 0.08902379834100499 0.05306857384083846
0.029952800738996775 0.09048279734145093 0.053003022034242064
0.02996505553845767 0.09102728647454567 0.05210167612856714
0.030044209072706694 0.09092190661944849 0.05059670596003368
0.030116120597571624 0.09089028440938463 0.04915301959341217
0.030183055567310685 0.09091001319704806 0.04775065207640938
0.030248627722737315 0.09094586834493712 0.046357139759401755
0.03032028881478364 0.09092597144988934 0.04490463858268079
0.030392436056878122 0.09090457866261731 0.04344390548722127
0.03046309631777539 0.09090064335532633 0.0419929990515121
0.030534380240566893 0.09089387373875557 0.04053262302865046
0.03060843845126388 0.09086378351594043 0.03904288933204464
0.030680999337181235 0.09085123510998394 0.037563094863317215
0.030753755776139244 0.0908400454494982 0.03607765272347396
0.030828733245636574 0.0908110289998032 0.03456770268582382
0.03090769573618731 0.09074765252038214 0.03301661025090452
0.03098463890450764 0.09070682713741363 0.03148024031791169
0.031063336873795158 0.09065289641761082 0.02992333996648261
0.031140828277143495 0.09061378388003094 0.028373635137948272
0.031213323798680182 0.09062490646519761 0.026866977137507686
0.03129079349772558 0.09059275644128145 0.02530942180228135
0.031367949773750826 0.09056696281841325 0.023750747683263962
0.03144135183016583 0.09057950830667982 0.022223719376104345
0.03152097837892277 0.09053755041132516 0.020633421674395747
0.03160085163658985 0.09049683861866809 0.01903655673693272
0.03167265691028262 0.09053417310199569 0.017512879619895505
0.03175115326626749 0.09051304883444394 0.01592103521904309
0.03182692145959264 0.09052047716960326 0.014351363054701416
0.0319080333254393 0.090482272387717 0.012725995132825796
0.031973011310714027 0.09059522456330138 0.011252841873766961
0.03205049190454886 0.09059698487706491 0.00965464927599674
0.03213079315176473 0.09057650712326848 0.008024853757569783
0.03220797690369327 0.09058789460038263 0.006421302857351485
0.03228602597529892 0.0905948661077503 0.004805189189328096
0.032354123828023613 0.09069520902740813 0.0032827940320274696
0.03310946405059256 0.016180305139790963 0.052167360938169316
0.03299480393831318 0.018208151167768027 0.052197011165436624
0.03287448500150466 0.02029317080461912 0.052279259074932305
0.03275626824897394 0.02234951949629499 0.05235082429359911
0.0326391599076255 0.024388261432354674 0.05241972379800808
0.03252660425072502 0.02637170692054508 0.05245738871058936
0.032415509343013675 0.028334001209545934 0.05248909466203289
0.032299882466490924 0.03034067916392441 0.052564598592929335
0.032184992868838753 0.03233401491381016 0.05264027285282169
0.032072262962849575 0.034298593271344824 0.052704140488873064
0.03196892250776095 0.03615611941797986 0.05269525823888799
0.031865000815577395 0.03801519399813902 0.05269693170053846
0.03176010340022536 0.03988003908023713 0.052712545813555445
0.03164852379629981 0.04181211013957953 0.05279061177073541
0.03154569522317134 0.043644912296841254 0.052800273142461995
0.031444825834537074 0.045451960805378944 0.052798826111163544
0.031342190317362156 0.04727329746075021 0.052818032585825125
0.031246606085465117 0.0490145478025828 0.05278223867866577
0.031144465468961244 0.05082134283673018 0.052808216188058144
0.031044250858117354 0.05260294885204947 0.05282312028530711
0.030949298002496427 0.054324071077721914 0.05279784335468962
0.030846832933799345 0.05612044490462487 0.05284316279100837
0.030751922486744434 0.05783222702628976 0.05282811216716704
0.030645843950016273 0.059657493337761214 0.05291609448079915
0.030548349809184448 0.0613875067118802 0.05293444142314352
0.030449958105851913 0.0631224733704494 0.052966035332394246
0.03035626524763726 0.06480366555493694 0.05296146239757166
0.030259254726439495 0.06651525818125814 0.05299144403338968
0.030164126602226594 0.06820275039821788 0.053009985319727504
0.03007151651357086 0.06985965235970137 0.05301125881040675
0.029974037710113307 0.07156289290555001 0.05306118518648972
0.029882297424154828 0.0732021609142533 0.05306491624020687
0.029792785683432382 0.07481416242202515 0.05305359485687122
0.029703087388457096 0.07642397978150989 0.05304885669888498
0.029624828050905567 0.07791186745679762 0.0529453714311392
0.02953192999766927 0.07954659200916775 0.05297921888086993
0.029448612903941972 0.08107881562654551 0.05293080647740439
0.029358717220444294 0.08267451458461694 0.052947105413145235
0.029269718849826095 0.08425692698928372 0.0529600939272622
0.029187315559962127 0.08576808657931884 0.05291728810412788
0.02909665254164537 0.08735939310892732 0.05295519332089066
0.02900221873272007 0.0889847669211618 0.05303295089870669
0.02891003549667547 0.09058303934295764 0.05309498929421108
0.028916253882808187 0.09118395871231011 0.05224616705314339
0.028984971015879706 0.09115582832394242 0.05081356753238214
0.029056154748711017 0.09110607200516341 0.04935411434758874
0.029121656569426464 0.0911165374848732 0.04794411873661647
0.029189125772363687 0.0911103351812576 0.04651201168841257
0.029255229164674396 0.09112085831792516 0.0450891124489784
0.029320578491901915 0.09114192303749641 0.04366973868144841
0.029390315155115924 0.09112241390566328 0.042205112401550116
0.029458256116668875 0.09112389999162851 0.040753777400097446
0.029531216134019555 0.09107888752688592 0.03925077253253234
0.02960339222897826 0.0910449566935983 0.037751286555832986
0.02967505816714751 0.0910193596496569 0.03625275326150407
0.029746493280213247 0.09099931904944786 0.03475252284606023
0.029818491187992083 0.09097704621513636 0.03324294512214315
0.029891641863076347 0.09094681520774678 0.031718256565952896
0.029965666119693035 0.09091142696955457 0.03018107574637735
0.030040205447619484 0.09087442825357306 0.028634824846187845
0.03011444933894051 0.09084371829098414 0.027087382618582734
0.030190476666406153 0.09079915469594801 0.02551839978126913
0.03026239651216026 0.09079774503649729 0.023985623756421937
0.03033706703165725 0.0907731391468154 0.022421804580594618
0.03041308983064018 0.09073896564004474 0.02084053591609686
0.030491090453232214 0.0906893202582052 0.019235507810386798
0.030565520534211157 0.09067740666219509 0.017661692433096676
0.030643231371143408 0.09063760686159966 0.016051113564123587
0.030717172888449516 0.09063725369608472 0.014473944798755634
0.030790774609442254 0.09064352202078363 0.012896134607815912
0.030856010830522248 0.09073241346033223 0.011398341163041337
0.030920586206684034 0.09083054492456344 0.009903635417439327
0.03100255075022168 0.09076771741186074 0.008229744395835847
0.031081318063741377 0.09073871935175232 0.006583751887814793
0.03115842314952376 0.09072893089981732 0.00495033091671343
0.031229373203543225 0.09078028083287165 0.0033753694832296954
0.03192266327108194 0.01622994041391912 0.05220378849386059
0.031815130903840735 0.018222909483043226 0.05220790142066206
0.031701077698315025 0.02028537258763352 0.05227347352865547
0.03158394896023379 0.02237752345174615 0.05237171385377065
0.031474231312763376 0.024379649562732975 0.05241326500647636
0.03136468955210407 0.026374551597091456 0.0524595338478856
0.031254003011707894 0.028377227951151107 0.05252186682457949
0.03115215492529461 0.030274553033922347 0.05251419446542416
0.031039448484331038 0.032289723386914826 0.05260632966517076
0.030931852677474694 0.03424190110669095 0.05266045956680121
0.03083394355915582 0.03607996167464739 0.05263626300961466
0.03072720506205135 0.03801249792578271 0.052694832034971495
0.030627324623500006 0.03986311197876907 0.05269929192675832
0.030530066613805803 0.04167965021172382 0.05268633840148562
0.030421102681121755 0.043622157326708766 0.052782264247075106
0.030325147936386545 0.04541464610171769 0.052769135953624424
0.030227550248481894 0.04722081773937714 0.05277605254548812
0.03012619273887701 0.049064021131117574 0.052822025586527876
0.03003415098440826 0.05079935235698818 0.05279043688839735
0.029944874148240156 0.052499782829987074 0.05273926519153582
0.02983837968014895 0.05438559540017668 0.052848118076524175
0.029740360761182794 0.05617319047617386 0.052886493485128194
0.029644771540909547 0.057929473783003116 0.05290842572219656
0.029549276686963246 0.05968017312697682 0.05293492474315853
0.02945557183475066 0.06140678119694526 0.052950529365741794
0.029362605575844872 0.0631208807667129 0.05296469905911605
0.029268917079948567 0.06483840532726293 0.052990767107614634
0.02917770080576852 0.06652465226738336 0.052999410429603044
0.029088270612593257 0.06818722454613152 0.05299674960222922
0.028995680408854637 0.06987966561755021 0.05302841039241235
0.028905023401596695 0.07154686636331914 0.05304737786751046
0.028818028782100092 0.07317037258477921 0.053037385095920486
0.028729247149298427 0.07480890809249541 0.053049020275926784
0.028646296709093196 0.07638079701992084 0.053011061800905646
0.028562164071546676 0.07796136291946959 0.052988919616372976
0.028474193520119664 0.0795788227309508 0.053007726011013834
0.028402072581848785 0.08102356550401185 0.052881682746593384
0.028311278438789042 0.08266298136426742 0.052936797261025126
0.028225587065126984 0.08424405955152031 0.05294853291577151
0.028142024027330646 0.08579857912938577 0.05294482870276812
0.028056418417606914 0.0873706440483542 0.052965408370550415
0.027969143519367082 0.08895618374952968 0.053006863817863514
0.02786699715541174 0.09069357152031149 0.05319639729164155
0.027872659634072407 0.09129773391204649 0.05235109621991818
0.027927362018334553 0.09139006608087796 0.05103072210691928
0.0279980194631782 0.09131877175881808 0.049552331509954806
0.028058753754134656 0.09135399189099319 0.0481665599260967
0.02812082462674211 0.09137824200549766 0.046764288917612584
0.028190377131211402 0.09132803297546771 0.04528521755023335
0.028252152729967617 0.09136142032437422 0.04387859037624231
0.028317598070252584 0.09135995191609136 0.04243230659690722
0.028382937571882497 0.09136268719615137 0.040983354818580175
0.028454274773108124 0.09130704478049123 0.039471270786806456
0.028522591841776683 0.09128568967606676 0.03798514765855582
0.028590267635918595 0.0912741312600921 0.03650153801567946
0.028661398655461447 0.0912306187545035 0.03497956004045033
0.028731134990170038 0.09120465864711724 0.0334675224832196
0.028803461850535853 0.09115576909914541 0.03192549363409575
0.028874952194660918 0.09111877983478872 0.030387791187828916
0.02894722448977719 0.0910773082052454 0.028838129295311543
0.029020073649237563 0.09103347355830516 0.027278519928255474
0.029091138022534435 0.09101102285852114 0.025732916032616793
0.029162695482349406 0.0909870180445132 0.024178254303131863
0.029234171146190504 0.09096723751334929 0.02262036806629214
0.029307017329352297 0.09093720110482095 0.021044380424330933
0.029382496013048334 0.09088445936874151 0.019437205672690194
0.029451524686875244 0.09089928756851112 0.017892216019881113
0.029522873246411552 0.09089444732727125 0.016319336899449255
0.029596795860775023 0.09086759539221806 0.014715737188370215
0.029672507624521654 0.09082664483506842 0.013089353138918125
0.02974515721912428 0.09081938052675997 0.011490576407674646
0.029812662350006656 0.09086598968189213 0.009941421305222575
0.029883805156674922 0.090880251391387 0.008350329784868882
0.029961527029983608 0.0908337406862385 0.006686096690924959
0.030032465416527945 0.0908569224508331 0.005088897613800825
0.030102818680744697 0.09088916018430676 0.0034938523636379726
0.030734354113869784 0.016301391661714015 0.05225622685947068
0.030637205802553073 0.018217990040231002 0.052204271433703486
0.030527619941155836 0.020277574035333867 0.052267687733607016
0.030412707325202282 0.022394902991318744 0.052384678156208564
0.030304718758551976 0.024424617467688814 0.05244699083275184
0.030201910088847688 0.026387826525990477 0.052469544035641524
0.030098520580007577 0.02835279658160539 0.05250334441014448
0.02999100575110661 0.03036116368722619 0.05258021293880216
0.029888502240095014 0.03230541111292906 0.052618352191477424
0.02978786863709061 0.03422269467645872 0.05264566119573533
0.029687600071030676 0.03613073705264497 0.05267559604064176
0.029589622749252312 0.03800710575402494 0.05269063260529183
0.029492443141934853 0.03986934833805178 0.05270417508993169
0.02939597583666168 0.04171851565413226 0.052716933646573705
0.029294243944807372 0.04362390771138164 0.052783649632535734
0.029202819941676405 0.045405099081715194 0.05276153974273329
0.029107339935989192 0.04722856156853944 0.05278224714726776
0.029009000079583572 0.04908022465881673 0.05283505666594429
0.02891537003450881 0.050872924037615064 0.0528499199230798
0.02881905199553349 0.05269180422654657 0.052895343667246186
0.028727731853376806 0.05444875857548437 0.052899731988077014
0.02864276514460992 0.056128687344813466 0.05284993413385919
0.028542154639982133 0.05798256715856448 0.052952274189555226
0.028450654139663387 0.05972795237566292 0.05297459415036432
0.02836264156177922 0.06142926519255082 0.05296929619524471
0.028273764325126155 0.06313600886382414 0.05297739311812427
0.028184323471118534 0.06484472075705211 0.05299609454929244
0.028096558546200683 0.06653013185406692 0.05300405727567303
0.02801058169025873 0.0681911060349582 0.053000058653965954
0.027924099740653754 0.06985349370279509 0.05300598095942144
0.027838968838170886 0.07149648669209552 0.05300397418440955
0.027750761938561564 0.07316961554915291 0.0530367295235879
0.027667828609822958 0.07477963111654434 0.05302353046965741
0.02758739926222401 0.07635771154657411 0.05299085671337078
0.0275031072493254 0.07797465740375464 0.05300061672108208
0.027424624447227507 0.0795231469316785 0.05295848261841629
0.027342638904879403 0.08110643287753388 0.05295536160292874
0.02726199259955575 0.08267091039356395 0.05294388420051033
0.027179869513533017 0.0842476338340652 0.05295174440763045
0.02709533112130288 0.08584678719236954 0.05298836974647103
0.027018062628140313 0.08736220576488951 0.05295774715601792
0.026933185169598684 0.08895688087328724 0.05300750014836375
0.026830132305467592 0.09074535467273914 0.05324390590654576
0.026831653202241425 0.09139213440341776 0.05243815707792698
0.02687291130017498 0.09160807326951559 0.05123282982962496
0.026936378181473423 0.09158576588587547 0.04980114615456366
0.026997642960571517 0.09159036766942513 0.04838799068510813
0.027060089474161348 0.09158527144264939 0.04695924034560495
0.027123926497279828 0.09156832151056993 0.045512667206359436
0.027184942352569092 0.09158477243722718 0.04409110993675208
0.027246821504544202 0.09159500664297981 0.042657125646407
0.0273088516987688 0.09160668868743271 0.04121794541186696
0.027378025588168268 0.0915453834235343 0.03970160864785138
0.027443572209888002 0.09152602602051102 0.03821862344554505
0.02751063263207133 0.09149386795473757 0.036716111148846264
0.027577954639893574 0.09146226016604747 0.035206932643905564
0.027647827367961588 0.09140707746146831 0.03366724217799666
0.02771480904833524 0.0913857714087471 0.03215360617132368
0.027782116066370616 0.09136436187021463 0.0306326182617766
0.027850160468486363 0.09133855748589742 0.02909992517574589
0.02792135250188968 0.09128322926919707 0.02753009465194889
0.027992012711484465 0.09123696481227195 0.02596168197356169
0.028062268888025106 0.09119839575688049 0.02439338166107824
0.028133366336173322 0.09115457282459116 0.02281201291982432
0.028203634507199808 0.09112284808271942 0.021235280262366207
0.028274887958474573 0.09108442476838241 0.019643892036231125
0.028346643820198622 0.09104434963779906 0.018042928565015492
0.028418338242626223 0.09100845380785866 0.016438396069626215
0.02848953881257999 0.09098116530544104 0.014834952913946986
0.028557363432673562 0.09099192007154144 0.013263740149798697
0.028626305258800725 0.09099463141430075 0.01167644331247053
0.028693261343821306 0.09102095976564689 0.01010662683439395
0.028754925624600712 0.0911043207228896 0.008590430384182501
0.028833532350743544 0.09101915125954924 0.006885797097843094
0.02890800828304892 0.09097959974178865 0.005221710970843452
0.02897444251067346 0.09102477297334288 0.0036414266355929703
0.02954259205290332 0.01642140684234067 0.0523443064441933
0.0294548796600207 0.01826717736798883 0.052240566900064844
0.029346855918004167 0.020359440936288553 0.05232842617840899
0.02923609976602526 0.022479845919192443 0.05244804120722096
