# .PCD v0.7 - Point Cloud Data file format
VERSION 0.7
FIELDS x y z
SIZE 4 4 4
TYPE F F F
COUNT 1 1 1
WIDTH 772
HEIGHT 1
VIEWPOINT 0 0 0 1 0 0 0
POINTS 772
DATA ascii
-0.011535883853772048 0.02780308895647876 0.045272669349330885
-0.011561695846161629 0.02789658078159396 0.0436707516499063
-0.011020683754943725 0.007881148477471234 0.055728343063867036
-0.011006493839130821 0.006591739509246797 0.0551335768869165
-0.010992278960243292 0.005303475578391004 0.05454183230050591
-0.010977641032540321 0.004002327236407921 0.05396281361358696
-0.010964050781293125 0.0027401315563522766 0.05336067470976319
-0.010949426908764204 0.0014435837180706845 0.05278620574272136
-0.01093432508147815 0.00013237654958686562 0.05222599193070093
-0.010921054118746207 -0.0011126480585118559 0.05162312312692047
-0.010909388973063264 -0.002299736236994032 0.050982710076470594
-0.01091799149875375 -0.002779292119130139 0.04984018289014752
-0.010949792792872908 -0.002453785776396711 0.048117214179405454
-0.010987211112748849 -0.0019379991096884486 0.04624816834051876
-0.010982209279191845 -0.0028958430033735327 0.04543866368107191
-0.010980031990055492 -0.003755408408880223 0.04455879643527372
-0.01102859661135465 -0.002865584835079149 0.042395646283301225
-0.011683371232548022 0.018870115957422884 0.024836912874487527
-0.011702669154426642 0.01869812428753942 0.023350992272563875
-0.011721995988477634 0.01852436648050476 0.02186104775059594
-0.009966128556244642 0.037084754247875606 0.07783974238548558
-0.00996919847916821 0.03641315264045558 0.07681011286470624
-0.009972298745540243 0.03574233191185927 0.07577914806986041
-0.009975400940781965 0.03507109382375695 0.07474754184735946
-0.009978476579694938 0.0343982463159197 0.07371600067989506
-0.009981582620342952 0.033726173887784094 0.07268311297470278
-0.009984690595252806 0.033053682931987904 0.07164958204704489
-0.00998777196613421 0.032379586045080566 0.07061612389396771
-0.009990883797205186 0.0317062584150577 0.06958130789872036
-0.009993997567950268 0.03103251108485844 0.06854584687949788
-0.01000234861748602 0.030574824837550807 0.0673767850056749
-0.010018346009708703 0.03043135846912759 0.0660112071572137
-0.010034279428175483 0.030282686335539433 0.0646442025422938
-0.010050205812947192 0.030131164603503735 0.06327432714688969
-0.010066298795637061 0.029983918830825185 0.06189710698471845
-0.010082501566641418 0.029838582605795638 0.060513964118442565
-0.010098581518017423 0.02968562326510199 0.05913090789972997
-0.010115913057328525 0.029581129140330176 0.05771214827312432
-0.010156241289808517 0.03040998107050874 0.05568843509833604
-0.010196356925862867 0.031223715254384554 0.05366258087607356
-0.010233194276423559 0.031898079940496316 0.05171543766647313
-0.010269695249351323 0.03255291306720898 0.049770136561294864
-0.010302872731491799 0.03306765871888523 0.047906066510571166
-0.010335409487789105 0.03355124809895882 0.04605271189511195
-0.010364401611978883 0.03388702568020724 0.044287896514185354
-0.010392722446883558 0.03419119556413486 0.04253554089755107
-0.010418030222624728 0.03437009790807749 0.040858896646254916
-0.00981136978528312 0.00927627061577152 0.0562554475750644
-0.00979833280085233 0.007967718135030888 0.05566950867111181
-0.00978513865680139 0.006655002030442336 0.05509034360766396
-0.009772936295355937 0.005383822626528589 0.054486618949492804
-0.00976011019536192 0.004089864962442458 0.05390232573193604
-0.009745822916704661 0.0027401315563388984 0.053360674709772515
-0.009734287624648437 0.0015014029957192143 0.0527458102294287
-0.00972356399488988 0.00029652517397621425 0.052110676818673096
-0.009717427510763755 -0.0007261651910289157 0.05135012205974737
-0.009736972229175536 -0.0007396013828164794 0.049874612480317326
-0.009769385279892554 -0.0002519895241469561 0.04803528935236823
-0.009786618141865835 -0.0003631353573393947 0.04661597123214983
-0.00977520483382463 -0.0015948208913602602 0.046000391180085975
-0.00978505647726478 -0.0019966248575452594 0.04478587075600832
-0.010541224490161155 0.02660124078014553 0.022400830276649908
-0.010537728680920722 0.02561870639271413 0.021490939823402444
-0.010555326579002199 0.025453028547109957 0.019979373988010585
-0.010572951369641589 0.025285561315006033 0.018463667449363286
-0.010590667206277986 0.02511877054651024 0.0169419682518252
-0.008936641987781371 -0.0450861303991667 0.056788926202020584
-0.008908126419129785 -0.04688019111843428 0.05678024038439772
-0.008897174188766963 -0.04800834010392219 0.056253619551880574
-0.00890132062139069 -0.048567417687272574 0.05527770287725703
-0.008915806763789795 -0.048739492051618316 0.053990883541332746
-0.008947073257847861 -0.0482860923013671 0.05219640683270399
-0.008749050616164846 0.03846681653065359 0.07703850170993656
-0.008762938285697712 0.038331188170337316 0.07569165667345429
-0.009667433468675662 0.07294526026331727 0.03975116612836155
-0.008918950317470673 0.03682382087317859 0.06058077807632717
-0.008933330856595867 0.03668044387839625 0.059182635816989015
-0.008947757843760791 0.0365366037869031 0.0577799776652585
-0.008962231504364763 0.036392298351414276 0.05637278170676824
-0.008976883807119617 0.036253678468374295 0.05495711574689055
-0.008991478359016918 0.03610967561881118 0.05353996322260979
-0.009027840081948417 0.036975656159682235 0.051468795955061486
-0.009064147854952355 0.03783245380735306 0.04939128916475527
-0.009097446177747407 0.038543128880043076 0.047396474451010695
-0.00913047212097394 0.039235091846932135 0.04540260508581928
-0.00916030787246429 0.039773745490563894 0.04349828790886079
-0.009189759338076187 0.04028921818150044 0.04159914068714804
-0.009215678217109146 0.04063688347879668 0.039801488378604866
-0.008613236340796053 0.01215076294753592 0.05726698310958195
-0.008598295576279459 0.010675730745121237 0.056784191064356226
-0.008586394696732948 0.009342353302496942 0.05621078502589355
-0.00857517583693834 0.008042264502257868 0.05561884553611118
-0.008564034217247931 0.00674775147051021 0.05502695912081146
-0.008552180096345164 0.00542292240284481 0.0544597501382007
-0.00854138435528314 0.004148245449109633 0.05386198527384761
-0.00853109174460406 0.002898311255176478 0.053250769248359975
-0.00852125124280498 0.0016706778465309657 0.052627546135441794
-0.008525598228932917 0.001084044762528824 0.05155744093310943
-0.00855007613216872 0.0014017289320161774 0.049847035078929514
-0.008577147845680425 0.0018313009844722061 0.04804860960273971
-0.008574887327094457 0.00094246796322911 0.04718225790120889
-0.008568496992079209 -0.00013049483316235344 0.04644891798260459
-0.008588371869676946 -3.100889570162302e-05 0.04487130758724417
-0.009375751513627914 0.034220580746408824 0.018493768340682504
-0.00936911674720234 0.03306498225278004 0.017682807417246038
-0.009373596338873393 0.03240317594722869 0.016511797341357493
-0.009389539308656986 0.03224753609964698 0.014965698931377447
-0.009405391979980087 0.03208498294362816 0.013419067862238065
-0.007847692490120566 -0.04098789692464383 0.05927226110703465
-0.007814426961989225 -0.043155317646414726 0.05952819481498833
-0.007791314351194669 -0.044875988229583386 0.05945006865314628
-0.00777366928004837 -0.046355622686994225 0.05919258433218599
-0.007761910835071415 -0.04757761565711105 0.058739765434531355
-0.007753252902537942 -0.04866373975654997 0.05818426308363134
-0.007748204812593483 -0.049592931057554634 0.05750771275244876
-0.007748342222189862 -0.050298523276036344 0.0566550936266364
-0.007752447124483897 -0.050834135841369976 0.05566645238014972
-0.007763467375810267 -0.05107481838280864 0.054439121460231776
-0.00778621659326591 -0.050817099125261556 0.05280478267998617
-0.007833240713451322 -0.04953007881645316 0.05032543478383633
-0.0082870788147622 0.07298417865139961 0.03972712696882341
-0.008235323586164285 0.06925402473801173 0.040434779998719916
-0.008169952625807395 0.06478865543893264 0.04162190574060265
-0.00779303569102811 0.04329423160533857 0.053534080325806366
-0.0078059610900401465 0.043165050617118894 0.05209319381342481
-0.007818859473106935 0.04303162808706623 0.05064994230584785
-0.007831777154740918 0.04289649143900959 0.049202726503998595
-0.007862973298458819 0.04375067390092846 0.047114616122970354
-0.007895227349119571 0.044655478115084524 0.04498150249546029
-0.007924751383430795 0.04540578131003303 0.04293607939970617
-0.007953990213322581 0.04613437044004509 0.0408931752416295
-0.007980359056599114 0.046702152455492196 0.038944382627926266
-0.008006438679440751 0.04724874173058763 0.036999130102406796
-0.0073987768232269425 0.013799975696847488 0.057639096962288194
-0.007381360425675917 0.012075099118440624 0.057317555498302586
-0.007370651455725466 0.010712259823435155 0.05675963939251921
-0.007361234216158752 0.00942057991399492 0.05615791490127209
-0.007351696686452409 0.008124517733207437 0.055562944669323766
-0.007341731460532747 0.0068077893449128846 0.05498592954847181
-0.00733222386028379 0.005517446036763463 0.054394794838664995
-0.007322209057285181 0.004202317158013336 0.05382462214737638
-0.0073187542669123735 0.003235548190131776 0.05301645232138391
-0.007332552006055495 0.003178198261553855 0.05157431504296395
-0.007355203292225721 0.00358325370691015 0.04980173594030474
-0.007369076790968246 0.0035230165837252803 0.04834861473116764
-0.007361068854151689 0.0023143593570023047 0.04770551373511711
-0.007358072944748675 0.0013692501720973804 0.04687746794358583
-0.007384874589925536 0.0019782382596228443 0.0449346903267846
-0.008170869367260254 0.042079661521945255 0.014467098395774924
-0.008165270280185218 0.04091360486278672 0.01363492645596126
-0.00815939949147036 0.03973467040234163 0.012814459682740864
-0.008170130866634146 0.03941541083482225 0.011365497200668984
-0.008184287454434247 0.03927058604532252 0.009783382175989619
-0.008198544467329292 0.03912789900487029 0.008193815863576537
-0.006743082865793185 -0.03798226282618106 0.06121245768771205
-0.006718129463302766 -0.03997883686810039 0.061317551666005665
-0.006695992972206145 -0.041826528022937126 0.061319607861141545
-0.006676517553613821 -0.043534165736386354 0.06122362005394394
-0.006659065987738023 -0.04513493839563815 0.061053481493596407
-0.006646319304775623 -0.046493745666935316 0.06070325817846328
-0.00663620743801713 -0.04771669327654943 0.0602526071514492
-0.006628505430013969 -0.048815970291884 0.05970940023271992
-0.0066226444423191375 -0.04982097086614917 0.0590952439850847
-0.006619584107529915 -0.05068410805881307 0.05837130322969952
-0.006618915558577012 -0.051426765469638425 0.057552803373871864
-0.006621473488483885 -0.05200798464166856 0.056605449493112914
-0.00662843838898476 -0.05236991501772931 0.0554806479789271
-0.006645089431279659 -0.052251192905799215 0.053964252301550775
-0.00667366207372679 -0.05154389697321404 0.05196230173411692
-0.006707111594105122 -0.05060101281137058 0.04975554149541822
-0.006906488504742949 0.0730231036836903 0.039703083705282194
-0.006864171299555719 0.06934639713958518 0.040377397250456026
-0.00681092595915108 0.06496178031233091 0.041513745206635255
-0.0067332115069054605 0.058984560136887854 0.043675661668080124
-0.006611714582009386 0.05015881624212637 0.047673951307062534
-0.0066227991245308105 0.05003363397419125 0.046200388165185735
-0.0066339208959476014 0.0499080312651205 0.04472187586748855
-0.006659909244830113 0.05074785196688425 0.04261765791858774
-0.0066877804529443426 0.05170338212719927 0.04042637389598036
-0.0067132442240589035 0.052495565106730535 0.03832805984979942
-0.0067384453355526655 0.05326419484533229 0.03623305860434384
-0.006761094045654896 0.05386141570516867 0.03423874006314381
-0.006172354335869818 0.015025140861164021 0.058297844595192494
-0.0061603964829011594 0.013462028728699282 0.057863719179901685
-0.006151930510178092 0.012126280302308945 0.05728334688426967
-0.006144057966488302 0.010830749229352565 0.056680001111332645
-0.006135757442271253 0.009509862458534801 0.056097572529719086
-0.006127444941693195 0.008190345234813934 0.055518207041928835
-0.0061192406365735315 0.006879859213119677 0.054936677373898346
-0.006112699835790377 0.005677262957896334 0.05428497091894574
-0.006114479191817447 0.0050043479693588355 0.05327042515146674
-0.00613129721231221 0.005283400092915835 0.05159357625110422
-0.006151116368553306 0.005747809346008936 0.04977905292727136
-0.006150700719605269 0.0049308202853609595 0.04885506464447659
-0.006143315010255814 0.0036752002837963094 0.04824111627257793
-0.006150510232691212 0.0033374169155406808 0.0469788793558471
-0.0069252957755811155 0.051117207649437446 0.011349562758505571
-0.006923188833075172 0.05009509778300758 0.010383196042943188
-0.006920447339015382 0.049033913431094645 0.009446078124215773
-0.006915321094344155 0.047824856201471255 0.008617661181499758
-0.0069134389978625236 0.04681882098148166 0.007643586974829308
-0.006925427502370564 0.04667388711086001 0.006038479769087113
-0.006937589846888911 0.046536634571293756 0.004421756484463968
-0.005644805238608228 -0.03423516220879619 0.06262304360124582
-0.005616866246341885 -0.036683575971349136 0.06304327667772536
-0.005598010832394065 -0.038565876156271384 0.06305287549273308
-0.0055816622358604165 -0.040289401304898276 0.06295218152850057
-0.0055668128793881 -0.04191685733682615 0.06278684970225012
-0.0055524374454153464 -0.04351151679239734 0.06260397925179728
-0.005539835414799913 -0.0449942711262174 0.06234258663859432
-0.005528647333864477 -0.046387691114940066 0.06201872043397977
-0.005519888350942266 -0.04763064108042775 0.061583949801740145
-0.005513229470522295 -0.04874400552163222 0.061052693811651126
-0.005507461240488596 -0.04980177043190964 0.06048128422538834
-0.005503437588158029 -0.05075272352943083 0.05982872658340671
-0.005500873845609429 -0.0516146878525468 0.059107792220269906
-0.005499835170887435 -0.052384309290641085 0.05831469335316325
-0.00550213463133576 -0.05295341150084504 0.057361724995595664
-0.005510628797547114 -0.053152285664406884 0.05610983637614153
-0.0055245367926928645 -0.05302996433603607 0.05459389160949307
-0.005547713776669457 -0.05235875422405056 0.05262463209329704
-0.005572450298793321 -0.05160074972625578 0.05057247712779156
-0.005594097351035397 -0.05103245441590487 0.04866336413108452
-0.005552417072726042 0.07794710901008284 0.04150505636360469
-0.005552240673276374 0.07704023633373175 0.04045063253621045
-0.0055520819233592185 0.07613487996725421 0.03939537982810565
-0.005525645007404372 0.07306059332934389 0.0396799270531879
-0.005492441551778105 0.06943738530050125 0.04032087440765986
-0.00545083107855249 0.06513364131426064 0.04140637428198407
-0.005391637709115209 0.059400467370697374 0.04341434224284135
-0.005377602247089925 0.05738459269861851 0.043108105070548464
-0.0053867684420521 0.057269635172364 0.04160213737645568
-0.00539596593817133 0.05715428508369691 0.0400910270324914
-0.005416821753466821 0.05798513423165086 0.03796638914263306
-0.005439870568356436 0.05898746982514147 0.03571859749366518
-0.005460965433322575 0.0598239459675724 0.03356496364767664
-0.005481829029890299 0.06063492526265296 0.031415483655200305
-0.004945652846263335 0.01644618860844399 0.058831031065336825
-0.004936167999778653 0.014886855312553737 0.058389246683688556
-0.004929290220404421 0.013540309549710916 0.05781168849677826
-0.004922611826572766 0.012211982835422353 0.057226064800204146
-0.004915896192819598 0.010882818523458127 0.05664500465698252
-0.0049091574875739 0.009553967589814805 0.05606776369941735
-0.004903014890822431 0.008274856331529634 0.055460771686441646
-0.0048996196584607625 0.0072165379128095175 0.054706592894699535
-0.0049079856265783865 0.007094162117742053 0.05331129792813727
-0.004923263595538471 0.00751739448842903 0.051533929730407435
-0.004932587490691834 0.00746436438490089 0.05007821183584488
-0.0049271222705898525 0.006239938918918997 0.04943522596310462
-0.0049224870398598755 0.005082709013856157 0.0487483621618493
-0.004934941404186055 0.0052716220966215754 0.047113446988301
-0.005632914438203796 0.05837955042814913 0.006163102072533733
-0.005631172029051872 0.05733810142587875 0.005182179155237054
-0.005628197905752675 0.056201089719310204 0.004271324908039831
-0.0056239597746073665 0.05496659410257709 0.0034330727741934686
-0.004540682838497485 -0.030127696339186827 0.06380849227115237
-0.00451550582199644 -0.03281004118048775 0.06437197228685038
-0.004497517230031617 -0.034927931830572634 0.06453455515461343
-0.00448208403246422 -0.03684267185691442 0.06455759668719524
-0.004468572345811082 -0.03860435014157798 0.064476073447224
-0.004456618800246262 -0.040241841582262905 0.06430984276567547
-0.004445690095863389 -0.04179683035566917 0.06408887543834402
-0.004435715344254243 -0.04327524012015649 0.06381669907083182
-0.004426379356038318 -0.04470162157851876 0.06351112864464842
-0.004418266280945877 -0.04603172833634067 0.06313765250111186
-0.00441085073953843 -0.04730613732348149 0.06272637808378762
-0.0044045920498766294 -0.048490299275736226 0.06224988068905346
-0.00439987921368997 -0.04955528944937099 0.0616845342781957
-0.004395718140016053 -0.05057703551828552 0.06108831874075438
-0.004392536253785931 -0.051523546307158 0.060435523983761674
-0.00439086981323307 -0.052354909372790914 0.059693625916546145
-0.00438978895873111 -0.05314173168030584 0.05891735248595592
-0.004392999992045901 -0.05360637278429209 0.05788404844975564
-0.0044005661051417155 -0.053746173371589656 0.05658744536645127
-0.004412376416383636 -0.053571511979035535 0.05503173469145134
-0.004431890810016588 -0.05282665791930702 0.05300495247729403
-0.004453813487117338 -0.05190903483038539 0.05082439248946685
-0.004468263872669118 -0.05155277498329813 0.049090808696362565
-0.004427568041430114 -0.055283212521039404 0.050722947411659114
-0.004426827841972528 -0.05604938125155501 0.0499204113007925
-0.004163519132722825 0.08231968357639236 0.04687413488947001
-0.004163386883559246 0.08141284484482225 0.045819741474898756
-0.004163254642796959 0.08050606372070934 0.0447654150412643
-0.004163135633296716 0.0796008095719381 0.04371027360989366
-0.00416300340849468 0.07869414071995273 0.04265607779879127
-0.0041628844133573765 0.07778899298972836 0.04160106033200228
-0.0041627522045127015 0.07688243638937536 0.040546995119582485
-0.00416263322373571 0.0759773950586018 0.039492101595140605
-0.004144587569573074 0.07309953140890996 0.039655875730588985
-0.004120159881238526 0.06952841007099347 0.04026432882259373
-0.004089692245665116 0.06530563422955382 0.04129892094387294
-0.004094546983658161 0.06496052148967552 0.039920894597415324
-0.00410164536690395 0.06485832398610092 0.038385580359586835
-0.004108729765642075 0.06475156060100784 0.03684760948718874
-0.004115864527683319 0.06464723923008725 0.035302519915814734
-0.004131549582914967 0.0654680166111809 0.03315727767056975
-0.004149429089993348 0.06651981572090854 0.030850369414507695
-0.0041658216150288726 0.06740317452293604 0.0286388284709459
-0.003715653733849273 0.017933083538455075 0.05932578715637882
-0.0037078860460903642 0.016300413199205277 0.05892684636737133
-0.00370268027955277 0.014946429985675858 0.05834986983195273
-0.0036976351408985306 0.013611907641336685 0.05776409960374573
-0.003692645343936776 0.01228547174369432 0.057176946090772895
-0.003687430385485711 0.010937118193109996 0.05660850913802379
-0.0036836168147907156 0.009740421221139162 0.05594174741754765
-0.003684351971010308 0.009029388174126296 0.054947977434678996
-0.0036944876034909727 0.009316329949646929 0.05327160589473001
-0.003705841798371367 0.0097280733088555 0.05150131154402893
-0.0037053808438450714 0.00888529651572667 0.050588720165508916
-0.0037006104221763954 0.007587840583240302 0.04999241885070399
-0.0036992735635416035 0.006654115680223893 0.049145860831832755
-0.0037139797259948207 0.007407475905055194 0.04711520345890796
-0.003416305532464486 -0.02681327654397403 0.06560914558037706
-0.0034001145015139494 -0.02922998876554639 0.06595318264018163
-0.0033883277685638263 -0.03118242579268149 0.0659734818503368
-0.003376352836451175 -0.03314931395741988 0.06601403546243823
-0.003365490257593961 -0.03499604183005145 0.06597628469662126
-0.003355590534765173 -0.03673875193213283 0.06587076142196124
-0.0033464237006138376 -0.0384017456112245 0.06571429842549947
-0.003338241772568217 -0.039959594766068085 0.06548701484259817
-0.0033307174931818933 -0.04144649378211113 0.0652133270303294
-0.0033237073904749635 -0.04287754815845046 0.06490380290975811
-0.003317272353378494 -0.04424687013881745 0.06455333426195209
-0.0033114142433431615 -0.045554639666992025 0.06416133596258677
-0.0033058268988795845 -0.04683236303085958 0.06375122702519609
-0.0033008650920697447 -0.0480442113327586 0.06329505996622337
-0.003296755436630193 -0.04916763802641794 0.0627745785256062
-0.003293491623975766 -0.05020382836787801 0.06218962641527753
-0.0032906968490123284 -0.05119132274288046 0.06156930718487574
-0.003288583251033712 -0.05210907615991023 0.06089645742105304
-0.0032873130971770577 -0.05294123313363136 0.06015766027198405
-0.003287057535499293 -0.05367118741430099 0.059338625130989475
-0.003289004102873731 -0.05418085879181983 0.05834359716026172
-0.0032932102782082914 -0.054465928223481674 0.05716627766744864
-0.003301463714102253 -0.05434988102996746 0.05566104867437882
-0.0033200956516999383 -0.05320637788068683 0.05331359556557769
-0.0033277409265332304 -0.05315991198670078 0.05184654752395734
-0.0033219131681347827 -0.05444935000794743 0.05147035186608434
-0.0033141186367279434 -0.05593040426228224 0.05125744557600498
-0.003313038024495093 -0.056746916715134654 0.05049954891619113
-0.0033197761092945413 -0.05679463872884516 0.04910090324241129
-0.002774806823773402 0.08306519833671094 0.048023249129563295
-0.002774718713088738 0.08215862100855253 0.046969150688303096
-0.0027746306079996707 0.0812521012531443 0.04591511918818997
-0.002774551318205534 0.08034711034612574 0.044860276579266445
-0.0027744632237466068 0.07944070279513049 0.0438063756239816
-0.0027743839435187385 0.07853581824234035 0.04275165690568372
-0.0027743046678216582 0.07763098540219576 0.04169699846278785
-0.00277421658902469 0.07672474465764373 0.0406432916215112
-0.002774137322891307 0.07582001814345274 0.039588757036312594
-0.0027633030344220077 0.07313991866280506 0.03963092928014411
-0.002766907969233423 0.07284574926460807 0.03820356135730496
-0.0027717790269157724 0.07275745858906058 0.036643360561736615
-0.002776658442401684 0.07266740849442416 0.03507856650416791
-0.002781563921832364 0.07257849106450465 0.03350733702996944
-0.002786486764807877 0.07248925890045588 0.03193054599673806
-0.002791427063682246 0.07239971032825293 0.030348163823394225
-0.0024812172216229214 0.01939656099373427 0.05984082559960635
-0.0024760005152841672 0.017754712908785164 0.059442371786192605
-0.002472483576334239 0.01639080401972426 0.05886743426340668
-0.002469255688612219 0.015075757153002134 0.05826438893165842
-0.002465625677981964 0.013698083367008507 0.05770682143755618
-0.002462221382182762 0.012358987985754522 0.05712780911191251
-0.0024601763868342115 0.011239919184291403 0.05640499262705334
-0.0023369240544577623 -0.009263286852646602 0.06878556609883013
-0.0023290943759331465 -0.011264092979008378 0.06873981483118663
-0.0023233043332236015 -0.012934965554190048 0.06847802596887143
-0.002317426227916101 -0.014616115859036882 0.06823029279241188
-0.002311797951209431 -0.0162538523051739 0.06795967469641562
-0.002306044793578304 -0.01790774327722583 0.06770710618895742
-0.002299006895558116 -0.01976093535678658 0.06760077048633689
-0.0022914768923376298 -0.02168720192630369 0.06755433930923443
-0.0022831128497733614 -0.0237398770212901 0.06760638700156579
-0.002274560947715297 -0.02581667797266879 0.06768579605419861
-0.002266890011929017 -0.027749914762167538 0.06767315450668765
-0.0022600185833266486 -0.029553177080356485 0.06757659854091586
-0.002252991165527719 -0.0313763692558478 0.06750288490766826
-0.0022464981247675817 -0.03311181070495617 0.06737413065430115
-0.0022403123247253724 -0.03479532200162222 0.06721549186538811
-0.002234383295909087 -0.036435027976176926 0.06703236092979997
-0.002228900521198428 -0.03800184539178175 0.06680279956068902
-0.002223829369139827 -0.039501554128808736 0.06653026394385586
-0.002219000982520902 -0.04096058060832425 0.06623369777041344
-0.0022146031657534508 -0.04235026898361344 0.06589115476637186
-0.002210429613588334 -0.0437027039937079 0.06552602099168325
-0.002206567039010444 -0.04500481856654631 0.06512796809807914
-0.0022029567268348786 -0.046265888074433326 0.06470348029180961
-0.002199701473598162 -0.0474704747252393 0.0642402503986172
-0.0021967429588629567 -0.04862779856269972 0.06374471065208537
-0.0021942992144481153 -0.049705026348086656 0.06319086430504
-0.0021922128280773955 -0.05072651497427211 0.0625967028258273
-0.002190421377018437 -0.05170205097791175 0.06196920867932493
-0.0021892579546002023 -0.05258164253432679 0.06126846517144241
-0.0021885012963205517 -0.053399221122552465 0.06052012581650279
-0.002188649297022101 -0.054080348092160446 0.059664182472119576
-0.002189565153662568 -0.054646412472400874 0.058716007612002796
-0.0021915365684778876 -0.05505509949001969 0.057640093660484726
-0.0021953852645196833 -0.05518471874843556 0.05633601776401337
-0.0022030289286096897 -0.05475132788012077 0.054569358200063534
-0.002213554095666605 -0.053894406768657865 0.05244674038493807
-0.0022120691461987104 -0.05482614542177017 0.05177989018140999
-0.002209043784856537 -0.05598497941302538 0.05130251771774014
-0.0022081450434388856 -0.056827717370165065 0.050566634679023614
-0.0022110056912302122 -0.057115736391931515 0.04936891427725981
-0.002219367316759051 -0.056596507431418475 0.04749009822790684
-0.001386923359444427 0.08290392843109612 0.04811783746582704
-0.0013868837369447776 0.0819991460044982 0.047063229934072914
-0.0013877912197004997 0.08141136962706247 0.045820616799974345
-0.0013902420571483987 0.08133792853874255 0.04426896772609851
-0.0013927148845527932 0.08126866753133755 0.04270916352381965
-0.0012427717955811643 0.020897075958867528 0.06033678783330032
-0.0011703493857031354 -0.003393570797114942 0.07465331859637475
-0.0011666897759034442 -0.005330579706347427 0.07453112433844494
-0.0011636632205594686 -0.00705835255379661 0.07428010249928901
-0.0011613866091964434 -0.008540419803584498 0.07387388622054544
-0.0011592480581346935 -0.009975132363724715 0.07344162812813698
-0.0011570622097113062 -0.01142228558935443 0.07302279917378524
-0.0011552724120340108 -0.012739688392852722 0.07252200086239413
-0.0011536069226814416 -0.01401502745274169 0.0719970706352683
-0.0011516183057909046 -0.015391377337604817 0.07154479611228726
-0.0011496940113893072 -0.016744678397212776 0.07108156398951682
-0.0011476585548849192 -0.018130848979627745 0.0706455675038401
-0.001145314962635404 -0.019612174742151156 0.07028024914260983
-0.0011427268208736414 -0.02116792635724679 0.06997232687361055
-0.0011400759721938714 -0.022740167102134168 0.06968221460784113
-0.001137091043401744 -0.02441435985152446 0.06947017943786454
-0.0011340392801569238 -0.026105750076899525 0.06927757587776107
-0.001130889682891838 -0.027823945473609335 0.06911147299915821
-0.0011278186658750947 -0.02951346126405191 0.06893260546880942
-0.0011247932390225396 -0.031184768340971725 0.06874820277014276
-0.0011218934594306557 -0.032812964065257744 0.06854011677017446
-0.001119065915600723 -0.03441492928503537 0.06832013757547056
-0.001116369528148335 -0.0359724864358949 0.06807472931071129
-0.0011138252212059847 -0.03747939712523107 0.06779882656948033
-0.0011113631546930864 -0.03895757626877355 0.06750803449078174
-0.001109092105971023 -0.04037357621319604 0.06717723106652213
-0.0011069340755946668 -0.04175181272645773 0.06682391542346017
-0.001104952067537268 -0.0430731199706888 0.06643329007529702
-0.0011029771445172695 -0.04438970396913017 0.06604406108632371
-0.0011011840915515466 -0.045648028792386 0.06561561388767184
-0.0010995684028177694 -0.04684982272256688 0.06514858056171569
-0.0010980899042991315 -0.048007684411372875 0.06465194649392686
-0.0010967888067221262 -0.049109636429371384 0.06411596402451619
-0.0010956199028066406 -0.05016975497228199 0.06355086453159431
-0.0010947304578352432 -0.05114364999912674 0.06292157403269422
-0.0010939684424319137 -0.05207785192683073 0.062263461768894024
-0.001093352479660874 -0.05296698465707328 0.06157180934481937
-0.0010930324530708064 -0.05376618014999357 0.06081054828808519
-0.0010930762063430853 -0.054455616016669206 0.059962772327707914
-0.0010935933069659877 -0.0550031294085625 0.05900135626432984
-0.0010944644542638404 -0.055445340206235316 0.05795392819889211
-0.0010957875218126636 -0.055753700160005804 0.05679604113968362
-0.0010984819405663873 -0.055655073942861955 0.05530393895482577
-0.001105477671165727 -0.05428080892557885 0.052762489144151326
-0.0011060485728361586 -0.054821991248674484 0.05177647751847825
-0.0011057322652727585 -0.055626600794503545 0.051006542504315966
-0.0011056511181730254 -0.056361326331282546 0.05017940763723916
-0.0011077030338143025 -0.05646711240569352 0.04882752638888871
0.0 0.0005330644015372199 0.07765644059612278
0.0 -0.0020948557933487266 0.0779552561741296
0.0 -0.003982608868670523 0.07779192282426017
0.0 -0.005643599923642162 0.07749028361788207
0.0 -0.0071710429679436305 0.07710849439743589
0.0 -0.00857027001360905 0.07664861473404677
0.0 -0.009900527700628547 0.07614820818014989
0.0 -0.011188343585166294 0.07562407462596607
0.0 -0.012485087313133691 0.07510991250404223
0.0 -0.013713813702304345 0.07455441674955562
0.0 -0.01497509139504588 0.07402444448995343
0.0 -0.016213546867330786 0.07348295879028652
0.0 -0.017494620416122375 0.07297420028032292
0.0 -0.01880143882091906 0.07248714340799844
0.0 -0.02014399150882301 0.07202897047483114
0.0 -0.02151977314209641 0.07159838466520674
0.0 -0.023004077461291406 0.0712481102756285
0.0 -0.024494310257381524 0.07090774899752672
0.0 -0.026036533271225237 0.0706097632163904
0.0 -0.02759289533615089 0.0703280551537539
0.0 -0.029205901869819917 0.07009301799607248
0.0 -0.030779153065540465 0.06983650948009074
0.0 -0.03234575515050475 0.06958187790003562
0.0 -0.033895913364540786 0.06932201401171917
0.0 -0.03541654711397357 0.06904726817818568
0.0 -0.03687816025552937 0.0687357999618643
0.0 -0.0383229952157374 0.06841794572927035
0.0 -0.03972863841423502 0.06807700214824952
0.0 -0.04108620378235511 0.0677059408506045
0.0 -0.04239905102318742 0.0673067212394815
0.0 -0.0436850072971699 0.06689220308876803
0.0 -0.044935088747944496 0.06645531464169502
0.0 -0.04615575069492561 0.06600054005661488
0.0 -0.04733053156165873 0.06551499765087093
0.0 -0.04843319180687533 0.06497803840510319
0.0 -0.04949895856160391 0.06441593454271494
0.0 -0.05051078828503003 0.06381504466481597
0.0 -0.051466811726614825 0.06317325738260915
0.0 -0.05237589428980599 0.06249682968981124
0.0 -0.053246744419132463 0.06179203830178143
0.0 -0.05405011469098625 0.061035262670335766
0.0 -0.054745532021780896 0.06019345012467758
0.0 -0.05533940888562372 0.05927035637578276
0.0 -0.055821554703820275 0.058256482746087246
0.0 -0.056157855059800754 0.05712280172889911
0.0 -0.0561818107888446 0.05573207996238866
0.0 -0.05555513616116747 0.053803806425283984
0.0 -0.0547189341013819 0.05169181583050392
0.0 -0.055077166125782895 0.050552779263618175
0.0 -0.05385148969555892 0.04809558411836917
0.0 -0.05364035391034283 0.04646811192811767
0.0 -0.052614587895265186 0.044148871737267115
0.001168952842536332 0.000661759349056823 0.08032056596702364
0.0011641934397897122 -0.0016487427928769116 0.0804102738140259
0.001160945311515718 -0.0034590253905780743 0.08019328788684896
0.0011582984108900443 -0.005068951421064505 0.07985590547756286
0.0011560457812442087 -0.0065470772949368095 0.0794400597189732
0.0011539542653760141 -0.007969942869436308 0.07899382158695348
0.0011520616530471036 -0.009325600886319452 0.07850885374462882
0.0011504690156358733 -0.01058171513674927 0.07796331315444291
0.0011488958809583382 -0.011829480861993757 0.07741607105724163
0.0011474234627406865 -0.013042748813685723 0.07684977400314652
0.0011459938888787392 -0.014240336507278462 0.07627656882474693
0.0011445169022052855 -0.015451313387415733 0.07571573135031184
0.0011430915665623224 -0.016643836541399892 0.07514602995293271
0.0011416250297925422 -0.01784770643014999 0.07458741951130157
0.0011400819220062533 -0.01907413472546038 0.07404766837362153
0.0011384480466332053 -0.020327496613429974 0.07353004339763444
0.0011366709698333495 -0.02162428809742356 0.0730462092788002
0.0011347638422929479 -0.022960060301632168 0.0725936117883679
0.0011326633962525949 -0.02435459672380441 0.07218646989942215
0.001130386434245625 -0.025802214708868343 0.07182151813827509
0.001128057442196501 -0.02726331436234891 0.07147158218979255
0.0011256336170703746 -0.02875126676254669 0.07114629746718032
0.0011230989195895973 -0.03027092677338422 0.0708494599999947
0.0011205698637020071 -0.03178555991291482 0.07055524304955268
0.0011180722003269255 -0.03328712212327006 0.07025784960518588
0.0011156540140366217 -0.03476066390241672 0.06994637016637678
0.0011133029991261454 -0.03621017193916942 0.0696234049848618
0.0011110861820910075 -0.037614938999459 0.06927359049245707
0.0011089597973017254 -0.03898880131020388 0.06890658281181966
0.0011069144446481567 -0.04033484341865751 0.06852432152884896
0.0011049492730912968 -0.041653484508563765 0.06812681548870164
0.0011030968890031233 -0.04293482657529685 0.06770638169521709
0.0011013450887261444 -0.04418284168656533 0.06726557686194423
0.0010997289278651752 -0.0453869611438138 0.06679605412800671
0.0010981947879409894 -0.046563873819162716 0.06630995603785156
0.0010968273542088655 -0.047687846949471924 0.0657873589092165
0.0010956199027875812 -0.04876125338332654 0.06522945172383565
0.0010945659042374911 -0.049786389484306026 0.06463739845573441
0.0010936398425875629 -0.05077130299094412 0.06401685137149815
0.0010928684094980063 -0.051708148765499895 0.0633612143999121
0.0010922427623228752 -0.052599900041415515 0.06267222675754597
0.0010917214819716298 -0.05345934131520902 0.06195939615314533
0.0010914187674864045 -0.054252273467694956 0.06119525723973834
0.0010912960932220703 -0.05499069835644871 0.06038852190055455
0.0010916178311095935 -0.055595665817259554 0.05947534403596666
0.0010922318404008985 -0.05611356907774778 0.05849132291637643
0.0010933853135458023 -0.05647114510005585 0.057376097775046375
0.0010952299065665205 -0.056624237971492075 0.056091692587168174
0.001098407376937738 -0.05638333778263371 0.054480571887568496
0.0011022314156292393 -0.05595466481200845 0.05270697150472742
0.0011060373730280302 -0.05553626160990249 0.05093193381378314
0.0011111709551852032 -0.05473050896011161 0.04882540094825483
0.0011140211810417343 -0.05460449817942292 0.047272855571580175
0.0011176489048413377 -0.05425344194477427 0.045524033267979935
0.0012802249980308443 -0.007252795744964735 0.004414602056015349
0.0012837081349681546 -0.0070555829104106405 0.002568812190677172
0.0023368553083800486 0.0019914788219836943 0.08221901072286564
0.0023267934859177767 -0.0004140957356061348 0.08235761427715854
0.002319480793781265 -0.002362030782648461 0.0822204490058977
0.0023136587510413724 -0.004061107364216721 0.08193460628756313
0.0023089574448268706 -0.005573232993144828 0.08153680020944179
0.0023046276903294477 -0.00702171793414158 0.08110385604050366
0.002300907737599219 -0.008368126452737656 0.08061041466400459
0.0022973749226110297 -0.00968173255686533 0.08010016783515714
0.0022941962191322285 -0.010935635866166582 0.07955529928879693
0.002291188492582378 -0.012159820823452794 0.07899477706546834
0.002288494267004242 -0.01333142848323754 0.07840327161267838
0.002285818329117862 -0.014498355952690167 0.07781188127951658
0.002283071093277954 -0.01567503523695335 0.07723016581078498
0.002280318551641302 -0.016850800632254692 0.07665112430890073
0.002277697309844311 -0.01800375492004669 0.07606004890163864
0.0022750287780419582 -0.01916258769431506 0.07547609326269689
0.00227219513591996 -0.020346059236091396 0.07491209256476361
0.00226935086293132 -0.021529402776058193 0.0743514198426811
0.0022661257629711068 -0.022771458919355225 0.07383452878438876
0.0022623766653791675 -0.024094574607257224 0.07337755226933163
0.0022584239636051413 -0.02544751693384889 0.07294584610796692
0.0022542582237574152 -0.02683158021744625 0.07254068568543035
0.002249742856202976 -0.028268097396413838 0.07217744657682562
0.002245101324301958 -0.029721566023459378 0.07183169067860948
0.002240369763413344 -0.031186189621159655 0.07149953236954193
0.00223574962615365 -0.03263030925741034 0.07115852760912611
0.0022311485051651823 -0.03406848496406312 0.07081892640850773
0.0022267932449356862 -0.03546532928743923 0.07045514368063632
0.002222601930252479 -0.0368338382455462 0.07007615936297579
0.0022185390107298626 -0.03817969574897623 0.06968581849778588
0.002214535815794754 -0.03951367745618556 0.06929179098399435
0.002210686853641119 -0.04082121165214081 0.0688832132162448
0.002207024037682597 -0.042097517297365716 0.06845625051206172
0.0022035011319882915 -0.043349901194847884 0.06801600558708909
0.002200260891304581 -0.04455653830821943 0.06754584781273099
0.0021972400959577687 -0.04572740592964819 0.06705277036582769
0.0021943818707329575 -0.046871428188928255 0.06654312645004645
0.002191965367501566 -0.04794608910735443 0.0659842022623931
0.002189702323759695 -0.048995787367549115 0.06540918922301736
0.002187613712299878 -0.050017478394253245 0.06481545116409021
0.0021860430305286377 -0.050959152619252546 0.0641623683576022
0.002184600212475366 -0.05188043564063788 0.06349539408207355
0.0021834102294468645 -0.052762547750066724 0.06279958032309613
0.0021825540260333744 -0.053593515171336314 0.062065018806557015
0.00218192184838195 -0.054390190400593175 0.06130440887120159
0.002181600450241133 -0.05513975083004852 0.06050711865146391
0.00218198722912667 -0.05578289717692009 0.05962511605612181
0.0021832302074597906 -0.05629816044687136 0.058639772692926306
0.002185359640701855 -0.056681848114396916 0.05754645186737706
0.0021886328515897608 -0.05689647150433802 0.05631296880874642
0.0021932032292381436 -0.056920326380498376 0.054919372449238446
0.0021986332781595615 -0.056819572952184816 0.053417495568450823
0.002204184797374732 -0.05670432685586968 0.05189660732554141
0.002212982294317874 -0.056113142578847586 0.04997334994688424
0.002222048047574994 -0.05548807172387504 0.048010349135803654
0.002229588663199876 -0.055093146287017614 0.04622862871927802
0.002527844288868475 -0.01203798146447399 0.008451130620473812
0.0025349355042562213 -0.011811993204873361 0.006602314073859472
0.00254255479466015 -0.011513402692007957 0.004682286063910468
0.002549959557011676 -0.011250986873587832 0.0027832260369208828
0.00351346690962903 0.004395996715551798 0.0834549129769912
0.0034926454647891242 0.001351742660426536 0.08397314130140252
0.0034800618036080443 -0.0007787661280586056 0.08393991724786506
0.0034696705008441914 -0.002663547693210755 0.08376296938352021
0.0034613325628262913 -0.004319218498397115 0.08345017315442729
0.0034541902798014526 -0.00584075633151232 0.0830591364454733
0.003448083966664015 -0.007246332400015931 0.0826000021709356
0.0034427043699913865 -0.008570249123149243 0.0820934727489592
0.0034378824753016415 -0.009831320579112512 0.08155078273370114
0.003433289888390746 -0.011065482919269454 0.08099449909158363
0.0034288530663941137 -0.012280835290729708 0.08042961441950619
0.0034247229627256733 -0.013461188469364505 0.07984536253198296
0.0034206831388266133 -0.014630049069879969 0.07925682931755582
0.003417009115522841 -0.015757861802154882 0.07864437221057194
0.003413236313139548 -0.01689469585714315 0.07804083404889367
0.003409693564750748 -0.018005285266560866 0.07742276177948967
0.0034059722923898386 -0.019133429745123665 0.07681931814324111
0.003402197316434521 -0.020265705667816436 0.07622164498242989
0.0033983249661970467 -0.02140672550948408 0.075632941622853
0.0033943207742169017 -0.022560086974144467 0.07505578408417779
0.0033897385609760566 -0.02377299204796146 0.07452276813434361
0.0033844694299510576 -0.025056586860242758 0.07404229518580194
0.003378859500374901 -0.026373895986803675 0.07358950719726043
0.0033727039439144274 -0.027746276700112038 0.07317973956896204
0.0033662422241567663 -0.02914820482277941 0.0727957258152016
0.003359684650484464 -0.030557419980001332 0.07242211535544696
0.0033532212023670506 -0.031953970499759676 0.07204485455349993
0.003346876579434062 -0.033335336228766166 0.07166202830868074
0.0033408368993301492 -0.03468218756107583 0.07125961065063618
0.003334759587050327 -0.036030366481811904 0.07086310462944773
0.0033291693521058318 -0.037325363605790585 0.07043298521123686
0.0033233197414957428 -0.03864484285256525 0.07002533929653837
0.00331786014423644 -0.039921484014690645 0.0695910814360472
0.0033124017138980127 -0.04119566518127865 0.06915952291262684
0.0033071781571618938 -0.042443319583965966 0.06871280675573804
0.0033024119756549053 -0.04364173226779522 0.06823369625840237
0.0032979084272355443 -0.04481116865867785 0.067736819542971
0.0032935909338487265 -0.045959634491084644 0.06722788493678644
0.0032896479666017415 -0.04706800180728771 0.06669215750317198
0.0032862004571539293 -0.04812418715208505 0.06611995630273426
0.0032830315060554515 -0.04915056683970109 0.06552780604241554
0.0032802708662878085 -0.05013415234580715 0.06490534778904505
0.0032779656794399343 -0.0510704322108303 0.06424857066168493
0.0032760321523384937 -0.051968166776585056 0.06356372044719932
0.003274428074702508 -0.052831851388284834 0.06285384524638254
0.0032733650118523415 -0.053640409084835416 0.06210193404262149
0.0032725395701409597 -0.05442465155593629 0.061331682471685356
0.003271959558285576 -0.055183949136778265 0.06054228596836414
0.00327268664814059 -0.05581231145259802 0.05964864542373238
0.003274149976342498 -0.05636753246979814 0.058695562198964324
0.003277211660423759 -0.0567642585893553 0.05761308101221385
0.0032815930935744045 -0.05703119381096683 0.05642247347799667
0.0032871729456864112 -0.05718121330045334 0.05513255635568226
0.0032938723452947756 -0.05722288862174735 0.05374882033600642
0.003301122805760215 -0.05721304703635516 0.052316745570990864
0.0033109123658056094 -0.056956256296982366 0.050673355744044246
0.003325056439317544 -0.05627575149464953 0.04866780291003969
0.0033393559073962233 -0.05558607077048744 0.0466422413819903
0.0037452967653841505 -0.01658454729514397 0.0122863721181794
0.0037540283667785008 -0.016534599914762305 0.010607150048594971
0.0037633625691860873 -0.016429694333803757 0.008873427080256902
0.003774296818929607 -0.016173269462856854 0.007001656118454158
0.003786049224729155 -0.01584218346973998 0.00505594124037162
0.0037978200271320327 -0.015514353471779208 0.0031026826529093054
0.004668442041071592 0.003808073146297608 0.08517080312590827
0.004646114545093272 0.001211385347808125 0.08541079079057692
0.004630726055770638 -0.0008053858170440908 0.08530555916784793
0.0046175854530865765 -0.0026320334679635904 0.08509118723132342
0.004606060437428027 -0.004321627637051795 0.08479886219641417
0.00459693738505688 -0.005810419346240436 0.08438711225237139
0.004588765916161242 -0.007218347600330854 0.08392961312684621
0.004581355926186337 -0.00856140949864842 0.08343569223515987
0.004575023527380417 -0.009814185250523189 0.08288843250478406
0.004569043054065048 -0.011036274000438329 0.08232518423139834
0.0045633284064088685 -0.012234841339944735 0.08175026676036923
0.004557877649229548 -0.013410172350889149 0.08116362936282126
0.004552665223629816 -0.014564462793405564 0.08056647244166618
0.004547689539699632 -0.015697955984541323 0.07995874347514503
0.00454292546638649 -0.016812791892808987 0.07934164545764752
0.004538666364378434 -0.017885471597313296 0.0786993700468171
0.004534203481962931 -0.018973143887875854 0.07806966166559176
0.004529444129090035 -0.020083137670198314 0.07745762927491223
0.004524788475432452 -0.021183309192356226 0.0768418151747279
0.004519978714806167 -0.02229428330034977 0.07623614284985059
0.00451464262736587 -0.02344563180196768 0.0756609608319335
0.004508702549896089 -0.024643274102524537 0.0751208136092281
0.00450187336052924 -0.025909536418068868 0.07463167663589448
0.0044945099382791166 -0.027215896239502158 0.07417454071902307
0.0044868019210699255 -0.028547113870524665 0.07373924549636782
0.004478867756607232 -0.029893684381110786 0.07331942839938876
0.004470824351722872 -0.031246300217846246 0.0729087217639301
0.004463049119709533 -0.0325752735183894 0.07248613972803652
0.0044553690335470365 -0.03389429216713602 0.07206121120156811
0.004447670057126046 -0.035212319711386664 0.07164028507832287
0.004440494022127972 -0.036487062617945376 0.07119284254912989
0.004433397338150548 -0.037753319406739705 0.07074366234825374
0.004426390566757189 -0.039010307504466435 0.07029209974623668
0.004419394732474289 -0.040264195412559545 0.06984259835516643
0.00441281092540964 -0.0414839452347775 0.06937224510071421
0.004406324471755056 -0.0426940598455291 0.06889883496358334
0.00440032234446336 -0.04386476000512113 0.06840006325068188
0.004394623846479943 -0.0450101774993662 0.0678860753664457
0.004389369994643726 -0.04611963506945005 0.06734853518092648
0.00438470066036387 -0.047182633832907994 0.06677906505283548
0.0043804474549390664 -0.048212326002360584 0.06618713955033267
0.004376662788357425 -0.04920491476891509 0.06556945612956605
0.0043731035000168185 -0.05017913330937984 0.06494000536906652
0.004370347664768202 -0.05109118507377919 0.06426464678649046
0.004368064704770998 -0.0519665119024062 0.06356243160560204
0.004366100429930926 -0.05281700305735526 0.06284221896586484
0.004364748290210934 -0.05362066590646941 0.062086392066367846
0.004364443084266517 -0.05434505176538562 0.06126868479025377
0.004364094329728415 -0.05507261208956438 0.060453698293590874
0.004365031734104351 -0.0557036157175021 0.059561696421935484
0.004366842281851012 -0.05626958693121625 0.05861679365531264
0.004370588115482616 -0.05669164163726642 0.05755436996339658
0.004375665604144862 -0.057015686004148136 0.05640986845883561
0.004382105992851054 -0.05724003913870407 0.05518062592544182
0.004390009498301051 -0.05735792370112375 0.053859751970115166
0.004400034299837494 -0.05732132505793652 0.052406169462067
0.004412498961924298 -0.05710773616495751 0.05079912381477403
0.004428847151113386 -0.05661193363606909 0.04894840452748345
0.004451419840820436 -0.05566363386738238 0.04670732453389442
0.00493658629883449 -0.020777655791852034 0.015823455778658735
0.004946912781017406 -0.020814856388680747 0.01423686688949749
0.004958210794661422 -0.020784397533150145 0.012585813676209312
0.004970041043974789 -0.02071877114855858 0.010897182370528169
0.004982737513331382 -0.020593940871099725 0.009149738002647012
0.004996684474813945 -0.02038243533275691 0.007318828838126623
0.0050128368497155225 -0.02001570638491096 0.005343530380291062
0.005029325553778671 -0.01962986734872829 0.003340775852061495
0.005894075636073605 0.009202938921419934 0.08460784046035355
0.005824241766225257 0.0038070475735612064 0.08652098896292107
0.005798748160953614 0.0013683634436213454 0.08666064350948097
0.00577871517561878 -0.0007024913192708593 0.0865862274385128
0.005762815536214314 -0.002495264534484176 0.08634936560717657
0.005749544245876534 -0.0041107339450912606 0.08600977217435166
0.005738006399141828 -0.0056087750321343055 0.08560301325116507
0.00572764083400837 -0.007026894245108106 0.08515143779313611
0.005718584795962742 -0.0083565517600111 0.08464882513266345
0.005710184164089174 -0.00964102470795003 0.08412175368702218
0.0057026416926480574 -0.010867334099625814 0.08356146621890026
0.005695386381257781 -0.012073001034292652 0.08299146971058022
0.005688875330423258 -0.013228423368633557 0.08239242844518077
0.005682630434035753 -0.014364904999168926 0.08178415980978027
0.00567648773264446 -0.015493164270128701 0.08117347998585478
