# .PCD v0.7 - Point Cloud Data file format
VERSION 0.7
FIELDS x y z
SIZE 4 4 4
TYPE F F F
COUNT 1 1 1
WIDTH 786
HEIGHT 1
VIEWPOINT 0 0 0 1 0 0 0
POINTS 786
DATA ascii
0.034852288618363654 0.14226461627930642 0.04559615190133054
0.03476145681328342 0.1434959746541856 0.0455952346538786
0.03467109722729117 0.14472093140658626 0.04559432217499265
0.03458120618745461 0.14593953632849516 0.0455934144275813
0.03449178005883324 0.1471518386968602 0.045592511374941525
0.03440281524398957 0.1483578872802252 0.0455916129807441
0.03431430818250555 0.14955773034527736 0.0455907192090384
0.034249241987767735 0.15059542079595353 0.04540459797749552
0.03433989318328556 0.15057680639202764 0.04396313752983544
0.03443095219095463 0.15055858830917787 0.042514620274260284
0.034522569128635806 0.15053977687644085 0.04105780186966235
0.03461467493190175 0.15052086506650317 0.03959320992000165
0.03470719900870642 0.15050235128696063 0.038121390216921625
0.034800293954940116 0.15048323767747318 0.036641068169054436
0.0348938143415135 0.1504645232347032 0.035153401299167775
0.03498791445061783 0.15044520456438082 0.03365709438415265
0.03508252346198797 0.1504257814169837 0.032152695300066536
0.03517756896630156 0.1504067591294598 0.030640770922006233
0.03527320782886259 0.15038712588821238 0.02911999435398349
0.035369290758905214 0.15036789463110972 0.027591568854468174
0.03546597638006657 0.15034804785412886 0.0260541459192124
0.03556319205027456 0.15032809227344152 0.024508294537567643
0.035660863473637824 0.15030854034968108 0.022954603555278674
0.035759151968062834 0.15028836591968803 0.021391691286289982
0.03585790422698245 0.15026859625587755 0.019820808744489937
0.03595728340286085 0.15024819934142103 0.018240551599395805
0.036057214962621965 0.15022768905396713 0.016651510837575156
0.03615762265106251 0.1502075851803898 0.015054298208523609
0.03625867243258949 0.1501868467945113 0.01344747459820006
0.03636028860483414 0.15016599216872767 0.011831644634981542
0.03646239370051064 0.15014554558693988 0.010207434279159988
0.03656515656990674 0.15012445705822738 0.008573368624534172
0.03666850031445077 0.15010324932507887 0.006930066285985859
0.03677234622644086 0.15008245124645445 0.005278167799079081
0.03687686611862015 0.15006100360717423 0.0036161614191903
0.03698198186850239 0.15003943369711897 0.0019446801030144623
0.044773534929680094 -0.011608465536986357 0.04870703177640745
0.04461794838472984 -0.009440475736404219 0.04870518219518205
0.04446356510343217 -0.007288604488023043 0.048702574558158795
0.04437462649341377 -0.00571556493174169 0.048303778338818715
0.04434322564241229 -0.004648725301864887 0.04755344462209232
0.044234604930826926 -0.002909291094767008 0.04728295913994757
0.04408347632539234 -0.0008036284511821479 0.047281411492933245
0.0439333768717363 0.0012876951039828 0.04727987438490039
0.04378429609309351 0.0033648255426522167 0.04727834770855982
0.043636223654421755 0.005427906862131682 0.04727683135807781
0.04348902911545611 0.007478119474579548 0.04727608314748233
0.043342943713079764 0.009513517717975872 0.04727458459507333
0.04319783646416015 0.011535287414113471 0.04727309607647573
0.04305369757724996 0.01354356498657805 0.047271617491250195
0.042910517391151974 0.015538485044188088 0.04727014874029495
0.042768286372761345 0.017520180411063457 0.04726868972581799
0.04262711063980495 0.019487796932586676 0.04726649743230937
0.04248674909980135 0.02144344292511191 0.047265060044945906
0.04234730888325462 0.023386252192489798 0.04726363209235862
0.04220878094858388 0.025316350710336277 0.04726221348195547
0.04207126890383401 0.02723291115115467 0.04726007087350287
0.04193453814768409 0.02913796772339533 0.04725867305382092
0.04179869325565925 0.031030681635461244 0.04725728429033421
0.041663725646428486 0.03291117245021902 0.04725590449531336
0.041529736502526254 0.034778638704058784 0.04725380975496424
0.041396497452566405 0.03663504371612425 0.04725244995685157
0.041264110603955365 0.03847957510073924 0.047251098855925655
0.041132567806695476 0.04031234641092474 0.04724975636900913
0.04100196789848684 0.04213258112443974 0.04724770776939313
0.04087208849059839 0.04394217471148226 0.04724638452547536
0.040660454706361336 0.04642391472748858 0.04780069110973151
0.040404864139453565 0.04926119830514325 0.048660712705677456
0.04027821845384862 0.051026519303408624 0.04865848990656618
0.040152261706739696 0.05278165142706226 0.048656977238812404
0.04002709027854382 0.05452584060029292 0.048655474002166355
0.03994870827682916 0.05588240171201797 0.04833948663268123
0.03987973079622232 0.05715931816584763 0.04796235392736198
0.03981099110471621 0.0584318326495597 0.047586521328076115
0.039807263079515445 0.0591729949160007 0.04676510169114989
0.039836702724170434 0.05964478319802491 0.045714312723274364
0.03992193953135265 0.05966568171979947 0.04427495421613764
0.04000754187535701 0.05968666986468396 0.04282942304061799
0.04019124908041663 0.058919596939429164 0.04069507762980151
0.04027790836191922 0.0589399462758749 0.03923276852736507
0.04036504574491178 0.05895955191057278 0.03776341193402788
0.04045245693307171 0.05898007595636734 0.036288417190578626
0.04054003854325034 0.059002359378192426 0.03480849765274985
0.04062810515725978 0.05902390260049478 0.03332141191010918
0.04071666062668975 0.059044700956180085 0.031827101609918584
0.04080549711823884 0.05906643062327516 0.030327018024709385
0.04089472210812805 0.05908825531831824 0.028820374297552298
0.04098433815040415 0.05911017566603827 0.027307127301082534
0.04107434782155065 0.05913219229665223 0.025787233529070475
0.04116475372073472 0.05915430584592568 0.024260649092252895
0.04125566668094266 0.05917566752775838 0.022726546330321007
0.04134709078613647 0.0591962725180456 0.021184863221579364
0.04143870264157863 0.05921867521311047 0.019637922088624304
0.04153061170467178 0.05924203232074721 0.018084911550738436
0.041623039520452 0.05926463651271452 0.016524189920983423
0.04171587965642245 0.0592873415420308 0.014956505916891405
0.04180913487778943 0.05931014808495766 0.013381812845620178
0.041800690331838974 0.06012189061398182 0.012554546590723192
0.04189466031525413 0.060144033050977874 0.010968783932877757
0.04198905374872465 0.06016627526694274 0.009375875468733363
0.036382062127737216 0.10782594880031626 0.0456218054833048
0.03628035143220531 0.10924308749462386 0.0456207498485412
0.036179207840880565 0.11065232470615322 0.04561970009956068
0.036078626623978594 0.11205372633515415 0.045618656187276674
0.03597860310416634 0.11344735755107288 0.04561761806314307
0.035879132655835984 0.11483328280266275 0.04561658567915561
0.03578021070439306 0.11621156582790954 0.04561555898783476
0.035681832725553975 0.11758226966381236 0.045614537942227584
0.03558399424465745 0.11894545665598488 0.04561352249589179
0.03548669083598487 0.12030118846811672 0.04561251260289739
0.03538991812209411 0.12164952609126345 0.045611508217811014
0.03529367177316211 0.12299052985300013 0.04561050929569688
0.03519794750633944 0.12432425942641562 0.045609515792106814
0.035102741085115546 0.12565077383896123 0.04560852766307005
0.0350080483186927 0.1269701314811661 0.04560754486509472
0.034913865061372173 0.12828239011519665 0.04560656735515278
0.03482018721194815 0.12958760688329463 0.04560559509068218
0.03472701071311352 0.13088583831606332 0.0456046280295721
0.03463433155087298 0.13217714034063727 0.045603666130165754
0.03454214575396773 0.13346156828870556 0.04560270935124522
0.034450449393307284 0.13473917690442216 0.045601757652033836
0.0343592385814116 0.1360100203521807 0.04560081099218677
0.034268509471862184 0.13727415222426598 0.04559986933178173
0.03417825825876041 0.1385316255483946 0.04559893263132159
0.03408848117619639 0.13978249279512203 0.04559800085171983
0.03399917449772406 0.1410268058851488 0.04559707395430407
0.033910334535846805 0.1422646161964963 0.04559615190080141
0.033821957641508776 0.14349597457158553 0.04559523465334153
0.033734040203595786 0.14472093132419522 0.04559432217444759
0.033646578648443864 0.14593953624631215 0.04559341442702841
0.03355956943935405 0.1471518386148842 0.04559251137438075
0.03347300907611676 0.14835788719845522 0.0455916129801755
0.033386894094541354 0.1495577302637124 0.04559071920846208
0.03330115056025639 0.15075190734797503 0.04559041395846508
0.033384626336335085 0.15076576678105547 0.0441886675534654
0.03347308011082317 0.15074806420452042 0.04274192850188124
0.03356207546787551 0.15072977190738054 0.04128690502205018
0.03365147331574163 0.15071187910812206 0.03982472635014084
0.03374142106775458 0.15069339234285492 0.038354130217902294
0.033831778184304453 0.15067530625227024 0.03687626342590311
0.03392269370175581 0.150656621887335 0.03538984330962619
0.03401409916682517 0.1506378368316711 0.033895412811534076
0.03410592459605757 0.15061945420671913 0.03239353366662373
0.03419832151182092 0.15060046671885036 0.030882891901390208
0.03429114565516537 0.15058188282930954 0.0293646795658542
0.0343845502405557 0.15056268960491032 0.02783756132817161
0.0344784650592231 0.15054339153543633 0.026302101031554836
0.03457281831008365 0.15052449880441152 0.02475888215716565
0.03466776580016995 0.15050498989747424 0.023206536577745407
0.0347631594032404 0.1504858874846882 0.021646303585218407
0.03485915669149431 0.1504661642510912 0.020076792673362043
0.03495568563419032 0.15044633178593728 0.018498589459076065
0.03505267254273497 0.15042690753481552 0.01691230009098299
0.03515027769468601 0.15040685535477272 0.015316499689898067
0.0352484279327901 0.15038669119135747 0.013711787374860895
0.03534704840089171 0.15036693694738573 0.012098783357547993
0.03544630215276559 0.1503465474986448 0.010476027392616771
0.035546114878791994 0.15032604322137064 0.00884413244162685
0.035646491314324985 0.15030542314279036 0.007203021083586059
0.035747355003881126 0.15028521522959584 0.005553332843382441
0.03584887281770271 0.150264362135542 0.0038935587094028334
0.035950968868031105 0.15024339026422803 0.0022243306483135106
0.04352982565421771 -0.011608465645259025 0.04870703177672253
0.04337868400506554 -0.009441589148134533 0.04870440865637887
0.04322846609043375 -0.0072886045955721235 0.04870257455845689
0.0431591664664817 -0.005870264166783268 0.04819510152723938
0.043128613564685184 -0.004802890772966972 0.047444546358233086
0.04300586591199261 -0.0029092912018010564 0.047282959140221514
0.042858935318263736 -0.0008036285578634228 0.04728141149319853
0.04271300528879881 0.001287694997651967 0.04727987438515707
0.04256806563785347 0.003364825436669383 0.04727834770880773
0.0424241063174696 0.005427906756494683 0.04727683135831712
0.04228111741515431 0.007477081013082754 0.047275325229276965
0.04213908915160409 0.009512488353648929 0.047273829218683505
0.041998011878476384 0.011534267048611824 0.04727234322490781
0.0418578760762032 0.013542553522917167 0.047270867147682194
0.04171867235185056 0.015537482386718315 0.0472694008880723
0.04158039143702046 0.01751918646544731 0.047267944348451496
0.04144302418579242 0.019487796829306736 0.04726649743248745
0.041306561572707894 0.02144344282215993 0.047265060045115215
0.04117099469079316 0.02338625208986367 0.04726363209251905
0.041036314749622056 0.025316350608033777 0.04726221348210702
0.04090262247924021 0.027232911049173636 0.04726007087364559
0.040769689795025134 0.029137967621733873 0.047258673053954814
0.04063761836762831 0.03103068153411731 0.04725728429045917
0.040506399854088715 0.032911172349190665 0.047255904495429435
0.04037613262631683 0.03477863860334374 0.047253809755071485
0.040246594656571336 0.03663504361572073 0.04725244995694983
0.04011788521594377 0.03847957500064547 0.047251098856015084
0.03998999638082506 0.04031234631113867 0.04724975636908968
0.03986302424342549 0.042132581024959204 0.04724770776946474
0.039736752592474195 0.04394217461230543 0.04724638452553792
0.039406614270269466 0.04748301157275309 0.04866154389271016
0.0392826075936903 0.049260340823956084 0.04866001209450599
0.0391593789284344 0.05102651920563994 0.048658489906601765
0.03903692097559539 0.0527816513295884 0.048656977238839105
0.038915226527281736 0.054525840503112155 0.04865547400218412
0.0388476058284484 0.055810098679190345 0.048279137434046104
0.0387805147649906 0.057087421733220955 0.04790202574536606
0.0387136550384461 0.05836034044558752 0.0475262143766057
0.03868016476279866 0.0593515722984132 0.04691653788519701
0.0387627217262712 0.059372637650954574 0.04548230857060759
0.0389405950579731 0.05860264191144382 0.04336392176807119
0.0390241690760451 0.05862306798966427 0.0419130947027046
0.03910810259751209 0.05864358193314745 0.04045602673522747
0.0391924983956992 0.05866335299312908 0.03899195372697739
0.0392773601201981 0.05868237650208641 0.03752081894739728
0.03936238749218855 0.058703152220291877 0.03604476860709194
0.03944778379618384 0.058724018084015506 0.03456231371482388
0.03953355143858704 0.05874497468124268 0.03307341249613699
0.03961969284677486 0.05876602260508418 0.0315780228124789
0.03970631356901446 0.058786320557624505 0.030075345733059256
0.039793210327702035 0.05880755114757846 0.028566845646589623
0.03988048826542724 0.058828874867193126 0.02705172841315623
0.03996814989580802 0.05885029233059613 0.025529950397149614
0.04005619775461175 0.05887180415732718 0.024001467578452784
0.04014473978905033 0.05889256005913168 0.02246545079414064
0.04023377998231294 0.05891255517593036 0.020921837849122715
0.040323003376227316 0.0589343483641489 0.019372955080563026
0.0404125165772296 0.05895709484855294 0.017817989640413867
0.04050253535982922 0.05897908427982129 0.01625529689638383
0.04059295607090574 0.05900117189270526 0.01468562682263086
0.04068378140836194 0.05902335834623951 0.013108932584559474
0.040775014094300385 0.05904564430537179 0.011525166927472519
0.04086665687529625 0.0590680304410226 0.009934282171844167
0.040859013275728204 0.059879012020969735 0.009098255558201152
0.04095136345041399 0.05990072533957175 0.0074960984776537565
0.035371449029048645 0.1078259487116649 0.04562180548300343
0.035272563627174444 0.10924308740621252 0.04562074984823117
0.03517422957663196 0.11065232461798052 0.045619700099242044
0.035076442279019494 0.11205372624721893 0.04561865618694949
0.034979197186929795 0.11344735746337392 0.0456176180628074
0.03488248980324396 0.11483328271519883 0.045616585678811494
0.034786315680439474 0.11621156574067942 0.04561555898748221
0.03469067041990711 0.11758226957681484 0.04561453794186665
0.0345955496712816 0.11894545656921857 0.04561352249552236
0.0345009491317808 0.1203011883815806 0.04561251260251964
0.03440686454555805 0.12164952600495621 0.04561150821742488
0.03431329170306299 0.12299052976692071 0.04561050929530247
0.03422022644041412 0.12432425934056279 0.04560951579170408
0.034127664638781564 0.12565077375333383 0.04560852766265905
0.0340356022237785 0.12697013139576302 0.04560754486467555
0.03394403516486439 0.12828239003001668 0.0456065673547254
0.03385295947475561 0.1295876067983367 0.0456055950902467
0.033762371208847945 0.13088583823132627 0.04560462802912846
0.033672266464645786 0.13217714025611998 0.045603666129714004
0.033582641381202955 0.13346156820440697 0.04560270935078542
0.03349349213857022 0.13473917682034123 0.045601757651566044
0.03340481495725299 0.13601002026831627 0.04560081099171098
0.033316606097677594 0.13727415214061695 0.045599869331298004
0.03322886185966467 0.13853162546495995 0.04559893263082998
0.03314157858191282 0.13978249271190066 0.0455980008512204
0.03305475264148825 0.14102680580213972 0.04559707395379681
0.03296838045332466 0.14226461611369842 0.04559615190028632
0.032882458469728766 0.14349597448899784 0.04559523465281867
0.032796983179894976 0.1447209312418167 0.04559432217391707
0.032711951109427644 0.1459395361641417 0.04559341442649012
0.03262735881986932 0.14715183853292088 0.0455925113738348
0.03254320290823834 0.1483578871166981 0.045591612979622054
0.03245948000657147 0.14955773018216045 0.04559071920790109
0.03237618678147564 0.1507514155005696 0.04558983002308581
0.032430842567292735 0.15095491236552783 0.04441441861328982
0.03251676823959726 0.15093723147622332 0.042968866483501233
0.032603080930554744 0.15091995150213716 0.041516230728171954
0.03268992294078366 0.15090208333859598 0.040055261258007846
0.03277722881347166 0.1508841197332257 0.038586488088906135
0.03286493164239966 0.1508665588636091 0.03711045950480163
0.032953176079717456 0.15084840344493367 0.035625895027981525
0.033041824281420204 0.15083065197445694 0.03413395748631304
0.03313102249991332 0.150812301639719 0.03263334567570253
0.033220703612762734 0.1507938519614857 0.03112460996980765
0.033310798989773585 0.15077580804187693 0.029608319825912888
0.03340145733471536 0.15075715865871867 0.028083142221105972
0.033492537139696174 0.15073891623874555 0.026550285919830274
0.03358418877717492 0.1507200638759071 0.025008396190916493
0.03367634339646172 0.15070110805190953 0.02345804461104206
0.03376893057759636 0.1506825609876029 0.0218998227023402
0.03386210325000683 0.15066339712783972 0.020332342397588576
0.03395571609554275 0.15064464322176618 0.018756860427867672
0.034049923784742996 0.1506252678673974 0.017171965975780523
0.03414465567296456 0.1506057847030343 0.015578252709207485
0.03423983948141103 0.15058671327068954 0.013976335152817376
0.034335632549396075 0.15056701326950583 0.012364767542474564
0.03443196312296832 0.15054720272953823 0.010744157246407315
0.034528835738861265 0.1505272807178027 0.009114427941211312
0.034626176578960374 0.1505077727862073 0.007476213263102216
0.0347241466509122 0.1504876265251086 0.0058280192656670615
0.0348226726817056 0.15046736593848228 0.004170472125773705
0.034921679667216 0.15044752117659327 0.0025042202429501614
0.04228611637875953 -0.011608465753544017 0.04870703177702895
0.0421392930570293 -0.00944158925605637 0.048704408656677134
0.041993367077439295 -0.007288604703132917 0.048702574558746825
0.04194262023979549 -0.00602398811215471 0.048087109860966704
0.041912916814926274 -0.0049560842334660515 0.04733633469656556
0.041777126893161896 -0.002909291308845763 0.04728295914048791
0.04163439431113859 -0.0008036286645548008 0.047281411493456604
0.041492633705864666 0.001287694891311364 0.047279874385406706
0.04135183518261662 0.00336482533067739 0.047278347709049096
0.04121198898052055 0.005427906650848635 0.04727683135854993
0.04107308547029723 0.007477080907780598 0.047275325229501286
0.040935115152051525 0.009512488248688167 0.04727382921889928
0.040798068653107436 0.011534266943990346 0.04727234322511514
0.040661936725884265 0.013542553418632863 0.047270867147881035
0.04052671024581728 0.015537482282768855 0.0472694008882627
0.040392380209319505 0.01751918636183042 0.047267944348633295
0.04025893773178214 0.0194877967260203 0.04726649743266065
0.040126374045616586 0.021443442719201733 0.04726506004527975
0.03999468049833371 0.02338625198723171 0.04726363209267509
0.03986384855066211 0.025316350505726004 0.04726221348225451
0.03973397605464819 0.02723291094718744 0.047260070873784366
0.03960484144236784 0.029137967520067698 0.04725867305408504
0.03947654347959891 0.03103068143276899 0.04725728429058074
0.03934907406175038 0.03291117224815826 0.0472559044955424
0.039222528750108725 0.034778638502624915 0.047253809755175735
0.03909669186057746 0.03663504351531388 0.04725244995704547
0.038971659827933276 0.03847957490054854 0.04725109885610207
0.038847424954955634 0.040312346211349714 0.04724975636916795
0.03872408058836503 0.04213258092547606 0.04724770776953435
0.038601416694350736 0.0439421745131266 0.04724638452559887
0.038280710886794585 0.04748301147438744 0.04866154389276217
0.03816024725367951 0.049260340725889196 0.04866001209454929
0.0380405394030206 0.05102651910786998 0.048658489906636404
0.0379215802444514 0.05278165123211365 0.048656977238865085
0.03781154181415204 0.0544547678326745 0.04859646509586507
0.03774611246308732 0.05573693205755437 0.0482180674224959
0.03768081357857302 0.057015493568046194 0.04784167093663971
0.03761583548192662 0.05828881674188974 0.04746588085367276
0.037606788745827256 0.05907789149692694 0.04668445282872319
0.037779134816595686 0.05830753977389125 0.044574312101666735
0.037860111140477534 0.05832730688013843 0.043127957809030615
0.03794143534151449 0.05834715890667591 0.041675389927010364
0.03802310966627102 0.058367096401913454 0.04021656832871312
0.03810533187213988 0.058385454439221496 0.03875000249738214
0.03818781227756156 0.058404726543786034 0.0372778106192424
0.038270551925338465 0.05842491851511422 0.03579996746011288
0.038353650887392225 0.0584451981744209 0.034315706456928
0.038437111509412494 0.05846556609415515 0.03282498571246373
0.038520936157551096 0.05848602285175969 0.031327762964013794
0.03860522754605209 0.05850572567573031 0.029823237845441775
0.038689787867844334 0.058526360068128225 0.028312877225501132
0.038774719442134946 0.058547085053597514 0.026795885538494213
0.03886002471921564 0.05856790123005956 0.02527221901892679
0.038945706170988456 0.05858880920070891 0.023741833515314947
0.039031868848374215 0.05860895717111447 0.02220389835799924
0.039118516633115996 0.05862834024502411 0.02065835117783915
0.03920523956265108 0.058650377834953804 0.019108320130705236
0.039292451794542486 0.05867165542570579 0.017550597515953836
0.03938005289943177 0.05869302789180736 0.015985929129234022
0.03946804548406511 0.058714495869240546 0.0144142684107052
0.039556432178539186 0.05873605999968612 0.01283556838345451
0.03964521563656402 0.05875772093058074 0.011249781648810464
0.039734398535727376 0.05877947931519162 0.009656860381608345
0.03982409034033782 0.05880046662213567 0.008055916312986744
0.03983380806811967 0.05947442956823612 0.007081971854160929
0.0399071109044437 0.05963349610168828 0.005604433968698086
0.034360835930356846 0.10782594862302164 0.045621805482710165
0.03426477582214027 0.10924308731780946 0.045620749847929576
0.034169251312379925 0.11065232452981655 0.04561970009893218
0.03407425793405691 0.11205372615929254 0.0456186561866313
0.033979791269689676 0.11344735737568395 0.045617618062480936
0.0338858469506483 0.114833282627744 0.04561658567847682
0.03379242065648217 0.11621156565345853 0.045615558987139204
0.03369950811425646 0.11758226948982659 0.04561453794151543
0.03360710509790188 0.11894545648246191 0.04561352249516304
0.033515207427572774 0.12030118829505426 0.045612512602152155
0.03342381096901795 0.12164952591865902 0.045611508217049346
0.03333291163295977 0.12299052968085139 0.04561050929491878
0.033242505374484616 0.12432425925472024 0.045609515791312394
0.03315258819244333 0.12565077366771688 0.04560852766225931
0.03306315612885998 0.12697013131037055 0.045607544864267824
0.032974205268352194 0.12828238994484747 0.04560656735430968
0.032885731737558606 0.1295876067133897 0.04560559508982309
0.03279773170457781 0.13088583814660032 0.045604628028697025
0.03271020137841397 0.13217714017161397 0.045603666129274634
0.03262313700843348 0.1334615681201198 0.04560270935033828
0.032536534883828405 0.1347391767362717 0.045601757651111074
0.032450391333089565 0.13601002018446343 0.04560081099124824
0.03236470272348812 0.13727415205697963 0.04559986933082749
0.03227946546056398 0.13853162538153713 0.04559893263035175
0.03219467598762423 0.13978249262869133 0.045598000850734566
0.03211033078524735 0.14102680571914272 0.04559707395330331
0.032026426370797376 0.14226461603091275 0.045596151899785275
0.03194295929794355 0.14349597440642248 0.04559523465231008
0.031859926156188885 0.14472093115945062 0.045594322173400925
0.03177732357040607 0.1459395360819839 0.045593414425966594
0.03169514820037917 0.14715183845097032 0.045592511373303835
0.03161339674035445 0.14835788703495373 0.04559161297908365
0.03153206591859609 0.1495577301006213 0.045590719207355246
0.03145115249695066 0.15075141541923473 0.04558983002253264
0.03147867772954257 0.15114325876080975 0.044639215816540345
0.031561945709399464 0.15112658358110323 0.04319602620337265
0.031645722796612416 0.1511093259027219 0.04174458550114146
0.03172994581809197 0.15109197636413213 0.04028541897341459
0.03181455020709772 0.15107503098707042 0.03881906995540246
0.031899675480130465 0.15105749688081874 0.03734427035125293
0.031985188639965335 0.1510403681881341 0.03586217221757576
0.032071230740854814 0.15102264653939815 0.034371486968918785
0.032157737007119554 0.1510048292890251 0.032872760023433756
0.03224464121351422 0.15098741932413842 0.03136655567527691
0.03233208676972369 0.15096940994009214 0.029851553886118543
0.032419937155319774 0.15095180908849126 0.028328952160343313
0.0325083373832488 0.15093360443164103 0.026797409002686567
0.03259722101515036 0.15091530022535157 0.025257490820709716
0.03268652010416572 0.15089740641389301 0.02370978374783339
0.03277638211975745 0.15087890208835766 0.022152913341294544
0.032866666878006115 0.1508608093970857 0.020588124555918574
0.03295752352094774 0.15084210163736236 0.01901402046574413
0.03304888388451456 0.1508232901595909 0.017431189344902676
0.03314067823398932 0.15080489216503284 0.015840240091875568
0.033233058274918 0.15078587213338282 0.014239741246887927
0.0333259547762137 0.1507667457683601 0.012630294644073448
0.03341937208100638 0.15074751217576104 0.011011825038019007
0.03351323897418503 0.15072869451343723 0.009384960239707696
0.03360771068452229 0.15070924526402596 0.0077482211819690505
0.033702716519891616 0.15068968605239036 0.006102228313620339
0.03379818412466222 0.1506705445935637 0.0044476240541341805
0.03389427145170245 0.15065076418931012 0.0027828924138941225
0.041042407103305444 -0.0116084658618415 0.04870703177732677
0.04089990210899705 -0.00944158936399031 0.0487044086569669
0.04075826806444867 -0.0072886048107053125 0.04870257455902871
0.04072522689708831 -0.006178932968982254 0.0479782604991319
0.040687875569738456 -0.005029441129492274 0.04728451743552886
0.040548387874334665 -0.0029092914159009053 0.04728295914074693
0.04040985330401683 -0.0008036287712563372 0.04728141149370746
0.04027226212293377 0.0012876947849610465 0.047279874385649456
0.04013560472738292 0.003364825224675849 0.04727834770928352
0.03999987164357451 0.00542790654519365 0.047276831358776195
0.03986505352544305 0.007477080802469727 0.047275325229719334
0.039731141152501724 0.0095124881437193 0.04727382921910911
0.03959812542774111 0.011534266839361207 0.04727234322531676
0.03946599737556787 0.013542553314340955 0.04727086714807427
0.03933474813978642 0.015537482178812179 0.047269400888447666
0.03920436898162085 0.01751918625820681 0.04726794434880999
0.039074851277774054 0.019487796622727427 0.04726649743282901
0.03894618651852733 0.021443442616237596 0.047265060045439844
0.03881836630587623 0.023386251884594034 0.047263632092826746
0.03869138235170403 0.025316350403412735 0.047262213482397786
0.03856522647598919 0.02723386250530896 0.04726080412277256
0.03843999308971217 0.029137967418396804 0.04725867305421161
0.03831546859157102 0.031030681331416288 0.047257284290698864
0.03819174826941344 0.0329111721471218 0.047255904495652146
0.038068824358290586 0.03477955788908804 0.04725453358247578
0.03794678906458477 0.03663504341490359 0.0472524499571384
0.03782543443992386 0.038479574800448446 0.0472510988561865
0.03770485352908715 0.040312346111558095 0.047249756369244056
0.03758503895620207 0.04213346945791241 0.04724842241419508
0.03746608079622803 0.0439421744139456 0.04724638452565805
0.03715480750332033 0.0474830113760199 0.04866154389281263
0.03703788691366924 0.049260340627820864 0.04866001209459142
0.03692169987760721 0.05102651901009897 0.048658489906670155
0.036806239513307706 0.05278165113463812 0.0486569772388904
0.03670756632729606 0.0543819910112151 0.04853604129655836
0.036644033254540825 0.05566456470125675 0.048157664534966504
0.03658071972615191 0.05694270634024734 0.047780595288900385
0.03651753211554568 0.05821726151764656 0.04740552074171478
0.03653150343878824 0.05880456896324049 0.04645267158848104
0.03669906355075173 0.05803231063230696 0.044339679183387715
0.03677779165163995 0.058051504098148965 0.04289159298453277
0.03685685825914538 0.05807078009009209 0.041437280460329684
0.036936265561183096 0.05809013914153943 0.03997670136733633
0.03701620583083115 0.058107913461789895 0.03850836259052637
0.03709639743047191 0.058126600815918306 0.037034385881995036
0.0371767455167854 0.05814704469390125 0.035555482953706474
0.03725753869129994 0.05816673787114879 0.034069417259540546
0.03733878048985936 0.05818567559568072 0.03257613045342711
0.03742028024568054 0.05820553911333293 0.03107707053645925
0.03750223410585353 0.05822464471781813 0.029570693229979184
0.03758444975285033 0.058244680811981975 0.02805846788905736
0.03766692826782352 0.05826565337192252 0.026540367819577138
0.037749967250811874 0.05828501771041994 0.02501403822195858
0.037833273895846536 0.05830531968302022 0.023481745716528613
0.03791704875150989 0.05832485756214084 0.021941887821529005
0.03800129559742139 0.05834362641515689 0.020394401993111544
0.038085615833908716 0.0583650516447789 0.018842421826664624
0.03817041214735527 0.05838571272466936 0.017282733933757233
0.038255586895466695 0.05840646601233079 0.015716085361154708
0.038341142617263894 0.05842731212641106 0.014142429407766444
0.03842708187453181 0.05844825169110601 0.012561718953792933
0.03851340725207588 0.05846928533621576 0.01097390645601698
0.038600121357979994 0.05849041369721725 0.00937894394304617
0.038687330631630455 0.058510766670804626 0.007775941496275196
0.03877483058303867 0.058532084480979685 0.006166527070302741
0.0388551865922797 0.05861645643646474 0.004611294090972051
0.03885623366488684 0.059364571573081226 0.003700768821010003
0.03335022283166191 0.1078259485343866 0.045621805482425115
0.03325698801710287 0.10924308722941484 0.04562074984763648
0.03316427304812461 0.11065232444166095 0.04561970009863092
0.033072073589090936 0.11205372607137493 0.04561865618632205
0.0329803853524461 0.11344735728800293 0.04561761806216358
0.0328892040980491 0.11483328254029834 0.04561658567815147
0.03279852563252125 0.11621156556624695 0.045615558986805915
0.03270834580860211 0.11758226940284794 0.04561453794117415
0.03261866052451839 0.11894545639571491 0.04561352249481382
0.0325294657233609 0.12030118820853775 0.04561251260179505
0.032440757392473936 0.12164952583237171 0.04561150821668425
0.03235253156285256 0.12299052959479223 0.04561050929454591
0.032264784308551044 0.12432425916888806 0.0456095157909317
0.032177511746100944 0.12565077358211046 0.045608527661870846
0.03209071003393724 0.12697013122498874 0.04560754486387164
0.03200437537183572 0.1282823898596891 0.045606567353905725
0.03191850400035725 0.1295876066284536 0.045605595089411366
0.03183309220030326 0.13088583806188542 0.04560462802827764
0.03174813629217767 0.13217714008711912 0.045603666128847586
0.03166363263565945 0.13346156803584394 0.04560270934990368
0.031579577629081965 0.13473917665221374 0.04560175765066887
0.03149596770892144 0.13601002010062224 0.04560081099079849
0.031412799349293884 0.1372741519733541 0.04559986933037019
0.03133006906145847 0.13853162529812624 0.04559893262988701
0.031247773393330756 0.13978249254549402 0.04559800085026239
0.031165908929001514 0.14102680563615785 0.04559707395282364
0.031084472288265073 0.14226461594813944 0.04559615189929833
0.03100346012615325 0.14349597432385958 0.04559523465181581
0.030922869132477663 0.1447209310770971 0.04559432217289938
0.030842696031379315 0.14593953599983872 0.04559341442545772
0.030762937580883772 0.14715183836903256 0.0455925113727878
0.030683590572465256 0.1483578869532223 0.0455916129785604
0.030604651830615316 0.14955773001909523 0.04559071920682489
0.030526118212420232 0.15075141533791303 0.04558983002199518
0.030528057197529733 0.1513312996791451 0.04486364842367996
0.030608744919896787 0.15131513506246536 0.043422225440833906
0.030689925624362045 0.15129839153048463 0.041972567944231876
0.030771472416027828 0.1512820535361145 0.04051579988120163
0.030853519745187262 0.15126513254551982 0.03905066539279611
0.030936005776664593 0.15124812107948182 0.03757769691498741
0.031018867304569393 0.15123151708373803 0.03609744523253117
0.031102241003408616 0.15121432385365052 0.03460862395920572
0.031185996645021887 0.15119753938306246 0.03311240124681042
0.03127027241756371 0.1511801614460487 0.031607469887633466
0.03135500491097096 0.15116268933183197 0.030094382761456873
0.03144012928922619 0.1511456279057915 0.028573711916654143
0.03152578605922893 0.151127966542037 0.02704411818004937
0.03161184152793394 0.15111071715198965 0.02550681584179465
0.0316984377806913 0.1510928634325154 0.023960443919959495
0.03178550977328114 0.15107491162894307 0.022405576587437137
0.03187299097729534 0.15105737372037184 0.020842808052081607
0.03196102589683605 0.1510392247647278 0.01927074384087385
0.0320495484774839 0.15102097527477962 0.017689971328571752
0.0321384911441694 0.15100314159486058 0.016101098468416397
0.032228000882547715 0.15098468999562573 0.014502696336190224
0.03231801060496231 0.15096613532945782 0.012895365839552586
0.03240845166544797 0.1509479983806113 0.011279729026836383
0.03249947359622288 0.1509292364802802 0.00965432152712481
0.032591008252677786 0.15091036889446122 0.008019758122110698
0.03268298589298754 0.1508919209239491 0.006376675315833469
0.03277555866325315 0.15087284080427776 0.004723572258140352
0.03286865733749221 0.15085365229096825 0.003061077956373448
0.032962286409945134 0.15083435445771406 0.0013891121553737396
0.03979869782785532 -0.011608465970151471 0.04870703177761604
0.03966051116096864 -0.009441589471936185 0.048704408657248344
0.03953479214965841 -0.007403388667788557 0.04862238073526581
0.03950675183467197 -0.0063329010845526446 0.04787009730234976
0.0394549096566693 -0.0050294412369144 0.04728451743578821
0.03931964885551084 -0.0029092915229666505 0.04728295914099839
0.03918531229689835 -0.0008036288779681433 0.04728141149395093
0.03905189054000605 0.001287694678600848 0.04727987438588499
0.038919374272152266 0.0033648251186649825 0.047278347709511226
0.038787754306631395 0.005427906439529728 0.04727683135899591
0.038657021580591686 0.007477080697150307 0.04727532522993105
0.03852716715295462 0.009512488038742162 0.047273829219312835
0.03839818220237739 0.011534266734724075 0.047272343225512437
0.03827005802525394 0.013542553210041608 0.04727086714826195
0.03814278603375792 0.015537482074848341 0.0472694008886273
0.03801635775392445 0.01751918615457626 0.04726794434898152
0.0378907648237681 0.019487796519428113 0.047266497432992494
0.037765998991440106 0.021443442513267297 0.04726506004559522
0.03764205211342064 0.023386251781950584 0.04726363209297402
0.03751891615274774 0.025316350301094026 0.04726221348253695
0.03739658317727893 0.027233862403313047 0.04726080412290362
0.03727514473705808 0.029137967316721136 0.047258673054334455
0.03715439370354459 0.03103068123005931 0.04725728429081366
0.037034422477077854 0.032911172046081405 0.04725590449575878
0.03691522352801019 0.034779557788362114 0.0472545335825742
0.03679688626859322 0.03663504331448997 0.04725244995722866
0.036679209051915455 0.03847957470034552 0.04725109885626866
0.03656228210321961 0.0403123460117637 0.04724975636931794
0.03644609827014404 0.042133469358424824 0.047248422414260804
0.03633074489810603 0.043942174314762494 0.04724638452571556
0.036028904119846696 0.04748301127765059 0.04866154389286159
0.035915526573659484 0.049260340529751034 0.04866001209463228
0.03580286035219424 0.05102651891232668 0.048658489906702795
0.035690898782164325 0.05278165103716165 0.048656977238914934
0.035603101677488695 0.05430918194291001 0.048475590723934314
0.035541466568637894 0.0555921653350584 0.04809723492972168
0.035480044492588125 0.056870714281568535 0.04772018686723639
0.03541874461940993 0.058145674752015264 0.04734513402314994
0.03545440209281531 0.058530784817776293 0.04622049889514901
0.0356171597891682 0.05775661452502867 0.04410464817672716
0.03569363190996558 0.057775232372510366 0.042654826272198465
0.03577043311749381 0.057793930339312904 0.04119876526830618
0.03584756554059926 0.057812708943725144 0.03973642480461331
0.035925215948758873 0.057829897523550056 0.03826630916100249
0.0360030180638878 0.0578488354543375 0.03679127654937159
0.03608115789755989 0.057867855589813944 0.03530984120853786
0.036159637653479085 0.05788695846638803 0.03382196135897714
0.036238553483203144 0.05790530193797455 0.03232684560954774
0.03631772018263786 0.05792457013385194 0.030825944407262884
0.03639723353426414 0.05794392270069787 0.029318471114625988
0.03647709581993928 0.05796336019388981 0.027804382470486444
0.03655730934159188 0.057982883173690325 0.026283634833166758
0.03663787642144305 0.05800249220530096 0.024756184176269402
0.0367188958374175 0.05802133430668743 0.023221202991633105
0.036800274373146286 0.05804025992608208 0.021679417980154325
0.03688201442163822 0.058059269620011456 0.020130783804260255
0.036964020669664296 0.05807922305173463 0.0185760553284115
0.03704639240802698 0.0580992654132218 0.017014397645833734
0.037129132085592 0.05811939730032267 0.015445764329315215
0.037212242173151104 0.05813961931422362 0.013870108535954051
0.0372956256748242 0.058160798652709345 0.012288207563784792
0.037379583572530545 0.05818033615419177 0.01069754004058232
0.0374638199377959 0.05820083220984762 0.009100531532025835
0.03754853766265676 0.05822054854893516 0.007495465903844201
0.037633538103967114 0.05824122848655483 0.005883973957466648
0.037718008442095864 0.05826988743703099 0.00427286930983567
0.0377127178706054 0.05907297836073849 0.003414549454800797
0.0323396097329639 0.10782594844575993 0.04562180548214845
0.032249200212062325 0.1092430871410287 0.04562074984735187
0.032159294783866074 0.11065232435351413 0.045619700098338434
0.03206988924412168 0.11205372598346613 0.04561865618602173
0.03198097943519915 0.11344735720033094 0.04561761806185549
0.03189256124544646 0.1148332824528619 0.04561658567783555
0.031804630608556816 0.11621156547904482 0.045615558986482285
0.03171718350294416 0.1175822693158789 0.04561453794084286
0.03163021595113123 0.11894545630897763 0.0456135224944747
0.0315437240191453 0.12030118812203106 0.04561251260144822
0.0314577038159261 0.12164952574609461 0.04561150821632992
0.03137215149274146 0.12299052950874328 0.04561050929418381
0.03128706324261352 0.12432425908306621 0.04560951579056205
0.031202435299754545 0.12565077349651455 0.04560852766149359
0.031118263939010425 0.12697013113961753 0.04560754486348684
0.03103454547531509 0.12828238977454148 0.04560656735351343
0.030951276263151667 0.12958760654352852 0.04560559508901163
0.03086845269602443 0.13088583797718162 0.04560462802787035
0.030786071205937 0.13217714000263558 0.045603666128432974
0.030704128262881 0.1334615679515795 0.045602709349481574
0.030622620374331035 0.13473917656816736 0.045601757650239494
0.030541544084748774 0.13601002001679272 0.04560081099036173
0.030460895975095027 0.1372741518897405 0.04559986932992621
0.030380672662348278 0.1385316252147273 0.04559893262943565
0.030300870799032535 0.13978249246230884 0.04559800084980392
0.030221487072750856 0.1410268055531853 0.045597073952358014
0.030142518205727904 0.1422646158653785 0.04559615189882554
0.030063960954358038 0.14349597424130905 0.04559523465133575
0.029985812108761452 0.1447209309947562 0.04559432217241233
0.029908068492347503 0.1459395359177063 0.04559341442496362
0.02983072696138328 0.14715183828710748 0.04559251137228665
0.029753784404570896 0.14835788687150375 0.04559161297805231
0.02967723774262932 0.1495577299375822 0.045590719206309915
0.029601083927884526 0.15075141525660446 0.04558983002147332
0.029578914639061225 0.15151952563790536 0.04508830188199381
0.029657092943153007 0.15150338017508388 0.043648057137421536
0.029735622356189862 0.15148764157740582 0.04220077276662221
0.029814632330604 0.15147132563115326 0.04074520500475165
0.029894063295308585 0.15145492274846112 0.03928188151444045
0.02997385436359521 0.15143892871974116 0.037811348109654586
0.03005413712156211 0.15142235123206482 0.03633233084508691
0.0301347861448481 0.15140618392626431 0.03484598705197628
0.030215934471467785 0.15138942901683067 0.03335102220162195
0.030297521017759975 0.15137258362713837 0.03184798419627394
0.030379483331602324 0.1513561504081116 0.03033743989806731
0.030461956675016444 0.1513391232488849 0.028818063180801268
0.030544812297768044 0.15132250958729648 0.02729105702273893
0.0306281869757177 0.1513052976860226 0.02575507374165742
0.030712018055864692 0.15128799156501865 0.02421068231827661
0.030796241461057222 0.15127110092733695 0.02265847154748385
0.030880996286712932 0.1512536054745412 0.021097060646726118
0.030966218909781594 0.15123601345712603 0.019527031664504868
0.031051844248196063 0.1512188389051948 0.017948986999370198
0.031138013776924177 0.15120105281287727 0.01636151182282497
0.031224662880806966 0.15118316773246207 0.014765201578051057
0.0313117254496618 0.1511657020948321 0.013160672612511137
0.03139934540010208 0.15114761803657106 0.011546475071422091
0.03148745710215147 0.15112943248482552 0.009923218129511746
0.03157599339361673 0.15111166834687176 0.008291532439132998
0.03166510069704721 0.15109327874771755 0.006649932102565204
0.031754712344270825 0.15107478506428412 0.00499904037324439
0.031844832629287924 0.1510561864103964 0.0033387781439311315
0.031935392948705676 0.15103801178365608 0.0016697957141027508
0.038708479739739975 -0.013179528258568884 0.047621440024891715
0.03842112021294398 -0.009441589579894272 0.04870440865752129
0.03831460628976125 -0.0075591169066243635 0.04851358106308029
0.038287420565366 -0.006488092148603186 0.04776107497898768
0.03822205160658245 -0.005030536431893884 0.04728374389566864
0.03809101696137685 -0.0029103770007816165 0.04728218824837266
0.03796077128978306 -0.0008036289846901634 0.04728141149418719
0.037831518957081395 0.0012876945722309352 0.047279874386113585
0.03770314381692458 0.003364825012644568 0.047278347709731994
0.037575636969691135 0.005427906333856536 0.04727683135920896
0.03744898963574305 0.007477080591822172 0.04727532523013639
0.03732319315341015 0.009512487933756697 0.0472738292195104
0.03719823897701617 0.011534266630079004 0.047272343225702285
0.037074118674942404 0.013542553105734711 0.04727086714844403
0.036950823927731705 0.015537481970877287 0.047269400888801494
0.03682834652623023 0.017519186050938884 0.04726794434914788
0.03670667836976421 0.019487796416122305 0.04726649743315109
0.03658581146435484 0.02144344241029078 0.04726506004574588
0.03646573792096691 0.023386251679301417 0.0472636320931169
0.036346449953793186 0.025316350198769932 0.047262213482671955
0.036227939878570314 0.027233862301311917 0.047260804123030686
0.036110296384405514 0.02913796721504075 0.04725867305445364
0.03599331881551959 0.031030681128697835 0.04725728429092496
0.0358770966847436 0.03291117194503679 0.047255904495862144
0.03576162269773101 0.03477955768763241 0.04725453358266968
0.03564698347260277 0.03663504321407296 0.047252449957316256
0.03553298366390808 0.038479574600239264 0.04725109885634815
0.03541971067735296 0.040312345911966585 0.047249756369389606
0.03530715758408684 0.04213346925893463 0.047248422414324476
0.03519540899998473 0.04394217421557728 0.04724638452577129
0.03490300073637364 0.047483011179279555 0.04866154389290922
0.034793166233650225 0.049260340431679706 0.04866001209467191
0.03468402082678165 0.05102651881455328 0.04865848990673455
0.034575646315356416 0.0527808079037298 0.048656280998261414
0.0344981475395411 0.054236340606325095 0.048415113360197104
0.034438412081871914 0.05551973393771481 0.048036778589029216
0.03437888313672947 0.056798690427001586 0.047659751765693426
0.03431947267334397 0.058074056424134435 0.047284720680380754
0.03437556734915932 0.05825571362793813 0.04598723477036887
0.0345334188642479 0.05748045026263582 0.043869218067703775
0.03460762721802632 0.05749849050619754 0.0424176566461692
0.03468215518904612 0.05751660844964307 0.04095984331305513
0.03475709403982365 0.057533969333446844 0.03949501418655216
0.034832357437389924 0.05755140540424458 0.03802384114639862
0.03490785752557594 0.05756975594926428 0.03654701703510671
0.03498368562169206 0.0575881862177981 0.03506377690442841
0.03505984386792284 0.05760669673051266 0.03357407885202918
0.03513633442514738 0.05762528801261818 0.03207788060989897
0.03521325102283017 0.057643114653015026 0.030574383449984865
0.03529041316214332 0.05766186726312944 0.029065050952161442
0.03536791421196111 0.05768070223831656 0.02754908918442156
0.03544575641003499 0.057699620122415585 0.026026454375154884
0.03552394201386033 0.057718621464064146 0.024497102366548673
0.035602566886104935 0.05773685176959348 0.02296020414599964
0.035681540569987236 0.05775516295222577 0.0214164876250722
0.0357608653918711 0.057773555551363376 0.019865907329801813
0.03584044885836879 0.05779289072770394 0.018309219398260468
0.03592038733044964 0.05781231215443505 0.016745587399784434
0.03600068318883455 0.057831820409965706 0.015174964766413779
0.03608133883557925 0.05785141607788985 0.01359730451286828
0.03616226014303709 0.057871967879886965 0.012013385260021936
0.036243739210487985 0.05789087201154708 0.01042068108933275
0.03632548885161062 0.05791073347091119 0.008821621819685821
0.03640770597336071 0.05792981086504745 0.0072144881909256275
0.03649019780040505 0.057949850608362774 0.005600913858748224
0.0365394190943576 0.05826901122240696 0.004272013786236817
0.036567139761550696 0.05878085926411675 0.0031278138959688895
0.03132899663426294 0.10782594835714138 0.04562180548187994
0.03124141240701875 0.10924308705265096 0.0456207498470757
0.031154316519604406 0.11065232426537597 0.04561970009805477
0.031067704899149225 0.11205372589556611 0.045618656185730355
0.03098157351794894 0.1134473571126679 0.045617618061556564
0.030895918392840477 0.11483328236543461 0.04561658567752913
0.030810735584588966 0.11621156539185196 0.04561555898616826
0.030726021197282734 0.11758226922891929 0.04561453794052134
0.030641771377740518 0.11894545622225011 0.04561352249414574
0.030557982314926062 0.12030118803553436 0.04561251260111182
0.030474650239374575 0.12164952565982756 0.045611508215986085
0.03039177142262659 0.12299052942270466 0.045610509293832646
0.030309342176672166 0.12432425899725474 0.04560951579020339
0.03022735885340424 0.12565077341092917 0.04560852766112766
0.030145817844079638 0.12697013105425697 0.04560754486311347
0.030064715578790424 0.1282823896894048 0.04560656735313284
0.029984048525941987 0.12958760645861434 0.04560559508862372
0.029903813191741423 0.13088583789248903 0.045604628027475336
0.029824006119692097 0.13217713991816338 0.04560366612803074
0.02974462389009825 0.13346156786732652 0.04560270934907218
0.02966566311957575 0.13473917648413244 0.04560175764982283
0.029587120460571676 0.13601001993297496 0.04560081098993812
0.02950899260089169 0.13727415180613864 0.045599869329495446
0.029431276263233528 0.1385316251313404 0.045598932628997946
0.029353968204729717 0.13978249237913568 0.045598000849359055
0.02927706521649553 0.14102680547022498 0.045597073951906264
0.02920056412318601 0.14226461578262983 0.0455961518983668
0.029124461782558026 0.14349597415877113 0.045595234650870176
0.02904875508504039 0.14472093091242788 0.04559432217193993
0.028973440953310788 0.14593953583558658 0.045593414424484335
0.02889851634187781 0.14715183820519542 0.04559251137180059
0.02882397823667151 0.14835788678979825 0.04559161297755948
0.02874982365463826 0.1495577298560822 0.045590719205810315
0.028676049643343696 0.15075141517530907 0.04558983002096706
0.028631373522388603 0.15170695703490794 0.045312007006716226
0.028706986007339102 0.15169131966505986 0.04387352218820928
0.028782937752019642 0.1516760911194707 0.0424280123104126
0.028859353954499605 0.15166028880520607 0.04097423570407954
0.02893611517389686 0.1516448966793777 0.039513321466503604
0.02901334797694049 0.15162892678354709 0.03804400794750051
0.029090994164170325 0.1516128714098731 0.036566830011305784
0.029168994244590626 0.1515972282703917 0.035082340952042435
