# .PCD v0.7 - Point Cloud Data file format
VERSION 0.7
FIELDS x y z
SIZE 4 4 4
TYPE F F F
COUNT 1 1 1
WIDTH 778
HEIGHT 1
VIEWPOINT 0 0 0 1 0 0 0
POINTS 778
DATA ascii
-0.1430030346164114 0.04756939235895831 0.027481300387056318
-0.1431879416859214 0.04765664713125498 0.026197144546624807
-0.14316651767338698 0.047785464471182364 0.024652162243237574
-0.14248873943720788 0.048046062286544865 0.022282752006778983
-0.1424273348010122 0.048184586583300715 0.020667071535932058
-0.1423845860451209 0.048320094554202796 0.019065932277083975
-0.14233941712134926 0.048456805552983484 0.01745301019397627
-0.1419432290737376 0.04866509861431694 0.01538570263761646
-0.14115267696161385 0.048954316913211164 0.01280175603009115
-0.13890499422581576 0.049540783009632404 0.008330366103970255
0.036198924621995476 0.06367597220563082 0.028504340615969237
0.03436784908596191 0.06352706442390813 0.028175424825621853
0.03306464848381879 0.06345805542753266 0.027481202376744118
0.032075435529345775 0.06343674871996423 0.026567483163855432
0.03148296205243195 0.06347611014648838 0.02537151678955668
0.02988307177633226 0.06336104346275917 0.024896937662075014
0.02761899227395498 0.0631433720181641 0.02490780594842701
0.025184237971451084 0.06289850384869547 0.025053756655554538
0.02284226119276639 0.0626669482464577 0.025144589892864277
0.02037814821476952 0.062415535747436385 0.025337001643457313
0.017958688735325856 0.062170002541378014 0.025509456915049522
0.015886829619107923 0.06197745338582234 0.025436737800115294
0.014570414318269831 0.06190171736500549 0.024810489817837178
0.013909003604488324 0.06192785645957336 0.02369692960976666
0.013624340986086503 0.0620130070233641 0.02229791594265068
0.013337720827279409 0.06209820819691822 0.020895939491424986
0.012469835211214364 0.06209250858140568 0.01993256997748083
0.011952906060340829 0.06214200143168772 0.018700540251458786
0.01149598916436273 0.062201165022994095 0.017419670333743642
0.011172783373230744 0.06228170495115524 0.01603210570575625
0.010756233917292912 0.06234780710809336 0.014712987899108021
0.010274422277631756 0.062403835111675354 0.013441474448010027
0.009885359431023755 0.062474849377156465 0.012093978835577612
-0.09216775647592235 0.05102862013085423 0.03292917954117086
-0.09364534288803078 0.05088894724291914 0.032906600110730044
-0.094515138220161 0.050855751565853105 0.032283164880088866
-0.09490761833432404 0.05090673523802079 0.031180893274958876
-0.09793047245595837 0.05049209981633197 0.03273886144350191
-0.09933813156822796 0.05036223735197801 0.032677519651277964
-0.1007385684364836 0.05023304116996553 0.03261649258393601
-0.10213250958725245 0.05010438644905084 0.032556467899861385
-0.10351866270628096 0.04997650815040122 0.03249606144187289
-0.10489775825368147 0.04984928094162289 0.032435962542158636
-0.10627050615432382 0.049722581973603 0.03237685409946178
-0.10763564241345935 0.04959664271157856 0.032317361716344084
-0.10899452722344927 0.049471223105035246 0.03225885199695577
-0.11034591508760377 0.04934655233106936 0.03219995697644967
-0.11169050889852489 0.04922250833487803 0.032141358048484225
-0.11302899187207749 0.04909897145098231 0.03208373031951589
-0.11436014569596076 0.048976167487403334 0.03202571535840676
-0.11568465729839383 0.04885397629382059 0.031967989881638126
-0.11700319442416762 0.04873228005514034 0.0319112244038684
-0.11831456529158013 0.04861130128350603 0.031854069895825454
-0.11961944127856694 0.04849092168841134 0.03179719845923945
-0.12091787051713032 0.048371136829502295 0.03174060799633871
-0.12220990066484688 0.04825194231019284 0.03168429643002357
-0.12349557891070762 0.048133333777125274 0.03162826170362215
-0.1247749519808542 0.0480153069196418 0.031572501780630424
-0.12604865305256618 0.047897748074402786 0.031517676699802155
-0.1273155498080002 0.047780872337525544 0.0314624588639032
-0.12857627888031853 0.04766456559137951 0.03140750984713603
-0.12983088519971647 0.04754882369099392 0.03135282769121639
-0.13107941326103306 0.04743364253156159 0.03129841045682974
-0.1323219071290207 0.04731901804795198 0.03124425622341198
-0.13355841044352046 0.04720494621423449 0.031190363088913875
-0.13478896642457958 0.04709142304320563 0.031136729169587984
-0.13601417119632542 0.04697833935048619 0.031084002918213338
-0.1372335057370351 0.046865797467119455 0.031031529290126092
-0.13844701213427407 0.0467537935085162 0.03097930647410191
-0.13965419080987432 0.04664242736254838 0.030926686660748215
-0.14080995195177054 0.04654036782620938 0.030819515769256067
-0.14153769379086237 0.04652023651621589 0.030202776924974528
-0.14219164997854097 0.04651425210280626 0.029497903092782718
-0.14274579450610195 0.046527564364211176 0.02867181780407213
-0.14295716069207318 0.0466074946385174 0.02742512604158709
-0.14311370906009593 0.046698511975717845 0.026105776355092536
-0.14293179467453068 0.04685605946299146 0.02436177059994049
-0.14239855668430548 0.047083176591557245 0.022170606872638277
-0.14243599862730633 0.047199527956342906 0.020677900711705
-0.14247688239378542 0.04731581527366098 0.0191818898668617
-0.14247117854185257 0.0474419049317476 0.017619402109966986
-0.14220379951284964 0.047620407085224886 0.015716451778997165
-0.141748525127213 0.047837110959274856 0.013561975826004824
-0.13973987697686882 0.04836377452194701 0.00940104547120918
0.0404372543836789 0.06272457426933142 0.028786563264009024
0.038410556345215896 0.06255108703067284 0.028576364537125865
0.036827390907831714 0.06244285918638802 0.02806526170827095
0.03537035042338488 0.062352986550270925 0.027471163144540067
0.03414138123898214 0.062296805664705225 0.026720627206486935
0.033328545225181805 0.06230266493231191 0.02567745226541812
0.03203320722183761 0.062236198641953885 0.024978554654074947
0.02964618388255924 0.06200542816946339 0.02506704088669448
0.02725581464092458 0.06177320353396754 0.025170022903325873
0.02479528327218461 0.06152943484097664 0.025336120781250082
0.022362564303682053 0.06128886294584881 0.025494730986530934
0.019988333517913737 0.06105615510489764 0.025623087892713947
0.01804904988662903 0.06088851230571413 0.025442779297791762
0.016613167185438815 0.06079675458007713 0.024897856203166813
0.015693155835625472 0.06078325765979802 0.02397298331577641
0.015108163976707778 0.06082088401173191 0.022797563949398858
0.014831374040191858 0.060905849342945864 0.021387738781933563
0.014231698303359297 0.060941638168456304 0.020218175903986557
0.013437067396709912 0.06094760706370664 0.019195303530838592
0.013016109517721308 0.061011166820213195 0.01788574327135134
0.012657821834588523 0.061084669928099994 0.016524484539997997
0.011892892546558453 0.061095574344078835 0.015474275777239255
0.01140468702244296 0.06114942648478256 0.014207962459279633
0.011041290915701718 0.061222898243560565 0.012841014211942003
-0.09127899615668206 0.050118202900400324 0.03204772177809395
-0.09329030319498727 0.049889896300377067 0.03255265194955265
-0.09368229186385596 0.04994000583389522 0.03144857616519009
-0.09407577216795376 0.04999009443239227 0.03034298881585218
-0.09446933940647556 0.050040405548008475 0.029234469537454066
-0.09929316202318872 0.04932084116456805 0.03263175240121052
-0.1006939356991679 0.04919429651099654 0.03257083311173531
-0.10208821101518151 0.04906828230824354 0.03251091592081368
-0.10347469526196956 0.04894302869355016 0.03245061623831491
-0.10485411914356668 0.048818412905263134 0.032390623618617276
-0.10622719281994386 0.048694314614438614 0.03233162117837812
-0.10759265191281192 0.0485709605336507 0.03227223409348323
-0.1089518570522679 0.04844811553846027 0.03221382939941425
-0.11030356236551897 0.048326004099949776 0.03215503870875591
-0.11164847097671021 0.048204506667362444 0.032096543631916385
-0.11298726632492484 0.04808350603059259 0.03203901948798071
-0.11431872973261342 0.04796322336034286 0.031981107429293054
-0.11564354835246066 0.047843540971574935 0.03192348438591669
-0.11696239014567794 0.047724343466898335 0.03186682108205846
-0.11827406297582188 0.04760584878835107 0.031809768077850464
-0.11957923843846302 0.04748794107284718 0.03175299768550527
-0.12087796469136591 0.04737061596988168 0.03169650781033834
-0.12217028941754421 0.04725386917183825 0.03164029637831095
-0.12345625983110059 0.047137696413461334 0.03158436133578041
-0.12473651412399178 0.04702198579704228 0.03152936440153392
-0.12600991135192402 0.04690694901527919 0.031473974560099094
-0.12727709318858227 0.04679247372257535 0.031418855073824525
-0.12853810502872348 0.04667855581803717 0.03136400396814082
-0.12979299182612225 0.04656519124060831 0.03130941928766573
-0.13104179809890376 0.04645237596858876 0.031255099095961525
-0.13228456793481735 0.04634010601915761 0.031201041475315938
-0.1335213449964157 0.04622837744790598 0.03114724452650658
-0.13475217252617758 0.0461171863483734 0.031093706368588714
-0.1359776468340322 0.04600642577808384 0.031041075649455296
-0.13719724875331807 0.0458961959648279 0.030988697133090548
-0.1384104749823934 0.04578659519308147 0.030935921376969044
-0.13975861024097347 0.045651114661273064 0.031051314422270493
-0.14052958177351452 0.045623526787467485 0.030483164642904237
-0.1412792247234721 0.045599819769924846 0.029891105290178466
-0.1420013422485975 0.04558119565084617 0.02926724280276799
-0.14252917148698074 0.04559931348092926 0.02840791208164689
-0.14274676971785802 0.045676500611665644 0.02716749438177901
-0.14278364619007353 0.04578853500529567 0.025699523077769626
-0.14173229345770672 0.0461091093029463 0.022877786792697086
-0.14182944370163283 0.046211316249239597 0.021462896698253686
-0.1419433373846096 0.04631084384553823 0.020062108680266866
-0.1420348471628558 0.04641520701379041 0.018626533769712794
-0.14197332251352393 0.04654967438114938 0.016990695936910327
-0.14176828727991345 0.0467126410536274 0.015163644263320009
-0.14098941006528484 0.04698787791358211 0.012593450065967127
-0.13518288877228435 0.04824323776639663 0.003557023372003587
0.04095916804667671 0.06146567202527642 0.028425924918233925
0.03919895241166971 0.061334740653688095 0.028028575798872357
0.03779607547037023 0.061255291696883485 0.02738848879425909
0.036643370389775665 0.06121200869793949 0.026576860914594158
0.03555089458494354 0.0611773518260852 0.02572498474279905
0.034075174850123624 0.06108642472086165 0.025147152772807824
0.031740315157101684 0.06086904042900367 0.02518772594284535
0.02924907226349971 0.06062776532510327 0.025352196729232446
0.02675533843575212 0.060385129503963374 0.02553137044949666
0.02445952024025 0.06017071754189856 0.025579870079386613
0.02212918339487424 0.05995031117871187 0.025665080739698753
0.020350536534650465 0.05981079425491327 0.02535726594355847
0.01875073208602035 0.05969727120930352 0.024925007042206015
0.017790346177679495 0.05967848119112864 0.024024488055024218
0.017144163708825155 0.059706493284996234 0.02289060726611508
0.016807537502547654 0.05978090601248824 0.021523040350482803
0.016024406568914407 0.059788731001444655 0.020488118878449924
0.015078800242445456 0.059772194235828906 0.019575950719881552
0.014559273022324848 0.05981969535104074 0.018339909586751413
0.014276796239234113 0.059903138131297703 0.016919602946637746
0.013835989900879031 0.05996301057110519 0.015616712411862577
0.012967370391439248 0.05995835947310853 0.01464193545773862
0.012459890822653807 0.060008486228225334 0.013386153204180629
0.012193672329125216 0.06009551153997312 0.011938696420871364
-0.09173124173171748 0.04909115717822523 0.030998383655333084
-0.09814401669058986 0.04812374477538417 0.035919635156066
-0.09796943745060904 0.048267172196074105 0.034265011461988404
-0.0978473945170375 0.04840236303770725 0.03265474515771827
-0.09776806766616009 0.04853092929287193 0.031079604725408716
-0.1006499654184147 0.04815510794068982 0.032525851335298284
-0.10204389846842649 0.04803185131193292 0.032465349571674906
-0.10343071398284509 0.04790922404155543 0.03240515673495148
-0.10481046633692043 0.047787221321500185 0.03234527046504254
-0.10618386592584284 0.047665725344640884 0.032286374096625436
-0.10754964798761085 0.0475449580679609 0.03222709237871413
-0.1089091735902657 0.047424689296252154 0.03216879277832285
-0.11026119648474664 0.04730513879169781 0.03211010648527801
-0.11160642002685628 0.04718618950921812 0.03205171532684137
-0.1129455278790058 0.047067726695665266 0.031994294834827575
-0.11427730099823502 0.046949966881601204 0.03193648574487329
-0.11560242676180449 0.046832794848862436 0.03187896520072564
-0.11692157334745373 0.04671609761930911 0.03182240413624082
-0.11823354826383742 0.046600088562113166 0.03176545270076536
-0.11953902332427235 0.046484654243163684 0.03170878341709926
-0.12083804671229853 0.04636979040191668 0.03165239419364435
-0.12213066613638707 0.046255492819834876 0.031596282959429844
-0.12341692883577188 0.046141757319872884 0.031540447663848836
-0.12469747320603641 0.046028474350754696 0.03148555022937166
-0.12597115796801772 0.04591585116255465 0.03143025924122139
-0.12723862500017896 0.04580377776546349 0.031375238166326314
-0.12849991972117092 0.04569225014342231 0.03132048503304885
-0.12975508710836392 0.04558126431939118 0.03126599788891282
-0.13100417170318507 0.045470816354878034 0.03121177480036119
-0.13224721761639613 0.04536090234947118 0.031157813852537353
-0.1334842685332774 0.04525151844038172 0.03110411314905004
-0.13471536771875384 0.04514266080198952 0.03105067081176055
-0.13594111166864567 0.04503422473510106 0.030998135683766637
-0.13716043147865967 0.04492640879029771 0.030945203076825523
-0.1386311675855433 0.04477198184601255 0.031197977107405572
-0.1394266467244337 0.0447407855252867 0.030655105885813994
-0.1402210180837782 0.044709632648371585 0.03011299066348999
-0.14100675182359845 0.04467991367999885 0.02956254731224056
-0.14174319861545595 0.04465916367028016 0.028954362788364107
-0.14202076547562176 0.04472346195984954 0.02778853535863135
-0.1422358151747813 0.044799726270325316 0.026541811329022447
-0.14175071088496943 0.04500699550021115 0.02442814907277291
-0.14097193365048977 0.04527027328885552 0.0219370944234335
-0.14113704890042375 0.04535793355847652 0.02060188164425608
-0.1412891395072024 0.045448503207796406 0.01924440717469278
-0.14118429019921236 0.04558798480490916 0.017557926648197997
-0.14101987873162553 0.04573946066423829 0.015786661121153622
-0.14086432409978733 0.04589006034925861 0.014016219226599291
-0.13862836955900146 0.046436752082001403 0.009581089140049404
0.040259495531563605 0.06015208931876392 0.02729169543856913
0.03932532783886117 0.06014141729582041 0.026320074346762423
0.0381982538911349 0.06010317633028209 0.025484548288489728
0.036228548878595945 0.059944300123679746 0.025246307905581467
0.03375594805213161 0.05971272264214036 0.025373886086552222
0.031232193442763567 0.05947285141463645 0.025550605264742232
0.028993036159021768 0.059272936810369006 0.02553604980123636
0.026814444382468883 0.05908092984859966 0.025488695515924475
0.024872281446838618 0.05892228376732463 0.025280223469024976
0.022917468055415946 0.05876115043022643 0.0250896947836014
0.021356595358334785 0.058656491775219595 0.024618916164237836
0.020302146564988466 0.058625009512173906 0.023780216174174085
0.019348357830799245 0.05860805807986256 0.022868573991624397
0.018632118073869164 0.05862570875427175 0.02178067106421072
0.017982427647665222 0.05865316705792272 0.020641877266959874
0.017179238726892587 0.05865824178980834 0.01961730440400089
0.01654639671226138 0.05868835824995895 0.018463301380374497
0.016271850270675292 0.05877133819455746 0.017034508710492502
0.015388285667630008 0.05876483870591213 0.016067801512592794
0.014607114102306806 0.058773446449532196 0.015022565381897057
0.014065529064014093 0.05881757874221739 0.01379125087196692
0.013550437353616662 0.058865830756627074 0.012536818476536205
-0.09933954053379451 0.04676960884486439 0.038583291549994014
-0.09908361242518254 0.046922303421611224 0.03686119657459358
-0.0988702317241888 0.04706867277208996 0.035172366173814196
-0.0990299382898771 0.04715378938917612 0.033852068914661304
-0.09892059368725348 0.04728408989958995 0.03225257515618696
-0.09854651345889243 0.047459177364008 0.030374011406863244
-0.10199957194037379 0.046995093305426956 0.03241976884564424
-0.1033867188623766 0.04687509404090383 0.032359682925032274
-0.10476679982729353 0.04675570603798769 0.03229990307473407
-0.10614052546565228 0.0466368140130196 0.032241112847553044
-0.1075066306315644 0.04651863516446278 0.03218193656543217
-0.10886647683123218 0.046400944229497 0.032123742127128596
-0.11021881743915363 0.04628395625852006 0.032065160299511286
-0.11156435604290577 0.046167556713761035 0.03200687312680178
-0.11290377652833844 0.04605163330061557 0.03194955635364655
-0.11423585948691745 0.045936397906680915 0.03189185029878411
-0.11556129252059022 0.04582173778226212 0.03183443231974781
-0.11688074402372978 0.045707542370018873 0.03177797356014189
-0.11819302114993474 0.04559402046349342 0.03172112375834435
-0.11949879593037072 0.045481061059107285 0.03166455564783799
-0.1207981165743755 0.045368659986387894 0.03160826714012033
-0.12209103081589201 0.04525681311598756 0.03155225616728913
-0.12337818211306512 0.045145412696435135 0.031497186341445216
-0.12465842048391995 0.0450346625125984 0.03144172280983787
-0.12593239289556157 0.044924454381048806 0.031386530737206486
-0.12720014523756906 0.044814784331994685 0.031331608135488576
-0.1284617229525033 0.04470564843431517 0.03127695303598216
-0.1297171710413466 0.044597042795088845 0.03122256348912128
-0.1309665340688439 0.04448896355913248 0.031168437564233542
-0.1322098561687854 0.04438140690854325 0.031114573349322217
-0.1334471810491939 0.04427436906225081 0.03106096895083038
-0.13467855199745624 0.04416784627557254 0.03100762249342992
-0.13590456569536993 0.04406173609397829 0.030955183015510868
-0.1371241529313798 0.04395623280817605 0.030902345445693258
-0.13829752254655972 0.04385847227365484 0.03080179892494983
-0.1390943197186616 0.043827870778721426 0.03025846351392203
-0.13988946415460746 0.04379740952151005 0.029715236029895786
-0.14068404353989172 0.04376689314858156 0.0291734136361661
-0.1412376325068194 0.04377985497396395 0.02834159721507734
-0.14149674034716983 0.04384634389316041 0.027150130305215847
-0.13972428912668203 0.04428294501483668 0.023466353235647164
-0.13994238074665513 0.04435857681463763 0.022202391158463564
-0.14010631885743338 0.044444512001034185 0.020866184016516798
-0.14027199301520793 0.044530579078260225 0.019526157016602264
-0.14025926581938158 0.04464991066022766 0.017957137230589892
-0.14012036122400232 0.04479313908010657 0.01622124712137918
-0.1399750075007171 0.044938316468913296 0.014467169228835286
-0.13824868347284153 0.04537735097657206 0.010696115478565305
-0.13348779703750502 0.0463827729727274 0.0030224300406433424
0.040632918326704626 0.05898700180006917 0.025406524302697575
0.03837860353501882 0.05879271208802621 0.02535785185563444
0.03572807255771815 0.0585422368449781 0.025599830969810666
0.03331591352109403 0.05832412953075734 0.025686424031397925
0.03129987105990534 0.05816073278382268 0.025502272735108078
0.029379698576089686 0.05801014996276582 0.025258397267226174
0.027609101378943013 0.057880030191103084 0.024914947248263153
0.025961919466293948 0.05776680518085224 0.024489193852289648
0.024745521397655512 0.05771408365002054 0.023755359266532383
0.02353012219492817 0.05766128531379451 0.023023757886842966
0.022587998350939664 0.05764710682564262 0.022093483011820236
0.02192677602020965 0.05767287535922022 0.02095560380266759
0.020866141942319505 0.05764174848430973 0.020114205999310575
0.019811480966428985 0.05761134578819527 0.019270094322837605
0.018903600091147055 0.05760185152284683 0.01831702987943057
0.01807772943144853 0.057604095341560684 0.017302330790970655
0.017484622978706843 0.057639847382290756 0.016110080596495213
0.016745655590354958 0.057654713940367586 0.015027567015378218
0.015917746342417938 0.057656788954965135 0.014012730323682943
0.015490189444941294 0.05771685608651565 0.012687642935991006
-0.09842233710523818 0.04577035151887883 0.039132369007610746
-0.10037296774902832 0.045563693418269484 0.03961354160290259
-0.10007693180972332 0.04571908227358855 0.037856594035784286
-0.09900418043922438 0.04600100725031849 0.03530729043043446
-0.09790370055542524 0.04628877122901005 0.03271175493525835
-0.09812099023078319 0.04636345596775147 0.03143878770703418
-0.0985643662419246 0.04640161677871046 0.030392274876674563
-0.10195590335479926 0.04595789826481629 0.032374864678260507
-0.10334270989402916 0.0458406385379855 0.03231419480180264
-0.1047231196082341 0.04572386690228342 0.03225452144098867
-0.10609717143299968 0.04560758046828982 0.032195837424505935
-0.10746359983838089 0.04549199167301555 0.03213676664703291
-0.10882376676895256 0.045376880189188167 0.03207867743927406
-0.11017642522260263 0.04526245635253134 0.03202020014494655
-0.11152227901879774 0.0451486081342162 0.03196201702533641
-0.11286201226693687 0.04503522569976867 0.03190480403802359
-0.11419440519275009 0.044922516290995175 0.03184720108465938
-0.11552014562297941 0.04481036962826473 0.03178988573666236
-0.1168399021687408 0.04469867757658589 0.0317335293474878
-0.11815248162841863 0.044587644351106445 0.03167678124435769
-0.11945855625113388 0.0444771613803381 0.03162031437153795
-0.12075817427204061 0.0443672245839911 0.03156412664362618
-0.12205198425811686 0.044257728031558495 0.03150888337096752
-0.12333882745078323 0.0441488720042608 0.03145324624498996
-0.12461935595228807 0.04404055014631596 0.03139788213692363
-0.1258936161292668 0.04393275853549975 0.031342789042088426
-0.12716165389552814 0.043825493287892876 0.031287964975387605
-0.12842351471755992 0.043718750557415975 0.03123340797105917
-0.12967924361997235 0.043612526535368394 0.03117911608245122
-0.1309288851908455 0.043506817449976525 0.03112508738178138
-0.13217248358701 0.04340161956594682 0.031071319959912524
-0.1334100825392516 0.0432969291840252 0.03101781192613179
-0.13464172535742946 0.04319274264056482 0.030964561407919644
-0.1358674549355371 0.04308905630709716 0.03091156655074212
-0.13716317941670308 0.042972606369130174 0.030948449351107965
-0.1379624178605211 0.042942560951574345 0.030403887522305717
-0.13876053946844302 0.04291255751873544 0.029860086650658035
-0.13955754657979047 0.042882595982672626 0.02931704514226241
-0.14025495116044587 0.04287006858713288 0.028655998052433962
-0.14051240528211084 0.04293536781336776 0.027462593918534783
-0.14067849132609145 0.04301722399011294 0.02615328057102112
-0.13891000585678692 0.04344379470873952 0.02246923275003876
-0.1390722094312279 0.04352809567157092 0.02113135293868218
-0.13924112732260188 0.04361163610090643 0.0197957972508796
-0.13929214148236072 0.04371676219425455 0.018307680333948306
-0.13917553174279554 0.04385258559250225 0.01660254557465468
-0.13902637090554737 0.04399499384325844 0.01484679967677599
-0.1378703959059374 0.04432017285975109 0.011809408297493884
-0.13275972317763768 0.045363923816484804 0.0037288289709400124
-0.13325328094001682 0.04539466719901111 0.0027232199564909965
0.0404133424405162 0.057616510621865194 0.02555993132299017
0.03781873631877303 0.05738017816810453 0.025751161083439944
0.03531276925011423 0.05715499067462722 0.025893190099431695
0.03341193369428558 0.057011726730116216 0.025618224957288327
0.03177423426164927 0.05690397360337277 0.025163502333992838
0.030278906507332448 0.056815349061419176 0.024612698720662407
0.028946207047857775 0.05674876162546975 0.02394954700057922
0.028006020209207283 0.05673607967987564 0.023005265980496625
0.02725454090939783 0.05674944730089632 0.02192397187198536
0.026808554254960648 0.0568052135861569 0.020617706142097014
0.025696171703913584 0.05676865285448165 0.01979995763934117
0.02417206930176613 0.05667463546902428 0.019289784374801777
0.022958677802435767 0.05662356197090233 0.018553283595042214
0.022049973528693867 0.0566148596273551 0.017591233523123473
0.02142060674649615 0.056645244150327664 0.016419052054150785
0.020295368570477423 0.0566061599599181 0.01562104116262003
0.018962291081891403 0.056537679569755785 0.01498373768929201
0.01814248717574829 0.056541252803358144 0.0139570906643125
-0.09650806730546263 0.044925429433357984 0.038700225816707345
-0.0991313684245475 0.04461867891868013 0.03983557452561154
-0.09316565726218606 0.04566358421935254 0.03242838922744673
-0.10113547498043685 0.04451285721366643 0.03891735173475547
-0.09686160038508101 0.04529466609446408 0.033149106076236556
-0.096919271324932 0.045392942723411114 0.03171502184869501
-0.09728577511864517 0.045442570884771806 0.03058875689476015
-0.09793266550236057 0.04544773756562532 0.02974604244523621
-0.0986485031873715 0.0454419113957782 0.028973883199946704
-0.10329935418712632 0.044805750521090204 0.032269381896334604
-0.10467942567328242 0.04469170376185003 0.03220912555709493
-0.10605380382150859 0.04457802455907186 0.032150547820825104
-0.10742055560176356 0.04446502744338482 0.03209158261690659
-0.10878104339720862 0.044352497026226095 0.03203359870819822
-0.1101340198289526 0.04424063892575447 0.03197522601507091
-0.11148018894846728 0.044129343623717635 0.03191714701597975
-0.11282023508881167 0.04401850374735967 0.03186003788154068
-0.11415293810981542 0.04390832188986854 0.03180253809612538
-0.11547898606312984 0.0437986902432727 0.0317453254451443
-0.11679904777671668 0.043689503096481175 0.03168907149199951
-0.11811192969359025 0.04358096008348022 0.03163242515257214
-0.11941830428093336 0.0434729550664307 0.03157605958201093
-0.1207182197997344 0.043365484055337175 0.031519972698017984
-0.12201232502510023 0.04325844349452789 0.03146483001687134
-0.12329946085659954 0.04315202917175392 0.03140929282637955
-0.12458027960578327 0.04304613711556751 0.03135402820461625
-0.12585482766384232 0.042940763490563784 0.03129903414989865
-0.12712315096882865 0.0428359044988012 0.031244308680096144
-0.12838529501117796 0.04273155637934476 0.031189849832395977
-0.12964130483914016 0.042627715407817665 0.031135655663059147
-0.13089122506414852 0.0425243778959567 0.031081724247199904
-0.13213509986609218 0.04242154019117705 0.031028053678547274
-0.13337297299853068 0.04231919867614044 0.030974642069230784
-0.13460488779381544 0.04221734976833247 0.03092148754954921
-0.13602468378208576 0.042082971220402395 0.031096358413722214
-0.1368263747328707 0.0420534868922984 0.03055056542284751
-0.1376269431027691 0.04202404385010663 0.030005536687565726
-0.13842584450603648 0.041994735877263496 0.02946061805062422
-0.13922417694173503 0.04196537501595636 0.028917112260852085
-0.13952569982136523 0.04202159995991887 0.02777663960802368
-0.13978335925209479 0.04208570509488778 0.026578962083046387
-0.13787202755517117 0.04252639931828687 0.022734244810511395
-0.13803470397489087 0.042608669817776064 0.021397392679392835
-0.13820746826460753 0.0426896101450828 0.020066998341778497
-0.13832016754546617 0.04278147476060062 0.018656415833651352
-0.13820093353242222 0.04291447615790923 0.0169507283893377
-0.13807534321398565 0.043049293515375384 0.015227387006441828
-0.1374923739956003 0.04326541698244013 0.012919544839746333
-0.1314737407402679 0.04444304346447384 0.003731537666756879
-0.13232431817836532 0.044410055672268106 0.0031761575698672218
-0.1327929876722181 0.044444725685664904 0.0021359494498267573
0.04249346908452256 0.056438253006599125 0.025739499016063483
0.03978446061990054 0.05619301039744648 0.02599930054468169
0.03721805527612426 0.05596575934933003 0.02617314220715322
0.03524278394087732 0.055816465472649755 0.025942625846819445
0.03375594805148363 0.05573187446591102 0.025373886087012465
0.03234792947651849 0.05565749763527032 0.02475379315472981
0.031174512306843205 0.05561431512415892 0.023969586774086338
0.03039352966983444 0.05562375557371127 0.022904569292221344
0.030050596882275626 0.05569229479078286 0.02152099260419532
0.02894819336634491 0.05565851053607254 0.02068773845654953
0.028051483482648965 0.055652433724054706 0.019705516417828195
0.027345365857337045 0.05567218822324293 0.018583015015661064
0.026656153655770787 0.05569432315683948 0.017446801985218363
0.02626091230895461 0.055756598008515235 0.016089989214468414
0.02493655161725228 0.05569229480039257 0.015426311074915156
0.023256840783873745 0.05557911031724091 0.015034418653376846
0.022213534371599675 0.05555269389398033 0.01416679542438154
0.021450268108870185 0.055564637065985086 0.013087293371665809
-0.09720247843673652 0.04377430049280232 0.03938537723347424
-0.09949633006727504 0.043525008738853135 0.04019753743759491
-0.10096193487605809 0.043401989205310736 0.04020069801299053
-0.1022590285876066 0.04330437971939515 0.04004325587545182
-0.10193474091078886 0.04345697881535179 0.0382591940228022
-0.09602474189054422 0.044475917866140253 0.030809312167855485
-0.09664503554521425 0.04448529820246755 0.029936651380690404
-0.09731616266792387 0.04448680805253681 0.02911535753269101
-0.0981951859865608 0.0444558766240627 0.02850773960506464
-0.09911972504015948 0.04441767595036773 0.027949274135792013
-0.10463638035562123 0.04365911258965704 0.03216440355517691
-0.10601042262479837 0.04354814613389122 0.03210524402984721
-0.1073774979154114 0.043437742325242334 0.03204638446843899
-0.10873830670977808 0.0433277945914183 0.03198850592733582
-0.11009160125205869 0.043218503830120325 0.03193023790336719
-0.1114380858258473 0.04310976303530802 0.031872263092263986
-0.11277844498796968 0.043001467297533444 0.03181525787777584
-0.1141114582321956 0.0428938145585357 0.0317578613268083
-0.11543781383519575 0.04278669948360008 0.03170075143886497
-0.11675818084188416 0.042680018787088166 0.03164459998739455
-0.11807136533974721 0.042573967519056115 0.03158805547675031
-0.11937804001413688 0.04246844197687392 0.031531791273064436
-0.12067885879803075 0.04236334046090298 0.03147647460060887
-0.12197265373635496 0.042258855191958565 0.03142076327130894
-0.12326008232508806 0.042154884061485 0.03136532607955589
-0.12454119143904463 0.04205142328393074 0.031310161006899484
-0.1258160274939905 0.04194846911081609 0.031255266054661224
-0.12708463645223994 0.041846017830281884 0.031200639243683548
-0.12834706382818817 0.041744065766642004 0.031146278614101353
-0.12960335469374584 0.04164260927994518 0.03109218222509813
-0.13085355368371188 0.041541644765540384 0.031038348154684703
-0.1320977050010509 0.04144116865365135 0.030984774499461576
-0.13333585242211182 0.04134117740895439 0.030931459374404835
-0.13488090347313803 0.04118973425153415 0.031244230399856632
-0.13568506262198404 0.041160815805102516 0.030697199937015973
-0.1364880933965838 0.041131937936247226 0.030150937052459303
-0.1372899981702264 0.04110310055962245 0.029605440131749705
-0.13809077930955418 0.04107430359012082 0.029060707564979416
-0.13853607241158877 0.041105126148903944 0.02809161528680809
-0.1387926019876898 0.041167926166840646 0.026892642917069276
-0.1367893092318879 0.04161295730277795 0.02295005827454305
-0.1369937857319914 0.04168621959028552 0.021664307535375182
-0.13717044973184625 0.041764587531005884 0.020339080857973646
-0.13734609860988953 0.041843536923651684 0.019006793523248133
-0.13722366912192466 0.04197380034521233 0.01729986372484066
-0.13709765359861692 0.04210536040354378 0.01557876454714674
-0.13696801386312474 0.04223823387174412 0.013843302911039468
-0.13003436381119216 0.04354287612749918 0.0035495871108137123
-0.13114364243482207 0.043466449068266445 0.0033146805222404874
-0.13110713796346496 0.04358786754600401 0.0016311576368136516
0.04165362287626051 0.05498574432943113 0.026323036040569736
0.039260741349699424 0.05478713406324817 0.02636519779371943
0.037011806953890725 0.0546064280033616 0.026318032577583972
0.035381504887706694 0.05450557322658532 0.02584463708661222
0.034095459727971344 0.05444924387169083 0.025132745280698032
0.03301293000374578 0.05441930423690849 0.024278877532012078
0.03206770427008854 0.05440723845197684 0.0233282081424801
0.03129022347590954 0.05441715514668108 0.022257149688366007
0.03083562279646901 0.05446960840484178 0.02095109807321882
0.03012864670294013 0.05448899368335491 0.019826100135136027
0.02950150417527364 0.05451901007299365 0.018641341606966677
0.029573496658111764 0.054641740419560346 0.016938874247293234
0.028435698318340585 0.05460443056860045 0.01612652899637801
0.02747326390587712 0.054590286145512125 0.01518563827570757
0.02659619018879672 0.054587458141442724 0.014181588538673906
-0.0957705549547605 0.042845710366587526 0.039435844587868196
-0.09552978982125843 0.04298213391911546 0.03773499329938845
-0.09969592057231152 0.04245878871932334 0.040395487994446144
-0.1010599686248107 0.04235388274472403 0.04029843036738412
-0.10246228933341145 0.0422427189507946 0.04024694185347932
-0.10310079629826768 0.04224630541376718 0.03943374173154163
-0.09535610565950758 0.043518118704421446 0.030132319009073205
-0.09602163817641429 0.04352065616969263 0.02930219570086673
-0.09685550732578735 0.04349761839688605 0.02864410524001615
-0.0977404212216797 0.04346669317740174 0.028040107487976973
-0.09881359159916558 0.043406867657332836 0.027632851456244223
-0.1045933217221105 0.042626201990548 0.032119667718735645
-0.1059676854347138 0.042517844123649146 0.03206061278697231
-0.10733442677301958 0.042410136168165885 0.03200117219501181
-0.10869555670043596 0.04230277273547908 0.03194339909011873
-0.11004916948577231 0.04219605091746763 0.03188523580331437
-0.11139596964486298 0.04208986622193955 0.03182736524771307
-0.11273664195841393 0.04198411620434467 0.03177046402030309
-0.11406996555396803 0.04187899415214219 0.03171317077032915
-0.1153966289333278 0.041774397205472436 0.031656163711491714
-0.11671730135846597 0.0416702245057028 0.03160011482738612
-0.1180307885611836 0.041566666516188795 0.031543672210650964
-0.11933776344510888 0.04146362197107066 0.03148750943850265
-0.1206388801536934 0.041360991560700014 0.03143229394233288
-0.12193297038638329 0.04125896298532014 0.031376683128173266
-0.12322069185081608 0.041157436535941776 0.0313213459984531
-0.12450209144670815 0.04105640851490074 0.03126628053775343
-0.12577721561441407 0.040955875260749515 0.031211484750400642
-0.12704611034052815 0.04085583314781623 0.031156956660215285
-0.12830882116342185 0.04075627858576745 0.031102694310284507
-0.1295653931786825 0.04065720801918003 0.03104869576271785
-0.13081587104449077 0.040558617927116486 0.030994959098426922
-0.13206029898690258 0.04046050482270921 0.030941482416887656
-0.13329872080507144 0.04036286525274806 0.030888263835926244
-0.134537882403481 0.04026460971417926 0.0308431387009781
-0.1353450625396112 0.04023603059782795 0.030297596111037328
-0.1361494352857536 0.04020776276811963 0.029750863579783182
-0.13695267860098492 0.04017953462966128 0.029204898723263706
-0.13754295935822622 0.04018602449404406 0.028406867819516568
-0.13779890192918373 0.040247421208386515 0.027207255460764523
-0.13570264545748642 0.04069618668300217 0.023166658167941945
-0.13594887563553476 0.040760822790619454 0.021931420423466297
-0.13613005531981429 0.04083655362582804 0.020612049103510555
-0.136320361185365 0.04091116482631296 0.01929811546470611
-0.13624429280046646 0.041030453628477494 0.0176506512191435
-0.1361167324453696 0.04115894961634396 0.0159303977496405
-0.1359644541247996 0.04129225026667017 0.01416959480116492
-0.1335705772777031 0.04180188746216416 0.009596745245639915
-0.12952246763802922 0.04259214799918868 0.002906460407371192
-0.1304304490816619 0.042551678360818745 0.0024140405014294597
0.041229087383349905 0.05359100171419913 0.026618009305785728
0.038717705498311494 0.0533821272275723 0.02674459060100609
0.036865890151291325 0.053256056705002205 0.02642053978516623
0.035461725018858414 0.053186364415708835 0.02578797173523678
0.03437965534381643 0.0531574067152011 0.02493089313627439
0.03336964998883313 0.05313752667888965 0.0240241230063879
0.03261811128611525 0.05315061674038929 0.02293297473992789
0.03195835594733232 0.05317552181168373 0.02177475306976462
0.03136988529299034 0.05320968291424167 0.02056324683242733
0.030968587015033078 0.05326806869705911 0.01921300960613065
0.030502055118942883 0.05331828544595754 0.017907034078355366
0.03041719194395559 0.05341802384551516 0.016316310340787732
0.029749292464927024 0.05344268992204026 0.015151952237212885
0.029752607914631857 0.05355454412796014 0.01348536675438583
-0.09653341509639113 0.041787399905874704 0.038725235604258834
-0.09956759665209525 0.04144196987308879 0.0402682184559503
-0.1010419675350227 0.041323499228964375 0.04028048462003675
-0.10253901484964795 0.04120113825868482 0.04032382788355082
-0.1039763453837303 0.04118443821069554 0.03886029851343592
-0.096396849690152 0.042504716881406224 0.02817489660923478
-0.09743204350883877 0.042452369617556156 0.027723004374774762
-0.09850955788735383 0.042393465744486374 0.027318599078418382
-0.09978511652619365 0.0423046989360843 0.027124175208108392
-0.10592427725448594 0.041487322642288806 0.03201528081660482
-0.10729199506579146 0.04138211083355206 0.03195663114402858
-0.1086527933629497 0.04127743130903028 0.03189827818997065
-0.11000672452394084 0.041173280039543014 0.03184021970838713
-0.11135384039943963 0.041069653036472496 0.03178245347585107
-0.11269482599414393 0.04096645032175767 0.03172565630269264
-0.11402846006920653 0.040863860525744124 0.03166846642030485
-0.11535543135167309 0.04076178326502682 0.03161156225668793
-0.11667640932068157 0.04066012010953332 0.03155561600568374
-0.1179901993521913 0.040559056933145925 0.0314992753480306
-0.11929747456821033 0.04045849490833795 0.031443214072125636
-0.12059888932277024 0.040358337116969116 0.03138809981658214
-0.12189327496968372 0.040258766735998056 0.03133258958135343
-0.1231812894283506 0.040159686457528015 0.03127735257700531
-0.12446297962340647 0.04006109267189004 0.031222386791154633
-0.12573839201981124 0.03996298180477532 0.031167690231136413
-0.1270075726284563 0.03986535031680451 0.031113260923753605
-0.12827056701170558 0.03976819470310083 0.03105909691504949
-0.12952742028883968 0.03967151149287192 0.03100519627006426
-0.13077817714143697 0.03957529724899529 0.030951557072613933
-0.13202288181866018 0.039479548567612266 0.030898177425053686
-0.13334485236283528 0.03937113073041544 0.0309419290850399
-0.13417038623631214 0.03934064302484384 0.030413428473065607
-0.1349946425666554 0.03931020250008394 0.029885745734663294
-0.13580928983194437 0.03928113336264668 0.029349033035737326
-0.1365474459233207 0.039264100646121715 0.02872371564858711
-0.13680224594583507 0.03932417805598461 0.027522803871416868
-0.13705727259465944 0.039384528350568604 0.026317546492590826
-0.13490107779178667 0.03983227691214134 0.022200098001610324
-0.13508626851703132 0.03990549370127514 0.020885907410506332
-0.13527497502804167 0.03997852287673821 0.019570328869680853
-0.13525996126111078 0.040084891225840476 0.017999615880467168
-0.1351251449880244 0.04021124720448184 0.016273163752641984
-0.13493507676207836 0.04034724944935414 0.014468491854801646
-0.1330208120709458 0.04076511109161162 0.010509081871947712
-0.12874044940676116 0.04157199677474666 0.00355942386539021
-0.12913310305270792 0.041617139204724304 0.002417277687665198
0.0432064714429648 0.052388419690068154 0.026873055474968266
0.0407638564773567 0.0521939283550842 0.026941258319618133
0.038329023817807895 0.051999606241668696 0.02701614363664867
0.03678273734721088 0.05191437235581861 0.026478955002585236
0.03554070185278857 0.05186649177015463 0.02573218461570803
0.03453587395600677 0.05184786909293801 0.024819937653109303
0.03368386710131255 0.051848184621632945 0.02379972225852095
0.033009077981504376 0.0518705968753948 0.022652231412165325
0.03246909851008384 0.05190994404771776 0.021405993136988877
0.032073834694035575 0.05196757114341978 0.020052210309318308
0.0317296116705032 0.05203183976602848 0.018657521315009473
0.03147831522682265 0.05210805678164757 0.017190553671600606
0.03132145276133402 0.052196486507323975 0.015649055045644122
0.03221777877523946 0.05241823450085381 0.013320542288714432
-0.09829465397811721 0.040492242105521166 0.04046298901968287
-0.09755985714636745 0.04069212009780694 0.038276975670636926
-0.09757476022858208 0.04078581952696113 0.03682393687458435
-0.10236897160540231 0.040195463580754306 0.04015342889985135
-0.10337647063830424 0.040145934228738474 0.03971142379358189
-0.10448439398405823 0.040081718832345806 0.03937469694233603
-0.1048970578686858 0.04011748411050266 0.038335054542443736
-0.10460516835437367 0.04025528861086675 0.036572040060517896
-0.09712369362094458 0.04143575004057546 0.027405929873812906
-0.09836247858958458 0.04135499658982836 0.027166576400480702
-0.0996630229272259 0.0412648616354764 0.02699732586736958
-0.10121123542432164 0.04113813891212457 0.027093363531327463
-0.10724955029504463 0.040353768998997605 0.03191207638011956
-0.10861001669108683 0.04025177016259991 0.03185314322031557
-0.10996426636040801 0.040150191048000855 0.031795189612056296
-0.11131169808349722 0.04004912333167614 0.031737527770196505
-0.11265299708915522 0.03994846950364642 0.03168083471851041
-0.1139869417719811 0.03984841353430815 0.03162374827034842
-0.11531422108437489 0.03974885751831169 0.031566947068113194
-0.11663550472274675 0.03964970545570026 0.031511103515993066
-0.11794959770705526 0.03955113862810886 0.03145486488263799
-0.11925717337779862 0.03945306064790682 0.03139890516772981
-0.1205588862996882 0.03935537698998193 0.0313438922171978
-0.12185356748075177 0.03925826630529338 0.03128848262473494
-0.12314187505225482 0.03916163368856414 0.031233345809142166
-0.12442385596376904 0.03906547561822848 0.031178479761075795
-0.12569955670487726 0.03896978860722288 0.031123882490884325
-0.12696902331078425 0.038874569202565934 0.031069552028356928
-0.1282323013678634 0.038779813984941534 0.031015486422497407
-0.1294894360191043 0.03868551956829099 0.03096168374128
-0.13074047196949934 0.038591682599408324 0.030908142071429667
-0.1322449536013992 0.03845850354280861 0.031155193580732765
-0.13297475782193524 0.03844375295230836 0.030511394832658967
-0.1338018014414476 0.038413939284556664 0.029982445321794948
-0.1346275632872267 0.038384171822802626 0.02945431559066608
-0.13545204633675592 0.038354450459712364 0.028927003734975476
-0.13578256347291348 0.038401299785077864 0.027815475742135054
-0.13605203236034324 0.03845789594824139 0.02662740117826612
-0.13334536298482808 0.038979416473794666 0.0218644873764281
-0.13340479822776835 0.03907067097726703 0.020395828335850297
-0.13346508597384618 0.03916226374667257 0.018920971799698816
-0.1342106214065481 0.03914651879572573 0.018273656832998475
-0.1340912034266772 0.039267132345913745 0.01656842796034791
-0.13390424756300023 0.03939905609276447 0.014770439195476492
-0.1324715108857547 0.03972920979745011 0.011420648453506987
-0.12744438334512992 0.04063254089758936 0.0035746146112347055
-0.1278292840568424 0.040677937267149515 0.0024205310254922785
-0.12836780650205937 0.04069902087817602 0.0014557884764186957
0.04269862280304709 0.050984306949506106 0.02722397499746565
0.040167569459430674 0.05078406623773009 0.027355566973713663
0.038231322691333114 0.050654534723408064 0.027084402674341312
0.036808319317096716 0.05058631703165923 0.02646098355412463
0.03562480672894891 0.05054673640578617 0.0256727751845392
0.03466678115542504 0.050534274413125226 0.024726959797541415
0.03386145723640821 0.05054027386681089 0.023672894795768173
0.033381749147934625 0.050585854649209984 0.022384625642521305
0.033019170062356384 0.05064588158949587 0.02100883738097531
0.03259987800501052 0.05069923817673316 0.019670325838294922
0.03240066591700019 0.050779717153263175 0.018167704363670434
0.032445186930190884 0.05089038436881257 0.01648096344485922
0.03268656264815717 0.051025673827702483 0.014641738591220699
-0.09950507223620803 0.03937855558501076 0.0402062077759362
-0.10097127435990977 0.03926716617979567 0.040210008783590045
-0.10200437217144992 0.039215690064750106 0.03978806670461382
-0.10311861943251233 0.03915261925355665 0.03945169467075399
-0.104319842013114 0.03907705439849345 0.03920808832404343
-0.09885908736882976 0.03993743137211359 0.03218997779049043
-0.10586299849535835 0.039045899933983844 0.03785880542176473
-0.10560551427986198 0.03917553061204869 0.0361277396044426
-0.0982339187166939 0.04031281017517687 0.027033695590954254
-0.0997233969604609 0.040198221585807124 0.0270600515661642
-0.10138666151592096 0.04005836315114181 0.027276564263178704
-0.10398372216851792 0.03978469152230949 0.028483899043204863
-0.10856787511169363 0.039225696470956146 0.03180867835607315
-0.10992179498901372 0.039126783794403236 0.03175014550778865
-0.1112695426909523 0.039028276960228314 0.03169258812426401
-0.11261115523743997 0.03893017360379437 0.03163599926131877
-0.11394541065635816 0.03883265303271135 0.03157901631406895
-0.1152729981255744 0.038735619821286656 0.031522318139424466
-0.11659458755887375 0.03863898040123637 0.031466577352015856
-0.11790898362006025 0.03854291145917152 0.03141044080822175
-0.11921685986822816 0.038447319048922166 0.03135458271910796
-0.12051887107887088 0.0383521110399249 0.03129967113801735
-0.12181384791407951 0.03825746155442283 0.03124436225219962
-0.1231024487170882 0.03816327809128705 0.031189325688789182
-0.1243847204624221 0.03806955721716313 0.031134559441486243
-0.12566070966430393 0.03797629553233968 0.03108006152365661
-0.12693046238226874 0.0378834896703386 0.031025829968080176
-0.12819402422671572 0.037791136297508694 0.03097186282672515
-0.12945144036435996 0.03769923211262785 0.03091815817050414
-0.13100816291226297 0.03756225341044143 0.031216370412526284
-0.13201664453876444 0.03750650314466052 0.030890958670464874
-0.1329634744167228 0.03745970599210605 0.03049826874758993
-0.13351887368199547 0.03747145775871192 0.02965162023337692
-0.13425939584720695 0.037455396043433 0.02902160652599206
-0.13468848392507304 0.037486263638485444 0.02802496992601683
-0.1349568394234452 0.03754161415181327 0.026834991050604995
-0.13273497764849868 0.03797507946206999 0.022668395663367535
-0.13230842125687803 0.038137680098207005 0.02062050158476242
-0.13236624337063524 0.03822724767925748 0.019143500181397155
-0.13300826975640206 0.03822795183388321 0.018367292969992954
-0.1330436452216982 0.03832165909001975 0.016851962618019578
-0.13286966413193513 0.03844803135522408 0.015072607157201656
-0.1319232583478907 0.03869409229153234 0.012332166266064537
-0.1261327049382912 0.0396898684502057 0.00357848435116348
-0.12651894352866117 0.039734037564158775 0.0024238006360908226
-0.12723391456388816 0.03972738216686607 0.0016763608782410233
0.044595811892512105 0.04976303308662236 0.02754069421580424
0.04216198800012899 0.049580038550156746 0.027594785538232358
0.03974987407704306 0.049398837792852576 0.02764578763338993
0.038118251660970215 0.04930828198521683 0.027163399918303244
0.0367443702366842 0.04924759556803406 0.026505908069627715
0.03565029972834566 0.04921955611421715 0.02565476761277774
0.034848662245461404 0.04922585096664579 0.024597777340082394
0.034154812123464495 0.04924489519777959 0.02346339297861244
0.033681383579571456 0.04929009042583137 0.022169465710890124
0.033354488826525086 0.049352840330772724 0.020766734736803405
0.03315525105848938 0.04943101150897681 0.019267149255067673
0.03297066947368327 0.04951125032453198 0.017751646487806583
0.033093129548190825 0.04962844129562776 0.016005436291028685
0.03495773362389415 0.049954328975003 0.012965838418823095
-0.09932204671465489 0.03836702980285236 0.04002468609531917
-0.10078236316068195 0.03825942782951987 0.04002167837180054
-0.09929555502641951 0.038551762589769986 0.03707358257095361
-0.10297200623347158 0.03814225558022662 0.039304013695344586
-0.10397239978274364 0.03809614400205437 0.03885630359848624
-0.10474899167545981 0.03808043942555403 0.03818436183505719
-0.1057619294472818 0.038032240055467584 0.0377554113736166
-0.09898994694242752 0.03905423130454488 0.029324987943263714
