# .PCD v0.7 - Point Cloud Data file format
VERSION 0.7
FIELDS x y z
SIZE 4 4 4
TYPE F F F
COUNT 1 1 1
WIDTH 763
HEIGHT 1
VIEWPOINT 0 0 0 1 0 0 0
POINTS 763
DATA ascii
-0.04801986513426737 0.0290421535674832 0.026645191158235715
-0.04982084692591199 0.028950552699340795 0.026687751423101813
-0.05161838415121878 0.028858841602327448 0.0267370507818126
-0.053342920207229416 0.028773090156395585 0.02673093821957434
-0.05499003698365207 0.028693725034309194 0.02666448329837512
-0.05662381684581025 0.028615171356264037 0.0265945324930415
-0.05803556006474364 0.028555772550041405 0.026331471431586928
-0.05867395309612422 0.028564210978796346 0.02536902031264454
-0.058901511272276386 0.028608950600484965 0.024028732823152876
-0.05906774559356687 0.02865931889845168 0.02262702587829879
-0.059212437303353294 0.028711827014220294 0.02119985951020953
-0.05935339835990433 0.028764906642389978 0.01976348234897085
-0.05950683125884643 0.028817118473118984 0.01833297864039779
-0.05966509542618753 0.028869138676365688 0.01690129636494364
-0.059793121541798944 0.0289241041019511 0.015435271608634504
-0.05993277957349791 0.028978279758081312 0.013974256739936908
-0.06007639530420189 0.029032350068997015 0.012511042589940069
-0.060216249925980625 0.02908700981952179 0.011038225555415448
-0.06035577128361286 0.02914195352663477 0.00955902028687422
-0.06050185552142778 0.029196558891036905 0.008080078691784565
-0.06064676159079185 0.02925152594766079 0.0065938982161914406
-0.06081209817469424 0.02930489193213867 0.005121628688444735
-0.06042397124255988 0.02940896337962198 0.0030972977719066486
0.0300846151749663 0.03150178295588837 0.02958621806460493
0.028550967409674333 0.03144906327610774 0.02907076403183395
0.027346825585338352 0.03142135715726656 0.02832537283250669
0.02617788143668992 0.03139623774250276 0.02755754143782546
0.024915609632344682 0.03136383948615159 0.026859668342304466
0.023539319852417084 0.03132252329611511 0.026247895375044905
0.021986626869895443 0.03126741760134333 0.025769135818439592
0.020126181791127906 0.031188275304297925 0.025521920605363235
0.01794917940044055 0.031084264084251117 0.025516473866280365
0.015044526562688065 0.03092329348375708 0.02606165607117622
0.012020291827437357 0.03075234272864947 0.026712747937011228
0.01023478730998345 0.030677308878167768 0.026452577678694855
0.00974869549560392 0.030703538031451295 0.025220391011975207
0.012415046134969576 0.030976825798620905 0.021595459698847685
-0.039973469932982675 0.028297823723643367 0.025845853595844237
-0.04212694723171495 0.0281824483668567 0.026151314275048798
-0.04417041950210382 0.028075675453601998 0.02637374543011084
-0.04607263848237514 0.02798015722331981 0.02648436885911498
-0.04796374005915632 0.02788513841682485 0.02659581004609307
-0.049764316241187545 0.027797245850416204 0.026637751821911193
-0.05150802241448732 0.027713713888821323 0.026638926291028764
-0.05321347025268003 0.027633012509283048 0.026615237608411668
-0.0548331274189916 0.02755915226181066 0.026523503680852045
-0.05632169102169049 0.02749599222128504 0.026321655921312692
-0.05697004896699637 0.027503420515545867 0.025364071091146356
-0.057193898158143575 0.027546772043088627 0.024018210059536194
-0.05735247301899005 0.02759585140536809 0.02260756508931766
-0.057499598961985754 0.02764612638037921 0.021180803718369168
-0.057642105351642825 0.02769702381588664 0.019744053691708396
-0.057792883138961026 0.02774744816729497 0.01830922200808094
-0.057924388720968 0.02779975149153718 0.016850587442042986
-0.058060706776362325 0.02785188247254786 0.015390507489118188
-0.05820963818926306 0.027903169782316883 0.013936395832476745
-0.05833747938917272 0.027956509581242652 0.012456328815199869
-0.05847274583307038 0.028009455144500296 0.010977225885617448
-0.05860505273755634 0.028062902041938523 0.009489170998155994
-0.05872830044134114 0.028117382627415272 0.007986182317455182
-0.058848543823120214 0.028172377918421036 0.006473962214713025
-0.05899542656836004 0.028225309316731208 0.004981368105147155
-0.058523281840792474 0.028332536578153145 0.002874992392977116
0.03154980772942284 0.030234533337533006 0.030155111504360843
0.030321793979857015 0.030206541326380607 0.029418681311361272
0.029300366541862077 0.030193562647174543 0.028538497475182556
0.028277345910508844 0.030180413831034994 0.027660834051579097
0.027277387091225846 0.030168906686211052 0.026768014145632513
0.02622292308706714 0.030153336188580213 0.025915778295069858
0.025108345818428912 0.0301332631269541 0.025108851044375824
0.023786791404387053 0.03009779383694595 0.024455156942966794
0.022237993295242564 0.030045330088272544 0.023972055407302906
0.02035146039858715 0.029967557388663166 0.02374382742884734
0.018008265312234817 0.02985546399286331 0.02386281032186216
0.014446055447361661 0.029651962139627255 0.024903255037047933
0.009710854855382756 0.02935991955858066 0.026845525001618797
0.007979842762506406 0.029291711286031624 0.026554214765070916
0.007629228894630302 0.029326845566026 0.025223797938263626
0.009102955072245289 0.02949937173020029 0.022498952479585443
0.013584079103603597 0.029899346522078495 0.017450473897312635
-0.040005868934403 0.027116186523817493 0.025873766418541444
-0.04212603101840584 0.0270082522739243 0.02615052076122365
-0.04410417596920785 0.02691111557949221 0.02631607074196629
-0.0460285765376891 0.02681782377153737 0.02644580438367372
-0.04786480725161313 0.026731148232959977 0.026508764958773134
-0.0496662253370736 0.026646868186460494 0.026550993522236832
-0.051425641170617875 0.026565575712887948 0.026565679730724157
-0.05307261060822699 0.026492947160960064 0.026489339171381632
-0.05455515015035689 0.026433224333627336 0.026273747529293956
-0.05520075689109444 0.026440735832513225 0.02530924109850813
-0.05545359427759772 0.02648003200790144 0.023987249408210787
-0.05560090331808837 0.02652805617110966 0.02256432229640276
-0.05573922650678709 0.02657702800864815 0.021127489381050968
-0.055875460869949656 0.02662639264008343 0.019682943472277115
-0.056019146758465754 0.026675374494891314 0.018239459353829646
-0.05616162374106615 0.026724679040730354 0.016789034433987104
-0.05631159221694876 0.026773595506080487 0.015339761434104093
-0.05644118964029643 0.026824409766368754 0.01386547272048927
-0.056554690636112515 0.02687678300787313 0.012369874280951432
-0.05668175370052875 0.026928278718434014 0.01088090603070363
-0.056813683714359575 0.026979609957048418 0.009390409541399802
-0.05692945140192829 0.027032518870674406 0.007878196311908503
-0.0570465526634642 0.027085562702680702 0.00636088944502583
-0.05718083413903674 0.027137422621220268 0.0048538587548995205
-0.056603778693789464 0.027248905822157547 0.0026459218387190897
0.0330883678909607 0.02896827369164716 0.03067753571422177
0.031805668795090336 0.028937836934503667 0.029975367959386046
0.03093151056606147 0.028935833320774748 0.028987993850487392
0.03006244719051221 0.02893417837101226 0.027997223772925184
0.02917611301746642 0.02893130443385472 0.027018972093877047
0.028291192790234232 0.028928518130904704 0.02604002583102427
0.027412618648347764 0.028926167605338206 0.025056809242563316
0.026429459589566773 0.028916421351643126 0.024149780140655608
0.025380639693546758 0.028901988085872073 0.02329177273972466
0.024128519890180278 0.0288730780050009 0.022584591909830476
0.02265003913394037 0.02882796216720261 0.022047703033105603
0.020821846854577886 0.028757755619840963 0.021775368635014614
0.01827672658075913 0.028636097403494012 0.022045774546762764
0.013780113763862123 0.02837438427355634 0.023793596493792313
0.00721998104106919 0.027963708969292535 0.027127197237922895
0.0057955136291559795 0.027920090526496417 0.026614018016423102
0.005948029168597935 0.02798976620452653 0.02490377424346213
0.0072782852784611385 0.02814466263445533 0.02228298429806419
0.009317614913557482 0.0283514525589198 0.019098095921830427
-0.042101291397782015 0.02583585526732151 0.02612909427593041
-0.04408693025362442 0.02574237690043402 0.02630105582315656
-0.045992599059142325 0.02565457002600631 0.026414315701144164
-0.04780952205070832 0.0255731420660331 0.026460122801941988
-0.04958134338228415 0.025494798751293887 0.026475918120117792
-0.05127742718764511 0.025421908455701584 0.026433900166203228
-0.05277571620714144 0.025363882237897855 0.026223978988166863
-0.053412417073786744 0.025371916288585372 0.025247028269607785
-0.0536764564168532 0.025408737068689236 0.023932510430391907
-0.053843663732044245 0.0254532116038017 0.022525558993960804
-0.053958210079369906 0.025501968694505772 0.021065076009909978
-0.05410292364930064 0.025548603869346122 0.019626260590278
-0.05425166932517489 0.025595137295303983 0.018185402829160147
-0.05436851836277007 0.025644371744294413 0.01670921320426899
-0.054505137185453134 0.025692285063921075 0.015245337409622806
-0.054656336927211724 0.025739274911274 0.013789161135008166
-0.054774628071844966 0.025789065983214083 0.012296138084041341
-0.054881028250936825 0.02584002254655516 0.010785637855232844
-0.05499050051158261 0.02589097165728023 0.009271678834138264
-0.055107485442230375 0.025941561965679247 0.007758509641958844
-0.0552364513786775 0.025991436665842964 0.006250493991982242
-0.055374790978394095 0.02604079799915241 0.004745247440387623
-0.05466963348773318 0.02615758470868864 0.0024143425115800143
0.033021913731234864 0.027647117942091928 0.03072396401200328
0.032203190998796816 0.02764895084331227 0.02969610683024948
0.03145930623558596 0.027655784705473554 0.02861517313031836
0.030690107165332436 0.027660954015346316 0.027551423398737118
0.02994926120829311 0.027668044113680568 0.026466821923364414
0.029179438722724826 0.02767321800795945 0.025402198819414523
0.028408087119767722 0.02767831034115332 0.02433807359495338
0.027596805870123087 0.027680731944206553 0.02330233771994472
0.026792801597022964 0.02768365513278652 0.022261005343543694
0.025823309161818297 0.02767538828434887 0.021340780658191782
0.024711773534094372 0.027657452019807217 0.02052634639656481
0.023351945430601984 0.027622563878152036 0.019898247549329506
0.021581912379474433 0.027559589169635183 0.019580278656432915
0.018911698414606715 0.027434907435640157 0.019944927771018806
0.012085655070347978 0.027025444200546003 0.02345817975917086
0.004806424331478432 0.026583199689216228 0.02736389005305484
0.003963589275239099 0.02658119732699515 0.02641640065384393
0.004656097304038098 0.02668486803146382 0.024292525207663895
0.005892276134326968 0.02682647773554881 0.021737300940344262
0.007597479210086466 0.02700110740222238 0.01880170195535924
0.010629840865299112 0.027268410320652695 0.014811424788633953
-0.04209396045019681 0.024662028514945557 0.026122745090427224
-0.044045170199381534 0.024575296396957595 0.026264697585603958
-0.045908921721164675 0.024494533172481087 0.026341078519525885
-0.04774797352433863 0.024415208580036797 0.026405969917925987
-0.04947252518443335 0.024343886281084606 0.026379671868699772
-0.05100960481242517 0.02428595775193339 0.026195774752746648
-0.05164157501323641 0.02429412447663175 0.025210298993173008
-0.051909128519788406 0.024329104079656612 0.023896358246220994
-0.052055290812881905 0.0243731809123839 0.022468292290465486
-0.05218877715921266 0.02441839249781051 0.021023052039943646
-0.052315705516996436 0.024464293963140083 0.01956600192374225
-0.05243957950867251 0.024510630233699274 0.018100222729102222
-0.05256746146898861 0.024556879457639326 0.016632143284108336
-0.052711770159157234 0.02460211606794944 0.015173293571490887
-0.05282733998460848 0.024649704824626254 0.013681780773648788
-0.05293091829360941 0.024698408802486384 0.012172833631983293
-0.05303757684093707 0.024747105379520164 0.010660426140628898
-0.0531544630281352 0.024795257254013468 0.00915132525935397
-0.053278947759717366 0.02484305873521173 0.0076431366060085715
-0.05339944225628657 0.024891382517202413 0.006124845167604365
-0.05351771944639894 0.024940098037717778 0.0045980522228855625
0.03425165652582157 0.0263548098050381 0.03146602695621442
0.033208791756767664 0.026342415647119685 0.030593401400813125
0.032565122579657046 0.026355286737878774 0.029441848273120352
0.031903295173103974 0.026367056511450826 0.028301551240275835
0.031235874153819898 0.026378518277423407 0.027163788154420554
0.03057786541694213 0.02639062762374118 0.026017899032373226
0.02993048199028092 0.02640346610146616 0.024862893582641044
0.029265019114496138 0.026415199103956725 0.02371936231491628
0.02865125544126179 0.026430299723708108 0.022536853379978794
0.02802434968937695 0.02644461729642776 0.021362071859144793
0.02731351829905393 0.026453583670002275 0.02024711141965746
0.026504229141093127 0.026456226708278772 0.019203690950155894
0.02559703333416158 0.02645254261993227 0.018232580494723816
0.024437263872797876 0.026432458368325466 0.017450335651421733
0.022816787946229766 0.026382341088202917 0.01701612566350469
0.020326084214230766 0.026275324688121562 0.01724438936150119
0.004280143064234909 0.025282977560142056 0.027762886995631897
0.0027331462656453587 0.02523493421353788 0.027354297840354758
0.0026906970274584996 0.02528531868120115 0.02579873006332234
0.00364812192553271 0.0254016008087043 0.023466409630579943
0.0048443354987169895 0.025534094972260977 0.020934414628096143
0.006373364401346948 0.02568910739734963 0.01812643535956654
0.008663691338870072 0.025895109440523117 0.014702681168061948
-0.042030717938394524 0.02349200318511666 0.02606797202944766
-0.044009756874448136 0.02340748933965597 0.026233865104569154
-0.04587651933736314 0.02333036906499982 0.02631271887849651
-0.047648913238050594 0.023259449818143332 0.026318812669647973
-0.04921479424232866 0.023202568180859546 0.02615171700874136
-0.04983311131948481 0.02321144337166584 0.025149734446348382
-0.050097140370830795 0.023245095067397015 0.023829904286591985
-0.050260876848417624 0.023285916388028214 0.02241544221210595
-0.05039144673413043 0.023329247898190932 0.020965527442661447
-0.050527839544844244 0.02337236588119253 0.019515051215749812
-0.05063623543472101 0.023417651602448138 0.018033190303910263
-0.05075397396910686 0.023462483159145158 0.016553761110273624
-0.050880205903667874 0.02350691755628404 0.0150760729913888
-0.05099170359451083 0.023552599731499327 0.01357867345929481
-0.051111702711966134 0.023597886248823433 0.012082960581784152
-0.05120792350348474 0.023645074643783053 0.01055877672277239
-0.051313523701764285 0.023691809771008005 0.009036953982384688
-0.051421343860275526 0.02373860103141923 0.007510808904231281
-0.05154222286445903 0.023784671091242493 0.005990643086606351
-0.05166809031962005 0.02383059536267302 0.004468886948975237
0.03417238520613447 0.02503231291463185 0.03152110579036743
0.033379511599066936 0.02503555915138095 0.030474127728432332
0.032798395149648885 0.025051576166855837 0.029277973247561706
0.03221402686918662 0.025067462296559463 0.028082058695334644
0.031650217651852 0.025084657122291316 0.026869497465392633
0.03109565224898936 0.025102482801673143 0.025648117286782623
0.03056157417406441 0.025121626169661977 0.024409722195180505
0.030040441609287316 0.025141636322995504 0.023159501500670643
0.029560997225663466 0.025164271700012713 0.021876420573675726
0.02910194595537985 0.025188247070954066 0.02057551112945233
0.02865202163388736 0.025212880771796443 0.019264779553340772
0.028134966619896395 0.025233496826970285 0.01800036753194656
0.02758833478907835 0.025252379707144234 0.016755201714149404
0.026982220831074877 0.025267675572919267 0.01555193074960437
0.02621458691225842 0.025273060435079563 0.014467789526259212
0.02507257431471166 0.025255299097139132 0.013665243895406465
0.023310794910761934 0.02519902795601124 0.013334914018780175
0.0021247410249590204 0.023935377496239765 0.027818050780595793
0.001295039014526267 0.023934135318770054 0.026868307034979055
0.0018657915278567638 0.024020288179519546 0.024839685570092362
0.002867626656960831 0.024133765752334394 0.022465664878388247
0.004083637422980679 0.024261147600274504 0.01990971061131913
0.005515749535332404 0.024402643301336128 0.017167528189629855
0.007484266940487483 0.024578502964964114 0.01398413713541774
0.0109582928901229 0.02485007215128468 0.009585642884553158
-0.04197295428057668 0.022321183574138342 0.026017944093145062
-0.043968886150126785 0.02223979573869833 0.026198281158839987
-0.0458288044908306 0.022166987370521328 0.0262709572621993
-0.047422908269199704 0.02211136793893695 0.02611996435292785
-0.04803800901882327 0.022120146903216564 0.025110887729048792
-0.04828596597658802 0.022153263213829943 0.023774141297522977
-0.04840678026378986 0.02219496149299367 0.02231908338170696
-0.04853342621176382 0.022236459652080997 0.020863367738045036
-0.048654265258301854 0.022278531801116174 0.01939652510075307
-0.04877735988630205 0.022320643423282306 0.01792575325237028
-0.04888831901576224 0.022363757989286727 0.01643790937229339
-0.04902044312948872 0.02240564845047595 0.014963330344831327
-0.0491629938768981 0.02244702844683247 0.013492375372558263
-0.049279852641447464 0.022490328458994516 0.011991669784586545
-0.0493600285305863 0.022536303998679345 0.010450557220411272
-0.049473198209488645 0.022580256549977935 0.008933730981249943
-0.049574996083906364 0.02262518249200001 0.00739985178419772
-0.04968721329856984 0.022669606560850496 0.005869335195352043
-0.049783459394260154 0.022715324198327672 0.004317179865920062
0.03414345238758526 0.023713178117083164 0.03154120872192878
0.033493821482616815 0.023724409139828685 0.030394264957844086
0.0329452653422283 0.02374145481338306 0.02917479627924696
0.03240972569540468 0.02375931455034581 0.027943822287687325
0.03193359937074908 0.023780652298900893 0.0266682233976005
0.03148547126696494 0.023803685400096527 0.025369724813259387
0.03107913072488283 0.023829217804933266 0.024038077883540454
0.03071835198041406 0.023857482586260303 0.02267004516568666
0.030415734110531945 0.023889224656591334 0.02125591892232459
0.03012864670009463 0.02392199722667398 0.019826100137213032
0.02989988503104024 0.023958289741174657 0.01834896862636537
0.029768665022167573 0.02400040420917025 0.0167948592442565
0.029712690490610427 0.024047077932610426 0.015179107834397298
0.029699488910912453 0.02409644354488169 0.01352499075537833
0.029974073507971266 0.024162852716424398 0.011648189059860037
0.03166834598561641 0.024312774438318335 0.008691626386139462
0.0017918777570331001 0.02265602338018944 0.02807177364304969
0.000527585037051248 0.022629164749156338 0.02745645333837682
0.00039467746011273563 0.022669084552699 0.02597317100923735
0.0012232736822931911 0.02276614137027507 0.023739456875894183
0.002226999889133996 0.02287400803340567 0.021355689016983148
0.003415327996976636 0.02299331703420975 0.018812163985321817
0.004819017177129459 0.02312597555619289 0.016082242052747664
0.0068074171259474014 0.023294139425040404 0.012870772369104555
0.009430327227007429 0.02350101852649529 0.009130571358488326
-0.042062800405321676 0.02114081362853977 0.02609575800548336
-0.04396979449548899 0.02106922372756707 0.026199072006386936
-0.04562158348886103 0.02101320948600654 0.02608959056814375
-0.0462288912723019 0.02102214050345594 0.02506941988403577
-0.04643526857281344 0.021056192817099386 0.023693314538432597
-0.04657464541845985 0.021094598411365798 0.02225257718202911
-0.04669464854481442 0.021134393789436507 0.02078880330578098
-0.04681782092342324 0.02117416857097383 0.01932193603568666
-0.04693148520090251 0.02121472283673086 0.01784052995444091
-0.04704649376498654 0.02125537529760976 0.01635426283940522
-0.047153758390795386 0.02129670288560671 0.014854817949997878
-0.047259618920945545 0.021338307289029603 0.013347859232463066
-0.04739052988213399 0.02137850534068492 0.01185772166398208
-0.04748995098600867 0.02142089704107167 0.01033230773588445
-0.047579696801381965 0.02146410156979133 0.008791447592602086
-0.04769456574144776 0.021505892751292357 0.0072675541358860896
-0.04782916932533898 0.021546607230471825 0.005755876275988225
-0.04791185121599939 0.021590854327755007 0.0041888330194294054
0.035378828598306045 0.02241659760209064 0.03228189675841259
0.03410823524189849 0.022393888680051186 0.03156567809287253
0.033506386835623125 0.022407062360167866 0.03038548615523018
0.03298419705485134 0.02242458369283485 0.029147446576702096
0.03251517841092949 0.022445048607563984 0.02786933331474606
0.032111851589639195 0.022469152859451797 0.026541618374070264
0.03174533985526912 0.022495352678309172 0.02518413751312021
0.031450864728894745 0.02252557518445383 0.023771145066603327
0.0312600193311825 0.022561565770710085 0.02227895730572821
0.031122743550891174 0.022600628273480347 0.020742660944308045
0.03112258887576752 0.022647350729219175 0.019100600330249795
0.03128573393360001 0.0227032152858475 0.01733188969689531
0.03143063630999954 0.02275831008546501 0.015568488355603427
0.032021153675331926 0.022838154530910586 0.013466421632906345
0.0014806172567357057 0.021380047962509426 0.02830902993629103
0.0001262828754292622 0.021349627751975114 0.02776399540582436
-0.0007062440953785609 0.02134821639267112 0.026821425118249975
-0.00021622663925519037 0.021420805129429194 0.024854560517413915
0.0006924260094065549 0.021517177065901717 0.022550839201943895
0.0017212542206074821 0.0216207118259358 0.020138628374627654
0.0029304956338532806 0.021734847435608592 0.01756890059818883
0.004405593279726949 0.02186447373140198 0.014771648902682233
0.006268452975557948 0.022016584552417912 0.011646384105281071
0.008519723693854786 0.022191361234067643 0.008187507304006914
-0.04217641543679995 0.01995967077275975 0.02619415768743788
-0.04377075060820229 0.019910393022272176 0.026025775178387778
-0.04432202228456572 0.01992224877766951 0.024952171498138165
-0.044505090696587035 0.019955863271249957 0.023552750385196886
-0.04463595740923959 0.019992712160259007 0.02210188077047054
-0.04476365958614004 0.02002991344395968 0.020642398981903065
-0.04489001078987043 0.020067361863939554 0.019175842591340586
-0.04501317560459306 0.020105168260313524 0.01770050392373035
-0.04514321959572137 0.020142734992820988 0.016225389014059177
-0.045258149522174274 0.020181374531402913 0.014730586809207857
-0.045359732741607595 0.0202209883250124 0.013217454242020421
-0.045470002535960674 0.020260260544590965 0.011705972689708244
-0.04557516792996075 0.02030001849181951 0.010183505343484667
-0.045682594467557736 0.020339821384879744 0.00865676382760383
-0.045805247370648894 0.020378886010283592 0.007137819739828077
-0.04593856535520785 0.02041748357697008 0.005622578438784609
-0.045981420574137066 0.020461750341166703 0.004015924887688205
0.03511129484749087 0.021084483759515833 0.032466760532200045
0.03397999447969641 0.02107012141258525 0.031654781588321634
0.03343100608691718 0.021085183312753445 0.030438151027712912
0.0329339639515574 0.021102942029781628 0.02918273555682732
0.03249257689374546 0.02112360263313336 0.027885298420941507
0.03214450590833212 0.021149101436353755 0.0265184253904866
0.03188608097264445 0.021179280865995537 0.02508362608092779
0.031699897395425614 0.021213279517044017 0.023592320986833892
0.031598809566185826 0.02125177984622487 0.022034348233768652
0.03164385079141019 0.02129794449297473 0.020364359844873392
0.032068038930905374 0.021363813933731327 0.018410495966752483
0.032631199934109845 0.021437123791149735 0.01634444790803269
0.03332635523102501 0.021517559746480522 0.014169634768399109
0.0014274985488691438 0.02011961819185209 0.028349519326104855
-0.0001697446457141205 0.020078242484852866 0.027990859162316084
-0.0012822760116164567 0.020062165867285587 0.027265254596775534
-0.0014717692245140856 0.020094633699662346 0.025827161973590917
-0.0007152448100469222 0.020177167563962015 0.02364715529493805
0.00023301769729749955 0.02027019310306452 0.02130392163314554
0.0013020210752658357 0.020370014331355206 0.018850848176270252
0.0025487097999266073 0.020479699372611602 0.016241243035447106
0.004084828984300348 0.02060525956885236 0.013383831149194947
0.005790959677713647 0.020740426827461713 0.010370328647696159
0.007927104470504154 0.020899162126119652 0.006989328362292713
-0.04196470073181163 0.018797241058549456 0.026010795861411085
-0.04236353716297864 0.018816923516197414 0.024800589970746245
-0.04239699119687712 0.018856920994009044 0.023267320440524486
-0.04246188851291971 0.018895352208282788 0.02175505842732972
-0.042517828352951315 0.018934453230049823 0.020228462668409997
-0.042770706846231965 0.018962753642191608 0.018870430919860848
-0.042958749579180944 0.018994802574111173 0.017449707551978444
-0.043131702065366984 0.01902784045112262 0.01601004343131912
-0.04325522989132108 0.019063800411662238 0.014520178413485574
-0.04338108146061376 0.019099792177929266 0.013026356524208527
-0.04351298534589382 0.01913560581412029 0.01153197267440037
-0.043654691925468225 0.01917102824685609 0.010040512936827839
-0.04377548629386113 0.01920779585249967 0.008523750183776546
-0.04388740867941132 0.01924523457194411 0.006992503024130126
-0.04399789789175612 0.01928292590327754 0.00545353199049553
-0.04386697995198813 0.01933455201175213 0.0036819708686099406
0.0350142092499266 0.01976211393256108 0.032533845936906725
0.03373379225981038 0.01974157631726168 0.03182584637304742
0.033216320562283186 0.019757169097452003 0.030588141389613577
0.032730643881313914 0.01977433769700985 0.0293255688171154
0.032328162104439284 0.019795541482535865 0.028001436623080966
0.032017685212895164 0.019821225970130123 0.02660850077484861
0.03183454858937501 0.019853109712390564 0.02512042835835243
0.03175779631382575 0.019890226013139698 0.023550745233151482
0.031835914039637814 0.01993493704946541 0.02186315703869779
0.0320687708733543 0.01998728353192947 0.020055886421991742
0.03277073581272699 0.020062481484123738 0.01789758237419864
0.03380717920480758 0.02015416345551328 0.01548139297072243
0.0012660193206575632 0.01885421944755313 0.02847260581823713
-0.0004400611087220785 0.018810061930857425 0.02819801898314178
-0.0016172203224790183 0.01879177783517298 0.027523327378221607
-0.0024344992546403987 0.01879118514185834 0.026572937258475537
-0.0020008600594359494 0.018852483877021885 0.024648412597302993
-0.0011257183872753762 0.018935934540751844 0.02236781569478058
-0.00013722935332632913 0.019025372767353287 0.019983837077728328
0.0009804875257898304 0.01912162766424174 0.01748238189957796
0.0022937539615974223 0.019228052550890773 0.014808938226275048
0.003814601642777582 0.019345314502943276 0.01195127755933223
0.0054764176731953995 0.019470144944696934 0.00896018976248003
0.00740264666022461 0.019608792655396497 0.005733923208266989
0.03341516644392645 0.018411384256141583 0.032047232096650946
0.032859002809667914 0.018424194750352337 0.030837781970270595
0.03241476299521262 0.01844202597285449 0.029547476554853846
0.03204607374290319 0.01846329071103778 0.02820069628391514
0.03178057530824846 0.018489242070131105 0.026776909927026027
0.031631057983551925 0.01852048016113696 0.02526575285634136
0.031652080044397235 0.018559479427554076 0.02362665742114095
0.03182834268635981 0.018605601679113234 0.021868623612133098
0.032390568662899966 0.018669260027828996 0.019822275279955948
0.03342218160239574 0.01875432018326588 0.017422078057932222
0.0008309228259422152 0.017577347608559887 0.028804255293322534
-0.0006990305818352915 0.017544174124481966 0.028396482920752086
-0.0018478364820075366 0.017528387711405243 0.027701015882864888
-0.0029194871270803446 0.017516090004618425 0.026948631334089868
-0.003151523848079707 0.01754251370729754 0.025544567587292455
-0.002401431271890575 0.01761450102070779 0.023366702364313596
-0.001471941769110252 0.017695114773585027 0.021034532859143307
-0.00044940631777795614 0.017780396953714462 0.018614043431301963
0.0007343572648243479 0.017873553111628186 0.016049705497538203
0.0021138640844198253 0.017976244863559077 0.013311749267562623
0.0036030239670480912 0.018084506753183356 0.01046678756471825
0.005223402154206858 0.018199385636597943 0.007495850153413863
0.00713202991174039 0.018328301197781373 0.0042694721960325754
0.033040714933539106 0.017080912769819573 0.0323074063024088
0.03240353022646403 0.01708944398179539 0.03115599856967588
0.031955587721472 0.01710581072772218 0.029870049241915886
0.03160427975998714 0.017126235837119183 0.02851276771683442
0.03133844400727692 0.017150282220415106 0.027090937119009728
0.03125976313179707 0.01718218940671279 0.025530916143456706
0.03134530483866488 0.01722105279356309 0.023846944962632566
0.031631584459663076 0.01726843604959813 0.0220106845166696
0.032369015436844006 0.017334842008931994 0.0198379219808254
0.03388107311805355 0.01743391564891815 0.01708712325454903
0.00033738932612153993 0.016300837237139078 0.029180447995724446
-0.0009171266116853594 0.01628172562811076 0.028563623071832023
-0.00208144685924333 0.016266384723540733 0.027881011416070522
-0.003176192930516908 0.01625395604436508 0.027147487542682758
-0.004010242267134145 0.016252653762930714 0.026213350948536884
-0.003610934795517884 0.01630434668248241 0.02431374692353583
-0.002752434482553301 0.016376034540740513 0.0220425464778351
-0.001786989125916627 0.01645264367937511 0.019672647198480275
-0.0007201218464431558 0.01653396680346608 0.017206992852148606
0.0005402456927040555 0.01662402499718138 0.014570534487515996
0.0019447031089256939 0.016720728438952795 0.011800422108303343
0.003412510926069312 0.016820605633439456 0.008959962161394164
0.00504710343888376 0.01692818908207698 0.005964137690495974
0.007183797029059413 0.01705818739738719 0.002536648233960659
0.0326944154379602 0.015753873140883033 0.03254802009008817
0.03179570597888193 0.015751790590225672 0.03158065588656883
0.03135531507631062 0.01576713865268482 0.03029174346456448
0.031008786600580984 0.01578612818339101 0.028933408130094262
0.030742498270921126 0.01580826108765399 0.02751421220890099
0.03068156912251707 0.015838346794726555 0.02594383817393059
0.030819564052788073 0.015876187462638778 0.02422446616714502
0.03122604493515163 0.015924505090720992 0.02230348707260127
0.03213207747760155 0.015992265475535176 0.020009928591959714
0.0354803587716267 0.01615457909120266 0.015919770201881955
0.00010977882607315914 0.015037992931464992 0.029353942619978646
-0.0011338798686016394 0.015020759670184703 0.028729734174968324
-0.0023016950303785255 0.015006443079735135 0.028050711441686416
-0.003396726191681465 0.014994940824050755 0.027318322824147867
-0.004453295758670206 0.014984912219275453 0.026558407950582896
-0.004693692445002784 0.015007216253074353 0.025161549117468873
-0.003972078848353933 0.015067856737965063 0.023002659813725956
-0.0030604118855523943 0.015136327070185189 0.020680472749435852
-0.002048715773195431 0.015209083566872238 0.018264116972344868
-0.000904725633475878 0.015287444610790006 0.015726411006389496
0.0004140678775675366 0.015373150642643007 0.01303137087685402
0.0017931200291959604 0.01546164674908859 0.010269245469461563
0.003287829487279681 0.01555518166939677 0.0073941069963232575
0.004943174155233376 0.015655603075805033 0.004367575072767693
0.033028203108612264 0.014452645403659915 0.03231609969533844
0.03095865676803261 0.014410005044512553 0.0321654615658431
0.030479869863401177 0.014422675489830054 0.03090674764892154
0.0301727493259088 0.014441397526471876 0.02952396246168293
0.02998660958471744 0.014464433193898119 0.028051088021717685
0.02992933680904525 0.01449208578680301 0.0264810510977615
0.03007277799153546 0.014526910341009428 0.02476071441139538
0.03051762931160429 0.014572499537684299 0.022814968426943916
0.031557960886371084 0.01463930396738219 0.020426712165048877
0.0013706438577568703 0.013801175496984905 0.02996870612709257
-0.0001054874556792873 0.013777081720471877 0.02951802794407099
-0.0013307149998939005 0.013761932783490473 0.028880580816260437
-0.0025129808832165534 0.013748272135715051 0.028213506049487636
-0.003636523166941852 0.013736679927336331 0.027504080671044817
-0.004704152044842869 0.013727067349067585 0.026753778757279467
-0.0055407979480522895 0.013725812822234307 0.02582483503774824
-0.00514711908001747 0.013769384737539272 0.02392766043543415
-0.0042970226600361205 0.013829809486991241 0.021659164174322953
-0.0033384720978352767 0.013894461525047254 0.019290339125328293
-0.002238192852164922 0.01396458831469084 0.016793091997800602
-0.0010375074698658615 0.014038706442147657 0.01419873907129715
0.0002896824211087168 0.01411780291032371 0.01148478013054316
0.0016955574531605788 0.014200144893041632 0.00868833415931941
0.003223536747787026 0.01428735952402769 0.005772778205829443
0.030282042831917155 0.013078593824733059 0.03263817890120135
0.029266117279253823 0.013073036921684012 0.03175941427730361
0.028949688519103012 0.013089682600409895 0.03038789984717649
0.0288227113324932 0.013112428220197892 0.02887775579913493
0.028851311930119694 0.013140230614518546 0.027250931474871565
0.029045211877691046 0.01317343174727193 0.025498583732999902
0.029479498256581582 0.013214470379788278 0.023564506777537242
0.030413222372750737 0.013271710846469604 0.021257742334264085
0.001076144687074343 0.012536910772009403 0.03019197888257036
-0.00027445562400468804 0.012519093055918277 0.029646822832128883
-0.0015186124154004665 0.012504689199747515 0.029024577946501096
-0.002706634906165517 0.012492068340867848 0.028362715427643514
-0.0038651870786072795 0.012480364122862991 0.027681214331083115
-0.004958992565099574 0.012470745998191762 0.026952252547915334
-0.006007026749463684 0.012462600014850502 0.026189893461393998
-0.006250329114814379 0.012481077167886646 0.02479611577897345
-0.005515865187992575 0.0125320921194694 0.02262379326781988
-0.004594446790993079 0.0125895448607262 0.02028968220206423
-0.0036151179289598545 0.012649174541092956 0.017894536251869597
-0.0024150014132147124 0.01271643706285558 0.015306530423876086
-0.0011607109362151147 0.012785803011484005 0.01265742832594946
0.0001749909960413465 0.01285819995283635 0.009924277747962063
0.0016340610943393896 0.012935058444236588 0.007071619553707942
0.003315496044880406 0.013019743709819067 0.004016395609686585
0.028151471264091454 0.01173392387060936 0.03254245809694317
0.027259555044679862 0.011732383424355845 0.03158176485119202
0.027051733737831485 0.01175043902886706 0.030135606396673786
0.02712682927173149 0.011776692135563295 0.028482485018128334
0.027244131216464018 0.011804267510629471 0.02679189435092466
0.027772362082321866 0.011843804127630246 0.024797071804950666
0.028676160535999418 0.011894354407340678 0.02251877336882524
0.03102159111750835 0.01198684996166191 0.019174320769842934
0.0024029066570839808 0.01129848968614441 0.030759567595028403
0.0009384255716632928 0.011279174077376842 0.030296389792484058
-0.0003851914628931197 0.011263923950625247 0.02973123050556814
-0.0016605051992329978 0.011250034493274183 0.029133318950834042
-0.0028805377922822006 0.011237720602368238 0.028496706661607307
-0.004068693455239136 0.011226298941171354 0.027838859798928917
-0.005222111015126818 0.01121586012550627 0.027157173319975192
-0.006337962592008584 0.01120649455087626 0.026449017129090202
-0.0071704744421596245 0.011205536501263632 0.025520461190237542
-0.0067150526824173995 0.011243054383845284 0.023572866769233813
-0.005837806401051082 0.01129336266710491 0.02127898781862919
-0.004873035966918682 0.01134651276880876 0.018900783155458956
-0.003780396497822247 0.011403736161977538 0.016404591780069644
-0.0025291755670978633 0.011465984651645176 0.013763836854214506
-0.0012474297930423761 0.011529423502224054 0.011080446783776898
0.00015251420762502077 0.011596713851803624 0.008282266820378248
0.0017480973724749438 0.011670229542972706 0.005304017632284608
0.028182147738633423 0.010430932715183635 0.03252090773613653
0.025882135060064093 0.010393773188659642 0.032554737424275615
0.024892960742520065 0.010389849422164883 0.03166889169078946
0.024755127390662768 0.01040763820649856 0.030176255518499062
0.02482484207858443 0.010430808202419989 0.028529124891015056
0.025206216017831296 0.01046206081002497 0.02664984836842388
0.025990187584136848 0.010503781436388401 0.0244686724332277
0.0275397784762208 0.010565376993007754 0.021715770826961134
0.003934782805065429 0.010061952087687587 0.031177556791704697
0.0023730077754018364 0.010042322861916596 0.03078211319073143
0.0009219059141009067 0.010025501153983719 0.030308914070413084
-0.0004597101996814401 0.010010426930012502 0.02978803192833307
-0.0017630388621277526 0.009997342032711758 0.029211896685232885
-0.0030206312346311437 0.009985403706899309 0.028604647901857794
-0.004253608032669165 0.009974063061370593 0.027982103197749797
-0.005441814352703134 0.009963855759583206 0.02732828172212487
-0.006609368440532282 0.009954151224450085 0.026661528649035704
-0.007726601398192201 0.009945738925443568 0.025958248566547715
-0.00789595386736075 0.009962464183395 0.024507467928459203
-0.0070816318100642706 0.010005440900414024 0.022268664058076593
-0.006128060099088395 0.010052315807465293 0.019904715135776962
-0.005103267682705637 0.0101012956921886 0.0174684550850705
-0.003893374789185333 0.01015544455920628 0.014866796784276048
-0.002609322651098811 0.010211817744574818 0.01218741763562775
-0.001294113106877659 0.010269272834060842 0.00946437952966761
0.0002636078898208827 0.010333515034898275 0.006523529543218554
0.026222881818826205 0.009102130180239223 0.03231404304322588
0.023667139917196767 0.009063798638200513 0.03253954045690388
0.022108450597433604 0.00904757654817791 0.03206640162504404
0.021435579206078192 0.009051110959121209 0.030962869117086678
0.021447137079629308 0.009070007884294167 0.029363931348080352
0.021751052430266316 0.009095552280821269 0.027546099428416015
0.02288350021045904 0.00913985853964289 0.025114488645419875
0.025363834964285847 0.009214761920953453 0.021677990237159772
0.00785278049793714 0.008856345200219065 0.03139732888209512
0.005666358240671077 0.008825167344929184 0.03145245036211852
0.003998287824798774 0.00880565296958327 0.031129928271506513
0.002443886733919043 0.008788648548354988 0.030728666096637047
0.0009681645377829784 0.008773370421726838 0.030273843376155574
-0.0004377959373425 0.008759625311128361 0.029771327924302093
-0.0018142850208114347 0.008746498478202453 0.029251169709645752
-0.0031248198241776715 0.008734832675948004 0.028684924647057575
-0.004401625812536669 0.008723894662886795 0.028096764627739856
-0.005664487581828803 0.008713232239859777 0.027501703122352672
-0.006895368952110514 0.008703264505885181 0.02688546782997553
-0.008085070544604056 0.00869420921789361 0.02624043820938632
-0.00889725804282998 0.008693887928746181 0.025299930545198523
-0.008422021945137859 0.008723546294411364 0.023335174083245203
-0.007452293019271916 0.008764872014488521 0.020964009330912303
-0.006424534092640044 0.008807732422807593 0.01853102781756466
-0.005252201414337854 0.008854165839035876 0.01596541295057957
-0.003980292575944622 0.00890313845541255 0.013301766489570765
-0.0026586060612633355 0.00895349451605474 0.010579376078498681
-0.0011959769738592585 0.009007393618286086 0.00772258224589889
0.0006731835709973821 0.009071137758754882 0.004510072971851298
0.025124687458730033 0.007796813732647171 0.0315043059900279
0.02178990153239929 0.0077489679037970275 0.032293896072631445
0.019664666682697785 0.007724126402438044 0.03223451675575684
0.017651866401225624 0.007701343696712153 0.032104145033609255
0.015597194388974556 0.007677660494748105 0.032013531622347546
0.013645459135309068 0.007655866080243138 0.03185753384541051
0.011591003730920757 0.0076319946978946115 0.03178591500495287
0.009549320297199404 0.007608271717208068 0.03171474139859143
0.007686464564002904 0.007587923019913858 0.03152072136546785
0.005878454189280957 0.007568556839770116 0.03129423786772362
0.004172197672535738 0.007551094148069283 0.030999496555550954
0.0025990253844787037 0.007536159187008028 0.030611682012395447
0.001099291191854035 0.00752259976219244 0.030174430500719718
-0.00035669133215032733 0.007509841951122705 0.02970950646615267
-0.0017826666784352407 0.0074976205154816435 0.029226938665525948
-0.0031790620903704436 0.0074859304325869454 0.028726718020028297
-0.004537656863216777 0.007474937431192028 0.028202140581952917
-0.005866494743687112 0.007464486747334107 0.027659029465546547
-0.0071435261061310595 0.00745501916091388 0.02707977555868918
-0.008372630253693225 0.007446463847630278 0.02646680740298335
-0.009532154931192138 0.00743925792190516 0.025802407276882322
-0.009743339465840606 0.007450950820044337 0.024386508575633903
-0.00883350726207427 0.007485118195270977 0.022068884619344198
-0.007795820098978612 0.007521995378106782 0.019633826698873202
-0.006677317876193745 0.00756065484766963 0.017117624685968835
-0.005454219689732032 0.007601586918072481 0.014499800786515138
-0.004081914265082698 0.007645706427686245 0.011742433557161813
-0.0026322109340889965 0.007691582087771063 0.008902452121606286
-0.0008751052205375753 0.007743886180788684 0.00578876316962551
0.02630913938239604 0.006529563134037311 0.02906644501076605
0.021201108679915925 0.006461331348718849 0.03113123649096622
0.018129159914788084 0.006425431449976899 0.031759535563375574
0.015853032844212467 0.006402156753525036 0.031827804076520805
0.01374742883873259 0.006381528451469701 0.03178310396210288
0.011831260719831649 0.006363867812158356 0.031609589634540636
0.009901698205185494 0.006345917510218024 0.03145472125785703
0.008056625603823586 0.0063292599072836886 0.031246092898604527
0.00620321816455055 0.006312397671506161 0.031051980913011534
0.0044568101807140326 0.00629720390187708 0.030786038270657068
0.0028630478802799675 0.006284432461211615 0.03041259281199904
0.0013143563200539998 0.0062723429813062006 0.03001138018153171
-0.00018121241603985538 0.006261071449211745 0.02957574880291375
-0.0016528675073677612 0.0062501443346995745 0.029127465726577095
-0.0031497731906013904 0.006238756380664078 0.028704151081036466
-0.004607793399830695 0.006227960215982337 0.028256471592659205
-0.0060275156152332365 0.0062177499156779205 0.027784435043572586
-0.007377477645098496 0.006208649220791249 0.027262960252055213
-0.008683124699652878 0.0062002437659807366 0.026711230996159352
-0.009929194442139688 0.006192791334063955 0.026116636436714746
-0.010902545401584696 0.006189843436922177 0.02530885552474671
-0.010392233338635593 0.006211615062760853 0.023315757023391226
-0.00931100998308576 0.006243017538218961 0.020852354198927614
-0.008134808851561537 0.006276145246916722 0.018296011330844075
-0.006975383991526474 0.006309134396106907 0.015736230313993183
-0.0055571279205095525 0.006346618093120633 0.012947905618635291
-0.00409755522770433 0.006384960379880597 0.010106236210724984
-0.0024266257157201654 0.006427038281480357 0.007070122344788765
0.022088688961439173 0.005191082480213921 0.028900726113071484
0.01870805556069155 0.00515838509104865 0.02975518226554913
0.016015824502396137 0.005134410137877189 0.030127353098135468
0.013779000857805257 0.005116207688323897 0.03018013693536331
0.01175375638162901 0.005100663339831599 0.030088084993854514
0.00985166815294658 0.005086648847183785 0.029914321776881803
0.008187108367528784 0.005075657675691166 0.029572102491589813
0.00635933262950672 0.005062498543834174 0.02935915376199355
0.003290909390950947 0.005033120406757398 0.030089958917560056
0.001623589291531724 0.0050219117114574385 0.029776937084573518
7.461677988107596e-05 0.005012204271820045 0.029380744661144653
-0.0015076932124010733 0.005002018841051331 0.02901620990220316
-0.003045598289657392 0.004992373820446801 0.02862388488283102
-0.004625053791515399 0.0049821409149955346 0.028269842291736902
-0.0061272795259862955 0.004972883612621239 0.027862132740610224
-0.007572748159311027 0.004964337434723264 0.027415857597494042
-0.008932635415511925 0.004956888861149684 0.02690764773243204
-0.010276835912050308 0.004949616800656299 0.02639177048257385
-0.011549864229186968 0.004943260741772977 0.025823908568672838
-0.012018919008065454 0.004947599012939597 0.024616992373059254
-0.011109355239445673 0.004970380283219321 0.02229859745361934
-0.009782937686708904 0.004998842592122081 0.019628529364364822
-0.008527429386162466 0.00502647593512813 0.016997760545573393
-0.007232966024914633 0.00505475272494132 0.014317318114907551
-0.0056999635898492 0.005086367569226765 0.011422618783083816
-0.004027787130968352 0.005119999842497858 0.008392478624783817
0.03392518630925201 0.003902597055896648 0.04115792790279038
0.0322581035019992 0.0038948042416589164 0.0407229797261644
0.03070318052880877 0.0038880340803532126 0.04021805485546415
0.029179286344988342 0.0038815287849175003 0.039697365215581815
0.02764591390745119 0.003874907752792045 0.03918842678521228
0.02610448193795306 0.003868183694235711 0.03869039930368662
0.024563587270945486 0.0038614374276124746 0.038197434505103045
0.022974328510059372 0.003854204586891601 0.03774372440861545
0.021531121131585118 0.0038483315827308752 0.03719328372641756
0.02009348710833858 0.0038424877142411358 0.036643683247024716
0.01871312927089347 0.003837166998836472 0.0360581650123189
0.01731201143955896 0.0038316257655311788 0.03549181829198633
0.01601860358867091 0.0038270947763523995 0.03485266274701748
0.014830355979384924 0.0038235557678591285 0.03414129656427228
0.023035948133866502 0.003910467784141239 0.026613321260055334
0.018172794711507123 0.003871622855031169 0.028552934073934222
0.016168843249770415 0.003860266072000936 0.028426223981986853
0.014483608112635493 0.00385195058621195 0.028073723664175543
0.012833477706308438 0.003843941381348289 0.02770206900572364
0.011103687087204994 0.0038351236291135327 0.02739648717520421
0.009522764177722853 0.003827720645879208 0.026986592285396294
0.008028857401401746 0.0038211369380360136 0.026517254712724703
0.001968749865336905 0.003769813579805892 0.029515255694377518
0.0003395897802591641 0.0037617532621542927 0.029178770713860436
-0.0012640324951442294 0.003753910098863783 0.028829477988180918
-0.0029120406668006193 0.003745596438897848 0.028520979456178985
-0.0045495279508274145 0.0037373514906864397 0.02821133647640689
-0.00613478650089655 0.0037295884222270847 0.027867979290307876
-0.007659114569346648 0.0037223965986017933 0.02748348273220924
-0.009136244221723544 0.0037156432009416113 0.02706793013575398
-0.010521592022589954 0.003709775047248222 0.026585477921904466
-0.011907814489200197 0.0037038730667917244 0.026108719334454022
-0.013112215719364828 0.0036997643292122425 0.025491553669783007
-0.013063253968320254 0.003708200746538455 0.023869938021839954
-0.011838406141425895 0.003728485075365095 0.021290382931169527
-0.010366656970402843 0.0037513423415653645 0.01849271759276694
-0.008921997552914451 0.003774025132681632 0.015697511628207428
-0.007421679449525209 0.0037973689120370468 0.012837012770143208
-0.005753112732933441 0.0038225187540476655 0.009817378777302876
0.036177928811672366 0.002605338456688091 0.04276520886578927
0.034521428881789884 0.00260023716721637 0.04231481905921447
0.03293317026956588 0.0025955412391373517 0.04182467506091231
0.03148336992198514 0.002591692146961745 0.0412465901919829
0.029993829400353667 0.002587578578677018 0.04070014356671248
0.028506576431332087 0.0025834627717688397 0.040157091814763124
0.026991369542962607 0.0025791544813354287 0.039638220507811406
0.025475189361705508 0.002574822600658688 0.03912523565650966
0.023926983166854265 0.0025702708586457755 0.03863975604092157
0.02234853336687692 0.0025655091941803017 0.03818093711851572
0.02077000456709116 0.002560727618445432 0.03772797152303203
0.01918205489813729 0.002555866645151293 0.037287494541078436
0.017603631291590982 0.002551046434318236 0.03684619457318994
0.016075341701586587 0.002546526344358382 0.03637499620637702
0.01458021817108962 0.0025421997353391756 0.03588553105395864
0.013140792801224821 0.0025382121654192705 0.035361173757671116
0.011819241809377046 0.0025349649176790944 0.03475616020883632
0.010605990211988658 0.0025324009838630195 0.03407610769317654
