# .PCD v0.7 - Point Cloud Data file format
VERSION 0.7
FIELDS x y z
SIZE 4 4 4
TYPE F F F
COUNT 1 1 1
WIDTH 779
HEIGHT 1
VIEWPOINT 0 0 0 1 0 0 0
POINTS 779
DATA ascii
-0.0011719985708141256 0.08331903457608712 0.036353909128851
0.00023421327025979766 0.08318715187488251 0.03585396836950311
0.0018349825831900923 0.08301234869810098 0.03550485860953556
0.0034687794492692103 0.08282960599257783 0.03518718005412863
0.005024962755513007 0.08266306955402958 0.03481749639087284
0.0065239706999378755 0.08250836263712402 0.0344104750785747
0.007622390355539077 0.08244097639470052 0.03370227138170173
0.004890406906097711 0.08103640008351573 0.06010763022268106
0.00763867604452656 0.0806107268136757 0.06057202253397853
0.0097961128714803 0.08031045663769902 0.0606388421434535
0.0114772540064082 0.08011166021933823 0.06038181514944785
0.013062522503093144 0.07993276583344247 0.0600642001156107
0.014474516763039569 0.079790653131943 0.05962994848407116
0.015964158637230053 0.07963111236488445 0.05925627017832008
0.01744687745436807 0.07947242090926648 0.05888338102558477
0.0185179203190296 0.07940275442528218 0.058219000329040815
0.01802474377797303 0.0796742493960372 0.05642159043383549
-0.006013864839429783 0.08509715895892805 0.03742799893281201
-0.004603258926660081 0.08496428430351693 0.036914243202781694
-0.003079089377029387 0.08480591399266811 0.036489133652810424
-0.0017656028132387314 0.08469325679812303 0.03591350453332792
-0.0003344588710836316 0.08455417901222405 0.03542976866854464
0.0012340991131033485 0.08438414834773096 0.035054198321388785
0.0026389410023602844 0.08424966657600479 0.03456143082638996
0.0042816521672112695 0.08406182519609186 0.034253959988235994
0.005855296797084519 0.08388855557010977 0.03390078274232711
0.00705167721530392 0.08379864280819703 0.033264899456372454
-0.015244625596207872 0.08625717429579356 0.049220242858285634
-0.0033485233616296073 0.08384987754364416 0.05588525336562167
0.00398267577941952 0.08242550602322142 0.05948039496301477
0.006882438274849967 0.08196096309948298 0.06004657783518125
0.009054118234931796 0.08165350246761502 0.0601204464842493
0.010752503229770782 0.08144834001917355 0.05987267448173356
0.012375450372386965 0.08125887819069043 0.059578870770622516
0.013831020383278547 0.08110541096885801 0.059172900180221144
0.0152761652275199 0.0809536092493684 0.05876493399854216
0.01680523324602229 0.08078267129124293 0.058422632495300664
0.018037019193505754 0.08067674091847518 0.057871786136112435
0.017811234693738798 0.08089322120485148 0.056266592162798834
0.007147622066182524 0.08342732710626746 0.04703485176900035
-0.0052817552540331825 0.0863646669005757 0.036416292584197374
-0.0038996984911099375 0.08623595459597759 0.03588360506405569
-0.0026076692191305817 0.08612681349132899 0.03528876183712415
-0.0010821780311520701 0.08596496704707367 0.03487200924788331
0.0005355673162125707 0.08578175412156473 0.03453030216425018
0.002023105014909432 0.08562703733634608 0.03409705261518936
0.003554776624937639 0.08546173172885711 0.033702883715808096
0.005051671305267458 0.08530357977526055 0.03328822443454127
0.006287666621385413 0.08520376743018787 0.03267939202562292
-0.018423051557600822 0.08785114218702876 0.05007352058318809
-0.014615769067610418 0.08719318302280024 0.0511513700325914
-0.00995100856562059 0.08634416357824978 0.052837874329796475
-0.0023067859231671872 0.08483573963380314 0.056601120747327704
0.00311743044690882 0.08381096072364035 0.058882517061880746
0.006151894240110145 0.08331029593313453 0.05953898550683695
0.00839050509030026 0.08298388211171351 0.05965681217124663
0.01008246367959481 0.08277747229903523 0.059401968695733054
0.011687827035149978 0.08258947924490817 0.059093152068108945
0.013160353045630957 0.08243032190067662 0.05869655349240721
0.014614331145280324 0.08227465399208556 0.05829227971868289
0.016090414634613026 0.08211339948009427 0.05790933927088948
0.017570516034635886 0.08195057987339419 0.057534967382300795
0.01777497211527518 0.08207373519690106 0.056240267114450904
0.007242254762704514 0.08461511017392773 0.0471039262129061
-0.006056424247791292 0.08779112389436618 0.035847760539030105
-0.004604906971015454 0.0876452036077945 0.03536323076125075
-0.0029649536864644888 0.08745598077524491 0.03502368670780881
-0.001494448654421332 0.08730444210759991 0.034564476906503494
-0.0002245209775648127 0.08719790642745823 0.03396023887154337
0.0013021046538071457 0.08703239737341355 0.033553373998177094
0.0029093171271246665 0.08684778143343849 0.033213532522417544
0.0044110228738494794 0.08668654594217072 0.03279989433173719
0.005374020839289617 0.08664823305288798 0.03197921011879046
-0.022120769530210915 0.0895669449324376 0.050603206661084754
-0.0179696482712125 0.08882702063522255 0.051881856970041995
-0.014910453187647055 0.08832649021514603 0.0524475409124624
-0.01150797248466029 0.08774759382992389 0.05326348854399682
-0.00908754469472306 0.08738522086618436 0.05342796123178101
-0.0018647868434696901 0.08594897611902845 0.05690485632619541
0.0024635491653919317 0.08515457395426217 0.05843069010194818
0.0054277820672203325 0.08466280071865483 0.05903586212708001
0.007689845394393546 0.08432678496229837 0.05916729522995584
0.009448499174245062 0.08410273218355101 0.05895660579035128
0.010972483517077858 0.0839307032993488 0.05858785257253679
0.012510254572901225 0.08375485378287303 0.058234816000726275
0.013971991470696055 0.08359550592636171 0.05783354753117109
0.015425210681105028 0.08343743652168767 0.05743167308154107
0.016918156297182463 0.08326968043826498 0.057063958795052994
0.017271453266514913 0.08336097785482383 0.055874734419333605
0.007346191799298518 0.08580015941746903 0.047179792095078
-0.006831947722779674 0.08922277059364186 0.03527860138736272
-0.005272558547391781 0.08905039521622957 0.034870569748978175
-0.003853306004920398 0.08890950794946383 0.034364603743890776
-0.0024859736545729816 0.08877999008092528 0.03382485106943761
-0.0008494593070748624 0.0885878106616451 0.03349153753148093
0.0006612216537038584 0.08842392646725379 0.03307010879893346
0.0022757375526976653 0.08823529158968824 0.03273318802070324
0.0036583354743773833 0.0880997218583449 0.03222616325375732
0.00510206248277445 0.08794935494127068 0.03177079201587202
0.0043943533747233254 0.08830009111864796 0.029663093387063022
0.0005162816685917448 0.08939323848317302 0.025086997044770576
0.0012540797123220537 0.08940998608921487 0.024066808360603265
-0.025559283352654838 0.09123412260057508 0.05133513366440373
-0.02169998111171273 0.09055287656296418 0.05238822652809588
-0.018681808451867676 0.09005747522920686 0.052901749146361976
-0.015425339910666802 0.08950655649265149 0.0535919204175207
-0.012818566764525363 0.08909966330895781 0.05386136064702235
-0.010060272677116955 0.08865695704988444 0.05424737326130602
-0.007392755409912577 0.08823297973867406 0.05458617177456926
-0.0015419368709166936 0.08708641413976996 0.057126714306913184
0.001932116827165542 0.08647452337076988 0.05806347442445753
0.00477535245473748 0.08600358019541904 0.05858254480419084
0.007060283043680449 0.08565792356195755 0.05872745055489703
0.008697500886820642 0.08545873141534759 0.058429026128711425
0.010299846484319142 0.08526670326138817 0.05811271979399124
0.011774524639387995 0.08510315503831968 0.057712258098646496
0.013285487004891905 0.08493060134498845 0.05734327469298961
0.014712930056051787 0.08477656275696924 0.05692020232114997
0.016274311921230633 0.08459099658310208 0.056599098362206
0.01689364081224276 0.08462239899906367 0.055600459076912856
0.007034208057484559 0.0870808694994734 0.04695206844072314
-0.007636463980726149 0.0906661457482089 0.03468816433981586
-0.0061036474886046466 0.09049791015626864 0.0342573080814349
-0.004633279568952153 0.09034352821295144 0.03378592873209668
-0.003186743351751342 0.09019406810321032 0.03330211349470502
-0.0014775389018135132 0.0899825125612469 0.03302048025459625
-5.947706309428202e-05 0.08983834843743974 0.03252665764027901
0.0014965551387686182 0.08966115540251027 0.03214245561159462
0.0030021399312089025 0.08949509769902082 0.031725982466073444
0.004479584394825542 0.08933498130235773 0.03129374948678415
0.004024320176064133 0.08963126552889267 0.029377984807193613
0.0032131473920968268 0.09001315234760941 0.027176114180733013
0.002657361850037454 0.09033600455460605 0.025159706479487287
0.08116583180645232 0.08134951796187241 0.006159575520854332
0.08241060288813701 0.08120944258239242 0.005838347673600308
0.08420632443496795 0.08091949225154409 0.0061040640731144236
0.08570882734896323 0.08070773273796214 0.006070460505779973
0.08715351829843387 0.08051067592387819 0.005983763414722898
0.08889980215843479 0.080230391155372 0.006228200314825683
0.08964898947766409 0.08022138880059426 0.00541004797285799
-0.025759665722284497 0.09236250544491986 0.05270946863607262
-0.022234260133069006 0.091748490865976 0.05353286261175527
-0.01921749715941573 0.0912474080640111 0.05403825230622561
-0.017207182841528612 0.09097308761475646 0.05388736356246787
-0.014547522154052805 0.09054977290893128 0.05418191339259054
-0.011229547803754791 0.08997451925061692 0.05493531300910848
-0.008975391444124847 0.08964021800449769 0.05498467947608526
-0.00635522744283068 0.08922070195259048 0.05529521321156794
-0.001664406895820869 0.08832406679277842 0.05704255462057706
0.0015115706570826282 0.08777231144291457 0.057772880240297586
0.004093682417116995 0.08735522124399175 0.058108910820331705
0.00639059588097568 0.08700231540922367 0.058259572620110556
0.008071059088985089 0.08679066192133494 0.05798894795906262
0.00964910580843481 0.08660189885210806 0.05765305401529125
0.011097366046969759 0.08644252805443642 0.05723130094669304
0.012536296619115206 0.0862846764483005 0.05680823418696357
0.01399688731199844 0.08612112117155657 0.056406030077947256
0.015584647861975276 0.08592715299895122 0.056101155776887235
0.016324468375248147 0.08593108862682468 0.055187264743883635
0.00674880980049114 0.08835734386242755 0.046743750104481674
-0.008257846374175204 0.09207161447311218 0.03423212981949164
-0.00677198317816019 0.09191241732089016 0.0337641422611108
-0.005515915594572873 0.09180685564146163 0.033131086778356855
-0.003758969222691144 0.09158225543958655 0.032875262897171076
-0.002253387099012849 0.09141635924201541 0.03243859709502528
-0.0009081290469103998 0.09128788896133828 0.031886721848595756
0.0008506155435825669 0.09106035781243138 0.03165274043530003
0.0024499594899933252 0.09086993029491218 0.031305086513782776
0.004108343660569391 0.09066457351514419 0.031009245305514743
0.003887127255563949 0.09090904034542548 0.029272278403352836
0.0034075832756294555 0.09121661452581474 0.02732673322438567
0.0022243247851389536 0.09169494525917828 0.024822450427468334
0.0016524345229043114 0.09202778033762843 0.0227802358661629
0.07330583390073309 0.08342276725632232 0.007806452660435781
0.07485449619670997 0.08320296665487158 0.007759574370094058
0.07623218274213378 0.08302839064163499 0.007546360128565521
0.07756442465198854 0.08286530892780179 0.007293240714547289
0.07881256137238452 0.08272431711952509 0.006959580488108519
0.08010116580402576 0.08257161762108875 0.006673502991446645
0.081558743260989 0.0823720130788482 0.006569900264269513
0.08266647966543883 0.08226726700265755 0.0061069444689625385
0.08399479474673649 0.08210145202084174 0.005880872654902336
0.08575153736395946 0.08181691852104421 0.006115757709651837
0.08759885457620892 0.08150601342595307 0.006458512988523679
0.08963832986167702 0.08114044938146842 0.007019566515559628
0.09155329238524917 0.08080762075101341 0.007461117228455605
0.09279279008581603 0.08066088907917743 0.007184724946041665
-0.026404584050556068 0.0935892600058947 0.0537887415223679
-0.022997751276463196 0.09299515404757817 0.05452482105941292
-0.02028287615837082 0.09255748190532097 0.05482266204032177
-0.018130659862666265 0.09224744797246666 0.05476063746187182
-0.01615513641127192 0.0919768858683162 0.05459053331674557
-0.013546619556791761 0.09155909418066806 0.05485463332410684
-0.0101536717215705 0.09095815143773861 0.0556624532687901
-0.008120124987514465 0.09066990862419637 0.05556593505925356
-0.0057353533907023024 0.09029892169462489 0.05571883204655265
-0.0015749428526919962 0.08951316318474044 0.05710403305837425
0.0009785271805600182 0.08909898653859337 0.05740455127857785
0.003589660635093639 0.08866965303828096 0.057758709357165205
0.005621574961090781 0.08837420610834612 0.057722295007754776
0.007324750854121986 0.08815469092254788 0.057464663080360134
0.008964548232731295 0.08794918076735768 0.057169500884586555
0.01050067373684882 0.0877672548708189 0.056807495596984
0.011964114136947424 0.0876017427745087 0.05639960533826188
0.013418047174710679 0.08743779961554182 0.05599037956781111
0.014927159539062318 0.0872601005499204 0.05562644431275543
0.015875381810483757 0.08721490633173783 0.05486124750984461
0.006906144892049271 0.08953026655956793 0.04685859237735002
-0.008873276901636862 0.09347966942371605 0.033780463392597826
-0.007390775971562069 0.09331939995833062 0.03330753421168636
-0.006005267114436941 0.09318169558156776 0.03276802896513431
-0.004428712927949829 0.09299756151456523 0.03237566909111894
-0.0032586904245131554 0.09291043929996426 0.03168462347301915
-0.0016193195845602415 0.09270982564371302 0.03135044044181462
0.0002933337260419555 0.09244236295310115 0.031230240614021743
0.001629563409935697 0.09231329471407722 0.03067974493411496
0.0032057301716554853 0.09212548524267396 0.030317518110812736
0.003964918109500004 0.09213546145211819 0.029332215835920827
0.004083839440096548 0.09230143538340974 0.027850592580517197
0.002345805809887691 0.0929213874320582 0.02491706175320224
0.002880909008696586 0.09298793265541544 0.023742134740524057
0.003432074407281549 0.09305082386393625 0.0225775642040123
0.0038584077264631755 0.09314464948258064 0.021312030958946848
0.06319826978902415 0.08589922547960442 0.009085448230171711
0.0653034609475514 0.0855333562557837 0.009530221231303593
0.06688528602275168 0.08530699799652602 0.009472453319463114
0.06812480713416214 0.08517216107988783 0.009083780634662642
0.06961924910288081 0.0849675767649534 0.008954372001721222
0.07105009357132208 0.08477930939541434 0.00876903011770458
0.07242178871290073 0.08460626313077747 0.00853130051586004
0.07371681317274748 0.08445333033576906 0.008222568543243547
0.07501680147396977 0.08429831182715074 0.007924758745544824
0.07631122789783379 0.08414408035350276 0.007627223645041148
0.07754696419661833 0.08400525174587885 0.0072752862239169325
0.07877705114171174 0.08386731558736321 0.006922876747725348
0.07999604229732138 0.08373178325587467 0.00656428475532006
0.08116739300363157 0.08360879436834884 0.006161205908119971
0.08235394094525317 0.08348099270426675 0.005778868980621299
0.0836109705090326 0.08333295645597447 0.005475888008664054
0.08493257568597035 0.08316618627059638 0.005247186858192476
0.08694058394722459 0.08280663600651313 0.005756765306710543
0.08860770845989929 0.08254090338150968 0.005915208561837193
0.09248372981152342 0.08165308385530658 0.008463264308989416
0.09468217084294922 0.08123354080697956 0.00923021225528664
0.09399642095390182 0.08162649077777286 0.006875193771255339
-0.027628822240963413 0.09494907701529358 0.05449025281919018
-0.02541618094378173 0.09462499138522171 0.054434770767919194
-0.021958704775839 0.0940106452366267 0.0552077660310521
-0.01885168724184927 0.09347536594299506 0.05576862996392623
-0.017063341225171835 0.09324528224657049 0.0554700492039758
-0.015096180676611781 0.09297251901416456 0.05529832113134825
-0.01263792089890925 0.09258374542158634 0.055465381763138255
-0.009673095977514423 0.09207463582833827 0.05598725458849241
-0.0073144579462168235 0.09170589384254306 0.05611348192293486
-0.004982207183487186 0.0913418758401342 0.0562335284074959
-0.0017741636791399618 0.09076979481700846 0.056967131295852236
0.0007541412378036516 0.09035606462631265 0.057249502309853706
0.003062384079748015 0.08999277605855716 0.057392350148572746
0.004904296972762678 0.08973868364065399 0.05722116767168445
0.006603232275299631 0.08951755746632205 0.05695779304609222
0.008192691461412827 0.08932161614284054 0.05662428194103303
0.009803630907549932 0.0891197436153534 0.05631241551128069
0.01133065100197772 0.08893712306292532 0.05594721240487999
0.012785240084087879 0.08877111862977873 0.05553597674898181
0.014213466717498402 0.08861076443226151 0.055111152782156114
0.015323898464981667 0.0885262600961189 0.054460894684741745
0.006791542940979667 0.0907677833969509 0.046774941944343396
-0.009308865352006812 0.09484821412183654 0.033460783639651104
-0.008319260952660945 0.09480540537347519 0.032622403872968775
-0.006657781518846884 0.09459931307911044 0.03228391796691549
-0.005103016757122991 0.0944183216400081 0.03187267367092006
-0.0035875453023620496 0.09424615267884714 0.03143798358128019
-0.0020167931444203258 0.09405975847361829 0.03105072093128164
-0.0007424839188093779 0.09394515102371469 0.030444941765123523
0.00109740958398441 0.09369131619348765 0.030274114139141772
0.0026703435137032105 0.09350203852739353 0.029907219001022334
0.00440836374464193 0.0932712926933182 0.029673888301371798
0.004713488585058823 0.09339331020399742 0.028338347980024103
0.004902870752954758 0.09354447918917308 0.02690854400116416
0.0036697383614810453 0.09404895998929512 0.024359790276134996
0.004338840009954159 0.09408298367511046 0.023291376994088675
0.00500842594965345 0.09411703198703761 0.0222221904017757
0.005563536798770308 0.09417978862059896 0.021060759354559366
0.005615748197454307 0.09436856167107459 0.019494901261474185
0.05547099997782501 0.08793260537720358 0.011344086624924365
0.057137603837898954 0.08768694727812061 0.011314647379076948
0.05902403872429557 0.08738086608930565 0.011504512091710162
0.06020077599381346 0.08726521237765697 0.01102334844086078
0.06154625536443792 0.087103301181405 0.010709540785107441
0.0630124121301161 0.08690786285121146 0.010518969277245716
0.0645006624532029 0.08670549846824428 0.010357235819523913
0.06595019103575356 0.0865127528306963 0.010165032888317993
0.0671852888269453 0.08637774796911012 0.009768455697694411
0.0684935241624921 0.08622205946914377 0.009449468075881817
0.0696974743201198 0.08609429280634898 0.009032356723829627
0.07088148378144776 0.08597141511867483 0.008600067587238747
0.07208411301756512 0.08584281545606616 0.008191165545847146
0.0732872007272915 0.08571347891222499 0.007787586600894181
0.07446732733041389 0.0855898965780034 0.007365537599061001
0.07569856218843363 0.08545151456343879 0.0070004641270488555
0.07695689939507183 0.08530491761148158 0.006668525820132665
0.07822043197842177 0.085156167127578 0.0063475494441675995
0.07949216439372292 0.08500440619930659 0.006040779998111645
0.08073275769653554 0.08486065658100386 0.0057073081690639516
0.0818640515439481 0.08474697083322148 0.005264626443021836
0.08311547891727095 0.08459884766467528 0.004953079735262544
0.0846647301577299 0.08436579165445988 0.00496311640071434
0.08630831535462469 0.08410486392088051 0.00508273702775669
0.08796969887955042 0.08383760803176037 0.005231552125638528
0.09449849528520615 0.0821826214338853 0.010633309580595274
0.09594514737622012 0.08197066684710648 0.01059753986298373
0.09570253894066533 0.08224119929342008 0.008731795794771069
-0.029038380127747565 0.09635438310362512 0.055074986326199116
-0.026133824605840295 0.09586478848941997 0.0554619298837305
-0.024124070229999628 0.09558331677697791 0.05527930606315673
-0.02077243557014241 0.09498507306014663 0.055987477611384895
-0.01803026108948108 0.09452809396144304 0.05631156512977331
-0.016185227638792987 0.09428116783157378 0.05605370254534392
-0.014364438181732053 0.09403899045714983 0.05578740523973086
-0.012199073699159624 0.0937141367299797 0.055760336795695364
-0.009228920098697801 0.09319676383626621 0.056287454740922005
-0.006849649033391081 0.09281798062311561 0.05642937502688883
-0.004366693560435453 0.09241293466245346 0.05665416734700157
-0.001982127266029421 0.09202976946194029 0.05682422163076767
0.0003415535280990034 0.09165963512207527 0.056964407360891534
0.0025043384947485148 0.09132661408619111 0.05700461218297148
0.004242487763205016 0.09109436075542061 0.056758793680610986
0.00595427802068027 0.09086751278751622 0.056501899774689446
0.007502778036259983 0.09067916899346622 0.05613694558177207
0.009022448984457976 0.09049703009212688 0.055757574980429436
0.010547171452543302 0.09031291933156774 0.05538768400922944
0.01201434391766204 0.09014203455257909 0.054982415646017746
0.013486988755693763 0.08996911367859331 0.0545866302851179
0.01472093127620211 0.08985371490751207 0.05402316683776126
0.01432755855065937 0.09013567260238407 0.05227564208959362
-0.009669182983590485 0.0962011272117488 0.03319634538067251
-0.008924807359847797 0.09621813157430502 0.032175570350067684
-0.007392646623985866 0.09604141285704651 0.0317387096508987
-0.0058717174365232605 0.0958667259518215 0.031299263133245714
-0.004187812618405673 0.09565104984404706 0.03098778540629249
-0.002325400621723872 0.09539028234875208 0.030818011912657095
-0.0010507969615649038 0.09527423403909156 0.030211196106532223
0.0004213585853637958 0.09510858944656268 0.029758798659594743
0.0017826666713162687 0.09496985986454087 0.029226938660070312
0.0035669846779710634 0.09472494679293858 0.02902561027740097
0.005277633923657876 0.09449742648600351 0.02877536109631257
0.005780560684439329 0.09457170850270143 0.02759210267358092
0.005932808778127907 0.09473440554603114 0.026131780587328735
0.006153436265105283 0.09488058024433876 0.024719840989562092
0.006160122356531239 0.09508135565065212 0.023133678010279823
0.006425112533021471 0.09521768091545796 0.02174629048014498
0.006872333454040758 0.0953084170606827 0.020500082032701483
0.007315010459926274 0.09540069674257526 0.019247155844202224
0.047278749205408865 0.09008994199699953 0.013365410343909645
0.048849439579766785 0.08987244109295933 0.013203200136186866
0.050592977147508655 0.08960735695868766 0.013209026595201068
0.0522007518191549 0.08937774032085397 0.013097856754926751
0.0534879973294311 0.08923386732982226 0.012694690849369028
0.05479488262361537 0.0890840033923706 0.012315210988541658
0.05619980021522475 0.08890678173449548 0.012033946117130045
0.057516507255264526 0.08875279429567856 0.011675173933043792
0.05897392002596025 0.08855964131740056 0.011456575869930097
0.060252350026208046 0.08841462114427583 0.011072933302658627
0.061605207326884626 0.08824849263604222 0.010766513778109554
0.06290119024048363 0.088097242597511 0.01041092231324453
0.0641353058740432 0.08796235241170038 0.010000464796587838
0.06535640556211181 0.08783043009564993 0.009582190142464808
0.06663234159823106 0.08768269227696615 0.009222881814891115
0.06788903885046882 0.08753960452198098 0.00884994955619317
0.06912842240819289 0.08740066366067252 0.008465054301628694
0.07031128320849966 0.08727684221132709 0.008028674124556656
0.07165751314199925 0.08710673100698775 0.007761458765384643
0.07294654805125927 0.08695185159569521 0.007442676288694827
0.07427297437568714 0.08678572549360965 0.007167737059327828
0.07563202973209698 0.08660961413611835 0.0069324011530246255
0.07691386767531078 0.08645447000211595 0.006624276538376939
0.07776191018406431 0.08642139351396845 0.005873616592106057
0.07898818800102492 0.08628082008887407 0.005517172915495083
0.08009574903005151 0.08617334153915795 0.005042068164960278
0.08163254957187666 0.08594294452233213 0.005021616160986397
0.08279613710779332 0.08581811454929685 0.004616132463474698
0.08421622241002097 0.08561918325537436 0.004487439984120434
0.08578267024579045 0.08537724514867116 0.004522374434715093
0.08746835611998816 0.08509979607566326 0.004694340436546152
0.09633698726552803 0.08274773439021298 0.012613495801222785
0.09692134494889171 0.08278115358648551 0.011654393934708962
0.09635940567966905 0.0831472228755182 0.009446599885857332
-0.03238591552943082 0.09822102262809577 0.054418539909936
-0.027170813647029668 0.09717975455573256 0.05628201297157842
-0.025060529612856652 0.09687138666879659 0.056159520370609284
-0.022974083983801852 0.09656746424657989 0.05603094751585319
-0.01993213991166637 0.0960346121172408 0.05653978753620709
-0.017312272022488417 0.09560042789325214 0.05678613184771886
-0.015408037335528812 0.0953357446799437 0.05657027548581023
-0.013587170846437735 0.09508999008952163 0.056306917369089715
-0.011191079692597306 0.09470505889859242 0.05643782295760469
-0.008989064828432203 0.09436529887432972 0.05644956302308851
-0.006702581334106117 0.0940037962922106 0.056529325072459224
-0.004389335728333055 0.09363436676536072 0.05663869380241077
-0.0021849747836349964 0.09328981326944769 0.056684827656861725
-8.886466763108336e-05 0.09297013317265351 0.05666699168258177
0.0019173585760148826 0.09267101249252313 0.05659677023303694
0.003652380821638379 0.09243675544606876 0.056346514585983776
0.005239910539538428 0.09223755456569925 0.05600005341858144
0.006728989512224726 0.09206162637573208 0.055590362099855184
0.008216493752760345 0.09188536415604281 0.05518513901464628
0.00972985877485033 0.09170202611499402 0.05480399340540382
0.011269558481509345 0.09151145197451442 0.05444760400021631
0.012758648322338417 0.09133257687558809 0.05406076306975405
0.014224940607574399 0.09115859864506569 0.05366309927265833
0.0144786207816196 0.0912842518184239 0.05238590566637252
-0.010972740815218873 0.0977904776434142 0.032239660130609527
-0.009728281196442534 0.09768399777925448 0.031582685906029195
-0.008132555601506053 0.09748952699810137 0.031189759204322265
-0.006531904751209738 0.09729301519639269 0.03080679789518248
-0.004879477046822733 0.09708272372175274 0.030469039749058235
-0.0031129816564920976 0.09684294344592917 0.030224127372692033
-0.00126249809354545 0.09658104854994912 0.03005069618062234
-6.033404996291791e-05 0.09648133505265928 0.029391631579190836
0.0011459144988994474 0.09638017051345123 0.0287389570385278
0.002658783708187895 0.096201028687861 0.02832584633819457
0.004479369805919953 0.0959431367784932 0.0281569887269153
0.00590622599790902 0.09578415520062684 0.02768997278894031
0.006745460350546906 0.09577406593757407 0.026768088985914262
0.006922896670812473 0.09593274044359884 0.025325566082609663
0.007429200182359763 0.09600802802557129 0.02413806484830594
0.007912729772513727 0.09608947145581603 0.02292994489389899
0.008145244746085412 0.0962357026092164 0.021518322496318854
0.00818731866589495 0.09643155550068093 0.019948672894075092
0.008625295350235263 0.09652618066625696 0.018692571412036174
0.008973893328596605 0.09664430714213047 0.017360654416228027
0.03898548668879659 0.09227347905812248 0.01550492751756588
0.04045952015011972 0.09208430544320184 0.015215930233286601
0.041869745340519626 0.09191147179119019 0.014876204479023991
0.043501518524087956 0.0916780361481912 0.01474262347577382
0.04500374256449041 0.09147860588640683 0.014499605284947648
0.0463816171795699 0.09131200160695778 0.014150103389608648
0.04781623738763807 0.0911292142472594 0.013858529774808948
0.04924151612639066 0.09094814069465222 0.01356479246352199
0.05047272353540355 0.09081924238168959 0.013097543218703656
0.051978877546934865 0.090614495525022 0.012891089816403523
0.05314048723886988 0.09050333685538114 0.012369152393939209
0.05465745493470864 0.09029395128489197 0.01218580080874937
0.05585027604769538 0.090172941321834 0.011703097480766145
0.05711318443307167 0.09003201170588275 0.011291412318455152
0.058451071280663125 0.08986966999965555 0.010956495176606906
0.059716897836459726 0.08972657488759161 0.010558133090317556
0.060971839202504874 0.08958584316576479 0.01015440730666356
0.06228424861975512 0.08942843302837539 0.009811591827978139
0.06362680306380075 0.08926186374552765 0.009503911352297001
0.06486156855368941 0.0891247098005956 0.009096472364679087
0.06605649343086861 0.08899809940176417 0.008654712368950268
0.06744310443117096 0.08881694571487118 0.008407679185651329
0.06871891454289702 0.08866619616963456 0.00805680542481535
0.06992861750444007 0.08853342803456918 0.0076452078636200516
0.07105600711207866 0.0884233624167292 0.0071555719980641586
0.07248059017813696 0.08822833873254106 0.006970894656557536
0.07374675343401255 0.08807750359916952 0.006632181598241582
0.07531982466190684 0.08783833801759934 0.006613014093646508
0.07696167995114989 0.08757834747201175 0.0066734416397657426
0.07780004063708618 0.08754758006721458 0.005913028621312655
0.07850710493774804 0.08755441540284907 0.005017350894248984
0.07973447740919831 0.08741132430053616 0.004664785488626477
0.080876332006167 0.08729224975852179 0.0042278058868064905
0.08248544519351103 0.08703727853608237 0.004288311959622704
0.083902313114532 0.08683688181507244 0.004154515414641957
0.08530423783676372 0.08663986009592438 0.0040123428167818664
0.09618324023773811 0.0836772078047099 0.014032737227652692
0.09744291621519452 0.08351310909886246 0.013804659695633326
0.09759378548890052 0.0836732535633118 0.012382393616941878
0.09706042795828174 0.084035256685582 0.010209454149805952
-0.030938023618556576 0.09914982800209272 0.055349073794530246
-0.026193239791218514 0.09820722228574767 0.05691382860115468
-0.024129660324684665 0.0979056155105617 0.05676454095134564
-0.022016073279180814 0.09759076208247289 0.05665711201138596
-0.01953568711922743 0.09718610267455637 0.056800368213708874
-0.016926988342184424 0.09674879073162075 0.05704079145194613
-0.01490623000358976 0.09645224021877379 0.05690381038442971
-0.012831922111003757 0.09614149699885563 0.05681171264469753
-0.01078533341548088 0.09583625309012052 0.05671053042035051
-0.008752797453593864 0.09553320911762182 0.05660924639475107
-0.006672092295969212 0.09521717518124284 0.056550046010952204
-0.00463425582227156 0.09491036155884965 0.05647131663199634
-0.002580607681067215 0.09459842835219973 0.05641295426924536
-0.0005648241274299748 0.09429453930868367 0.056338107339428234
0.0012801188675033437 0.09403149832940885 0.05615400707027701
0.0029411931257106727 0.09381277032875097 0.055849642241780184
0.004518672244781974 0.09361382597733585 0.05549338028512557
0.0060491747455544975 0.09342571127543521 0.055110159162381545
0.007552993323530988 0.09324345325550495 0.05471388267922506
0.009048913459465013 0.09306241322431198 0.05431769068044007
0.010532944651453546 0.09288359375852138 0.05391866017874836
0.01203045865527097 0.09270066886956271 0.05353500470877243
0.013591288558547687 0.09250113552811104 0.053203095557171565
0.013979945824030615 0.09259488206917113 0.0520219120716513
-0.011845064272157813 0.09927980843836258 0.03159945916346485
-0.010413714082016468 0.09912531442879012 0.031076904041355824
-0.00884796884808614 0.09893624655813568 0.030658982537017765
-0.007204511432605476 0.09872672924670121 0.030305068458539586
-0.0055927155730738365 0.09852436351187294 0.029934113601545187
-0.003938390631580968 0.09831034556521927 0.029601718239137986
-0.0012283013846929869 0.09782664171480586 0.030076622207497294
4.7301553419532016e-05 0.09770687875742755 0.029473676118266345
0.0012946437431183844 0.09759383638937907 0.028852937235076315
0.0024618145946305736 0.09750085684683399 0.02817408270063998
0.003988615951461327 0.09731515035767652 0.02777682805448972
0.0054224390371949704 0.09715257872734108 0.02731319192278764
0.006906072132776886 0.0969764733948645 0.026893848449641766
0.00782268710874362 0.09694612736647444 0.026033887969865388
0.007990020361155592 0.09710966850340877 0.024581915016213762
0.008522432970791916 0.09717917442036371 0.023415068259347582
0.008827096583336413 0.09730820361431995 0.022063756522413214
0.009081250719982226 0.09745095004831532 0.020667580010939435
0.009553264971084718 0.09753741326339345 0.019442838155734554
0.010207673661360495 0.09757651148006116 0.01836349311816926
0.01067916322039042 0.0976637575124404 0.017133381010063065
0.029632724380220743 0.0947401772147493 0.016936955650930785
0.03146410124547727 0.09445788867421331 0.016916438923393617
0.033081514581782934 0.09423196333780835 0.016719231167591997
0.03479111124515172 0.09398015475454953 0.01661040203400993
0.036277018745893896 0.09378772711258411 0.016313359740085076
0.03785260052294026 0.09357013040942659 0.016102216328021834
0.03936722945089488 0.09336811968745305 0.015844341477971757
0.040676917483429 0.09322100797720609 0.015410237017067063
0.04197223892305557 0.09307715538315599 0.014968292594211619
0.04334878757066318 0.09291043629529457 0.01460467863412096
0.044740667234838494 0.09273876095469522 0.01426075356016987
0.04615120348487495 0.09256118193558897 0.013939810397596342
0.04737800944921766 0.0924333945664656 0.01345647682045037
0.048659394255399 0.09228996115062159 0.013027930965589851
0.05011233981116342 0.0920984120219651 0.012763442698065064
0.05142333495517931 0.09194534734966006 0.012373373905643636
0.05262496755802892 0.09182197493006274 0.011886226904283259
0.053967701632941845 0.09165873203489988 0.011536287602901929
0.05522734372037952 0.09151793664096342 0.011113449238424888
0.056585530603052936 0.09134891543656576 0.010789349765557787
0.05792218330267207 0.09118515285230967 0.010450638235946608
0.059983984959577574 0.09081676802698638 0.010814918869378909
0.061102996954801314 0.09071233725302141 0.010281162199861915
0.0619317403266349 0.09068940436105853 0.009469146190858257
0.06313367808226045 0.09056071282295854 0.009022374371345121
0.06446830542615917 0.09039376703091352 0.008710456587488091
0.06564004505032217 0.09027236844332685 0.008243817172874923
0.06680947810490084 0.09015105701261657 0.007779259090728408
0.06819617480270718 0.08996708729882985 0.007535672792493342
0.06961603094825491 0.089772750787907 0.007331967359839042
0.07067261682914072 0.08968179676505916 0.006769389503464729
0.07189637417201156 0.08954229920784888 0.006379376846066154
0.0732894046193669 0.08935330560625648 0.006166719971941903
0.07459667694129918 0.0891882101472863 0.005873231027855086
0.0766458426314342 0.08880727826688825 0.006348667853668721
0.07805479338149335 0.08861054133224268 0.006176343683351515
0.07875100161311205 0.08862044965767006 0.005270747736834336
0.07959887688392103 0.08858612562899833 0.0045231753367743766
0.08082065870505645 0.08844220866969105 0.0041693649824649515
0.0820454956221141 0.08829669957813731 0.003824107763971296
0.08379263667889675 0.08799688697207741 0.004038195252606236
0.08508248956598974 0.08783042283001948 0.0037759486528773367
0.09762991152208123 0.0843364182609791 0.01558291165303377
0.09820579820137848 0.08437170496313683 0.014626337686712676
0.09793767450707574 0.0846577990056279 0.012754695822206952
0.09735584614736437 0.08503868200109425 0.01053092899028557
-0.032720336113018056 0.10065467018956299 0.05570598336080007
-0.02926112314839735 0.10001418698369663 0.05642678732884582
-0.025464580570490447 0.09928917709033967 0.057384768245821116
-0.023274068172940143 0.09895243839372088 0.057320634988499375
-0.021416139700880688 0.09869552326904742 0.05704923404571971
-0.01901631048696467 0.09830508215729827 0.05714174433034819
-0.0166093187157762 0.09791132951103092 0.05725076043187366
-0.014695735149403089 0.09763713230388683 0.057043719419994754
-0.012696840702804968 0.09734085232784348 0.05690199873652663
-0.01074989803330606 0.09705618895714507 0.05673434701143054
-0.008720950627715107 0.09675012853216933 0.05663077035055131
-0.006815868116534396 0.096473488493519 0.05645233318966453
-0.004821121023170782 0.09617349802265975 0.056343613885878274
-0.00288697853440123 0.09588735307441792 0.056202420508520534
-0.0010983680856860856 0.09563628257052931 0.055969432548661935
0.0006766737442294724 0.09538757786638344 0.05573472486333969
0.0022462369823053052 0.09518922848905255 0.05536411009594894
0.0037623168539981378 0.09500346799037278 0.05496203723437415
0.0052963568974436215 0.09481244056020048 0.05457838880408805
0.006832490504047495 0.09462010466766814 0.05420213995320322
0.008381878174655577 0.09442363939148164 0.053841321918777885
0.009786270876065983 0.09426298602098103 0.053382492564147066
0.011247721795899612 0.0940872309563149 0.052969862868844586
0.0128497736694278 0.09387509442052488 0.05266478813023612
0.013319987080691376 0.09394970639861594 0.051540193967102466
-0.01250184599827564 0.10071987541763058 0.031117444959996132
-0.011130255360870256 0.10057899728590629 0.030548167250691483
-0.009531752034049434 0.10037950936134235 0.030151672723648493
-0.007921421987877764 0.10017615910010819 0.029770290647124276
-0.006405583806223747 0.09999622249333179 0.029324465557601043
-0.004691117448718418 0.09976442244449299 0.029034115922956516
-0.000679780823136189 0.09893939078601803 0.030492479735826417
0.0008121845540908779 0.09876188765371609 0.030056703213992175
0.002294456409173695 0.09858614661579906 0.029619154025776084
0.003551829407696494 0.0984680220406584 0.029013933223555055
0.004791104577471839 0.09835410371440469 0.02839847292371761
0.005787007096326902 0.09830312239919124 0.02759712324017699
0.006487123316588128 0.09832916669018152 0.026565810383432364
0.007868577361302143 0.09817701704070188 0.026070013126267
0.00863971259177937 0.09818427818672869 0.025096101232319368
0.008847864348170698 0.09833953224236364 0.023674004681958516
0.009059876860723182 0.09849443487167152 0.02224996454731537
0.009538353700132673 0.09857967057929337 0.021035185785972965
0.010312775826264664 0.09858699140996698 0.020056905387372703
0.010947019856421436 0.0986315029121681 0.018964446917521194
0.011831214181973027 0.09860980558209291 0.018074780408362134
0.010879299123437103 0.09907684776011998 0.01567745618526012
0.022315594606092115 0.09687150524804113 0.018725008078317562
0.02424465138328802 0.09656444536689626 0.018748034310633432
0.025659217912978594 0.09639481584430552 0.018344957910723436
0.027213647386987228 0.0961866305928087 0.01806675772725641
0.02877122782063718 0.09597667379976679 0.017798198771408313
0.030548911956517488 0.0957060251928496 0.017726281872524674
0.03192440007206737 0.09554362694340184 0.01731509443183471
0.03326139947945694 0.0953910050448222 0.016875847291788593
0.03450758612029414 0.09526252691456638 0.016362251440738274
0.0358738508412923 0.09510058088804216 0.015958636303723295
0.03726496025047016 0.09493108994006591 0.015582467108456122
0.038632209756624736 0.0947674056616156 0.015190823009049725
0.040014495470471034 0.0945988399008722 0.014818173219025288
0.0413357841097044 0.09444637626582125 0.014396452653471503
0.04280060371175071 0.09425346211932076 0.014109565273543678
0.04410705816671878 0.0941036481910004 0.01368548632034372
0.04533583002768543 0.0939747741045395 0.013195638814623378
0.04685829208442999 0.09376339851357719 0.01297966125570682
0.04822873138028383 0.09359356021264148 0.012630752423158198
0.049440721187610226 0.09346734401978506 0.012140806000825732
0.05076176292238621 0.09330992556066234 0.011756848057628333
0.0522310229122539 0.09311006603741105 0.011517189759769453
0.05346779089933035 0.0929748802944903 0.011065541580528693
0.054854561899967236 0.09279665581722536 0.010760585635840647
0.05629126105667631 0.09260345848714491 0.01050935232919209
0.05744043330247023 0.0924910484803545 0.009989866595436159
0.06073719849763304 0.09176661745767259 0.011539081543008811
0.06155821838176456 0.09174539634858177 0.010721102213669731
0.062049613768585865 0.09181836980800565 0.009583654832828359
0.06257165108925294 0.09188289778917659 0.008473554515208537
0.06400290099062433 0.09168641910449854 0.008253628976876926
0.0653261475378592 0.09152013236474392 0.007934105367148114
0.06648374695919984 0.09140089508639665 0.007456204335876682
0.06762915886522697 0.09128462365535284 0.006970400085351713
0.06898400814653999 0.09110704247741692 0.006698622333020154
0.07031300101480331 0.09093614001341775 0.006407154625694689
0.07150184957048816 0.09080527763875725 0.005979921291902501
0.07280952250360362 0.09063907450921088 0.00567832533117224
0.07430096598028607 0.09041825654216674 0.005570717509396361
0.07574099513646693 0.09021147782039973 0.00541821813023069
0.07818716020177352 0.08970762067572095 0.006313159392933254
0.07898265786656777 0.08968827326236015 0.005511427373419087
0.07971398743232833 0.08968780716498848 0.004643387424496048
0.08071788367554172 0.08960654686270694 0.004061480852212862
0.08198855860013998 0.08944562614884613 0.00376403177752499
0.09642005381688862 0.0853639962040595 0.017430526969773652
0.09755235267204948 0.08523330221709281 0.017069413592526284
0.0980720557552669 0.08528532103132898 0.01605668941445898
0.09838408647911434 0.08539990170467822 0.01481836680332066
0.09815492476506504 0.0856778143560826 0.012989895976527166
0.09750475065770053 0.08608402653816279 0.010692967265097442
0.09532067685573703 0.08695584746890057 0.006703136154101785
-0.03414880678166743 0.10207791622291348 0.056294697014260875
-0.03132835217373675 0.1015875032931913 0.05659555599105881
-0.028298108228690944 0.1010436182271359 0.057045699560778595
-0.02507014186322748 0.1004489139486075 0.0576396978745925
-0.022774985242553558 0.10008191190058803 0.05764501505798375
-0.02075457350970067 0.09978134740965884 0.05748163971547221
-0.018557670230450962 0.09943588558479764 0.0574431996134267
-0.016556045056243363 0.09913749595016004 0.05728597253595674
-0.014528173995296823 0.09883138951560771 0.057155091831257554
-0.012831922111947558 0.09860666358880496 0.0568117126440667
-0.01076982965178025 0.09828972320392335 0.05672095070588423
-0.008893424644012604 0.09801794938757413 0.05651420227819087
-0.007061185231878375 0.097756149146161 0.056285610945575215
-0.005275532668420679 0.09750499084635046 0.056033071234345644
-0.003438814540675572 0.0972399680753522 0.0558232065316035
-0.0017187998660193604 0.09700329554021778 0.05554071893798446
-2.3044585412190788e-05 0.09677179100339364 0.055248550670904506
0.0015824587588658678 0.0965621921366652 0.054900360450390984
0.0030270368628464994 0.0963925604282449 0.05444549974628915
0.0045311503992490065 0.09620710275800641 0.05403786743529404
0.006043986124500245 0.09601866440560855 0.05364209859075736
0.007537523978333127 0.09583437855009712 0.0532383193909261
0.008992586015332038 0.09565917560659513 0.052812567474298966
0.010458621879331331 0.09548043875129372 0.052400126854247664
0.012058771924804923 0.09526652263320762 0.0520905554073372
0.011341129144969653 0.09564818126306099 0.05009578292840017
-0.013358935666008986 0.10221583047226296 0.030488424119334556
-0.01193012031755275 0.10205884064705159 0.02995794580408112
-0.01015836237960105 0.10181239407399112 0.029686780365979326
-0.008579484856040376 0.10161496952876181 0.029279410135153006
-0.007104068925152085 0.10144362290755257 0.028800604408754538
-0.005553684075427556 0.1012520239988107 0.028383687634719323
0.00023751614104999819 0.09995226469728016 0.03118792285137273
0.0023024402552013767 0.09962208628033219 0.031192640935898353
0.004507532481364929 0.09925376181522773 0.031315167792334175
0.005866219270649231 0.09910629426363943 0.030797158105759115
0.00696960849181516 0.09902542985329571 0.030086042986457284
0.007405575065475289 0.09912034668630014 0.028857689338202097
0.007536483742504374 0.09929633873605072 0.027387462460184198
0.007929391326361501 0.09940364773473774 0.02611788634283657
0.008583260670968373 0.09944210944282109 0.025051423463084255
0.00909609176259607 0.09951827215988406 0.023871512123321337
0.009360567011891863 0.09966100143001246 0.022490495746028683
0.009734521957853348 0.09977508121591742 0.021192945825937337
0.01104163541807951 0.09963969377006456 0.020646190963406585
0.011953294020113858 0.09960987834334921 0.01978236453973986
0.013132074865310928 0.09950807263310249 0.019137779794155763
0.014746254233576561 0.09928844094661093 0.018854169709313418
0.01676337993236393 0.09895898412448978 0.018910463232709562
0.01848736754554897 0.09870746864152942 0.018734080198160696
0.021267480303225728 0.09816825895676425 0.019447405201458323
0.02304906511204413 0.0978982522896646 0.019340462938095715
0.024409189694647337 0.09774193430545794 0.018886830129088872
0.025701130212599843 0.09760355488957058 0.018380500131303712
0.02704202793160343 0.09745116446989098 0.017920452019662636
0.02846066621595339 0.09727677344363292 0.017532045267421248
0.029719156791390366 0.09714564672068446 0.017011420062255367
0.031085617915323993 0.09698418556408421 0.016588642162457867
0.03244560204607211 0.0968237966554565 0.01616557625848697
0.03376632357657666 0.09667356216089412 0.01571347387618921
0.035258699333116705 0.09647503835697105 0.015417401115176144
0.03661709967237664 0.09631287746559904 0.015009454934807598
0.037866498024539175 0.09618036469017183 0.014510015729069126
0.039290039134125154 0.09599862205212799 0.014170663985301202
0.04077482378473929 0.0957989191594344 0.013892442765799207
0.04209399022485466 0.0956447788692579 0.01347136009395239
0.04354154515910147 0.09545384233722451 0.013172044951925144
0.044930808622027696 0.09527846840123821 0.012825985598751977
0.04611880603699281 0.09515914651653712 0.01230121854584515
0.047650356291783325 0.09494202379156505 0.012097346392819452
0.049053651522181274 0.09476030217414329 0.01178196577568541
0.05022285194573217 0.09464432396128697 0.011254631321706676
0.05160430731743798 0.09446731339037871 0.010930098816882838
0.05303223656846262 0.09427621284476831 0.010655397418785684
0.05413480828870021 0.09417739954794989 0.010079289396759561
0.055582316591799574 0.09397912962116066 0.009834791760029216
0.056984377393171914 0.09379301724318274 0.009553670166990214
0.06134868372624119 0.09275190350187668 0.012126982258624297
0.06211692309909245 0.09274525849982171 0.011261051667928568
0.06247426442853571 0.09285761315256591 0.009996183470134312
0.06305545320519362 0.09290549574453809 0.008945987709650494
0.06374422643785288 0.09292229102537877 0.007999721474399701
0.06487990227060747 0.09280879416767973 0.007493810614784047
0.06618925883053745 0.09264397864931394 0.007164135887810286
0.06732357437771991 0.09252969050236934 0.00666575508492856
0.06855154440981359 0.0923873483378577 0.006265253859300601
0.06995173040738234 0.0921936180779712 0.006043252903068341
0.07126235591326635 0.09202540536975574 0.005737434331153202
0.07254944095343713 0.09186335805870886 0.0054136302506682665
0.07385309053417033 0.09169562558781807 0.0051125391024426925
0.0758028225429192 0.09133501423732675 0.005481794913671401
0.07818002959034809 0.09084528515424743 0.006305789119477545
0.07908848553790326 0.0907919547157526 0.005621377202520039
0.07987074410664669 0.0907761563971531 0.004807091336473279
0.08084104849273482 0.09070383733453617 0.00419076837704524
0.09606330205733477 0.0863429075978188 0.018614722380091098
0.09732729375484367 0.08617091264859554 0.018392723598219585
0.0978804750918364 0.08621299651409373 0.017419207639682355
0.09825218673516833 0.08631028657739746 0.016249707995310114
0.09841154979882571 0.08647256900487268 0.014847946745929708
0.098228445879664 0.08673995124536713 0.013069491635743002
0.0976300235794294 0.0871354496491756 0.010829289583822177
0.0958517013763932 0.08789402419744555 0.007283975822499733
-0.03278389069844473 0.10301573297334024 0.05716205843466077
-0.030382751678675657 0.10262261358788341 0.057199859170016354
-0.02740468618070696 0.10208444485125343 0.05761988571559362
-0.024763101760948536 0.1016280050288668 0.05783814092252526
-0.022536928420059887 0.10127348985821627 0.05779974062345622
-0.020529926515068575 0.10097240553749491 0.05762847103101837
-0.018478857581316288 0.10065907528259874 0.057495001628443065
-0.01650391863045725 0.10036362014506006 0.05732042635696988
-0.014667611001881464 0.10010187935338292 0.05706241261974565
-0.012873246411274075 0.09984966937643412 0.05678409219256625
-0.010961497588018843 0.09956678268430928 0.056592128139839215
-0.009227819177272889 0.09932785109635722 0.05628819880829561
-0.007460894673134377 0.09907952158113548 0.05601396069835762
-0.0057027831101286175 0.09883243066632245 0.05574109041381997
-0.003931859692078821 0.09858107669443858 0.05548439280698697
