# .PCD v0.7 - Point Cloud Data file format
VERSION 0.7
FIELDS x y z
SIZE 4 4 4
TYPE F F F
COUNT 1 1 1
WIDTH 767
HEIGHT 1
VIEWPOINT 0 0 0 1 0 0 0
POINTS 767
DATA ascii
0.03172668889072611 -0.030064508843188512 0.04926402446584077
0.031725238903647535 -0.030128378710444662 0.04779822463490396
0.03172378274270615 -0.030192520529234757 0.046326183574221635
0.031722320368386736 -0.030256936040178293 0.044847861336947126
0.031720851740836 -0.030321626998780885 0.04336321763459988
0.031719376819859535 -0.030386595175593785 0.041872211833405504
0.03171789556491533 -0.030451842356375575 0.04037480295058671
0.031716407935118096 -0.03051737034225515 0.03887094965061444
0.03171491388922437 -0.030583180949898387 0.03736061024139575
0.03171341338563621 -0.030649276011675393 0.03584374267042645
0.031711906382394905 -0.03071565737583076 0.034320304520886524
0.03171039283717775 -0.03078232690665582 0.032790253007686676
0.03170887270729361 -0.03084928648466318 0.03125354497346289
0.031707345949679167 -0.03091653800676354 0.029710136884518235
0.031705812520892995 -0.03098408338644497 0.02815998482671095
0.03170331204011945 -0.031052009435219685 0.02660223868283551
0.03170176302558747 -0.03112014871067348 0.025038459349979947
0.031700207197960906 -0.031188587687925172 0.023467801935751154
0.03169864451219129 -0.031257328348632214 0.021890220961605422
0.031697074922832136 -0.03132637269196119 0.020305670547168808
0.02273070383306436 -0.028736452103162065 0.06408865435510591
0.02472984713005394 -0.02863572653779609 0.0641130979474086
0.026715024785718522 -0.02853570462240126 0.06413737078128451
0.02868730510897849 -0.02843630497815536 0.06416214431731504
0.03064497867788918 -0.028337668934279997 0.06418607857391734
0.031742678448894 -0.028307925293312275 0.06358864256062957
0.03174129189382452 -0.02836681210635025 0.06218314066425529
0.031739899558075046 -0.02842594442556452 0.06077177906210052
0.03173850140541845 -0.0284853237894793 0.05935452103289396
0.03173709739932562 -0.02854495174950098 0.05793132954789271
0.03173568750296113 -0.02860482987005335 0.05650216726765639
0.031734271679180026 -0.028664959728714405 0.05506699653878172
0.03173192604719571 -0.0287254184601053 0.05362507519702303
0.031730496301922206 -0.02878605690030638 0.05217776803745927
0.031729060507624085 -0.028846951893698018 0.05072433751339256
0.031727618625829956 -0.02890810507189561 0.04926474468172709
0.031726170617742855 -0.028969518080379415 0.047798950268441776
0.031724716444235745 -0.029031192578642187 0.04632691466506694
0.03172325606584736 -0.02909313024033874 0.044848597925116196
0.03172178944277948 -0.02915533275343727 0.04336395976047336
0.03172031653489216 -0.029217801820372775 0.0418729595377319
0.03171883730170105 -0.029280539158202293 0.04037555627448863
0.0317173517023715 -0.029343546498762432 0.03887170863558659
0.031715859695722104 -0.029406825588828088 0.03736137492931796
0.031714361240209765 -0.02947037819027482 0.03584451310356185
0.031712856293933556 -0.029534206080241713 0.03432108074188778
0.031711344814628506 -0.029598311051297232 0.03279103505959996
0.031709826759662274 -0.029662694911606984 0.03125433289973262
0.031708302086030316 -0.029727359485103785 0.029710930728991336
0.031706770750352664 -0.02979230661165985 0.028160784633642966
0.03170427237711848 -0.029857619763417095 0.02660304450129486
0.03170272547414543 -0.029923137938922727 0.025039271220687886
0.03170117176738396 -0.02998894428686565 0.023468619904211674
0.03169961121184717 -0.030055040712664818 0.02189104507374856
0.031698043762150796 -0.030121429138574653 0.02030650084935548
0.02317754911474651 -0.02755277972978303 0.06440777260617464
0.02517265736510893 -0.02745632247138637 0.06443106881403943
0.02715384532730941 -0.027360538215487996 0.06445420247932415
0.02912217839536002 -0.027265349047505712 0.06447784333195367
0.031075951060744955 -0.02717089032714867 0.06450065460079402
0.03174358883740308 -0.02717553785231006 0.06358931069765983
0.031742204179739386 -0.027232068899505017 0.0621838138412808
0.03174081374931781 -0.027288835630793234 0.06077245731538061
0.031739417509966006 -0.02734583952314221 0.059355204399014594
0.031738015425203714 -0.02740308206588667 0.057932018063765356
0.03173660745824575 -0.02746056476085779 0.05650286097052237
0.03173519357199822 -0.027518289122514587 0.05506769546621604
0.03173284989058517 -0.02757632919969593 0.05362577939064189
0.03173142209927654 -0.027634541795783066 0.05217847753184929
0.031729988267222786 -0.02769300068098618 0.05072505234714969
0.031728548356010355 -0.027751707421639123 0.049265464893799515
0.031727102326894074 -0.027810663597386348 0.047799675898129
0.0317256501408002 -0.027869870801324047 0.04632764575202458
0.03172419175832197 -0.027929330640143753 0.04484933450936024
0.03172272713971552 -0.027989044734277702 0.04336470188238378
0.03172219594983866 -0.02804893968893835 0.04187445493435521
0.031719779033434925 -0.028109242239805942 0.04037630959434935
0.03171829546455507 -0.028169728962102566 0.0388724676164815
0.03171680549712613 -0.02823047656182228 0.03736213961312185
0.03171530908966769 -0.028291486730346954 0.035845283532539185
0.03171380620033448 -0.02835276117371188 0.03432185695869072
0.0317122967869195 -0.028414301612764183 0.03279181710727447
0.03171078080684869 -0.028476109783324065 0.03125512082172249
0.031709258217176683 -0.028538187436348034 0.02971172456914306
0.03170772897458307 -0.028600536338094184 0.028161584436210363
0.03170523270886727 -0.02866323662137101 0.02660385031534873
0.03170368791743022 -0.028726133725618053 0.025040083086947662
0.0317021363315107 -0.02878930747313128 0.023469437868180898
0.031700577906183414 -0.02885275969309282 0.021891869181356716
0.03169901259612645 -0.028916492230846625 0.020307331146963148
0.02362328738520547 -0.02637203977764472 0.06472610027602893
0.025614374421047748 -0.026279830035717277 0.0647482546963058
0.02759158631391867 -0.02618826286909378 0.06477025473062975
0.02955598555501715 -0.026097263809188278 0.06479276838514897
0.03150223156368048 -0.026007231503236767 0.0648118059234376
0.031744499221189826 -0.026043156280763757 0.06358997883122441
0.031743116460910825 -0.02609733158656145 0.06218448701480617
0.03174172793580099 -0.02615173275452201 0.06077313556512948
0.03174033360973261 -0.02620636120005829 0.059355887761568804
0.03173893344628065 -0.026261218350434143 0.05793270657603711
0.031737527408709165 -0.026316305644889522 0.056503554669752876
0.03173611545997501 -0.026371624534765825 0.0550683943899799
0.03173377372911301 -0.026427245983152717 0.053626483580554996
0.031732347891747115 -0.026483032760670516 0.05217918702249669
0.031730916021920685 -0.02653905556339158 0.050725767177130676
0.03172947808126758 -0.026595315892370415 0.04926618510205816
0.03172803403110119 -0.026651815261416533 0.04780040152396575
0.031726583832399735 -0.02670855519723109 0.046328376835094665
0.03172606312827547 -0.02676546594933254 0.04485080766604349
0.03172460251853121 -0.026822691345873412 0.04336618611428861
0.03172313564978657 -0.026880161966053216 0.04187520262667921
0.03172072076011845 -0.026937951601135872 0.040377062910170236
0.03171923922166486 -0.02699591773222505 0.038873226593296006
0.03171775129343851 -0.02705413386882964 0.03736290429280914
0.031716256934010256 -0.027112601631840285 0.03584605395735868
0.03171475610159791 -0.027171322656189413 0.03432263317129558
0.031713248754050516 -0.027230298591004513 0.03279259915071009
0.031711734848852924 -0.02728953109976192 0.03125590873943246
0.03171021434311849 -0.027349021860443416 0.029712518404973576
0.03170772897458635 -0.027408847324006672 0.028161584436213083
0.03170619303536781 -0.02746886000902772 0.026604656124998793
0.031704650355441955 -0.027529136070705555 0.02504089494875933
0.031703100890341285 -0.027589677246667808 0.023470255827658826
0.03170154459520025 -0.027650485289861606 0.02189269328443011
0.03169998142475933 -0.027711561968722112 0.02030816143999198
0.02398228418970888 -0.025200232147600542 0.0649824808110569
0.02596173969846416 -0.02511279781548419 0.06499768894500563
0.027927506923919154 -0.025025968107168225 0.06501279191197296
0.029879727362169095 -0.024939736772642787 0.06502779079907006
0.03174678474204057 -0.02485917568752713 0.06499031055684079
0.03174540960025457 -0.024910780578627684 0.0635906469613235
0.031744028737340446 -0.024962600167473474 0.06218516018483261
0.031742642117520925 -0.02501463579670489 0.060773813811344446
0.0317412497047197 -0.0250668888201809 0.05935657112055781
0.03173985146255659 -0.025119360603096566 0.05793339508470813
0.031738447354351496 -0.025172052522101435 0.05650424836534795
0.03173703734311073 -0.02522496596542069 0.055069093310073536
0.03173469756277919 -0.02527816881042797 0.053627187766762396
0.031733273679335705 -0.025331529794920583 0.052179896509402635
0.03173184377171423 -0.025385116540866177 0.05072648200333296
0.03173040780160341 -0.025438930484040733 0.04926690530650446
0.03172989742464327 -0.025492905460370578 0.04780185276405646
0.031728451200664975 -0.02554717786607536 0.04632983898954163
0.031726998805793494 -0.025601681848215676 0.04485154423851362
0.03172554020044693 -0.02565641889214044 0.04336692822431154
0.031724075344706004 -0.02571139049592852 0.04187595031500213
0.03172260419830847 -0.02576659817052552 0.04037856952967134
0.03172018297370299 -0.025822112809078857 0.03887398556603189
0.03171869708465541 -0.025877797509799308 0.03736366896837673
0.03171720477323914 -0.025933722894703193 0.03584682437802161
0.031715705997723664 -0.02598989052762249 0.03432340937970224
0.03171420071602199 -0.026046301985966032 0.032793381189907045
0.03171268888567508 -0.026102958860868025 0.03125669665286279
0.03171117046385569 -0.026159862757337084 0.02971331223648299
0.031708687193589546 -0.02621708680196852 0.02816238423441736
0.03170715335661639 -0.026274489926333994 0.026605461930241936
0.03170561278818246 -0.0263321449741312 0.025041706806124497
0.031704065443875606 -0.026390053607420985 0.023471073782645513
0.03170251127889773 -0.026448217502916555 0.021893517382968686
0.03170095024804931 -0.02650663835214615 0.020308991728441972
0.022319239076058872 -0.02411673017613682 0.06520172346230996
0.024309560651882667 -0.024032840355215218 0.06521620800144301
0.026285152417466262 -0.02394959464594257 0.06522992346534767
0.02824802805284271 -0.023866861560241773 0.0652442105533298
0.03019738899576524 -0.023784698104217364 0.06525839927251587
0.0317476932269134 -0.023729151786680707 0.06499097367952139
0.03174631997459704 -0.023778410745856193 0.0635913150879569
0.03174494100902858 -0.023827874642195112 0.06218583335136024
0.03174355629447967 -0.02387754475729548 0.06077449205402696
0.031742165794924004 -0.023927422383463764 0.05935725447597906
0.03174076947403337 -0.023977508823827 0.057934083589779806
0.03173936729517285 -0.024027805392446408 0.05650494205730772
0.031737959221405154 -0.02407831341443179 0.05506979222649672
0.031735621391584035 -0.02412909768147397 0.05362789194926426
0.03173419946204231 -0.024180032898485256 0.05218060599256724
0.0317336992565484 -0.02423111961987389 0.05072791164437046
0.03173226722745909 -0.024282486931507846 0.049268345703920025
0.031730829114020365 -0.024334072491917838 0.04780257837834334
0.0317293848773732 -0.024385877695003957 0.04633057006095176
0.03172793447832556 -0.024437903946561697 0.04485228080705872
0.03172647787735544 -0.02449015266440866 0.04336767033037159
0.03172501503459685 -0.024542625278514092 0.04187669799932392
0.031723545909843 -0.02459532323112884 0.04037932283337403
0.031721126720669346 -0.024648314192613173 0.038874744534688976
0.03171964287077883 -0.02470146748467995 0.03736443363982622
0.031718152607350614 -0.024754850518884455 0.035847594794525095
0.03171665588871381 -0.024808464787959148 0.03432418558391226
0.031715152672833646 -0.02486231179759659 0.03279416322486528
0.031713642917315155 -0.024916393066589878 0.03125748456201327
0.03171212657938827 -0.02497071012697619 0.029714106063671197
0.03170964540736532 -0.02502533278102554 0.028163184028258514
0.03170811367261489 -0.025080126373236124 0.026606267731079714
0.03170657521564818 -0.02513516043584137 0.025042518659040114
0.031705029992115774 -0.025190436555336416 0.02347189173314268
0.03170347795727574 -0.02524595633220307 0.0218943414769725
0.03170191906599651 -0.025301721381063767 0.020309822012313128
0.022647931251844056 -0.02294738447596631 0.06543517963418027
0.024635303127139685 -0.02286763469875205 0.06544883968239418
0.02660890928903864 -0.022788437315679068 0.06546240511297435
0.028568892268125146 -0.022709786607242943 0.06547587690559198
0.030515392634071048 -0.022631676932627093 0.06548925602644523
0.03174860170708371 -0.02259913373086017 0.06499163679876951
0.03174723034421756 -0.0226460467824036 0.06359198321112486
0.031745853275974956 -0.022693155010680442 0.06218650651438895
0.03174447046667711 -0.02274045963624756 0.06077517029317703
0.031743081880347246 -0.022787961889860226 0.05935793782783394
0.03174168748070738 -0.022835663012578885 0.057934772091249476
0.031740287231175 -0.02288356425587722 0.0565056357456335
0.031738881094858395 -0.022931666881751717 0.05507049113924961
0.03173746903456032 -0.022979972162832037 0.05362930030311375
0.03173605101276378 -0.023028481382493953 0.05218202494763735
0.031734626991636705 -0.023077195834972513 0.05072862645924242
0.03173319693302579 -0.023126116825477296 0.04926906589692548
0.03173176079845347 -0.02317524567030897 0.047803303988779744
0.031730318549114844 -0.023224583696977337 0.04633130112847306
0.0317288701458735 -0.023274132244320924 0.04485301737168029
0.03172741554925684 -0.02332389266262819 0.04336841243246886
0.03172595471945916 -0.023373866313759734 0.04187744567964474
0.03172448761632751 -0.02342405457127322 0.040380076133037124
0.031722070462564034 -0.02347452188277715 0.03887550349926738
0.03172058865180882 -0.02352514379342041 0.03736519830715762
0.03171910043634685 -0.023575984504332417 0.03584836520687079
0.03171760577456473 -0.02362704543714781 0.0343249617839228
0.03171610462448743 -0.023678328025843895 0.03279494525558624
0.031714596943773266 -0.023729833716874968 0.031258272466884174
0.0317130826897164 -0.02378156396930788 0.029714899886538304
0.031710603615913935 -0.02383358526112453 0.02816398381773666
0.03170907398336348 -0.023885769349680563 0.026607073527512293
0.03170753763784079 -0.02393818245578203 0.025043330507507622
0.03170599453505807 -0.023990826090360122 0.023472709679147163
0.03170444463033639 -0.024043701777666404 0.021895165566443164
0.03170288787860093 -0.024096811055419994 0.020310652291605447
0.022976969580249473 -0.021780110833837407 0.06566888166363871
0.02496045453380702 -0.021704543339667294 0.06568104924682688
0.0269311512329794 -0.021629442048358122 0.06569379892925986
0.028888257088933555 -0.021554858690569473 0.06570646068388092
0.030832823550490496 -0.021480732342480897 0.06571969700929636
0.03174951018255129 -0.021469121520020156 0.064992299914585
0.03174814070911608 -0.02151368868822424 0.06359265133082725
0.03174676553817979 -0.021558441272883498 0.06218717967391879
0.031745384634113305 -0.021603380433514882 0.06077584852879464
0.03174399796098937 -0.021648507339323775 0.05935862117612234
0.03174260548258029 -0.02169382316930529 0.05793546058911825
0.031741207162354346 -0.021739329112347005 0.05650632943032258
0.031739802963472286 -0.021785026367332944 0.05507119004833361
0.03173839284878305 -0.021830916143248943 0.05363000447450045
0.03173697678082715 -0.02187699965928882 0.05218273441957999
0.03173555472182271 -0.021923278144963056 0.050729341270337236
0.03173412663366926 -0.021969752840207663 0.04926978608611721
0.03173269247794269 -0.022016424995495037 0.04780402959536573
0.031731252215891514 -0.022063295871946137 0.0463320321921068
0.03172980580843365 -0.022110366741444055 0.044853753932375395
0.031728353216152805 -0.02215763888674906 0.04336915453060469
0.03172689439929288 -0.022205113601615263 0.04187819335596438
0.03172542931776201 -0.022252792190908158 0.0403808294286605
0.03172395793111765 -0.02230067597072488 0.03887702141617155
0.03172153442774528 -0.02234882643596953 0.037365962970370925
0.03172004826022762 -0.022397124850995605 0.035849135615058536
0.0317185556552782 -0.022445632475136524 0.03432573797973526
0.03171705657097984 -0.022494350670656017 0.032795727282067144
0.03171555096505113 -0.02254328081167068 0.03125906036747683
0.03171403879484003 -0.022592424284279312 0.029715693705084256
0.03171156181923529 -0.0226418442422123 0.028164783602851795
0.03171003428886199 -0.022691418855613772 0.026607879319539618
0.03170850005476061 -0.02274121103389927 0.0250441423515273
0.031706959072704155 -0.022791222212437724 0.023473527620660406
0.03170541129807586 -0.022841453839252207 0.021895989651377568
0.03170385668586451 -0.022891907375159726 0.020311482566320704
0.02330446467349445 -0.020615020834713317 0.0659014875983332
0.025285950965938497 -0.020543506864290056 0.06591350521404643
0.027253737143374535 -0.02047248734574706 0.06592543973918491
0.029207964801429342 -0.020401957168745884 0.06593729203252102
0.031149683290836006 -0.02033185872896703 0.06594972334326149
0.03175041865331801 -0.02033911515411517 0.06499296302696922
0.03174905106929249 -0.020381336463272465 0.06359331944706414
0.03174767779564308 -0.020423733428758327 0.06218785282994993
0.0317462987967882 -0.020466307149051222 0.060776526760879745
0.031744914036850536 -0.020509058731807864 0.059359304520844425
0.03174352347965259 -0.020551989293959363 0.05793614908338662
0.03174212708871271 -0.020595099961808524 0.0565070231113764
0.03174072482724333 -0.020638391871128297 0.055071888953745984
0.03173931665814633 -0.02068186616726158 0.05363070864218311
0.03173790254400871 -0.020725524005222283 0.052183443887781344
0.03173648244710642 -0.020769366549797216 0.05073005607765474
0.03173505632938983 -0.020813394975650313 0.04927050627149543
0.031733624152488094 -0.020857610467427113 0.047804755198101456
0.03173218587770349 -0.02090201421986112 0.04633276325185309
0.03173074146600796 -0.02094660743788141 0.04485449048914564
0.031729290878039884 -0.020991391336721624 0.043369896624776305
0.031727834074100014 -0.021036367142030374 0.041878941028284544
0.031726371014146604 -0.021081536089983133 0.040381582720244336
0.031724901657798565 -0.021126899427395086 0.03887778036851497
0.031722480198588365 -0.02117251541227613 0.03736672762946619
0.0317209960789932 -0.0212182715588225 0.035849906019088607
0.03171950553085423 -0.021264225901873452 0.03432651417134969
0.0317180085123126 -0.02131037973198067 0.032796509304309385
0.031716504981145255 -0.021356734350924736 0.031259848263788415
0.03171499489476093 -0.02140329107183752 0.02971648751931072
0.031713478210194324 -0.021450051219326298 0.02816638315999137
0.03171099458911064 -0.021497074890982203 0.02660868510716169
0.03170946246640749 -0.021544246170139208 0.025044954191098978
0.03170792360505442 -0.021591624921514955 0.023474345557682685
0.03170637796049608 -0.021639212516905742 0.02189681373177732
0.03170482548778364 -0.021687010340228245 0.020312312836455737
-0.08382579208875773 -0.024613339192187986 0.012822923537222364
-0.08423761098748295 -0.024684259037083513 0.01082151214805921
-0.08310598693176052 -0.024673763045613906 0.009841735397542073
-0.08019417158946207 -0.024568804350999646 0.010059928263058293
-0.08026436966015249 -0.024621906407797288 0.008277524883711473
0.02363136453283876 -0.019452048427798026 0.06613367076352461
0.02560992335970913 -0.01938462994551504 0.06614487277667447
0.02757481465819267 -0.019317677177979227 0.0661559974082725
0.029527095778339063 -0.019251135419484845 0.06616770697377417
0.031465065330371855 -0.019185100062149893 0.06617867693097124
0.0317513271193805 -0.019209114633100037 0.06499362613591969
0.03174996142474862 -0.019248990107502507 0.0635939875598368
0.03174859004836489 -0.01928903147825899 0.06218852598248231
0.03174721295470201 -0.019329239782810335 0.060777204989432565
0.03174583010793086 -0.01936961606726598 0.059359987862000196
0.031744441471923734 -0.019410161386494325 0.05793683757405421
0.031743047010250214 -0.01945087680421467 0.056507716788794904
0.03174164668617324 -0.01949176339309026 0.05507258785548813
0.03174024046264634 -0.01953282223482248 0.053631412806158796
0.03173882830231023 -0.01957405442024624 0.05218415335224291
0.03173741016748771 -0.01961546104942669 0.05073077088119504
0.0317359860201874 -0.01965704323175664 0.049271226453060035
0.03173455582208978 -0.01969880208605627 0.04780548079698688
0.03173311953455071 -0.01974073874067304 0.04633349430771205
0.03173167711859648 -0.01978285433358343 0.044855227041991075
0.03173022853491991 -0.019825150012495896 0.0433706387149852
0.03172877374387689 -0.01986762693495511 0.0418796886966023
0.031727312705483124 -0.019910286268447538 0.04038233600779001
0.031725845379407924 -0.01995312919050856 0.03887853931677976
0.03172342596433808 -0.019996210722289052 0.037367492284443526
0.03172194389264338 -0.020039424627761624 0.03585067641896078
0.031720455401292924 -0.02008282571730677 0.03432729035876608
0.03171896044848593 -0.02012641520976569 0.03279729132231313
0.03171745899205758 -0.020170194334584512 0.03126063615582042
0.03171595098947577 -0.02021416433192988 0.02971728132921464
0.0317144363978365 -0.020258326452806067 0.02816718293201953
0.03171195488410938 -0.020302737455732318 0.026609490890378618
0.031710424872781584 -0.020347287864447935 0.025045766026222827
0.03170888813210865 -0.020392034217537575 0.02347516349021389
0.03170734461759711 -0.020436977810572396 0.021897637807642423
0.031705794284360156 -0.02048211995057046 0.0203131431020121
-0.08265772541324262 -0.023061562052549753 0.01531148525551651
-0.08071389998438766 -0.023011080308512268 0.014879779958111017
-0.079302456538071 -0.022986867022035232 0.014101747677093102
-0.07833801594859574 -0.02298482635749346 0.013028565263803082
-0.07772972584061821 -0.023000556400293692 0.01171631498832465
-0.07731005670774294 -0.02302578446894264 0.01027422313081311
-0.07731144953524466 -0.023072218028835113 0.008542176101646592
-0.07889087197433114 -0.02319809039058353 0.005724715582582696
0.023958610287169058 -0.018291139985468916 0.06636609960331746
0.025934240596815983 -0.018227802598311298 0.06637648661202117
0.02789623594862578 -0.018164902338789483 0.06638680193396262
0.029845651578860155 -0.018102387820160198 0.06639770663339262
0.03175359374731246 -0.01804174546118962 0.06638813596139664
0.03175223558074031 -0.01807911995692927 0.06499428924143763
0.03175087177548108 -0.01811664962086889 0.06359465566914274
0.031749502296346876 -0.01815433542133945 0.06218919913151716
0.03174812710785463 -0.01819217833474599 0.06077788321445293
0.03174674617423018 -0.018230179345651597 0.0593606711995896
0.03174535945939427 -0.018268339446863336 0.05793752606112129
0.03174396692696696 -0.018306659639518327 0.05650841046257832
0.03174256854026214 -0.018345140933171418 0.05507328675356005
0.031741164262285126 -0.018383784345883815 0.053632116966429
0.03173975405572832 -0.018422590904312884 0.05218486281296192
0.03173833788296859 -0.018461561643803057 0.05073148568095964
0.03173691570606191 -0.018500697608478035 0.049271946630811025
0.03173548748674759 -0.018539999851333595 0.04780620639202199
0.031734053186433187 -0.018579469434332672 0.04633422535968357
0.03173261276619915 -0.018619107428500578 0.04485596359091154
0.03173116618679289 -0.018658914914022013 0.043371380801231374
0.03172971340862546 -0.018698892980339155 0.04188043636091915
0.03172825439176796 -0.018739042726251067 0.04038308929129475
0.031726789095947505 -0.018779365260014374 0.03887929826096742
0.03172437172499454 -0.01881991236595713 0.03736825693530288
0.03172289170117837 -0.018860584057761472 0.03585144681467517
0.03172140526659445 -0.01890143192138464 0.03432806654198467
0.031719912379499615 -0.018942457103958903 0.03279807333607826
0.03171841299778799 -0.0189836607625975 0.031261424043572905
0.03171690707898617 -0.019025044064503432 0.029718075134797572
0.031715394580249745 -0.01906660818707968 0.028167982699683236
0.03171291517385827 -0.019108406549810563 0.026610296669190403
0.03171138727388284 -0.01915033611677157 0.025046577856898733
0.031709852653867 -0.019192450100451328 0.023475981418254133
0.031708311269379064 -0.01923474972019756 0.021898461878972986
0.03170676307559417 -0.019277236206131393 0.020313973362989846
-0.08336111240302951 -0.02160987738815303 0.01656143741073668
-0.0810670090873411 -0.021546361924343498 0.01635703202885752
-0.07932438753505988 -0.021508248019051376 0.015798201133218892
-0.07763319441398464 -0.02147237906753367 0.01521125154020947
-0.07660161195422388 -0.021467174286990874 0.0141891478530633
-0.0757568285012944 -0.021470690755109833 0.013042325497869212
-0.0750994074850373 -0.021483007469539583 0.011768309742163086
-0.07498954596821528 -0.021521102565265866 0.010120186558484678
-0.075543044624659 -0.021590584307276332 0.008012604092722087
0.02428432283306342 -0.017132388552625288 0.06659743946990532
0.026257969794192315 -0.017073072766629473 0.06660768049393423
0.02821707645940902 -0.01701421046106125 0.06661718941642758
0.030163633756569386 -0.016955708768395396 0.06662729213307023
0.0317545003224427 -0.016914092716847937 0.06638879409535031
0.03175314403739765 -0.016949131125557484 0.0649949523435231
0.031751782121491656 -0.016984315003325857 0.06359532377498323
0.031750414539585714 -0.017019645257953936 0.06218987227705203
0.031749041256247945 -0.017055122804811865 0.060778561435942347
0.03174766223574854 -0.0170907485669182 0.05936135453361263
0.031746277442063875 -0.017126523475019594 0.057938214544587696
0.03174488683886273 -0.017162448467672398 0.05650910413272647
0.03174349038951024 -0.017198524491324363 0.055073985647961954
0.031742088057062745 -0.01723475250039788 0.05363282112299378
0.03174067980426459 -0.017271133457374105 0.052185572269939806
0.03173926559354534 -0.01730766833287823 0.050732200476945544
0.031737845387015295 -0.017344358105765786 0.049272666804749954
0.03173641914646158 -0.01738120376321016 0.047806931983206735
0.031734986833350964 -0.017418206300790776 0.04633495640776769
0.03173354840881615 -0.017455366722583295 0.04485670013590726
0.03173210383365899 -0.017492686041250097 0.043372122883514996
0.031730653068345716 -0.017530165278132333 0.041881184021235085
0.03172919607300295 -0.01756780546334311 0.04038384257075989
0.03172773280741398 -0.017605607635861883 0.038880057201075235
0.03172531748055768 -0.017643620343229208 0.03736902158204425
0.03172383950459817 -0.017681749848770557 0.035852217206231884
0.03172235512675853 -0.017720044514055244 0.03432884272100517
0.031720864305353924 -0.01775850541450815 0.032798855345604894
0.03171936699833655 -0.0177971336349112 0.03126221192704576
0.031717863163292226 -0.017835930269505324 0.029718868936059573
0.03171635275743612 -0.01787489642209382 0.028168782462984265
0.03171483573760858 -0.01791403320614701 0.02661190821360021
0.031712349669711426 -0.017953390927056202 0.025047389683126975
0.031710817170329586 -0.017992872570201962 0.023476799341803467
0.03170927791584183 -0.018032528245726633 0.02189928594576901
0.03170773186148568 -0.01807235910685608 0.020314803619389032
-0.08563623293855122 -0.020227445745205005 0.016788206191152955
-0.08241878673287178 -0.02012846706887177 0.01717735002531995
-0.08001508672862989 -0.02006435584344159 0.017048440050543845
-0.077851188761424 -0.020010400836610587 0.016771936164887535
-0.07620382007215026 -0.019978701971290733 0.01616130985113695
-0.07485581641681338 -0.019959926207906285 0.015356007588294307
-0.07387378771906672 -0.01995706079619617 0.014307942221743308
-0.07321650141382374 -0.019968397008797083 0.013040888278158302
-0.0729427234320818 -0.01999659784589534 0.011511246640037887
-0.07274277465825818 -0.02002815683411342 0.009926294618622211
-0.07433005150622518 -0.02013854012896893 0.007107741080600916
0.022626865441493504 -0.016031299667691196 0.06682019571794384
0.024610381095887757 -0.015975695734443553 0.066829024884629
0.02658018481721658 -0.015920476188085866 0.06683779301571913
0.028537337763250903 -0.015865595904301488 0.0668471609849896
0.030480132579571162 -0.015811133551895094 0.0668558066396055
0.031755406892889915 -0.015786445793119032 0.06638945222590431
0.03175405248935248 -0.015819148138939303 0.06499561544217614
0.031752692462780285 -0.01585198625482774 0.06359599187735832
0.03175132677808307 -0.01588496098805641 0.06219054541908814
0.031749955399878405 -0.015918073192961905 0.06077923965389809
0.031748578292487784 -0.015951323731019176 0.05936203786407074
0.031747195419932706 -0.015984713470916283 0.057938903024453536
0.031745806745937744 -0.016018243288629767 0.05650979779923937
0.031745334073447484 -0.016051871943323515 0.055075383425727986
0.031743011846978864 -0.016085726698316982 0.05363352527585297
0.03174160554791933 -0.0161196820793819 0.05218628172317663
0.0317401932992199 -0.016153781116603774 0.05073291526915441
0.03173877506304407 -0.01618802472357146 0.049273386974873934
0.031737350801233744 -0.01622241382163695 0.04780765757054273
0.03173592047530416 -0.016256949339998113 0.04633568745196459
0.0317344840464473 -0.01629163221578204 0.04485743667697811
0.03173304147551803 -0.016326463394130294 0.043372864961835844
0.031731592723037605 -0.016361443828284458 0.04188193167755011
0.03173013774918809 -0.016396574479673156 0.040384595846185534
0.03172773280743013 -0.016431900460137 0.038880057201088225
0.03172626323102934 -0.01646733465405403 0.03736978622466913
0.031724787302902846 -0.016502922000737375 0.03585298759363098
0.031723304981785605 -0.01653866349526674 0.034329618895827974
0.031721816226048805 -0.016574560141361265 0.032799637350893085
0.03172032099370342 -0.0166106129514731 0.03126299980623931
0.031718819242394114 -0.01664682294688271 0.029719662733000696
0.03171731092939567 -0.016683191157795294 0.028169582221922618
0.03171579601160823 -0.01671971862343851 0.02661271397919679
0.031713312060269006 -0.016756452295247866 0.02504820150490883
0.0317117816814963 -0.01679330162673524 0.023477617260861783
0.03171024455698551 -0.016830313387105004 0.021900110008030493
0.031708700642034626 -0.016867488652689555 0.02031563387120966
-0.08511143811956356 -0.018761595762234216 0.017129297760276385
-0.08153060697872949 -0.01865505277725046 0.017757872377536232
-0.07891954310730792 -0.018587106285504206 0.01776851947619401
-0.07660018322435469 -0.01853064955618705 0.017598808911495567
-0.0747981959363394 -0.018494867921566474 0.01709558217797441
-0.0732552439466515 -0.01846942841634171 0.016425802721074523
-0.0721214973740501 -0.018460484115533075 0.015485679839891131
-0.07132980635793051 -0.018465405411046194 0.014316027632587436
-0.07081219708831937 -0.018481507961607423 0.012959193444016248
-0.07049012008536287 -0.018505654219864855 0.011465747516378355
-0.07094473437046667 -0.018561655215408118 0.009434083616390976
0.02290623672853409 -0.014874667343772262 0.06701753611015066
0.024882578570629643 -0.014823308426457344 0.06702235525610556
0.026845319635652676 -0.01477230295062343 0.0670271412376322
0.028795517962732164 -0.014721609123219388 0.06703255367756317
0.030731467168347404 -0.0146712999325293 0.06703727208388338
0.03175631345865387 -0.014658804689957809 0.06639011035305847
0.03175496093660496 -0.014689170997029334 0.06499627853739681
0.031753602799347025 -0.014719663375328885 0.06359665997626801
0.0317522390118391 -0.014750282611600924 0.062191218557625605
0.031750869538747784 -0.014781029499149785 0.06077991786832149
0.03175041039158216 -0.014811866211501731 0.059363404514257145
0.03174903136123347 -0.014842870646223801 0.057940279973357656
0.03174764654559242 -0.014874005151164542 0.05651118512133496
0.031746255908175314 -0.014905270546553006 0.05507608230912148
0.03174485941219646 -0.014936667659529085 0.05363493357043142
0.03174253128669241 -0.014968236770288267 0.05218699117267228
0.03174112099999232 -0.014999899994931397 0.05073363005758613
0.03173970473415 -0.015031697461846346 0.04927410714118452
0.03173828245106047 -0.015063630026565219 0.047808383154027134
0.03173685411229443 -0.015095698551905378 0.04633641849227543
0.03173541967909277 -0.015127903908047252 0.04485817321412422
0.03173397911237025 -0.015160246972612727 0.043373607036194084
0.03173253237270124 -0.015192728630745339 0.041882679329864336
0.03173107942032355 -0.015225349775190694 0.0403853491175718
0.03172867651382405 -0.015258152295285201 0.038880816137116636
0.031727208976406074 -0.015291055298380611 0.037370550863174756
0.031725735096094165 -0.01532410051361036 0.03585375797687379
0.03172425483167546 -0.015357288864967313 0.03433039506645286
0.0317227681415842 -0.015390621284466086 0.03280041935194272
0.03172127498388849 -0.015424098712230702 0.03126378768115323
0.031719775316291665 -0.015457722096582747 0.02972045652562083
0.03171826909612818 -0.015491492394130923 0.028170381976498016
0.031716756280358194 -0.015525410569861826 0.02661351974038839
0.03171427444555219 -0.015559520221292839 0.02504901332224152
0.03171274618736919 -0.015593737269996816 0.023478435175430856
0.03171121119281023 -0.015628105144278065 0.021900934065757494
0.031709669417241126 -0.015662624843576854 0.020316464118451727
-0.08502949677259775 -0.01731536470459029 0.017182555722438764
-0.08083740775859877 -0.017194353201956527 0.01821095368224729
-0.07773590740827435 -0.017113366568892386 0.018546500104031194
-0.07542456656030277 -0.01706146346136918 0.018375852138850124
-0.07337744466069751 -0.017019205764720068 0.018039909019221756
-0.07172918673598155 -0.016991682374533152 0.017445793134975462
-0.07045160365890024 -0.016977926546316486 0.01660803758855639
-0.0694308184039355 -0.01697374918835767 0.015599475249711559
-0.06871026646890277 -0.016980840922278875 0.014387706042078674
-0.06845283601953239 -0.017005405356635684 0.01285801728398156
-0.06859953878665387 -0.017045322101908712 0.011045669185064222
-0.07025062435766682 -0.01714229472405744 0.008185752839458216
0.02312301691932972 -0.0137221967924502 0.06717066382892034
0.025097425117048378 -0.013674845522459728 0.06717495168510984
0.027058253967675527 -0.013627819919336684 0.06717921005073868
0.029005643082707533 -0.013581116634846575 0.067183439229003
0.030939730166357093 -0.013534732366496282 0.06718763951896067
0.031757220019734744 -0.01353116940731916 0.06639076847681291
0.03175586937915498 -0.013559199699782207 0.06499694162918501
0.03175451313119204 -0.013587346364783615 0.06359732807171237
0.03175315124085365 -0.013615610128541534 0.06219189169266437
0.03175269780216672 -0.013643956216860478 0.060781274286544285
0.03175132643398032 -0.013672456232580132 0.05936408783401753
0.03174994932470321 -0.013701075561362097 0.057940968442424245
0.03174856643820795 -0.013729814954020028 0.056511878776944524
0.031747177738064014 -0.013758675167680428 0.055076781188846125
0.031745783187531684 -0.01378765696584925 0.05363563771217639
0.03174345702058384 -0.013816797530045203 0.05218770061842687
0.0317420486958625 -0.013846024967812785 0.050734344842240764
0.03174063440033309 -0.013875376320541836 0.049274827303681656
0.0317392140959436 -0.013904852377945955 0.0478091087336614
0.0317377877443184 -0.013934453936463491 0.04633714952869772
0.031736355306754394 -0.013964181799329319 0.04485890974734691
0.03173491674421547 -0.013994036776647543 0.04337434910658966
0.03173347201733667 -0.014024019685464791 0.04188342697817771
0.03173202108640932 -0.014054131349845213 0.04038610238491869
0.031729620215146415 -0.014084410436656387 0.03888157506906653
0.031728154716689605 -0.014114782276157698 0.03737131549756256
0.03172668288416863 -0.014145285387338183 0.03585452835595754
0.03172520467642986 -0.014175920623105066 0.034331171232881375
0.0317237200519605 -0.014206688843770438 0.03280120134875414
0.03172222896889193 -0.0142375909171315 0.031264575551787854
0.03172073138498521 -0.01426862771855258 0.029721250313920256
0.031719227257633875 -0.014299800131047506 0.028171181726710848
0.031717716543858576 -0.014331109045363418 0.026614325497175018
0.03171523682556282 -0.014362594705137134 0.025049825135126547
0.031713710687944485 -0.014394179499932627 0.023479253085507523
0.03171217782331781 -0.014425903517191136 0.02190175811895173
0.031710638187105344 -0.014457767679462996 0.020317294361115457
-0.0849151360744097 -0.01586853948304975 0.017256884714608012
-0.0802706779760552 -0.01574223351873945 0.018581373414175206
-0.07688623992044902 -0.01565832438972288 0.01910496994924704
-0.0743276891733386 -0.015602255435170088 0.01910085134211187
-0.0721967648091425 -0.015560579880877059 0.01882466824756701
-0.0701781706831271 -0.015522584929577298 0.018482465610068
-0.06888431690760077 -0.01550931047536288 0.01766143183379637
-0.06778744932430525 -0.0155027567691469 0.016710160614971326
-0.06703542739064683 -0.01550805934107623 0.015525958989590305
-0.06643812791718351 -0.015518725484176817 0.014234858750761525
-0.06634966813190157 -0.015547039217368221 0.012591748797189939
-0.06675210902492312 -0.015592485893846222 0.01060320015253019
0.02333859545076611 -0.012571145801640128 0.06732294272771372
0.025312014046826037 -0.01252775970901161 0.06732736513989307
0.027270933853434598 -0.012484704490079027 0.06733109714894281
0.029216435003870556 -0.012441944200617 0.06733480359356575
0.031147747073031085 -0.012399507811131862 0.06733782927426141
0.03175812657613247 -0.01240353994515799 0.06639142659716762
0.03175677781700259 -0.01242923424715254 0.06499760471754085
0.0317563337806801 -0.012455002945409627 0.06359866425217825
0.03175497568462404 -0.012480911126671206 0.06219323795222037
0.03175361192675635 -0.012506927318027133 0.060781952490373325
0.0317522424715978 -0.012533052196322426 0.05936477115021177
0.031750867283372175 -0.012559286444069196 0.05794165690789027
0.031749486326002885 -0.0125856307495061 0.056512572428919106
0.0317480995631102 -0.012612085806658515 0.05507748006489954
0.031746706958007576 -0.012638652315399493 0.05363634185021737
0.03174438274959368 -0.012665364358604702 0.05218841006044045
0.03174297638683082 -0.012692156035199628 0.05073505962311853
0.03174156406159334 -0.01271906129960932 0.04927554746236529
0.03174014573588302 -0.012746080875730238 0.04780983430944541
0.0317387213713779 -0.012773215493623136 0.04633788056123278
0.031737290929428674 -0.012800465889578836 0.04485964627664357
0.031735854371055805 -0.012827832806184792 0.043375091173024294
0.03173441165694396 -0.012855316992392632 0.04188417462249039
0.031732962747445415 -0.012882919203586208 0.04038685564822614
0.03173056391139761 -0.01291067488419971 0.03888233399693808
0.03172910045188004 -0.01293851558733413 0.03737208012783255
0.031727630667128026 -0.012966476621869267 0.03585529873088367
0.031726154516045435 -0.012994558769628314 0.034331947395110585
0.03172467195717915 -0.013022762819222104 0.032801983341328556
0.031723182948713735 -0.013051089566122992 0.031265363418143066
0.03172168744847448 -0.013079539812739375 0.029722044097898803
0.031720185413912805 -0.013108114368491854 0.028171981472561003
0.03171867680210927 -0.013136814049889745 0.026615131249556667
0.031717161569767616 -0.013165639680608908 0.025051448747554605
0.03171467518322402 -0.013194628316488332 0.023480070991093338
0.03171314444850465 -0.013223708505789768 0.021902582167609985
0.03171160695162906 -0.013252917160292955 0.020318124599202292
-0.08025853808241701 -0.014310746379258303 0.018589308158890594
-0.07620995406084663 -0.014213908316493867 0.019549479436482442
-0.0733971698584564 -0.01415501022753631 0.019715893433349063
-0.07097819381785675 -0.014108114477698448 0.0196346124755013
-0.06892573901410654 -0.014072443492432356 0.01931956941426033
-0.0674045994820272 -0.014053206338411216 0.0186559695719532
-0.06617907478336227 -0.014043133514117142 0.01779719461519952
-0.06511651503365012 -0.014038125067594092 0.016830088845840474
-0.06446721477329642 -0.014046068048706938 0.015581770961399732
-0.0643236959164365 -0.014069951014030817 0.01398396853677697
-0.06436297191330559 -0.014099691665089504 0.012254075607322279
-0.06599537675238254 -0.014179863669121828 0.009410041151268367
0.023554855573553968 -0.011421443080180171 0.06747570308437645
0.025525414501686328 -0.011382078162405796 0.06747893447113151
0.02748243670698619 -0.011342983661301324 0.06748214365986793
0.029426061197445286 -0.011304156799970275 0.06748533087853509
0.031355518324294285 -0.01126562388741439 0.06748784166452665
0.03175993967484497 -0.011275887202320721 0.0663927428276534
0.03175859467855824 -0.011299245417294443 0.06499893088393177
0.03175724409836328 -0.011322700607126344 0.0635993323372292
0.03175588789941819 -0.011346253376979296 0.06219391107676581
0.031754526046585074 -0.01136990433706213 0.06078263069067019
0.03175315850443461 -0.011393654102682093 0.05936545446283986
0.031751785237240704 -0.011417503294298277 0.05794234536975601
0.03175040620897729 -0.011441452537575659 0.056513266077258706
0.031749021383315534 -0.011465502463439798 0.05507817893728284
0.031747630723620635 -0.011489653708132243 0.05363704598455171
0.0317462341929482 -0.011513906913266658 0.052189828933228766
0.0317439040728969 -0.011538293197043628 0.05073577440021909
0.03174249371793092 -0.011562752399000177 0.049276267617235636
0.031741077370879 -0.01158731551986914 0.04781055988137939
0.031739654993472755 -0.011611983223335084 0.04633861158988051
0.03173822654711733 -0.011636756178746181 0.0448603828020156
0.03173679199288748 -0.011661635061174763 0.04337583323549482
0.03173535129152488 -0.011686620551478613 0.041884922262803714
0.031732962747458626 -0.011711744730532478 0.040386855648236686
0.03173150760257737 -0.011736945637864349 0.038883092920731166
0.03173004618197739 -0.011762255231858745 0.03737284475398478
0.031728578444972455 -0.011787674217152117 0.03585606910165229
0.03172710435052395 -0.011813203304485155 0.03433272355314215
0.03172562385723676 -0.011838843210769058 0.03280276532966314
0.03172413692335563 -0.011864594659152619 0.03126615128022031
0.03172264350675963 -0.01189045837909028 0.02972283787755664
0.03172114356496497 -0.011916435106410774 0.028172781214048537
0.03171963705511044 -0.011942525583387268 0.02661593699753345
0.03171812393396051 -0.011968730558807813 0.025052260547096583
0.03171563967320801 -0.011995083719609681 0.023480888892188467
0.03171411106837263 -0.012021520110019277 0.021903406211733867
0.0317125757108086 -0.01204807328601191 0.02031895483270918
-0.08058957789058868 -0.012888874981479859 0.01837293753433994
-0.07583526413649527 -0.01278208000312949 0.019795755805832538
-0.07258827620033642 -0.012716931486885158 0.020250545040383816
-0.06988864936239209 -0.012666831083809664 0.020358796990882222
-0.06758613199223162 -0.01262765856045839 0.02021493972616817
-0.06591151230933473 -0.012605960146111516 0.01965949329475114
-0.06455776664134283 -0.01259320270273477 0.01889296990283157
-0.06352820893755912 -0.012589533669525203 0.017909532309333565
-0.06267471672812414 -0.012590823635748984 0.01680675518359942
-0.062158918482126846 -0.012601677871852623 0.015471573279256912
-0.06214341292226738 -0.012626766486085779 0.013787773878949361
-0.06250198530050854 -0.012662588914616735 0.011837298943478347
0.02377085579939081 -0.010273122047701215 0.06762827985679615
0.025739490701352508 -0.010237736112778126 0.06763098375536897
0.027694610167892486 -0.010202593115902926 0.06763366909057789
0.02963543913549116 -0.010167716855027901 0.06763567989746772
0.03156304435504964 -0.01013307822193761 0.0676376770037595
0.031760846217197436 -0.010148272291225235 0.06639340093781176
0.03175950310230252 -0.010169294576079633 0.06499959396199334
0.031758154411326456 -0.010190404137629198 0.06360000041881614
0.03175680010947096 -0.010211601520515035 0.06219458419781265
0.031755440161652826 -0.010232887273919236 0.06078330888743477
0.031754074532490795 -0.01025426195161261 0.05936613777190192
0.03175270318630857 -0.010275726112002535 0.05794303382802124
0.03175132608713105 -0.010297280318181598 0.05651395972196327
0.03174994319868013 -0.010318925137976867 0.05507887780599624
0.03174855448437269 -0.01034066114399973 0.05363775011518074
0.03174715990731597 -0.010362488913696418 0.05219053836402121
0.031744831754060954 -0.010384436453296475 0.05073648917354273
0.031743423369345714 -0.0104064496186658 0.049276987768292535
0.03174200900093144 -0.010428556310313747 0.04781128544946328
0.03174058861060319 -0.010450757125550098 0.046339342614641066
0.03173916215982042 -0.010473052666781809 0.04486111932346287
0.03173772960971244 -0.010495443541567511 0.04337657529400296
0.03173629092107588 -0.010517930362672682 0.0418856698991148
0.03173390440344376 -0.010540542002726501 0.04038760890750376
0.0317324512886859 -0.010563222697599465 0.03888385184044596
0.031730991906981754 -0.010586001209680385 0.037373609376019246
0.031729526217701975 -0.010608878173135243 0.0358568394682634
0.03172805417986552 -0.010631854227623767 0.03433349970697597
0.03172657575213511 -0.010654930018359064 0.032803547313759396
0.03172509089281428 -0.010678106196167998 0.031266939138016925
0.03172359955984261 -0.010701383417552396 0.02972363165289521
0.03172210171079054 -0.010724762344751077 0.028173580951173505
0.03172059730286225 -0.010748243645802444 0.026616742741105426
0.031719086292880894 -0.01077182799460844 0.025053072342191063
0.03171756863729158 -0.010795516070998813 0.0234825246809085
0.0317150776829217 -0.01081933832982506 0.02190423025132343
0.031713544464645915 -0.010843236056564821 0.02031978506163773
-0.0757219327713588 -0.011359042674287589 0.01987024629870504
-0.07158705004774507 -0.0112790981452298 0.02091232198240156
-0.06891034195885753 -0.011235084596738111 0.021009045881020483
-0.0665841055825756 -0.01119962506183392 0.020884676958284165
-0.06466145536405371 -0.011174096731404586 0.02049967317331486
-0.06319303132622012 -0.01115982598105874 0.019815338201437438
-0.0617950184939684 -0.011147262288088102 0.01908744197040413
-0.061080645281339385 -0.011151814691518196 0.01789613565831155
-0.060471855215494696 -0.01115904214819285 0.016630899534478216
-0.03759911420792472 -0.010604966326820542 0.030747696398908786
-0.035875138997538414 -0.010582939259211582 0.03033800837190226
-0.038361172248684516 -0.010667399739296262 0.02699368308748057
-0.036752043094137876 -0.010648323407191337 0.026500517852889538
0.023985659153885397 -0.009126204043443071 0.06778001119136651
0.02595331066827411 -0.009094763752530278 0.06778285104830861
0.027905609698916645 -0.0090635863501507 0.06778435614956013
0.029844569258748788 -0.009032621973564832 0.0677858509668482
0.03176308845459397 -0.00900205392012508 0.06778211033295523
0.03176175275486698 -0.009020663200441878 0.06639405904457063
0.03176041152134457 -0.009039349579315908 0.0650002570366226
0.03175906471956624 -0.009058113536872636 0.06360066849693657
0.03175771231478436 -0.00907695555723243 0.062195257315362296
0.03175635427195994 -0.009095876128552212 0.0607839870806674
0.03175499055576625 -0.009114875743067463 0.05936682107739777
0.03175362113057595 -0.009133954897135158 0.05794372228268613
0.031752245960464165 -0.009153114091276816 0.05651465336303274
0.03175086500920404 -0.009172353830222328 0.05507957667103963
0.03174947824026364 -0.00919167462295426 0.05363845424210445
0.031748085616802424 -0.00921107698275275 0.052191247791072815
0.031746687101668114 -0.009230561427240958 0.050737918708847585
0.03174435301583789 -0.009250152958557576 0.04927770791553615
0.03174294062604044 -0.009269803247015132 0.04781201101369714
0.03174152222276938 -0.009289537200218941 0.04634007363551462
0.031740097767538 -0.009309355353636169 0.04486185584098551
0.03173866722153068 -0.009329258247313177 0.04337731734854855
0.031737230545598794 -0.009349246425924584 0.0418864175314253
0.031734846054381094 -0.009369345553889097 0.04038836216273295
0.031733394969723216 -0.009389506063354229 0.038884610756082405
0.031731937626893025 -0.009409753520747889 0.03737437399393595
0.03173047398531659 -0.009430088489767154 0.03585760983071701
0.03172900400407003 -0.009450511538992323 0.03433427585661214
