# .PCD v0.7 - Point Cloud Data file format
VERSION 0.7
FIELDS x y z
SIZE 4 4 4
TYPE F F F
COUNT 1 1 1
WIDTH 755
HEIGHT 1
VIEWPOINT 0 0 0 1 0 0 0
POINTS 755
DATA ascii
0.03617573034487692 -0.059869278638933446 0.0048354379507860035
-0.05192589592281743 -0.0655315851548996 0.024152445701486114
-0.04769839626019934 -0.0650258451583761 0.02540864167951773
-0.04465417705197733 -0.06469705772163535 0.025872701981624557
-0.04224626466177034 -0.06446338863973272 0.025911260145516146
-0.04000338459970121 -0.06425383592151583 0.02584634897975896
-0.03816220248596219 -0.06410456770286103 0.025509874562145984
-0.03633339168997185 -0.06395657653885106 0.025172249752590303
-0.03481685342984875 -0.06385570227611435 0.024620369798533603
-0.033306357157580124 -0.06375533953574981 0.024069324104939505
-0.03201854163696016 -0.06368873507072344 0.0233635105899489
-0.030826320953684705 -0.06363655570863855 0.022592090763158212
-0.029808782349820206 -0.06361107690444831 0.02169653939451832
-0.028988182999985734 -0.06361590087146025 0.020658549161440554
-0.02841834002484367 -0.0636595427444407 0.0194362792314976
-0.028106223354511906 -0.06374332496392632 0.018021577226825403
-0.028625173926386416 -0.06395657655528511 0.015985953975919787
0.007779644230569371 -0.06109704666396429 0.008189491264165072
0.010189068541311408 -0.06083739317479753 0.008549644054499095
0.012012233509124226 -0.060672475340266104 0.008429413458704904
0.013723251233502598 -0.06052521365626897 0.00822309000096072
0.015414341271061283 -0.06038057732199473 0.008007840883910766
0.01708370422348815 -0.06023887990710817 0.007781907924767406
0.01874525040374858 -0.060097845988685034 0.007557032893970195
0.020399034586516207 -0.05995747091738906 0.007333208378270006
0.022050259044597675 -0.05981689700736879 0.007114909128354718
0.023693758822766642 -0.05967698072354829 0.006897631115584335
0.02532958800037871 -0.05953771746198225 0.0066813671904313865
0.026862976281472106 -0.059414921296072676 0.006382241557037982
0.0283679929451518 -0.05929631884057844 0.006064733861223137
0.0298670130320558 -0.059178188943795444 0.005748491240580189
0.031399681845754035 -0.05905387649265593 0.0054690944017711796
0.03298985785896147 -0.05891932369257547 0.005248612383430384
0.03457378071954431 -0.05878521786958756 0.005030019598871283
-0.048301555063837376 -0.06376030181216273 0.02499415939485433
-0.044965774466857567 -0.06339535745445243 0.025657390553284587
-0.04217046057283974 -0.06310915016757161 0.025963929898698113
-0.039781871161471194 -0.06288226937069825 0.026001109673674472
-0.03761318219082477 -0.06268723545732395 0.025895563779275044
-0.035782913392492954 -0.06254194260741812 0.025561092873429836
-0.033997856845596364 -0.062402820621242465 0.025202068486303186
-0.03249034061327716 -0.06230474429335859 0.024652089064392202
-0.030988809746788804 -0.06220716421470699 0.02410293510093503
-0.029736668305676506 -0.062146731400015226 0.023378828087464387
-0.028551665188090436 -0.06209617867878967 0.02260915155459281
-0.027568324052948956 -0.06207590555077058 0.02169493479553719
-0.04404868215334862 -0.06470130129075788 0.007965121293610489
-0.02622172684799301 -0.06212924476502292 0.019412149779001076
-0.025906512936919257 -0.062210556461724 0.01800297256820632
-0.026482391404305028 -0.06242805223509628 0.015924777382930078
0.006740031322085893 -0.059859418048473494 0.008980703576747295
0.008718530963369275 -0.059674506645246934 0.008973153371102771
0.010464662618765608 -0.05952591404751141 0.008780894954049712
0.012182818350287616 -0.059381150313659155 0.00857330980995441
0.013842583480212278 -0.05924512153325611 0.008324285427439848
0.015468311493500198 -0.05911396855673408 0.008053850536867968
0.017102623337157563 -0.058980853759676176 0.007798121739738428
0.018764039524183984 -0.05884277230997152 0.0075732203492730465
0.020416658096655937 -0.058705503710010966 0.007348471744130225
0.02206879066015799 -0.05856770474383671 0.007131043611247334
0.02371216291686684 -0.05843071743256556 0.006913738989170082
0.025252395482537993 -0.05830992931495725 0.006613450089696493
0.026750938359075105 -0.05819541135791966 0.006283147561177482
0.02825063076897255 -0.05808019240381185 0.005960385161067283
0.029775307909115756 -0.05796035688116128 0.005666526447252573
0.0313729463878355 -0.057827983988937307 0.005445073210712359
0.03296428750431635 -0.05769605225193468 0.005225517533019031
-0.0500779956520202 -0.06266071414777678 0.023773414295690187
-0.045428726196505675 -0.062113635364625115 0.025337494452088383
-0.04241757685076092 -0.0618023000955798 0.025792230013520767
-0.039706790626136856 -0.061533419848083276 0.026053564801637508
-0.037336002426177184 -0.061313035323220175 0.026090283805798253
-0.03523896723474418 -0.06113176148922266 0.02594532186577414
-0.033422043658129286 -0.0609907697252027 0.02561104427691141
-0.03167877242929329 -0.06086000864218809 0.025231677190557522
-0.030180189013655268 -0.060764693432936216 0.02468358526422265
-0.028687535067516368 -0.06066985945497059 0.024136310096193936
-0.02746924819771812 -0.060615148478042884 0.02339493901956219
-0.026291391221386518 -0.06056619366844348 0.02262699557882808
-0.02534168807073911 -0.0605508658972503 0.021694243912966704
-0.024525040396317588 -0.06055524447097628 0.02066413703458181
-0.024036993511825866 -0.060608567864750156 0.019389999289692927
-0.023764181409703433 -0.06069422753639712 0.017952419996349445
-0.024352986427224166 -0.06090907060183379 0.015863982719722725
0.005271695262174858 -0.05868674651438738 0.009419788996725853
0.0071760797872014725 -0.05851792219649838 0.009342738409543472
0.00891204722348704 -0.05837464079514971 0.009134675900746292
0.010637376465523374 -0.0582323967776388 0.008925819085934372
0.01228573704512309 -0.058101592229357776 0.00866012657843851
0.013921385699080857 -0.05797221009276252 0.008391110819283065
0.015545535418387713 -0.057844068818482336 0.008119683987676762
0.01716357162062332 -0.05771632703176614 0.007850354852144303
0.018781783024954812 -0.05758799310658728 0.007588506968283892
0.020435316416842764 -0.05745349394645641 0.007364631338052874
0.022086290994474456 -0.05731880420757516 0.007146280212919964
0.02363444391442815 -0.0571998803750127 0.006845716740442265
0.02515179208973961 -0.057085340169749574 0.006524935153870037
0.02664994292046996 -0.05697335729147129 0.006193820292687058
0.028154275569345244 -0.05685988245778271 0.005874714119836699
0.029748385408625566 -0.0567314812247364 0.005642463481980886
0.031346206863972936 -0.05660190505069733 0.005421048366496872
-0.04673566433493909 -0.06094869020961668 0.024434410203310997
-0.0428274546800711 -0.0605170191108761 0.025507441100296235
-0.039888065022131436 -0.060221549907042704 0.025926917174579733
-0.03726163672925081 -0.05996953214614267 0.02614252604107231
-0.034907180152587924 -0.05975537137371586 0.02617968737131854
-0.0328831096282548 -0.05958766916562989 0.02599382635927938
-0.031076869226332404 -0.05945055213726313 0.02566153133765392
-0.029375965247195823 -0.0593280253813992 0.02526107807658834
-0.027886226645180923 -0.059235435041381866 0.024714860742846845
-0.02640236233012988 -0.059143311165110485 0.02416945156764716
-0.025218607109442293 -0.059094248135243777 0.023410043813602677
-0.024045371701791052 -0.05904650772535778 0.022645614630473432
-0.023129975053996388 -0.05903604709443906 0.021693557660628415
-0.022318339180817548 -0.059040656409625594 0.020665096755977885
-0.02186406329322732 -0.05909744542353635 0.019369808818827716
-0.02165851432878274 -0.059190851915343526 0.017884826415276445
-0.022264996420613692 -0.059403670370253465 0.01578233030613141
0.0017175810665873148 -0.05770057878633805 0.00981041672399624
0.003780542091364192 -0.05751271906187851 0.009845809107531134
0.005608926490741961 -0.05735969489729472 0.009698299226025275
0.007352184290087216 -0.057218970663267914 0.009488951432538473
0.00906953904498109 -0.05708158670266393 0.009266129853971738
0.010721516416863919 -0.05695360359528383 0.008996420891370038
0.01236610253586884 -0.056826193108045424 0.00872791865659639
0.013999090067858544 -0.05670000546356726 0.008457005218781677
0.015622726900242023 -0.056574702585875915 0.008185489780776656
0.01724025353863534 -0.05644979023081729 0.007916071801256974
0.0188496098847023 -0.05632558961655056 0.0076469420751464345
0.020453972816955046 -0.05620161302371165 0.00738078926903768
0.02200907086298154 -0.056084739682116844 0.007079048789600084
0.023536224472710865 -0.05597169740746408 0.006759751827296767
0.02505011504608562 -0.05586022083992326 0.006435475576576366
0.02655394420226631 -0.055749819755823556 0.006108912465223271
0.028149255635274262 -0.05562458490640759 0.0058702508113652185
0.02973641853550768 -0.05550006811208536 0.00563176765332446
-0.04405129370254268 -0.059342250000611094 0.024657100437181834
-0.04029520352044447 -0.05893998057423634 0.025642469255653833
-0.0373783256902841 -0.05865315600698263 0.026060551523140796
-0.0348347909237775 -0.0584173540543392 0.02623082118308684
-0.03249775180762132 -0.058209514591521995 0.026267529745709117
-0.030542892764833462 -0.058054471463450996 0.026042875040923952
-0.02874972405173576 -0.05792153515503076 0.025710766091626314
-0.027089264528158408 -0.05780675723035012 0.025290273324705626
-0.025608283924132058 -0.05771685606656981 0.024745917812343976
-0.024151431691002645 -0.05762999817774467 0.024188998142157747
-0.022983336776402574 -0.05758373478257679 0.023425045449359083
-0.021814692423330617 -0.05753720118836545 0.022664106514516058
-0.02093545330668134 -0.05753169108167108 0.021691082169366938
-0.020122733008311522 -0.05753565136702418 0.020668750216565668
-0.01970889300134615 -0.057596674148927184 0.01934703490151246
-0.019564644886007898 -0.05769658891547082 0.017818561446899417
-0.020345198110153395 -0.05792973856959296 0.015583263200115605
0.00024294469692293097 -0.05651437484656696 0.010263983347651995
0.002275166879594448 -0.05633584256028366 0.010266048433329622
0.0040366323297246764 -0.05619668510316143 0.010056187894045776
0.005787217022327762 -0.05605854036700167 0.00984554459545578
0.007493167612783014 -0.05592644174853104 0.009606004645065391
0.009152033529460701 -0.055800794548653894 0.009334985658681239
0.010803462368854488 -0.05567571065406403 0.009065181712674286
0.012445362345720745 -0.055551507335680726 0.008794778040822071
0.01407676172634631 -0.05542833637935921 0.008522871879493576
0.01569988595950167 -0.05530586952278403 0.0082512679335916
0.01731585353920484 -0.055183942645120714 0.007980861539426565
0.01892575455642176 -0.05506239447057053 0.007712543255055215
0.020461227565168105 -0.05495158872329686 0.007387072459805077
0.021922545079336997 -0.05485155552357923 0.00700371543447853
0.023437951330245788 -0.054742842940043016 0.00667373991347564
0.024949397844275023 -0.05463424988872574 0.006346860506975749
0.026548890205388975 -0.054511707726817 0.006104442364966822
0.028142227489000915 -0.05438956016622217 0.005864001967384902
0.029727442848593633 -0.05426811198234475 0.005623745306270134
-0.04139214111483491 -0.05774969491094885 0.02487609216970199
-0.03778274984509872 -0.05737527153949517 0.025776441742427658
-0.03488939801807539 -0.05709714760746321 0.02619224819471655
-0.03242604835387536 -0.056876754549619525 0.026318457680885643
-0.030106233062935972 -0.05667514836764871 0.026354719176006125
-0.028220644956562624 -0.056532405606234126 0.026090684451886337
-0.02643793582987347 -0.05640324658970169 0.025760537493997704
-0.02481727978353454 -0.05629592347249989 0.025320152274615815
-0.023344977828004154 -0.056208676860627915 0.024777646190555558
-0.02192561928328901 -0.056128407006141044 0.024201307690928597
-0.020763280272576845 -0.05608350237522032 0.023439944980018446
-0.019597995829958414 -0.05603800093335604 0.022683363519411748
-0.018753118584820316 -0.056036998058929706 0.021690411006033694
-0.01794415012277545 -0.056041009780090585 0.020670585263193986
-0.01757125238873808 -0.056106113268120025 0.01932170199237898
-0.017484879443656842 -0.05621170407204228 0.017751796404243736
-0.018429510470789057 -0.05646274588768519 0.015389846247172656
-0.0036464658063357636 -0.05555151189861924 0.010431851299382622
-0.0012367202666475063 -0.05532412588390843 0.010719096659266292
0.0006891611427955469 -0.055165574139207724 0.010626676048678674
0.0024580656593828354 -0.055029035598525865 0.010415504322855484
0.0042149150313232076 -0.054893652445287315 0.010202647589889646
0.0059092818335062525 -0.054766755597857514 0.009946354650014366
0.007575086026172073 -0.0546434636546251 0.009674018458819711
0.009233406886373086 -0.05452072557877499 0.009402905690031993
0.010884294727435517 -0.054398537646443146 0.009133008118115737
0.012523517870796141 -0.05427752340675891 0.008860705908806332
0.014154400695192249 -0.05415720250204679 0.008588710818928591
0.015777012616593866 -0.05403756929335736 0.008317018463535775
0.017392471642315 -0.05391846345899315 0.008046523798714456
0.018964336272769 -0.053805274299648154 0.007745782693326209
0.02045086355018222 -0.053704224101914236 0.00737809639594178
0.021912241627968787 -0.053606458799980945 0.006994744772460759
0.02336933302494032 -0.05350889640054268 0.006613682896731865
0.024939221237931075 -0.05339407983423595 0.006337906716925412
0.026538781781754728 -0.05327431592188757 0.006095501784238955
0.028131182696724377 -0.05315508807250401 0.005854181855360241
-0.04418925866899892 -0.05677842892212005 0.022921881819735757
-0.038751385610660216 -0.056169961568322956 0.02509597077730763
-0.03528986238891785 -0.05582274797907856 0.02590937089245665
-0.032418502061251686 -0.055553030231890496 0.026323817493858148
-0.03003396135899078 -0.05534743761887399 0.02640633261070091
-0.027732424971284475 -0.055152145060220543 0.026441262915381236
-0.025913701150930002 -0.0550210090954167 0.026139038835112594
-0.024143797683000456 -0.05489591412937564 0.025809070868085815
-0.02256230013570132 -0.05479575608808217 0.025348939499741985
-0.021098585964314576 -0.054711128877633464 0.024808270081377426
-0.01971491699860528 -0.05463700951803842 0.02421353367516904
-0.018558282800863912 -0.054593446306995044 0.023454743444474513
-0.017401110868015268 -0.05454962818821729 0.02269893811236845
-0.016586452402431895 -0.05455238503341765 0.02168885332401782
-0.01578001103351101 -0.05455627752394271 0.02067240814356064
-0.015441425842886491 -0.054624323509492846 0.019301028325941938
-0.015416692552835842 -0.05473577120560198 0.017686347122618074
-0.01653235835678807 -0.055004681560875957 0.01519102955923013
-0.004866841001946287 -0.05431422057358658 0.011109559287515058
-0.0027362324783881675 -0.05413188699722891 0.01116386802758551
-0.0009032002124186866 -0.053990616088513306 0.010988748811041782
0.0008731888693790935 -0.053856718563408006 0.010776257073393858
0.002637447884953681 -0.053723955388727755 0.01056208665718722
0.0043200342327492924 -0.05360217711907458 0.010289003283011633
0.005992812190930674 -0.053481261417379 0.010015340132463912
0.0076580602355747485 -0.053360890010746925 0.009742908860760513
0.009315829095712769 -0.0532410592322622 0.009471701168733637
0.01096509198594986 -0.05312191922931655 0.009200805071102769
0.01260164043645512 -0.05300407673690386 0.008926605973969881
0.014230944115634359 -0.052886755916742946 0.00865362071788206
0.015854106891922903 -0.05276980156202944 0.008382741388003878
0.0174407350562637 -0.052657593942717074 0.008087885887727075
0.01897371977823642 -0.052552634284237294 0.0077538668969407976
0.02044049894265748 -0.05245678816521908 0.007369119818892489
0.02190193758859499 -0.052361291020325273 0.006985773598498057
0.02338981884287128 -0.052261526476396765 0.006631612764061212
0.024952450713260244 -0.05215043026414652 0.006349546544641038
0.026527661853600837 -0.052037001502344596 0.006085666559782155
-0.04117170204335463 -0.05514723421833311 0.023395687639510554
-0.0361314242912843 -0.05460326544259033 0.02531491411188147
-0.03281505337633278 -0.054282103610656045 0.026042163841020816
-0.02996669663718593 -0.05402084295119438 0.026454370267717575
-0.027660834559625258 -0.05382961515216696 0.026492670185213008
-0.025390807118152114 -0.05364230645195943 0.026516572219714818
-0.023624348961193253 -0.05352050167713801 0.026186167955364603
-0.02186468781198564 -0.05339908962831898 0.025858141763795472
-0.020322928633682402 -0.053305972314521013 0.02537752747012867
-0.018867718874306216 -0.05322393042170217 0.02483868233096631
-0.017519171492849372 -0.053155702263502094 0.024225676942928542
-0.016367007459771155 -0.053113305903997265 0.023470325216897625
-0.015236738191873767 -0.05307365017635005 0.02270113378325267
-0.014432924863712226 -0.05307742436255994 0.021688193967402458
-0.013647803931462532 -0.05308371586487856 0.02066085187152572
-0.013326488801462533 -0.05315223236958138 0.0192795913463345
-0.013361174992673142 -0.053268879631070784 0.017621298771121063
-0.01463921024457765 -0.053553462518053596 0.01499783547772826
-0.008990342873164026 -0.05335598646219583 0.011143138457085477
-0.006365407800932754 -0.05311204609965937 0.011569239928712616
-0.0042947852781639595 -0.05294282985672611 0.01156716406252134
-0.0025019554661580012 -0.052810940162397874 0.011352275424590608
-0.000718035951917495 -0.05267970595496962 0.011138454775174944
0.001035748815099935 -0.05255205144409185 0.010908388702197735
0.002723179618872029 -0.05243299349698626 0.010632142414629564
0.004402981874429612 -0.052314473787830176 0.010357144983033806
0.006075207195890886 -0.05219648867495068 0.01008338795775604
0.007739906732799173 -0.05207903454945329 0.00981086296519651
0.009397131175338358 -0.051962107834854 0.00953956170695619
0.01104370096411661 -0.051846155153764395 0.009266765838771451
0.012679730063546557 -0.05173116698633075 0.00899247825389965
0.014308518214174726 -0.05161668774837693 0.008719404646384044
0.01591111470954354 -0.05150537956638639 0.008431340593010761
0.0174585683109294 -0.05140133419988833 0.008103169113809039
0.01896329363112781 -0.05130285033009527 0.007744884422700826
0.020430133742543155 -0.05120928090709527 0.007360142728613406
0.021893693933692615 -0.05111576045918096 0.006978596290693362
0.023429759476195744 -0.05101153846671884 0.0066665701311026115
0.024992133274809925 -0.05090311146450945 0.006384460868018138
-0.038162475077773594 -0.05352961074308149 0.023880234252531718
-0.03353328565914304 -0.053049618944395055 0.0255320337813138
-0.030360631123661885 -0.0527535330609652 0.026173038698350637
-0.027589269098602043 -0.05250754617115625 0.026544059538622045
-0.025305214334556514 -0.05232298967318501 0.026578370846707555
-0.02310622394110351 -0.05214859416339388 0.02656230409300364
-0.021349973648529696 -0.05203044469622626 0.026233842720418676
-0.019602859372823245 -0.051912983589756406 0.025905988597186735
-0.018099003785543022 -0.05182646471628616 0.025405918247392578
-0.01665221617503787 -0.051746974574198024 0.02486888512573704
-0.015338231489862464 -0.05168438318768491 0.02423773833081877
-0.01419168241485863 -0.051643299203414844 0.02348492159078075
-0.01309607826478204 -0.05160868059971932 0.0226962585250301
-0.012294760068412403 -0.05161233852378194 0.02168665384877877
-0.011550430670850598 -0.051623467894382026 0.020633380112488386
-0.011228611421701062 -0.051690039266734544 0.019255610948581692
-0.011320548853715473 -0.05181125372518635 0.01755484614499986
-0.012756019629492354 -0.05210987653323395 0.014805657549882056
-0.010044608258935106 -0.052083475810056665 0.01196861694510365
-0.007869128630561162 -0.05190573697919468 0.01203050155252261
-0.005907605580508624 -0.05175570963693859 0.011933500038400713
-0.004107143206573349 -0.05162651788776952 0.011717264663533122
-0.002316782501898984 -0.051498121255194096 0.011501192963958407
-0.0005736415582236476 -0.051375496147699914 0.011255198156780277
0.0011208974197117194 -0.05125886543046634 0.010977599009619088
0.0028077600669234593 -0.05114276305514497 0.010701257397871422
0.0044869984266706076 -0.051027185439733384 0.010426164795818371
0.00615866407282234 -0.05091212903453603 0.010152312754636683
0.00782280811513758 -0.0507975903218009 0.009879692901532844
0.009478397887142553 -0.05068371280358945 0.009607392724662045
0.011121200575850476 -0.050571076391975944 0.009331795737431925
0.01275778677289563 -0.050458793815542066 0.009058322766162752
0.014375439493303777 -0.0503486042493715 0.008776154833937844
0.015929057951526937 -0.050246694775226995 0.008446637219544362
0.017477448684319663 -0.05014505313176763 0.008119349728085312
0.01895286688680453 -0.05005299478766432 0.00773590143394054
0.020419767949786338 -0.04996170232142629 0.0073511651250585675
0.02190193758851411 -0.04986789620984476 0.006985773598427669
0.02347071501366388 -0.04976168638282966 0.006702415775913018
-0.03519250633059501 -0.05192940263277075 0.024353559406863345
-0.030955446775877138 -0.051508704000887535 0.025748246184197465
-0.02792510239627022 -0.05123672906291119 0.026302906113860325
-0.02523432177277518 -0.051006057877643576 0.02662955580410753
-0.022966907676495285 -0.05082743773686084 0.026663441617053252
-0.02083656648858595 -0.05066527513717146 0.026608589667021065
-0.019092822989801694 -0.050551040856327965 0.026280305925342917
-0.017355739863664343 -0.0504371712465634 0.02595437371293019
-0.015890366319550597 -0.05035712733488197 0.02543411386481187
-0.014451919685151027 -0.05028015588416624 0.024898880622098163
-0.013170779992615511 -0.05022280357881847 0.024250594475261122
-0.012030964315079273 -0.050183163352776596 0.023499419952369094
-0.010969468930355275 -0.05015332660490537 0.022691415266335724
-0.01017178786985451 -0.0501570173494303 0.02168424162673649
-0.009466421558740834 -0.05017252440534401 0.020606083399314246
-0.009141793842761592 -0.05023687019748854 0.019233565106723527
-0.009288844550790987 -0.05036203891892367 0.017491492001025122
-0.01088739394793159 -0.05067446634554546 0.014610838411912797
-0.011523576484660847 -0.0508641548067512 0.01246338329549429
-0.009358184443327866 -0.050692707926412256 0.012508975001859768
-0.0075269443439005546 -0.050563791488425075 0.012301316617372438
-0.005718802332949302 -0.05043732056195436 0.012083725372829479
-0.003920825360269442 -0.05031162927080866 0.011866305976455993
-0.002190784900706122 -0.05019425041059841 0.011602521215687611
-0.0004890859464752317 -0.05008006721624569 0.011323561670048943
0.0012048884411234861 -0.04996640233666108 0.011045868412729642
0.0028911907394765235 -0.04985325225063674 0.010769432841111537
0.004569872951698695 -0.04974061346878824 0.010494246430323484
0.006240986611979971 -0.04962848253319576 0.010220300732365573
0.007904582790858594 -0.049516856017050324 0.009947587375244038
0.00955746354290854 -0.04940616028039529 0.009673386583366583
0.011199743608943269 -0.049296386212537124 0.00939770117061084
0.012833673384728683 -0.049187240856835096 0.009122336698918931
0.014393493454487316 -0.049087485034373754 0.008791464847383357
0.015948054766614872 -0.04898799218021674 0.00846283201789777
0.017471155443189113 -0.04889226852126871 0.008113956375677689
0.018942439545215406 -0.04880306765079335 0.007726917930615695
0.020413548189632702 -0.048713495337059105 0.007345778316526441
0.021942120016878397 -0.04861578864643576 0.007020758281814643
0.023510637681416813 -0.048512257084645086 0.006737357418890366
-0.03224968491790792 -0.05034487304149059 0.024823955318248214
-0.028400156293917234 -0.04998067758235731 0.025961781885978807
-0.025508249874186317 -0.04973155627347871 0.026431777675498924
-0.022896680074186826 -0.049515603460042974 0.026714423789432007
-0.020645724404931842 -0.04934283770610017 0.026747889415276282
-0.018584077177128344 -0.04919254431411629 0.02665367609980457
-0.016850331357989023 -0.0490818746869194 0.026327315341209745
-0.01513024095220622 -0.04897242414849073 0.02599806317822101
-0.013695690736909683 -0.04889771165054683 0.02546298790004975
-0.012266673387240634 -0.04882337034323793 0.024928670946951836
-0.01101901549698775 -0.04877116491953403 0.024262491600580305
-0.009884706527930442 -0.048732799263096045 0.023513821285567615
-0.008855622644688865 -0.04870735093738476 0.0226874800148954
-0.008061545769362188 -0.04871106645246895 0.021682724509409945
-0.00739335743074554 -0.048730510689580425 0.02058072591345156
-0.007065967259071992 -0.0487926646212577 0.019213435737710838
-0.007276385118511752 -0.04892249438027185 0.017423148674317712
-0.008789090735391858 -0.04921645968838909 0.014604493098423599
-0.00915400728246235 -0.04936719305577397 0.012669704818294991
-0.007338129866422072 -0.04924346530634244 0.012450750144732625
-0.005531331870353817 -0.04912035619790265 0.012232890248449868
-0.003813459770038885 -0.04900798541093495 0.011952190978070931
-0.0021045637837845965 -0.048896271586998004 0.01167186090911898
-0.00040344094393379715 -0.048785065908625046 0.011392805959654029
0.001289961664996453 -0.04867436491662866 0.011115017449339404
0.0029756964792757024 -0.04856416518314894 0.010838486776443113
0.004653815461381272 -0.04845446331129856 0.010563205416956822
0.00632437010533532 -0.048345255934813994 0.010289164923718341
0.007986321828781007 -0.04823667986248958 0.010015452260215774
0.009636495735105888 -0.048129148465661804 0.009739352510980237
0.011278253473505917 -0.04802223433166782 0.009463578772086922
0.012851838803118576 -0.047923677788046674 0.009137660085260901
0.0144126074860641 -0.0478263515650154 0.008807673815457662
0.015965994397840244 -0.04772955706595531 0.0084781255662576
0.01746066622644199 -0.04763998756536603 0.008104967042324107
0.01893201160630903 -0.04755306891333055 0.007717933912682162
0.0204104382295211 -0.04746483843888522 0.007343084842943826
0.021982293503913064 -0.047363959700026645 0.007055735180465872
-0.029625001895270175 -0.04881027835122796 0.025082251137772904
-0.025892857764116317 -0.048468418412930134 0.026154087915570667
-0.023108647678053873 -0.04823773747777305 0.02656054456582424
-0.02057615394230311 -0.04803606173786724 0.02679867039473649
-0.018340288620475764 -0.0478689279717856 0.026832593299045582
-0.0163461972267554 -0.04772999547239342 0.026699316606843992
-0.014624707533265668 -0.04762313227192838 0.02637312660428842
-0.012943497882167698 -0.04752065755822376 0.026024084463160513
-0.011517169294219975 -0.047448407355001 0.025490796129858218
-0.010096323390959672 -0.04737651536104353 0.024958258198209404
-0.008881614628992562 -0.04732921635276858 0.024274309309198605
-0.007752764377007282 -0.04729210916724364 0.023528126561150553
-0.00675671253153276 -0.04727095092109163 0.022682696974084482
-0.022670721837092622 -0.049304823076157446 0.008809599198810636
-0.005334579285100727 -0.04729778224679021 0.020554649078033005
-0.005006746997062217 -0.04735805612727863 0.019190778409502673
-0.00526691997630635 -0.04749050334321512 0.017362362413297527
-0.006733021685197349 -0.04777132226404358 0.014575523123295686
-0.0071737899195516985 -0.047927398923428885 0.012580813783257538
-0.005445133180643547 -0.04781710490248585 0.01230147607605847
-0.003727838460000854 -0.04770773972636619 0.012020682068513366
-0.002019514985691806 -0.04759901383127954 0.01174025781462218
-0.0003189603415453268 -0.04749078238178925 0.011461108827588051
0.0013738783469127713 -0.04738304201271 0.011183226427979587
0.0030590534754197374 -0.04727578938932599 0.010906602014944533
0.0047366169663904945 -0.04716902120704578 0.010631227065329485
0.006406620274248154 -0.04706273419106319 0.010357093132802586
0.00806584695623802 -0.04695733429032624 0.010081479017618411
0.009715494484972498 -0.04685267701618958 0.009805290525229604
0.011304057694471459 -0.04675524563086617 0.009485231085393564
0.012871070832461473 -0.04666010404268741 0.009153883208198932
0.014430657807019742 -0.046565483004684424 0.008822980741938602
0.015972325613732574 -0.04647271448619264 0.008483522932302034
0.01744912739273663 -0.046387767850933743 0.00809507817977223
0.01892888310813251 -0.046302070216848484 0.007715238606929464
0.020447754229951154 -0.04621100772704551 0.007375403476546749
0.022022458052600113 -0.04611240927763191 0.007090704296977668
-0.027076932860361114 -0.04729501557438417 0.025299176880664298
-0.02349074775645693 -0.04697817176955304 0.026283156595528545
-0.02072852051057389 -0.046755434262211626 0.026687454754054762
-0.01827255608958045 -0.046567313298656744 0.026882302419488746
-0.016052803699798057 -0.04640587874037864 0.026915812092063285
-0.014125130183055612 -0.04627780707122259 0.02674377112655979
-0.01241343383549387 -0.04617442068825131 0.026419484542996863
-0.010771655727165819 -0.046078783602709915 0.026049928433659997
-0.009353470249384654 -0.04600896395149875 0.02551841515574166
-0.007940717896908367 -0.04593948974113134 0.024987644445272572
-0.0067584340452314096 -0.04589686117518066 0.024286048393664272
-0.005633861891602587 -0.04586086287988397 0.02354320519024561
-0.004672574617555103 -0.04584402063817941 0.02267707436762445
-0.003879956729619105 -0.04584709409418895 0.02168146710257468
-0.003287680330171905 -0.04587397096428134 0.020529614468186685
-0.0029571584489465064 -0.04593211122116147 0.019170911991579775
-0.003270745477462589 -0.04606731219240366 0.0173010533293092
-0.004709198827107464 -0.046337522185758095 0.014531366226919862
-0.005360121282591668 -0.046514569275090026 0.01236911760754883
-0.0036399733380908517 -0.04640779564725998 0.012090968052327455
-0.0019333705128611878 -0.04630219260026726 0.011809535870278942
-0.00023451695836762543 -0.04619706907117716 0.011529381603657574
0.0014588762901026064 -0.046092151660035524 0.011252314275104869
0.0031434846059054666 -0.04598784418032958 0.010975594983213766
0.00482048553135056 -0.04588400773458037 0.01070012530618386
0.006489930480774009 -0.04578063913931801 0.010425896798527956
0.008145338364759613 -0.04567853116517366 0.01014747777944236
0.009750113536496519 -0.045582160939203 0.009834186064925421
0.011323408509402666 -0.04548922215324046 0.00950146834782395
0.012889232580885701 -0.045396792612088906 0.009169203498751943
0.014449767984820339 -0.04530460743043555 0.00883918644195636
0.01596177346585842 -0.04521799508964286 0.008474527218745531
0.017441784119274995 -0.045134951003888917 0.008088784942188898
0.01892471169360882 -0.045051179058785876 0.007711644793882977
0.020489207445923474 -0.04495692105016005 0.007411305268894108
-0.024552257633961072 -0.04579248708118843 0.025512546781470746
-0.021105732159321267 -0.04549914094206776 0.02641211984519526
-0.018365248474450646 -0.04528423430377364 0.026814275182609093
-0.01598570195107829 -0.04510924046585245 0.026965326564310887
-0.013781887945851612 -0.04495342695872978 0.026998428098054472
-0.011918365034314649 -0.04483559524900715 0.026788779998402845
-0.010218680865853424 -0.0447359098111179 0.02646465744975529
-0.00861456269752836 -0.04464670150963154 0.026075596895954678
-0.007204442840569092 -0.04457928114276012 0.025545846902133296
-0.0057985753671993545 -0.0445120640900001 0.025017694432168336
-0.004649332303330478 -0.044474003965911474 0.02429770963601452
-0.0035301345142250695 -0.04443923722266327 0.023557318293376373
-0.0026008066631231785 -0.044426197570985995 0.022672356007459038
-0.0018094999466110595 -0.04442903724079762 0.02168084451462271
-0.001252566104610775 -0.04445900495128978 0.020505612448304067
-0.000923870066156296 -0.04451556268159801 0.019148531531359037
-0.0012854795991826817 -0.04465256813179763 0.017241001884906182
-0.0026943646941432475 -0.044912102300631036 0.014490183744821972
-0.0035555691453642013 -0.045108841288409994 0.012158485533608654
-0.0018461318611244226 -0.04500581905113114 0.011879693873129926
-0.0001489856051198335 -0.044903793742112265 0.01159853400740396
0.0015427187311753965 -0.04480196743458025 0.01132046290946076
0.0032267680231915508 -0.04470060189603791 0.01104365009669045
0.0049032141128045326 -0.04459969400604242 0.010768087047669184
0.0065699174298470275 -0.044499499658475876 0.010491955875031489
0.008189969445145773 -0.04440439586900319 0.010184533306563215
0.009769583931452108 -0.044313678218008835 0.009850437450956095
0.011341682429215239 -0.04422345837335522 0.009516801987915213
0.01290846072497348 -0.0441334777733502 0.009185423344294286
0.014468876181132906 -0.04404386259334799 0.008855390461644352
0.015951220711249714 -0.04396320354832199 0.008465530987947334
0.017437587830547385 -0.043881706052117296 0.008085188692904477
0.018948696021720113 -0.0437968721808422 0.007732308094254348
-0.022048227971767587 -0.04430224553405303 0.025724171847083088
-0.01874001916363044 -0.044031472348662594 0.0265392297785656
-0.01601983861702405 -0.04382415402856354 0.026940137071773895
-0.01371424354782691 -0.04366159893724685 0.0270486145718401
-0.011527361982640205 -0.04351145790000355 0.027080447842729283
-0.009728067269436702 -0.04340352239107269 0.026832615757375222
-0.008037977761734094 -0.04330722864828852 0.026510377400091267
-0.006472069058243157 -0.043224311870743395 0.026101091631823503
-0.005069938343599145 -0.043159259987102364 0.025573093267460878
-0.0036720216546251017 -0.0430944036132727 0.02504668177268715
-0.0025541698305321936 -0.04306055056539487 0.024309293807948107
-0.001440300053108523 -0.04302699991410025 0.023571338194168845
-0.0005390853920618777 -0.04301715667917448 0.022670263277644986
0.00024424804087164187 -0.04302052031781746 0.021677622008387742
0.0007653175698212888 -0.043053436956200224 0.02047827290646831
0.0010988663963446 -0.04310765952117342 0.01912804591520001
0.0006856195303411305 -0.04324658501046049 0.017179540347798172
-0.0006929839080960787 -0.043495532663123414 0.014448354542829445
-0.0017600649433476834 -0.04371016155231734 0.01194890955840866
-6.124311390987014e-05 -0.04361083945984367 0.01166947412406838
0.0016276414935630368 -0.043512222625729714 0.011389489648286566
0.003310014930892946 -0.043413923909919834 0.011111675376329677
0.004985906509752058 -0.04331594202118462 0.010836019063489799
0.006623588241470801 -0.04322192235358296 0.01053628115924532
0.008209560221243695 -0.04313344433747448 0.010200798799774147
0.0097879707728179 -0.04304545255457069 0.009865784425560464
0.011361029327127792 -0.04295769481982295 0.00953303596357652
0.012927686871388622 -0.042870294184398965 0.009201641504705593
0.01445719918547489 -0.04278682210513043 0.008845488204809404
0.01594488876722322 -0.042707848712481254 0.008460133001167991
0.017434440550779196 -0.042628310001549964 0.0080824914517591
0.018989357878973434 -0.042540781242083825 0.007767339643447002
-0.024350490969957228 -0.043243629272285686 0.024043700486026
-0.019564591660960695 -0.04282414083171481 0.025934073392969714
-0.016391010087626667 -0.04257477271242627 0.026666249135454956
-0.013692089190756151 -0.04237506784335082 0.027065051247940952
-0.01146034459596379 -0.04222453574630486 0.027130439311135013
-0.009289049014070794 -0.04207985848743766 0.027161877757936437
-0.0075517725212735365 -0.04198122638477244 0.0268770060551915
-0.005873457741688404 -0.04188853126593672 0.026554925161465126
-0.004342903758851935 -0.04181139536834891 0.026127270654153212
-0.0029498100376659786 -0.041748802875616275 0.025600156124573392
-0.0015820088973426683 -0.041688687632321364 0.02505833855331291
-0.0004728088928974694 -0.04165640805458505 0.024320801671001535
0.000635778661061126 -0.041624058259952 0.023585265812839373
0.001502721808257057 -0.04161793069366384 0.02266301040209162
0.0022891952243835334 -0.04162057373800958 0.021677881004892097
0.0027749910799459987 -0.04165616735497213 0.020454582032085444
0.0031056200129928047 -0.041708948121335854 0.01910506539317547
0.00264050526257259 -0.04184950263157809 0.017114913932960385
0.0012649956316809208 -0.04209103738394476 0.014381686821949458
4.107235082806415e-05 -0.04231686253452975 0.011752196541736148
0.0017136431098570548 -0.04222292827104187 0.011459393298846432
0.0033943345789343438 -0.042127686759080955 0.011180577246627132
0.005050932448652901 -0.04203471210140122 0.010889438038791333
0.0066433002065799385 -0.041948492389057734 0.010552560742680739
0.008228060740636922 -0.04186274720054034 0.010216159093367594
0.009807437218703752 -0.0417772307809516 0.009882032515414696
0.011380374211038824 -0.041692063031724576 0.00954926824928981
0.01294584306455604 -0.04160736189412462 0.009216957109137669
0.014447644729557618 -0.04152946271754421 0.008837385891579064
0.015941722713284145 -0.04145209303762543 0.008457433937936465
0.017442833176339878 -0.04137358636233447 0.008089683991554575
-0.021502625026638578 -0.041726345859006864 0.02451174452493793
-0.017102284199219775 -0.04135814765055288 0.026141398994723453
-0.014060873053269474 -0.04112917286652327 0.026791444531212905
-0.01139334997229724 -0.040938050706300994 0.02718041379952485
-0.009222651386466996 -0.0407978051728442 0.027211675722896067
-0.007066774777728768 -0.040658517264782826 0.027242724183350775
-0.005391609015083343 -0.04056885393796665 0.026920235843540197
-0.0037226956655059817 -0.04047946800599842 0.02660002024211866
-0.0022291776262128304 -0.04040810221818514 0.026152420235965756
-0.0008428053865522922 -0.040347697071529104 0.025627890863645086
0.0004909275794002799 -0.04029258088560414 0.025067356592620882
0.0015959848267924626 -0.04026136879405853 0.024333089421552212
0.002698236997770387 -0.04023032078223968 0.023599102057534405
0.0035358309020550593 -0.04022719546693588 0.022659242107104904
0.0043177281025839065 -0.04022997350321794 0.021675551092088963
0.004768836075487282 -0.040267978475272595 0.02042843875907574
0.005049721940480034 -0.04032430662295415 0.01904211964037994
0.004588151498668702 -0.040460256385713184 0.01705419463985769
0.0031992336157479206 -0.0406961520262301 0.014305581173160387
0.0019613788519703412 -0.04091684468676111 0.01166075733703692
0.0034741818142359215 -0.040842497969806865 0.011245824481146582
0.005071868243586186 -0.04075867520247146 0.010906636847933637
0.006661915166849053 -0.04067531413257354 0.010567934339233365
0.00824764753532542 -0.04059205764612424 0.010232421280962245
0.009826901634107155 -0.04050914129145757 0.009898278910482894
0.011398642530180692 -0.040426679882395344 0.009564597189860136
0.012947978970159868 -0.0403462998847356 0.009218758846155528
0.014443398145692565 -0.04027145813827657 0.0088337847286315
0.015937501223078188 -0.0401964312668886 0.008453835114537955
0.017484790524918747 -0.040115236788540266 0.00812564173769531
-0.018686299074850254 -0.040224317851075345 0.024972552249361957
-0.014658682255896449 -0.03990387124611044 0.026347920207654307
-0.01174706126212427 -0.039694302517167684 0.026916563660821347
-0.009156276230302962 -0.03951618575297043 0.02726145683436243
-0.007000989764246179 -0.03938129617734057 0.02729233012958865
-0.004910952849325856 -0.039252442770976954 0.02728464239286038
-0.0032451579385984752 -0.03916606409534919 0.02696402027058581
-0.0015877881448114195 -0.03908017751421547 0.02664395570727257
-0.00012961355675689124 -0.03901421119719813 0.026177401314340376
0.0012489931316875258 -0.0389560848334388 0.025654589290809438
0.002551380746290688 -0.03890550585365725 0.02507716673512006
0.0036501392008754796 -0.038875578523167996 0.02434444407990305
0.004748293468300802 -0.038845585787906214 0.023613701875675908
0.005558090301780283 -0.03884514014958941 0.02265721150873412
0.0063376194261985375 -0.038847814140806 0.021676674721927913
0.006751373055262633 -0.03888830318166816 0.020403322130184365
0.006977926171197246 -0.03894835520995765 0.018976070035115866
0.0065231238995944185 -0.039079388215631 0.016992958306680295
0.005123284774181447 -0.03930928980580499 0.014230810973398011
0.0038707018228094636 -0.03952483448691628 0.011569841134864645
0.005092801719381812 -0.039482779654846395 0.010923833751898482
0.0066827179435619 -0.03940203255463206 0.010585114794723793
0.008267232282901216 -0.039321500897592634 0.010248681768915302
0.00984528282897712 -0.03924129775760946 0.009913621172117415
0.011417983498871576 -0.03916130789872624 0.00958082619031353
0.012939435199786131 -0.039086380365657834 0.009211551773274318
0.014439151463969346 -0.03901342457012127 0.008830183482698761
0.015933279635777786 -0.038940740615157385 0.008450236208366269
-0.015913945933394347 -0.03873854148531541 0.02541661976764198
-0.012233581587257902 -0.03846118301194871 0.026553644921836927
-0.009451703649572929 -0.03827027732041552 0.02703988740780544
-0.006935226935131489 -0.03810450580104728 0.02734191934744873
-0.0047951880607156605 -0.03797489930563967 0.027372408763408684
-0.002768798047737109 -0.037855899665852295 0.02732712250118241
-0.0011145110259083713 -0.037772988272820385 0.027006656528605677
0.000533645300384189 -0.03769033088911139 0.02668843867944848
0.0019559303040262432 -0.037629628128827954 0.026202215577097898
0.0033268440388323772 -0.03757375153211841 0.025681109699193017
0.004597288321802395 -0.0375276008258991 0.02508606442595701
0.005690894607764896 -0.03749882757206133 0.02435572467330621
0.006783900750868821 -0.03746999129067351 0.023627355227205993
0.007562055700340242 -0.037472455113524185 0.02265092358230214
0.008340312991013232 -0.03747491926041165 0.021674363519282258
0.008720547430512704 -0.037517288919548336 0.020377499617591444
0.00889365810277326 -0.03758064622571015 0.01890954365331743
0.00833129436635266 -0.037718313472214264 0.016838338496568406
0.007008930286676429 -0.037933246773770926 0.014134247125682176
0.005769135227966793 -0.03814076342918752 0.01147944346090668
0.0067046131189780755 -0.03812878081089627 0.01060319743301208
0.008287902851500661 -0.038050966470739356 0.010265843773704653
0.009864743297129719 -0.037973469095315786 0.0099298642725274
0.011433025082745352 -0.03789650588679237 0.009593447578383985
0.012936231184187741 -0.037825856863083734 0.009208849035148181
0.014435966388456123 -0.037755253258953125 0.008827482493789118
-0.013385138081381254 -0.03728746301129319 0.02569464395286042
-0.009826780899813647 -0.037029956200389284 0.026758580914807095
-0.007172303976147265 -0.03685674928198249 0.027163148677226356
-0.00473003052348725 -0.036702901806367975 0.02742180755405188
-0.002603963777152829 -0.03657840106180049 0.02745276635255639
-0.0006423972461627181 -0.036469012168860455 0.02736846581292801
0.0010027060373177243 -0.03638930609972555 0.02704984744240324
0.002639543909714215 -0.03631005173395217 0.026731774348071335
0.0040275939224261315 -0.036254260090091146 0.026226864689586182
0.0053908863703450716 -0.036200604671349806 0.025707453863358376
0.0066298839323368775 -0.03615866131720452 0.025094904222738967
0.007718381720715539 -0.03613102778488812 0.024366931924078128
0.008781756896495685 -0.03610569982915605 0.02362140487679365
0.009556501459442535 -0.036108169287080674 0.02264722967081939
0.010324978895057957 -0.03611125658429238 0.02166779589135054
0.010681812165304727 -0.03615432790139489 0.020355272581919992
0.010799172495546905 -0.036220888041449475 0.01884427394059207
0.010079578312977733 -0.0363693557064599 0.016643429705919255
0.008882819473264247 -0.03656510048386888 0.014037343040793793
0.0076556827976321795 -0.03676467046354662 0.011388660379036297
0.0083096588814493 -0.0367804654264241 0.01028390699670595
0.009885282700601739 -0.03670566632078599 0.009947007929624496
0.011426578838764911 -0.036633924529782556 0.009588038537184818
0.012931959077091382 -0.036565417057593315 0.009205245311516452
0.014431719535476784 -0.0364971653326974 0.008823881102628828
-0.010967874109431508 -0.03585691168509677 0.025902765402733563
-0.007532440427138243 -0.03561867141702583 0.026891583643179562
-0.004910952849069672 -0.035453819276988034 0.02728464239305456
-0.0025394049727531787 -0.03531116435236849 0.027501975881594976
-0.00042938683222187857 -0.03519191063910927 0.02753170854958925
0.0014706177282179378 -0.035091468397326527 0.02741037087159892
0.003104437255610437 -0.03501513407493259 0.027091902272439905
0.004726842455638647 -0.0349395302829483 0.026771450404775687
0.006086590368048317 -0.03488791589602674 0.02625219199184109
0.007441257319858896 -0.03483655298022995 0.02573362353436015
0.008649297080639384 -0.03479860010834297 0.02510368668867541
0.009732729519308148 -0.034772092148401414 0.024378066545177823
0.010764820165226674 -0.034750263336007246 0.023613800559823706
0.011537245956125208 -0.034752632560259664 0.02264271049896166
0.012286605628502423 -0.03475717447559613 0.021652753812867576
0.01262569095948246 -0.03480028295179004 0.020328900787691784
0.012692432040044221 -0.034869220965131474 0.01877852529502838
0.011828657513457075 -0.035026262198494786 0.016457356533428724
0.010325712274609156 -0.0352444291179356 0.013593766131041352
0.009354230851381151 -0.03541317757801766 0.011151176276916752
0.024312052044552723 -0.03406972204544223 0.021988622818216008
0.025449688857034858 -0.034035882638422554 0.02135482553122514
0.02618437934016854 -0.03404033384465363 0.020384286239633564
-0.008569973779101292 -0.034437819878168595 0.026109219682866225
-0.005266546392822535 -0.03421894904397105 0.027015051310132987
-0.002665203307109343 -0.034061160951004504 0.027406086918887684
-0.0003654195529443349 -0.03392939565196315 0.027580730536509224
0.001729830834335866 -0.03381521315214115 0.0276100931690485
0.0035681956286651717 -0.03372337777837495 0.027451150994261875
0.005193013470776775 -0.033650171857944396 0.027134511696464414
0.006778664701077242 -0.033580150505299895 0.02679408808298006
0.008130896639376939 -0.033530708245023196 0.026276512860290258
0.009479152472192554 -0.03348141136486916 0.02576045951676964
0.010655655595098734 -0.033447331107753026 0.025112412379695692
0.011735117241482407 -0.03342184008328264 0.024389970706909347
0.012735361392962663 -0.033403385738333534 0.023606244260201414
0.013505482203641506 -0.03340565594357233 0.02263821986526121
0.014220352083655075 -0.03341294160020024 0.021625069845776113
0.002102143559822578 -0.03458543112932506 0.010124662284142993
0.014575654723326559 -0.033525371862918665 0.01871402177483472
0.013561509193286636 -0.03369063148266594 0.016266124042900287
0.023432784077709767 -0.032861823557559684 0.02284007572517971
0.025135324084909094 -0.03277754579669207 0.022675784622925466
0.026563406405265444 -0.0327180912142818 0.022289345558842433
0.02761241594317332 -0.03269324617146039 0.02158890240143141
0.028300298921999367 -0.032701584095086035 0.020584631816504217
0.028167918922632873 -0.03278574454202186 0.018880274889089832
-0.02115129079066691 -0.03422780547259436 0.01662213284897973
-0.006191205348122453 -0.03303005044404334 0.026314026745790198
-0.00301854515463984 -0.03282968537488114 0.027136754392235507
-0.00043710846453653973 -0.03267886078302213 0.027525790996699606
0.0017932133189875743 -0.03255738491488969 0.027658929030947133
0.0038738513763028615 -0.03244820521312671 0.027687926097497484
0.005652661311932261 -0.03236444829337548 0.02749249263803455
0.007266413692735452 -0.03229452139527917 0.02717599687430855
0.008816946284898153 -0.032229741729656675 0.02681657636750434
0.010161731647840788 -0.03218244411739517 0.02630067346265924
0.011502575810564353 -0.03213528512157572 0.02578628252889853
0.012649085656717907 -0.032104769333376554 0.02512108184456463
0.013723557709515888 -0.03208038028015701 0.024400959430757208
0.014694538490367892 -0.0320648957140684 0.0235995761082593
0.015462365893382124 -0.03206706808574317 0.022634600864924026
0.016140188380623255 -0.032077119131421694 0.02159586224689758
0.016481947449834333 -0.03211665996737275 0.020280046130592755
0.016446835017314587 -0.032189466065323004 0.0186490372750705
0.023722045241749756 -0.0316192633161958 0.023080238517932283
0.025713136240023915 -0.03151260291528108 0.02315806802844461
0.02724623842427376 -0.031445956613277794 0.022862309680917625
0.02853393848854413 -0.031400756255784326 0.022366250089354056
0.029551583892820643 -0.031379331575642024 0.02164573910108658
0.030202612727024458 -0.03139043059434618 0.020614852802313066
0.03011855253070539 -0.031467123735830625 0.01895286563036558
-0.02070484719042448 -0.032874998063098626 0.016958778781837103
-0.008384275862935164 -0.03193861758867725 0.02465136367049342
-0.003831340757486257 -0.031633468416034226 0.026517206226920886
