# .PCD v0.7 - Point Cloud Data file format
VERSION 0.7
FIELDS x y z
SIZE 4 4 4
TYPE F F F
COUNT 1 1 1
WIDTH 758
HEIGHT 1
VIEWPOINT 0 0 0 1 0 0 0
POINTS 758
DATA ascii
-0.009791086567894368 -0.0013849718963296898 0.048365621856116925
-0.009815061487510214 -0.0015376252406389956 0.04675722507786512
-0.009846166415329056 -0.0019652118478577507 0.04494404769982846
-0.009866205118020584 -0.001955995607472838 0.04343667929377126
-0.009888675010387961 -0.0020382289325225345 0.04185674718173299
-0.009915746207707951 -0.002295655007078845 0.04014199926343576
-0.00994047762508512 -0.0024579965356356648 0.038488657075058164
-0.00996649774004093 -0.002666234613564078 0.03679377880771867
-0.009993082968527177 -0.002892115034321019 0.03507772604435222
-0.010018259587597151 -0.0030594383841358597 0.033397075605159976
-0.010042437986759299 -0.0031843267915095397 0.031740395259637455
-0.010068009226486953 -0.0033587831547938762 0.03003877737262256
-0.01009003963953981 -0.0033935276613208387 0.028435068601519398
-0.010111201344674092 -0.0033915329316684395 0.026852446491237025
-0.010132716362361781 -0.0033996115630758883 0.025255445756065753
-0.010154500137568231 -0.0034144605782414628 0.02364644420772677
-0.01017445232393219 -0.0033562535197936283 0.022087151718521325
-0.010193739787985436 -0.0032696504540311033 0.020543656336452887
-0.010212652903131676 -0.0031657920190698574 0.019007551325861904
-0.01023831968030011 -0.003313739946167904 0.017267207851772493
-0.0102627596268517 -0.003411368095477263 0.015558509187308944
-0.010281294841654038 -0.0032832059437482575 0.014021659902721861
-0.0103061533531125 -0.0033891470751232222 0.012291611983984707
-0.010330979686200302 -0.0034898896156465575 0.010557771570993857
-0.010356693039792364 -0.0036197574925955767 0.008792403166233642
-0.010380253011104686 -0.0036652747577266 0.007087313429211262
-0.010408598650604116 -0.0038848988367095605 0.005232346448016623
-0.010427727106119253 -0.003758087302382862 0.003652806659972918
-0.011207004214814102 -0.015290381357325467 0.0521907628449364
-0.011162782121753693 -0.0129214036800126 0.05230289290922813
-0.011119882389881618 -0.010605552630094772 0.05239056142344073
-0.011077498369906008 -0.008314048177482769 0.052473013251256306
-0.011038317190784781 -0.006141516763876531 0.05248465421779769
-0.011000643069992246 -0.004027607044262471 0.052466122624606315
-0.01096444802136331 -0.001971013432793378 0.05241772019558538
-0.01093286579612885 -8.12305437082328e-05 0.052261926176811024
-0.010908481161882946 0.001552340307739819 0.05193371385657464
-0.010902341586227842 0.002545698875044744 0.05115741088391035
-0.010911508297975171 0.003005103863513825 0.05000145210289897
-0.010938735848940971 0.0028380980036172843 0.048393182868238016
-0.010964631877065987 0.0027211645265242668 0.046813623201191645
-0.0109911730583862 0.002585599387056714 0.04521344408998007
-0.011018151766277611 0.0024387125758446038 0.043597715615337096
-0.011043774231707966 0.002342429394631862 0.04201170442341212
-0.01107197846163914 0.0021609966669550174 0.040355798821338884
-0.011103555600525453 0.0018678096824805701 0.03860919068586549
-0.01113282280435164 0.0016582622070051012 0.036916233172312685
-0.011163734140029764 0.0013966914932087016 0.03517614079893561
-0.011193574774958344 0.0011760611250662967 0.033458328347741706
-0.011221333358837082 0.001030569733504516 0.0317891706277173
-0.011246623847867164 0.0009728852104252117 0.030179195347009857
-0.011268895175273299 0.0010211592446127127 0.02864334873129215
-0.011293557356745672 0.0009917381928477575 0.027041396034794607
-0.011321977662450126 0.0008389807905792579 0.02533697409430996
-0.011343730555396407 0.0009148718317427695 0.02380262737830674
-0.011365468645379288 0.0009943676748670471 0.022264967231670096
-0.011388510468622246 0.0010332391865281454 0.020689182426598784
-0.011410354466593352 0.0011154935996309234 0.01914120484732268
-0.011433080179334717 0.0011714199781123757 0.01756607758147022
-0.011458934528099355 0.0011263230908151733 0.015903673385129546
-0.011484671269113284 0.001088830459939072 0.014240013346670966
-0.011512984071936645 0.0009695285253722985 0.012502856701523235
-0.011540183567730613 0.0008911359928440721 0.010790844955997858
-0.011568600901114327 0.000776389193560767 0.009041321255616186
-0.011596850713198874 0.0006712248215278716 0.0072914973712734366
-0.011621287739323171 0.0006955322541662423 0.005640459128031905
-0.011648760431705306 0.0006236769914911289 0.0039025224849987272
-0.011661577143259001 0.0010358184334791631 0.0025606118920272203
-0.012450275437186471 -0.015227954426984214 0.05223295469757011
-0.012400451185898793 -0.012837120952636227 0.052360173139815114
-0.012352700272365173 -0.010518746833333203 0.052449884134820934
-0.012306494154206463 -0.00825562750651826 0.05251315918493249
-0.012262628284278968 -0.006072704979962207 0.0525322026990922
-0.012220270190380262 -0.003943166942424303 0.05252479286522349
-0.012177898225860165 -0.0018186360602573948 0.05252417892909661
-0.012137201304553457 0.000247621053027669 0.052492945929407286
-0.012099388449730433 0.002217875681679138 0.05240383020297612
-0.012064908071542146 0.004078599941255756 0.052246165654846244
-0.012039806839092383 0.005640906303252535 0.05188383193475077
-0.012027974150182532 0.006784941979439796 0.05122731159195393
-0.012041034671894059 0.007150390065865819 0.05001155651581951
-0.012070241273738713 0.007014539045223311 0.04842866036459603
-0.012095503325049906 0.007005068738237696 0.04693079683196144
-0.012124941436607422 0.006869291482197781 0.0453339824291939
-0.01216769063380741 0.006325202415669973 0.04342857147299456
-0.0121875124455339 0.006494941540906574 0.04204213417199887
-0.012209275154217294 0.006607390434780813 0.04060802363009325
-0.012243935027437581 0.006325842370610124 0.038872984393320764
-0.012277584593333888 0.0060797683260141455 0.03715602460059403
-0.012314403809835972 0.00574091007673716 0.03536028596417601
-0.012346453361567856 0.005552609174912737 0.03367005963543107
-0.012375093918779957 0.005472433261836107 0.03205462815095117
-0.01240460720828812 0.005369369290802339 0.030414336626041594
-0.012433766205934095 0.005280863003550518 0.02877786132707283
-0.012463347029113279 0.005183317234747409 0.027126959045554455
-0.012490426018555307 0.0051652593145712355 0.025530786276933115
-0.012512102429545008 0.005313773118639009 0.024058850840576684
-0.012537738692129714 0.005345789984716465 0.02248918972899311
-0.012564491846591424 0.0053475299701205015 0.020888888151811003
-0.012591431991916476 0.005347100549762673 0.019280001164823868
-0.0126158280960062 0.0054262787068693474 0.017728222471348087
-0.01264679507939862 0.005312346398541723 0.016014039896552645
-0.012674604441452025 0.00529649811971078 0.014371601481495466
-0.012702942624381128 0.005268499100815449 0.012712052041626953
-0.012732595078685923 0.005205144410811602 0.011016123366097974
-0.012764698037275302 0.005073044747575695 0.00925572878348796
-0.012797787940102593 0.004915913161517349 0.0074662061101398725
-0.012827358105004216 0.0048667990422422425 0.005758222208511632
-0.012858276056413716 0.004781839666383458 0.004012440346843615
-0.012869032179062564 0.005292643085418103 0.0027611226045416437
-0.013693820278008348 -0.015184834556164262 0.05226209770755891
-0.013639683460773077 -0.012813528296766796 0.05237620723459474
-0.013584974533303446 -0.010431979314338757 0.05250918068733834
-0.013534779991870432 -0.008187308459262355 0.052560107142930135
-0.013486392954234606 -0.006000642534858436 0.0525819973619458
-0.013438726420086044 -0.003840372955717153 0.05259621564228206
-0.013391694161236097 -0.0017038961816269738 0.05260434217611715
-0.01334706537485384 0.00035817547840327757 0.052570610968926734
-0.013303101278604861 0.00239601326010902 0.05252966186749486
-0.013260889285831206 0.004378684254352783 0.052459302906129324
-0.013221017095128473 0.006289749119578858 0.052347208385791655
-0.013187966951295607 0.008002158201518117 0.05210136379246533
-0.013162106964789592 0.009506661147949791 0.05171280154795682
-0.01315443358908126 0.010493101774172953 0.050953944615035884
-0.013158791651678785 0.011138621495930756 0.049947965574451414
-0.013193107974148754 0.010939741763663302 0.048321298413210756
-0.013220362878764056 0.010943612189148466 0.04683650183445587
-0.013251164121111832 0.010851065493495238 0.04527401254035712
-0.013278146064090019 0.010869164201828374 0.043787083668164084
-0.013312830413386694 0.010674986756056992 0.04213482542836261
-0.013341545608090363 0.010651466109856567 0.04060336537543968
-0.013373659030738666 0.010536653127486029 0.038996148830456046
-0.013412025486390937 0.010251797611165236 0.03725198492277776
-0.013445231749924052 0.01011454591108879 0.03561215870466772
-0.013482535297282746 0.009867774750316471 0.03388033319175643
-0.013518411161755704 0.00966479376026047 0.03217385668287659
-0.013550503940056538 0.009570267749747063 0.03054358433281451
-0.013582135287415784 0.009492182554559025 0.028918778467504125
-0.013609982290276204 0.009521648677053351 0.02737132203740944
-0.013643402599585675 0.009401745593028421 0.025699196033154736
-0.01366726388663507 0.00954696139088168 0.024230254909601234
-0.013697998651383459 0.009507540589270613 0.022608063213793106
-0.01372706817915259 0.009517021984953522 0.02101802957232507
-0.013752994050856207 0.009615254246497673 0.01949295569764281
-0.01378233724010648 0.009623932496931609 0.017889016948505976
-0.013814267315245389 0.009566105832708283 0.016223844422268485
-0.01384399246554379 0.00957149029534371 0.01460308715524472
-0.013874526705508924 0.009558570261703758 0.012960203478850907
-0.013906885868603988 0.00950020345305036 0.011272371372461065
-0.013943440474064345 0.009333178895058691 0.009486182144954891
-0.013982424783388344 0.00910545141583935 0.007640381004431929
-0.014018805599804179 0.008951750477053766 0.005847751660584599
-0.014051431223988223 0.008902283786807741 0.004134841637871034
-0.014061462524769617 0.009456886039954093 0.002929106044111729
-0.014939734777630815 -0.0152120672502003 0.0522436923300843
-0.014880034856757051 -0.012823639245729102 0.05236933571356828
-0.01482043311514071 -0.010444213565215188 0.052500819936646514
-0.014764216703615987 -0.008160868847134128 0.05257827614476107
-0.014709580603628383 -0.005925333053945991 0.05263403570124653
-0.01465776474021488 -0.00377007172262972 0.05264506199864083
-0.014605987122673709 -0.0016213687171933167 0.05266200017600292
-0.014558413407910281 0.00041130386067206315 0.052607933963203235
-0.014509180866614247 0.002482386785724433 0.05259067387541294
-0.014462753299721501 0.0044747778880288025 0.052527554218550265
-0.014417692315041666 0.0064264993729520326 0.05244486976676782
-0.014376379428477177 0.008275692145897351 0.05229778166182408
-0.01433455794514781 0.010133689279780256 0.05216552052091533
-0.014290291026313426 0.012050688900177298 0.05208468471894068
-0.01425737648004082 0.013668849430137242 0.051794833196583734
-0.014250013914502297 0.014622898073195889 0.05102437816554206
-0.0142636602408275 0.015034148374386436 0.049854913620572094
-0.014301283630764319 0.01482955937717173 0.048225721096741836
-0.014333108410217777 0.014777978491406552 0.04670285442564942
-0.014360156995550604 0.014852260817409091 0.045267764403537414
-0.014396275545126989 0.014697387748183521 0.04365423866785739
-0.0144294383000878 0.014621849176005453 0.042093314901675394
-0.014468221977737901 0.014406655420677927 0.04041899779975172
-0.01450448560096244 0.014259686722886744 0.0387888298098053
-0.014539197558683506 0.014155969576937655 0.03718436362760108
-0.014574157084515423 0.014049703503337951 0.03557061040478848
-0.014607494191919515 0.013988170497851393 0.03398431569801169
-0.014646996740606844 0.013774779213875932 0.03227206282864109
-0.014680791616626198 0.013709203626457 0.03066779669693498
-0.014710985635222261 0.013737639776577992 0.0291307542096661
-0.014742174555224695 0.013744389238673105 0.02757002748012366
-0.014778743064041549 0.013620014140364956 0.025897755414381607
-0.014801523529901278 0.013843458073854509 0.024497382631327447
-0.014840823547064038 0.013658196717050208 0.022761688600004215
-0.014871089572928186 0.013701503631247502 0.02120333914019701
-0.014903809074115164 0.013687252671346739 0.019591442478031573
-0.01493394996252404 0.013740270262538823 0.018027750063711878
-0.014967203326935045 0.01371971912199188 0.016396784238108808
-0.015000390523794892 0.013704359549414014 0.014762925394819215
-0.015034285646484073 0.013675163728191497 0.013110313105124283
-0.015068810684921347 0.013634157718408146 0.011440416401815423
-0.015104495430844697 0.013568484088250121 0.009742183412550454
-0.015136677861657014 0.013592112123073097 0.008111881545597388
-0.01517606686666521 0.013443687813071592 0.006327856892312689
-0.015208775921300096 0.013461800833605486 0.004677910540743846
-0.01523259269354569 0.013699017150726522 0.003209533919934726
-0.01618526622442593 -0.015225685048580073 0.0522344886972167
-0.01612035811405037 -0.01283150369839442 0.05236399095448435
-0.016056785546157 -0.010476470969654372 0.0524787754652285
-0.015995063621091942 -0.008172986716153352 0.052569948990290605
-0.01593730171643194 -0.005972261799618461 0.052601608377252806
-0.015878668064155898 -0.003756014627516513 0.05265482913955449
-0.01582275601146157 -0.00161172505499535 0.052668737808083954
-0.015768330653236025 0.0004909688319253425 0.05266389902670243
-0.015715191478653814 0.0025571419454804567 0.05264347898243399
-0.0156632299063022 0.0045896084683290095 0.05260911359043763
-0.0156137566127522 0.006556941121295623 0.052538025877503
-0.015568647850102844 0.008414363124010671 0.05239735785245825
-0.015517394904410375 0.010414860185422647 0.05236852804669062
-0.015466731007498393 0.01239617351026917 0.05233549148844946
-0.015417526726069462 0.014337572266457377 0.05228294838902153
-0.015378871160973749 0.016022371081646447 0.052051455760687204
-0.015356293859628816 0.017320451256993885 0.05154197942061234
-0.01534658487924591 0.018310482275048612 0.050808273749790245
-0.01535372031564337 0.0189000774043257 0.04977772433655003
-0.015391832409926559 0.01875727922492898 0.048196512721799034
-0.015433739986902322 0.018528613095377622 0.046543217779213664
-0.015467489697952886 0.01849634995804783 0.045030743664573436
-0.015499483792671217 0.01850871264773185 0.04354576378130526
-0.015539939359522031 0.018325662116312535 0.04190483168572279
-0.015577786358297046 0.01820770217541451 0.04030620122503814
-0.015612298437709244 0.018171420346435263 0.03876348274683605
-0.015649334885221244 0.01807968303554891 0.03717084929577513
-0.015690664225139452 0.017891710059582178 0.03549563042672871
-0.015727289952516852 0.017817047526336394 0.03390152222023479
-0.01576189975775913 0.0177927193140901 0.03234006716104987
-0.015797672754450858 0.017744918055829784 0.030753133159285906
-0.015834094044226966 0.017685696456200328 0.02915001788720617
-0.015866294625017156 0.017727251576954595 0.027620759137617024
-0.015900629293430734 0.017722962637315265 0.02604806583417385
-0.015937259096864168 0.017669454269977458 0.02442855984787229
-0.015975046478714554 0.017593088586310535 0.022783099062895495
-0.016006650571827315 0.017661597000210805 0.021249129544127388
-0.016036795034912583 0.017766475521324543 0.019738891345634058
-0.016067144151857917 0.01786968393638022 0.01822123889579652
-0.01610093953604108 0.01789774167856356 0.016634778544693973
-0.016136527605770234 0.017888576901543884 0.01501029760557332
-0.016171582664324342 0.017894965975381427 0.013391774199333684
-0.016205819293245133 0.017923260007211284 0.011784755427044713
-0.016243266482185426 0.017882767989678583 0.010112175331606965
-0.016281727198879496 0.01782324568137661 0.008415699240345909
-0.016322340292367694 0.017719355309065432 0.006673189122194612
-0.01636386364533544 0.01759915405221385 0.004908287714847137
-0.016388273970964633 0.017864366431766143 0.003470476459887073
-0.01743118089714888 -0.015246113437972164 0.05222068206770886
-0.01736506781411027 -0.01293826509711149 0.05229143393547281
-0.017294514194398446 -0.010535437735681497 0.052438477952730767
-0.01722904357557288 -0.008254525826316639 0.052513916539730365
-0.01716705344345661 -0.006058509158915204 0.05254201219726229
-0.01710297289057376 -0.003820902654776581 0.052609744102907974
-0.017039606289805685 -0.0016052962510386681 0.05267322937506974
-0.016979817848908372 0.000523887268591261 0.05268702444620099
-0.01692185180999897 0.0026066115653298194 0.052678423064756896
-0.01686423370139934 0.004676207230079499 0.052670621097447634
-0.016810424689712212 0.006655230298953596 0.05260821996827647
-0.016759207656301414 0.008571399566573434 0.0525101218176689
-0.0167026899701465 0.010601055022247785 0.05250296215602446
-0.016648047329416236 0.012583798584261674 0.05247169914924099
-0.016595426811640293 0.01451662262267328 0.05241364115341074
-0.016546807533049473 0.016355949672204162 0.052296270183846416
-0.016509337588318868 0.017944261695393315 0.052002289990322303
-0.016454888260511138 0.019903826434010508 0.05199040143485201
-0.016419639923843314 0.02143555388697921 0.051669057035931165
-0.016407880044098707 0.022447868629044188 0.05096444014062651
-0.016434021521127322 0.022627933751987794 0.04963435720504905
-0.01648357840825872 0.02229797884293827 0.04791292504997202
-0.016524859170238198 0.022153308514705705 0.046323832875035775
-0.01656302768790815 0.022080251133658413 0.044782199428404834
-0.016603220492837887 0.02196667817673409 0.04320247148484874
-0.01664220506391341 0.021883014977251203 0.041638655476861464
-0.01668119116966891 0.021802898380968383 0.040070547317941685
-0.01671624787148878 0.02181126997124211 0.038564656070472936
-0.016753975776869448 0.021765262868541302 0.037009586947290896
-0.016790215026108973 0.02175475101323926 0.03547573923077674
-0.016827722380766567 0.021720339813839695 0.03391626187253988
-0.016865816212579984 0.021676807665766296 0.03234262867235538
-0.016901420540279186 0.021689996299082026 0.030807628815840482
-0.016933377574147583 0.02178426186442728 0.029331640233151213
-0.016968750199683306 0.02180875416173994 0.02779305626401324
-0.017001009848426066 0.021902617706241634 0.02630463382503684
-0.017041507292023944 0.02182484186485839 0.024669245348501345
-0.017076999848873856 0.021856634553446108 0.02311684351554444
-0.017109098512228728 0.021963309007711818 0.021620023128419152
-0.017147661163721628 0.02193681583151147 0.0200060785977364
-0.017183839109395787 0.021963970096673224 0.018429958185926743
-0.01722012155470247 0.021992255571894104 0.01684803052131456
-0.017259332974791347 0.021962599432085672 0.015210171664704508
-0.01729182809343226 0.02207673870983251 0.013687537819337237
-0.01733539484238171 0.021963263225419694 0.01196372319660105
-0.017369163649071827 0.022057408941385526 0.010410566775620966
-0.01740910709977794 0.0220266177419568 0.008742823941437439
-0.017446049526113123 0.02206158606837183 0.007124769752774152
-0.01748160010942882 0.022128680239537846 0.005527821316196446
-0.017510576167351834 0.0223344630991113 0.004046134069026708
-0.018761113059046163 -0.017859442987994578 0.05195592781462155
-0.01867759599872201 -0.015274489635639155 0.05220150384347455
-0.018604426365071904 -0.012916908341026323 0.052305948469908936
-0.01853319034461829 -0.010606666424012923 0.05238980070527394
-0.018464734515044882 -0.008361459634436963 0.05244043321155939
-0.018397144032303133 -0.006140424965792646 0.05248540908631494
-0.01832943138927355 -0.003922604288658593 0.05253908045641664
-0.018261146765607344 -0.0016985365996758373 0.05260808695278252
-0.018195288453758625 0.000468665742036356 0.05264823115799194
-0.018130555494443975 0.002606611459499253 0.052678423064642266
-0.018067377226247155 0.004706455217706129 0.0526921050365613
-0.018006517540192186 0.006752434349570791 0.052677639106707586
-0.0179497037387513 0.008708826627844057 0.05260880478302499
-0.01788943758641232 0.010732195307176895 0.05259764647616377
-0.017829477756670487 0.012744037206502579 0.052588025445583164
-0.01777367751770729 0.014664532952140041 0.05252160414545881
-0.01771856078352166 0.016566110008890023 0.05245050757312453
-0.01766973787009715 0.01833306361553788 0.05228918748373668
-0.01760958308911942 0.020329228312478964 0.052306013993343003
-0.017556747634955787 0.0221697994166018 0.05221676581020995
-0.017512320131832303 0.023833389465652444 0.05200357532149463
-0.017480557112499594 0.025233957403132223 0.05159945904471391
-0.01747682791898662 0.026059212969894996 0.050764481399118044
-0.017524964184580227 0.02582702094560374 0.04912409587480665
-0.01756757223642637 0.025711394262784293 0.04756496315150094
-0.01760428570100435 0.025719058294093988 0.04609365965095685
-0.01764082053953323 0.02573348667235964 0.044621408794274564
-0.01767707820772786 0.025756648083580247 0.04314978907643824
-0.017716118827552054 0.025726790796178844 0.04163051909708021
-0.01775485125774608 0.025706481808890846 0.04011214405268576
-0.017788489030232908 0.025791804074606406 0.03867078547881164
-0.017824387276359325 0.025834710965373875 0.037189948615586
-0.017866614466921903 0.02575413812901134 0.03560420884720028
-0.017910461568940893 0.025644861327863366 0.033988161582591436
-0.017946067994812097 0.0257034204110837 0.03250029340404875
-0.017975749743120502 0.02588274197498014 0.031104465862991537
-0.01801374531614184 0.02589978555252942 0.029570922356314366
-0.01804827277476143 0.02598869241716434 0.028089858724734795
-0.01808512847118166 0.02603460060939261 0.026567313137286497
-0.018119930380545827 0.0261241198936083 0.025074589233805233
-0.018158186384186103 0.026148736409547235 0.023521648628533953
-0.01819837276985509 0.02613877538118392 0.021933035401081824
-0.0182435607093073 0.02603438853478718 0.02025775963000581
-0.018269497868873084 0.026309747280141904 0.018896613734296352
-0.01831514252632196 0.026203383289502835 0.01720550473236737
-0.01835844415000073 0.02614647836112588 0.015548767787560203
-0.018396940337865406 0.026186493280898948 0.013967910427365948
-0.01843637623896643 0.026211620635740562 0.012367369808394868
-0.018467547320910993 0.02639972814447139 0.010901756625485648
-0.01851042319280845 0.026364979863090054 0.009235570708306606
-0.018537754472417445 0.026632752569784313 0.007827942512249886
-0.018575480171877715 0.026703479397733765 0.006241170108890082
-0.018605327791807843 0.02692822116708188 0.004784606938081137
-0.01862298612581152 0.027388294212217168 0.0035330446323762477
-0.020009849167172182 -0.01781928111914055 0.05198292120863501
-0.01992435908570035 -0.015306275764815469 0.05218002098764657
-0.019845791949161373 -0.01293826531440656 0.05229143393518515
-0.0197709728486089 -0.010651197489150166 0.05235936847696737
-0.019698713885094143 -0.008421015173683821 0.052399507560395575
-0.019627036289251134 -0.006208168098608968 0.05243859918286986
-0.01955620667534773 -0.004017862811619088 0.05247289357373952
-0.019484691565854646 -0.0018197093590836544 0.0525234295136906
-0.019411918595453347 0.00039749144800255154 0.05259823098123678
-0.019342630360439237 0.0025402979346051957 0.052631581050574805
-0.01927096585856223 0.0047241845044997954 0.05270469747275136
-0.019205527266659906 0.006780345305553659 0.05269757201790909
-0.019139955126665095 0.008833859079617645 0.052698587493336
-0.019076599031789772 0.010838869218581126 0.0526746658956313
-0.019011385796682056 0.012874946927223907 0.05268306024404601
-0.018951034127882887 0.014811326398106728 0.052628751900265947
-0.018892289709302526 0.01671169297826025 0.052557351435076005
-0.018835836749458094 0.018563001435723092 0.052458858961343446
-0.018774676482522346 0.020500667858832033 0.05243320782086669
-0.018716116654011024 0.022383312456156657 0.05237603542800051
-0.018662802486224365 0.024160384301723514 0.052248820221449166
-0.018610336167324267 0.025916903398021163 0.052114442313316356
-0.01856195835209514 0.027590918547030996 0.05192573453725147
-0.018537839095005802 0.028797508373171077 0.051388330281052774
-0.018555701126689885 0.029201658495287552 0.05023976289095822
-0.018589995940533795 0.02929456269810543 0.048848566058483645
-0.018631118786858743 0.029260573728104255 0.047353653430533826
-0.018659315915257185 0.02947479944277187 0.04604554318408216
-0.01869354525317602 0.029577237580538818 0.04464542897965429
-0.01872945587661202 0.029650704865349597 0.04321706601894948
-0.01876288565177958 0.029773764482762533 0.0418222297292693
-0.018800327379135544 0.029824138230952923 0.04036422110423432
-0.018832133569222895 0.02998316790037825 0.03898713788981334
-0.01886796801914575 0.03006939854388202 0.03754640830989986
-0.018909717427891368 0.030048097938672635 0.03601298012401416
-0.018944718463346374 0.030155848001277408 0.03457772227325573
-0.018989438987056472 0.03008576424804421 0.03299149780044858
-0.019025460925246235 0.03018059589846639 0.03153351764789358
-0.019062035606346256 0.0302680930097447 0.030063640467911934
-0.01909577743883934 0.03041083865413402 0.028633691947131445
-0.019033801258306768 0.03231992570340708 0.028672564356402475
-0.019073009613088807 0.03236374561413874 0.027156405045066778
-0.019107312585227465 0.0325007047217753 0.02571240115234491
-0.019144098097612 0.0325949777507214 0.024226576883664086
-0.019186079292301168 0.03259730952238277 0.02265633052498861
-0.019240046501773727 0.03238457650840437 0.02089486142449698
-0.01928053546430273 0.0324212711532923 0.019339379124266365
-0.01941844591583473 0.030693598640498365 0.016249119768388387
-0.019369698558083702 0.032356236854938825 0.016087768205267305
-0.019404323916980527 0.032508938409667065 0.014612966170531483
-0.019515264220120454 0.031288957591343425 0.011924659482885569
-0.019566664754111916 0.031148615351283993 0.010172751564125782
-0.019565405261841272 0.03195729132062014 0.00925603777558226
-0.019608486627814205 0.031972031518455735 0.007629926165791057
-0.01963823255007787 0.03222844200317604 0.00621371431008233
-0.01966989512343076 0.03245308271652908 0.00476380137842608
-0.02125742247642298 -0.017761920931211872 0.05202147381918293
-0.021171019455052308 -0.015332389614567232 0.052162371790773265
-0.021088309273445464 -0.012978737380529515 0.0522639284171047
-0.021008381787905477 -0.010683488842029909 0.052337300805421705
-0.020931181148209195 -0.008445283802013592 0.0523828305758644
-0.020855131378798464 -0.006234397644857725 0.05242047484466261
-0.020778237105612343 -0.004013531973196094 0.052475902775219685
-0.02070340809614228 -0.0018368728248236987 0.05251143830935118
-0.020630548600500842 0.000297590363506961 0.05252805010921924
-0.020556606990053766 0.00244657755709643 0.052565379573692284
-0.02048082131199174 0.004624043668348288 0.05263357175358824
-0.02040777896580152 0.006745197262327252 0.0526724708318797
-0.020333752661387913 0.008878932191082212 0.0527309534275745
-0.020265623546522053 0.010898782930155948 0.0527179241088096
-0.020196851002585975 0.012925272111709851 0.05271959419899652
-0.02012952556735887 0.014920097694733736 0.05270814647412786
-0.020064381783902154 0.016870019229012767 0.05267354763011822
-0.02000299766810574 0.018746546803754427 0.05259429739109922
-0.0199413455169938 0.020623303444491203 0.05252419320649082
-0.01987975298617528 0.022494316560680627 0.052458838750679304
-0.019821342859941343 0.024303077850098553 0.05235583989029502
-0.01976259136494801 0.02611358709179279 0.052262753965313435
-0.019706853391185653 0.02786534363416937 0.05213378828783616
-0.019654340982114906 0.029554875875342557 0.05196562871044946
-0.01961852059517417 0.030940875163104786 0.05157262943441443
-0.019552724553373833 0.03286098754323985 0.051596476714632855
-0.01958184966931345 0.03307980860434906 0.05031220926180946
-0.01963594747296353 0.032855494865199064 0.048678481365346415
-0.01967271747496837 0.032943623182756065 0.04728131770164684
-0.01971245013002502 0.03298192325383936 0.04583942612490216
-0.019754865291669338 0.03297569520916038 0.04435633484363305
-0.01980041886381861 0.03291718216473388 0.04282526718406826
-0.019843372884605286 0.03290798025435532 0.0413267839299139
-0.019886939640048493 0.03289123874855343 0.03981575385047276
-0.01993117946452694 0.03286596717964857 0.03829123712243776
-0.019980184028355205 0.032760512929761454 0.03669484018206559
-0.02002586596813695 0.03271688609247092 0.035141520902035595
-0.020071540315750435 0.03267684634369078 0.03358419350391456
-0.020120911330320457 0.03257587554884761 0.03196957593736377
-0.020166308941096073 0.03254769303954291 0.030407842491567028
-0.020210042003671966 0.032551809242160556 0.028866111017309737
-0.02025722427119083 0.032499548908104414 0.027270357611706597
-0.02030301778351421 0.032474834579925116 0.025690578560623012
-0.02034522851860655 0.03251530732945496 0.024159015344498935
-0.020386104283542258 0.03258192053048198 0.022643211490129933
-0.0204310779012696 0.03258133694249332 0.021063486576507306
-0.02048240520675815 0.03247541376997981 0.019386024880929775
-0.020524515162290008 0.032530774476023205 0.01784026043378656
-0.020562243664115465 0.032663974956886443 0.01635569929667574
-0.020614118532903073 0.032559524335152135 0.014657240735433952
-0.020666888344170506 0.032443815410732935 0.012940750039696691
-0.020722761644518792 0.03227956892911049 0.01117304412445752
-0.020773068351987178 0.03221355463656639 0.009483885888934562
-0.020828174598928086 0.0320704729606372 0.007717911870231631
-0.020885159483018365 0.031899974754162286 0.005918594225683749
-0.020926997620501986 0.03198786137172355 0.004343618977015795
-0.020992650675779215 0.03168033466924758 0.0024029964389536973
-0.022505669210426515 -0.017722925414656143 0.05204768329243725
-0.022415287462948238 -0.015313087933130243 0.052175417072127805
-0.02232695977706087 -0.012946134431137457 0.0522860860800366
-0.0222432252958244 -0.010666785921028377 0.05234871557001802
-0.022160553644553795 -0.008412191218872822 0.052405571405392315
-0.022082027849941198 -0.006236583698467801 0.052418964372740295
-0.02199944013905 -0.003995126643246361 0.05248869113067445
-0.021922538885046493 -0.001859402163724544 0.05249569823042605
-0.021845930652580677 0.00026569598406145367 0.05250564424342302
-0.021770518875562767 0.0023644026123808004 0.05250733347974379
-0.02169071920088069 0.0045342891266029195 0.05256982297941559
-0.021613284208685968 0.0066572985748397095 0.05260969734419152
-0.021534336146274334 0.008801071527486826 0.05267504373321985
-0.021460295348119402 0.01085410316478036 0.052685665066707854
-0.021383331065693616 0.01295244197390838 0.05273931840422419
-0.021314655010437552 0.014902139771577338 0.0526950386770863
-0.02123930356575164 0.01696198343920441 0.05274104052073364
-0.021173429078785524 0.01885344783824844 0.05267317987239478
-0.021107112186263304 0.02074780069997939 0.05261655979479224
-0.021042898423677882 0.022601394858621393 0.05253871362727658
-0.020981648835439033 0.024399738460253895 0.052428335038956775
-0.020918862741669045 0.026219914977333836 0.052342931792824066
-0.020860379141649944 0.027962375334090905 0.05220735234468987
-0.020800956162266973 0.029716614173026457 0.052088912731474424
-0.02072722009763322 0.03170920693141954 0.05216144841349285
-0.020707899854385325 0.03277616195185368 0.05153111914406927
-0.020784189570820257 0.03222803575392108 0.049652386745155874
-0.020827122581455148 0.03224716029683178 0.048204701034004815
-0.020870510255231324 0.032261709840781305 0.04674737786879407
-0.020915247111367136 0.03225673126369344 0.045268549647430434
-0.020959394118779617 0.03226481902475831 0.04379372596390896
-0.021008440950178005 0.03219423563629825 0.04225003952884354
-0.02105450446710618 0.032176868275569204 0.04074194540367976
-0.021103771441112258 0.03210952376542009 0.03918709276944354
-0.02114502268642715 0.032178697153034896 0.037735577039355206
-0.02119659982197427 0.032079855438640004 0.03614158979149196
-0.021247281050177282 0.03199949857016643 0.034555307281287306
-0.021294399066372715 0.03198150147713846 0.03301296610134907
-0.02134300073632491 0.031942464329138665 0.0314464587727763
-0.021392057520052618 0.03189942824569342 0.029869612510005084
-0.02144028815997915 0.031873426440208075 0.028299884333866987
-0.021488325770239305 0.03185402386232522 0.026728697941252988
-0.021535222723728938 0.03185665240327601 0.025169112946408334
-0.021581140320938087 0.031878565361138256 0.02361904936783371
-0.02162903855402303 0.03187160183010618 0.022037664489183595
-0.02167535752286324 0.031893642468482475 0.020474127714574797
-0.02172481554627724 0.031868252350448434 0.018862935205259
-0.021768894458090264 0.03193314910789313 0.017322669365814947
-0.021821807839275974 0.03185902681451169 0.015654874373207617
-0.02187230220120547 0.03182752491986168 0.014016570772779402
-0.021920647631856464 0.03183405721535143 0.012404260293098046
-0.021971600982566036 0.03180235426395206 0.01075096302693962
-0.02202310011931478 0.03176558544043484 0.009085589047847509
-0.022080047317874482 0.03164579548404334 0.007338341071513987
-0.022134922124982512 0.03156297832355448 0.005615810870253923
-0.02218093291711142 0.031624507269250424 0.004015441882286308
-0.023753605094100443 -0.01768279089360275 0.05207465830558705
-0.02366105335951524 -0.015321035611848555 0.052170045638540274
-0.02356855088894969 -0.0129663702887306 0.05227233347710464
-0.0234796905803389 -0.01067903477887272 0.05234034483705924
-0.02339545324308972 -0.008475072224160718 0.05236236054099552
-0.02330972350581489 -0.006251886116384275 0.0524083905951746
-0.023223580205759795 -0.004027608114565651 0.05246612262339728
-0.02314445775228407 -0.0019259325386006276 0.05244921676780301
-0.02306330927958918 0.00020401854062029878 0.052462315645607493
-0.022983173273611428 0.002311707660139495 0.052470111258840935
-0.022903339459464166 0.004408979092770271 0.052480820645394555
-0.022818223754176248 0.006587984756874332 0.05256019639227322
-0.022738034945712263 0.008680118421963312 0.05258819044837282
-0.022656552543426873 0.010788079380110949 0.05263799548660847
-0.022575590651405367 0.012881992979407397 0.05268817559551975
-0.022499229291098394 0.014895155598228627 0.05268994085498824
-0.02242223200731106 0.01691353477875779 0.052705483976495215
-0.022345579478910603 0.018921086673308274 0.05272309072819731
-0.022274349084250744 0.02083528659788536 0.05268146706276977
-0.022206600564791346 0.022688168398507846 0.052603442218108476
-0.022143278667461987 0.02446478752029152 0.052477121651036684
-0.022078320213313088 0.026263566947799966 0.05237584813401208
-0.0220168361694044 0.028001926382214215 0.0522373378027271
-0.021953313033550283 0.02976893699194666 0.052128795529935046
-0.02188680796578367 0.03157953129675889 0.052062070242971215
-0.021916798244342214 0.03183943459846589 0.050809375987576344
-0.021971848976252706 0.031700659278383614 0.04924385664517539
-0.022015376768611972 0.03174946670996315 0.04781708961768538
-0.02206030840292803 0.03177886736473551 0.04636931103957126
-0.02210630681255224 0.03179435908993 0.044904566894923115
-0.02215267479405323 0.03180710384465224 0.04343147637696643
-0.02220137503553425 0.031786088445187544 0.04192528864229683
-0.022248799019859357 0.03178851603863009 0.04043129077301921
-0.022299660338219746 0.031740004690206325 0.0388899227878205
-0.02234973175244384 0.031707351220426616 0.03735449232468724
-0.022400814325776515 0.031662225478903794 0.035802132841105005
-0.022451402266054573 0.03162829775263998 0.03425198036357391
-0.02250142628610896 0.03160659993260134 0.032704983662054155
-0.022551734986102565 0.031583850475202235 0.031150289344480997
-0.02260189991731376 0.0315667405844402 0.02959339444579312
-0.02265346302346317 0.03153133084921139 0.028014346991220018
-0.02270346112014396 0.03152363973615818 0.026451472866302284
-0.022754304093741923 0.03150627963585173 0.02487355714824213
-0.02280374649142764 0.03151394887589404 0.023309849594528198
-0.02285409630832524 0.031511006751379134 0.021730257072042625
-0.02290504815025504 0.03150223220024673 0.020138686480007884
-0.02295502158471087 0.03151188753005524 0.018555915145332336
-0.023006042384190458 0.03150892126344268 0.016955254361747385
-0.023058827616690748 0.031482507737051635 0.015327059573642887
-0.023111147842344443 0.03146673922961335 0.013700799318300538
-0.023165322027528062 0.0314263719624685 0.01204556246729327
-0.02321786743787083 0.03141433618415923 0.010407773472186133
-0.02327117364408028 0.03139436007328311 0.008755526434265526
-0.02332931367047528 0.031305115074203915 0.007033845697336338
-0.023383067574462846 0.0312857816592621 0.005366756213652513
-0.023440643473025154 0.031212722747762822 0.0036435229975785854
-0.025001147977757817 -0.017640371705297697 0.05210316887364275
-0.024907578916862707 -0.01534033828181841 0.05215699983624705
-0.024807944499746593 -0.01294950712974069 0.05228379407682382
-0.024718470137933782 -0.010726923676816824 0.05230761788303839
-0.024627070550467967 -0.008479485785241991 0.05235932767815615
-0.024540409953948798 -0.006313107498630621 0.05236608717068264
-0.024447173383196418 -0.004048182572480075 0.052451827275926566
-0.02436516850163022 -0.001966720631245311 0.05242072018573862
-0.02427979843901758 0.00016253456426712498 0.0524331730462953
-0.024195761467761055 0.002265324019756987 0.05243734717873921
-0.02410844578220539 0.004414201890791614 0.0524845302524371
-0.02402578694698506 0.006484483846578237 0.05248628045033038
-0.023938642217157097 0.008619612491864492 0.05254474274841553
-0.023852192482720032 0.010738292090331114 0.0526020487745778
-0.023767593120488584 0.012822593690441864 0.05264505438904521
-0.023686352273218938 0.014849253586038336 0.052656436069087265
-0.023602604410202874 0.01690957912498392 0.05270258098582037
-0.023524005441632953 0.018884819539692066 0.052696329241390394
-0.023442342969775695 0.020902330485540077 0.05273120807518805
-0.023372180280747855 0.02273732148248403 0.052640107919779244
-0.023304176412678394 0.024534593347544542 0.05252947581953227
-0.02323644354667462 0.02632333387735092 0.05242091614327443
-0.02317174514529564 0.028061236486457697 0.052282303466288316
-0.023104778802510786 0.029829649421231563 0.052175073253189375
-0.023043666289620283 0.031504460911428334 0.05200453936328436
-0.02310105296239516 0.0313715135534976 0.05044884549367806
-0.02315056591001601 0.03136185812374126 0.048981405699499936
-0.023195918958581644 0.03141844118206388 0.04755928187438796
-0.02324138823736306 0.03147618139657654 0.0461323072225403
-0.023289953264590803 0.03149011788295014 0.04466506602203224
-0.023339906099954906 0.031486273452980995 0.04317756156093455
-0.023389197177314955 0.03149558580345713 0.041694144136383726
-0.02344014298739035 0.03148324995874763 0.04018709927514774
-0.02349301646227344 0.03144534098540319 0.038652952067262325
-0.02354714421349537 0.03139210048844138 0.03709961111348392
-0.023600438320011102 0.031354761324856095 0.035552220610522656
-0.023653141851543845 0.03132962896821828 0.03400792304650352
-0.023706981710816775 0.03129102505914033 0.03244573822649449
-0.02376016270934526 0.03126563601174981 0.03088748468380287
-0.02381345304865217 0.031242050156991885 0.02932381618654384
-0.02386717853643992 0.031215475562758332 0.02775071168228299
-0.023919902846437684 0.0312070797760306 0.026185847642636206
-0.023972268716463824 0.03120733348775412 0.024621382119158763
-0.02402572310098973 0.031195013235331304 0.02303938781447018
-0.024080876288293054 0.031161306650411447 0.021432137629728287
-0.024134550034116922 0.031152714787003655 0.01983914771400852
-0.024187794034062366 0.031153824684141906 0.018247432180103162
-0.02424255128234877 0.031136391887572723 0.01663261434855884
-0.02429667874395838 0.03113160008436877 0.01502154326309968
-0.02435247358839278 0.031106192254582943 0.013385236795452504
-0.024407911669034926 0.031089514964591225 0.011749182195562313
-0.0244625069680573 0.031088525997638228 0.010119604820456873
-0.02451996133723096 0.031050005721096507 0.00844935529158286
-0.02457844666367126 0.03100041276366633 0.00676150705422135
-0.024638184190729863 0.03093668490366447 0.005053100998120952
-0.02470261151703377 0.03080992918279718 0.0032797246402712643
-0.0263691263714215 -0.02024729019538829 0.05185540913798964
-0.02625330864358436 -0.01767247207851902 0.05208159386389166
-0.026149231122973404 -0.015283571492726133 0.05219536623351484
-0.026049968817129412 -0.012974240522661717 0.05226698486270026
-0.025954981057621136 -0.010735834612793427 0.05230152826882212
-0.025859590201650507 -0.008497140700990058 0.052347195543489766
-0.025768081781883445 -0.006322948535745498 0.052359287164760404
-0.02567183039736597 -0.004082839162492691 0.05242774746571932
-0.025586994198071606 -0.002020402311215197 0.052383215481351164
-0.025496480423815582 0.00012210562803544045 0.05240477161727447
-0.025409982152240808 0.0021988914457284348 0.05239042107170028
-0.02532001546289835 0.004322257626570181 0.05241922621124284
-0.0252338755633998 0.006382997718301642 0.05241380338139495
-0.025139499902427115 0.008561139027647657 0.052502754510726
-0.02504979356697697 0.010664094534704627 0.05254847767212717
-0.024957398262992626 0.012801446902883262 0.05262970282300916
-0.024873029600679764 0.014814320448086837 0.05263093769935456
-0.024782935378345552 0.016906612302715174 0.052700403701609944
-0.024701469098475322 0.01886619301858994 0.05268258478435034
-0.02461591286088134 0.020880956733648703 0.0527153506216157
-0.024537835781357067 0.02278068070370537 0.05267245170336332
-0.024465078862093214 0.02459768206384566 0.05257679218157074
-0.024395216671428452 0.026367908837555187 0.05245452847532589
-0.02432871942861449 0.028084766689102536 0.05230014281990414
-0.0242604024940666 0.02982404596082483 0.052170802129669236
-0.02420408337883747 0.03138483819944232 0.05191286535287437
-0.02428043332384815 0.031018822113738187 0.05017709877209048
-0.024329429323907508 0.031053204674754364 0.048742308559325764
-0.024377133736961105 0.031109232295195632 0.04731846527009714
-0.024425350704197667 0.031160796628572796 0.04588536021250256
-0.024475390931588913 0.031189103349159253 0.04442810521053969
-0.024527406816327556 0.03119213383730418 0.04294477063419361
-0.024579841807202577 0.03119234963890205 0.04145286793314984
-0.024634816267788573 0.03115950372970544 0.03992812494659126
-0.024690369392904483 0.03112177579345926 0.038392738550040106
-0.02474617363621964 0.03108387731476181 0.03685041170733877
-0.024801359145655143 0.03105817572061015 0.03531115065819074
-0.024856858680304492 0.031031405642825416 0.03376422973672666
-0.024914230708832998 0.03098157456326317 0.032191523982060655
-0.024970644869714603 0.030948761149709847 0.030625786363970675
-0.02502656416886304 0.0309263634577413 0.029061713386986654
-0.025082665911451498 0.030904827835081583 0.02749142297423479
-0.02513777999237815 0.03090056150107029 0.02592864839235237
-0.02519286011229423 0.030900143813181624 0.024362253288448266
-0.02525103105679052 0.030859991927234043 0.022755285164280548
-0.025307027945231837 0.03085365500661924 0.021169864520877157
-0.025364115126176513 0.030835607114926222 0.019567384321980297
-0.025422869218636023 0.030797959520428186 0.017940842591401107
-0.025480480816372268 0.030779702615305937 0.016323693126664374
-0.025536861438048536 0.030781951948245956 0.01471712354600635
-0.025593492119683495 0.03078421125756503 0.013103428489988356
-0.025651880508806853 0.03076580017898589 0.011464364972129826
-0.02571132844833199 0.030736445984579197 0.009808201342959011
-0.02577315191728214 0.030678255236196383 0.008118825787386486
-0.025833382139493447 0.03064558168271242 0.00644436400497389
-0.025896379392306386 0.030578936649189592 0.00473167261234364
-0.025965414932940946 0.03043415329524929 0.0029403283346262077
-0.027614561242698777 -0.020097836289772686 0.05195530161461137
-0.027502128486270122 -0.017652982128951722 0.052094693388887614
-0.02739677509954876 -0.015317629799263766 0.05217234770707052
-0.02728959129323863 -0.012961873603096696 0.05227538973193624
-0.02719039416098693 -0.010728037724885842 0.05230685669596674
-0.02709138107141743 -0.008502658262925455 0.05234340402686888
-0.02699361710831848 -0.00630108058643819 0.05237439782163389
-0.026896781994627254 -0.0041185852681221435 0.052402910644805456
-0.02680714193264285 -0.0020451009690485855 0.052365959804853646
-0.026713716358184276 7.74110905214509e-05 0.05237337358481292
-0.0266229305143007 0.0021566999618178873 0.052360618218105615
-0.026530416173862755 0.004255360988007384 0.0523717124375474
-0.026437233670513368 0.006358135553373001 0.05239604793912328
-0.02634044400895561 0.008506752567779607 0.052463701047309685
-0.02624550703345087 0.010623425748354232 0.052519114586294546
-0.026152603851199344 0.012705753037812628 0.05256023334417281
-0.026059508227660497 0.014785370808033937 0.052609806812857374
-0.025965319401162423 0.016874964205567167 0.052677177142144316
-0.02588009839670909 0.018832856674109555 0.052657985930490814
-0.025793773654985228 0.02080126897777851 0.052656229072520044
-0.025708229158069362 0.02275370269343191 0.05265232759732302
-0.025626324290781568 0.024650239017075026 0.052616209763279576
-0.025552137817876276 0.026434276477409202 0.052504573825178424
-0.025484661915846786 0.028120526675736557 0.052327254108194554
-0.025414718829181077 0.02983712008816275 0.05218076787343401
-0.025362680267163512 0.03130133223592879 0.05184886978173214
-0.025460023619202608 0.030695288400438003 0.04992781791727019
-0.025510093124616537 0.03074774868360508 0.04850568831782298
-0.025559952136956058 0.03080603539222443 0.047082330892372015
-0.02561068878968107 0.030855167366829528 0.045646051789255127
-0.025663614203218586 0.030877230884183038 0.04418259695457494
-0.025718616666985744 0.030873947378237676 0.04269294830685316
-0.025773648071515318 0.03087348253596789 0.041199154642477864
-0.025830858997705007 0.030846518019361446 0.03967775828288095
-0.025889719061183536 0.030800460598231605 0.038134334497521405
-0.02594793734035691 0.03076655522393329 0.03659385579572849
-0.026006840226117843 0.03072677798043938 0.03504178478487535
-0.026063890739607177 0.030715481375424958 0.033506072090232264
-0.02612396083187784 0.030666790926789977 0.03193292854990082
-0.02618288195235795 0.030637074274412923 0.03036837266267478
-0.026240063581458292 0.03063416103627009 0.02881910870706178
-0.026299941943098443 0.030598452492822004 0.02723570030455058
-0.026358576207560717 0.03058287774982743 0.025662080196412196
-0.026418561619032402 0.030552702644631002 0.024069170432131914
-0.02647911244977767 0.030518505639655413 0.022465700121544308
-0.026538769057626276 0.0304997251899925 0.02086813924394243
-0.02659957836471711 0.030469152798282384 0.019253330512219613
-0.026660371193033053 0.030442351746784113 0.0176344747529929
-0.02672040258442931 0.030429150810807493 0.016020087440780817
-0.026779063497089996 0.03043750216637381 0.014417229756299166
-0.0268390316680536 0.030432107634569217 0.012795255867963429
-0.026901226378440293 0.030401031850622207 0.011143427187095933
-0.026963710008869005 0.030369811706978278 0.009483925081630484
-0.027026940531642202 0.030332496182694568 0.007811405701553975
-0.027092377223873854 0.030270150430177445 0.0061088088055842316
-0.0271585919584917 0.030201520830481055 0.004392573377930364
-0.027233230348901096 0.030027573708272248 0.002573110486791874
-0.0288696027722849 -0.02009552015537247 0.05195684975209253
-0.028754117553535772 -0.017679351594892145 0.05207697019733626
-0.028641756574627593 -0.015313088478952297 0.05217541707112283
-0.028529865314311894 -0.01295962524424299 0.052276917833399494
-0.028429457618377122 -0.010771482173643876 0.05227716705581509
-0.028322488212118888 -0.008498244395239107 0.05234643724835286
-0.028220758234418553 -0.006303267389135281 0.052372886832113
-0.028120149878485427 -0.004129418799442841 0.052395383429677644
-0.028024476026738094 -0.0020289929657794636 0.05237721375768578
-0.027927898575451533 7.84752584858106e-05 0.05237412124201046
-0.027833217892716287 0.002154590041472615 0.05235912790190883
