# .PCD v0.7 - Point Cloud Data file format
VERSION 0.7
FIELDS x y z
SIZE 4 4 4
TYPE F F F
COUNT 1 1 1
WIDTH 771
HEIGHT 1
VIEWPOINT 0 0 0 1 0 0 0
POINTS 771
DATA ascii
0.04806114091574476 0.05771793697910019 0.03326510821937623
0.04545415842189998 0.05748393921610464 0.03340915259608496
0.04302532706917428 0.057272949608462 0.03344585750890067
0.041695298552300086 0.057209118205841694 0.032747599393758764
0.05465707683336085 0.05907400856372865 0.022285970291708423
0.05454036169772636 0.0591776534533144 0.020706938829406996
0.054541976856522345 0.0592977541352762 0.01904030800982376
0.05434855668350619 0.05939185798507444 0.0175024164708113
0.054108846394826327 0.05948004600013561 0.015991547064104106
0.05412068409459919 0.05960289118158248 0.014298969732729205
0.05417148746100192 0.05973156182908694 0.012571896820951112
0.053834160182645696 0.05980762228383666 0.011113179908220694
0.052103467442942364 0.05969284544494411 0.01064521243740757
0.04959603086100961 0.059470820085898275 0.010741558703333265
0.047188584965385194 0.05926165409637811 0.010778414329951136
0.04490024139787485 0.05906806514507764 0.010740799182069993
0.0033182329762778684 0.05343857917831854 0.03939559870292603
0.0009390679474768904 0.053219534346906024 0.03960340464859147
-0.0012677377773490095 0.0530235196479234 0.03969666336115463
-0.003522375724729021 0.05282003185176664 0.039836741401777453
-0.00558323716204312 0.05264272222273507 0.039844060674629755
-0.00759990421456036 0.05247084851624591 0.0398285276283592
-0.009638786334145388 0.05229514373448738 0.039839744728294935
-0.011578529032968743 0.05213261602792175 0.0397860428135427
-0.014009507673074462 0.05190031433214262 0.040116276982350485
-0.014661193414191365 0.051917812184509145 0.03909653099960325
-0.014636104249440729 0.052030971827258535 0.037554307088557004
-0.014612950549575343 0.05214433637342339 0.036006929862551385
-0.012618712266232956 0.052537758827538465 0.032917762282241636
-0.010571064400248076 0.052940444838989124 0.029763547395280976
-0.010995529893103706 0.05299270975774945 0.028531573980122626
-0.011433424362765288 0.053043280779416786 0.027307129803545993
-0.010873020275321499 0.05323687720096955 0.02528536322774294
-0.011564627672939143 0.05325181617405861 0.02425359091485285
-0.011864102584569713 0.053323155792975196 0.022905571144028247
-0.011933409395663785 0.05342794120998922 0.02136719340060339
-0.012472847875479642 0.05346534489974345 0.020204667197731174
-0.012272902985624834 0.053609824072795256 0.018435706780423056
-0.012668474488534032 0.053668631834601466 0.0171472683287483
-0.0127122636342612 0.05377878301734963 0.015564754907008982
-0.01245861259814357 0.05393270364783263 0.013728629052324692
-0.013617960064178314 0.05388119594898853 0.013062567778399536
-0.01536922096369403 0.0537429381688593 0.012896308244641275
-0.015628195338361683 0.05382269265180966 0.011479647640922797
-0.015615973160340524 0.05394261431611469 0.009828144861436072
-0.015061557488434851 0.05414284352266849 0.007707092458685116
-0.0152657463714162 0.05423208607764754 0.006223905115880779
0.06395861885310444 0.05776103797305441 0.03250569144984716
0.061305378075454386 0.05753195525891799 0.032602099856064104
0.05867447923111663 0.05730486142309154 0.03269684501310638
0.056065634240166196 0.057079730887043933 0.03278994742358554
0.053497495147799834 0.05685900491990132 0.03286891170307937
0.050919674473246634 0.056636133569514704 0.032966853338164515
0.048396468115650404 0.05641951235967389 0.03304098128164901
0.045916137786874756 0.05620764072081045 0.0330986501279944
0.04381647084679219 0.05604489954143419 0.03291115606750916
0.043159184891960245 0.056071272261602384 0.03175271399696272
0.054562137575945746 0.05768767836642972 0.022350851306621733
0.05452657936427108 0.057799608326669846 0.020716409855982554
0.05457236270495297 0.0579227586583942 0.0190193116211681
0.05456574198887648 0.05803945834805093 0.017351513048713907
0.05453413345920932 0.058153311781700294 0.015694419622432343
0.05460106125594155 0.05828075195979072 0.013961502624635469
0.0546264920594321 0.05840317501677227 0.012250493763173498
0.05417793360982576 0.058462716975466504 0.01086901216036218
0.05241614442986586 0.05834653687066306 0.010421911582935428
0.05001411781472964 0.058143914414741774 0.010441341001759807
0.04748462389854574 0.05792330717777034 0.010564672016204701
0.04628239645887694 0.057880737439083736 0.009737414967631697
0.0034193595016810963 0.05220948403762505 0.03932178427342037
0.0013604580697963997 0.05203891986011252 0.039294145093883626
-0.0009215674236688343 0.05183737746234657 0.039441223783241164
-0.002640085991527652 0.05171160318104944 0.03918215636798866
-0.0032324363027486647 0.05173872222301931 0.03809048607684862
-0.0038927879563669388 0.05175667141317849 0.03704820471338516
-0.009323602460852065 0.05112209485968289 0.039602076702616396
-0.011196770404389267 0.050972563885841995 0.03949661483066308
-0.013504207661958645 0.05076274615321574 0.03973111533319307
-0.014499267425764795 0.05073271274494513 0.03897243734146566
-0.014504445842866642 0.05083911224886918 0.03745286499778727
-0.014520899825423206 0.050944403174743726 0.03593562310688758
-0.013384669182829045 0.05120983429726703 0.033514301531759105
-0.010751496342633282 0.0516842214268901 0.029904826098490878
-0.011535171642132469 0.051685240442583005 0.028956384075896624
-0.012316789550025575 0.05168655066423435 0.028006251913472946
-0.012765757227700902 0.05173434627846859 0.026791359789414826
-0.012539144362692656 0.05187694500688028 0.025033136459133187
-0.013052787146486 0.05191627921732863 0.023861520522240054
-0.01308959424602657 0.052022839129972645 0.022301972970220074
-0.013165428554281322 0.052124358564753 0.020767609149774713
-0.013552814828842907 0.052182314578254396 0.019481587804146328
-0.013406525892355081 0.05231605901626433 0.01775357944671735
-0.013819843998034875 0.05237100442760116 0.016479475831262747
-0.013492907084885153 0.05253142184301335 0.01458736532025351
-0.01343352492783817 0.05265442091497674 0.012908625005018715
-0.015320835711396419 0.05250001079213801 0.012855708195387061
-0.015517646043665179 0.05258682080152061 0.011386394101912223
-0.01581945879040869 0.05265895392247298 0.010000703542638378
-0.015301058102307474 0.05284928633732522 0.007911266902097813
-0.015453551120164943 0.05294382376946919 0.006384855121261412
0.06703131613819835 0.05666132991839408 0.03215256896992691
0.06431345408632144 0.056430536948098214 0.03227635793715328
0.06165670699239029 0.05620655409431622 0.03237375283886751
0.059044453660823004 0.055987316864609823 0.032455026366383866
0.05641008894066207 0.0557644013229789 0.03256354407636303
0.053839964649850414 0.055548765448762735 0.03264255083624146
0.05127085907885359 0.0553323979152619 0.03273343243262444
0.048692466054460315 0.05511397861262399 0.03284314134615407
0.04695264141636363 0.05500195206351246 0.032402002269797
0.05518587077342574 0.05616778194292218 0.02522704769111278
0.05536783945627194 0.05630425001586577 0.023455476833467548
0.0556197981834165 0.05645027601811843 0.021628051323612896
0.06209615298251653 0.05739954981071095 0.015514704851770866
0.05598441955964939 0.05672610383652905 0.018043591144158322
0.057286959916153846 0.057009901554409256 0.015460772343219187
0.05633164970347382 0.05700191948559196 0.014438582218121332
0.0563579692602007 0.05712152143386643 0.012727266880106336
0.05655014717847878 0.05726321833529593 0.010891675325943928
0.055128554521176765 0.0571948386194886 0.010193826271517437
0.052687679704280066 0.05699285167022013 0.010227992422486176
0.050295581475107765 0.05679642789288404 0.010239229042887876
0.048655102346173595 0.056697915294916905 0.009719577862826567
0.006152791773072763 0.05122099498116573 0.038869755476655776
0.003866268310988241 0.05102534229278388 0.038995575905551305
0.0018068096535970857 0.05085888764855752 0.03896656624298528
-8.537284830839598e-05 0.050713894861717464 0.038824194661270406
-0.0008555678337624495 0.05071719728963937 0.03785819346256186
-0.0016431407367636375 0.050718202462786625 0.036904954634719545
-0.002912894785467246 0.05065495436496322 0.03631328860945732
-0.005867796142086157 0.0503664014949941 0.036996186190749736
-0.010831819852934188 0.04980777032194434 0.03921992978924971
-0.012971894855066446 0.04962549499982388 0.039325363356030985
-0.014301504432981615 0.04955136784035594 0.038820879623911064
-0.014363497741287146 0.04964763881717911 0.037344265247218345
-0.014569999268738698 0.04972481493296228 0.035973657810470516
-0.013916179742681778 0.04991866993253922 0.0339282502847702
-0.014032483417871555 0.050008974366224396 0.03247384793082442
-0.01197202246964818 0.05039530726022666 0.029300276375204215
-0.012838131863269653 0.05038495972485677 0.028418858096381117
-0.013363960721144763 0.05042098182721445 0.027267333169220198
-0.012965979301294284 0.05058343506546026 0.02537457471055421
-0.013401014069539141 0.05063247554641875 0.024141567324591662
-0.013412329214321839 0.05073989517802007 0.02256290534160399
-0.013463554741819705 0.050842287493080444 0.021009931442476537
-0.013900254091969266 0.05089197600137196 0.019765498086034672
-0.013508712679901558 0.05105631923860404 0.017837526154328986
-0.013984146565047983 0.05110132449709952 0.016615168915820044
-0.013970439182833083 0.05121440516466798 0.014983842471456288
-0.013815969727507094 0.051347555512565604 0.013227840824164616
-0.015063970413426442 0.05128581227492942 0.012640172608528233
-0.015573455430302308 0.05132695792402924 0.011433471949203855
-0.015797328795911225 0.05140826731061684 0.009981936995515528
-0.01587733443621253 0.05151011891036075 0.008402542886006281
-0.015565929955763669 0.0516674551242343 0.006481164582629151
-0.015257937253574771 0.05182500575725479 0.004552596047677715
0.06716801886489626 0.05529613723619878 0.032064712605544
0.06463639250622982 0.05509392683923783 0.032067639649654256
0.06202536225683625 0.05488112332194444 0.03213414452326324
0.0594482663117708 0.05467166765522055 0.03219109075099791
0.05686334942617538 0.05446041027700964 0.03226562481169287
0.054188399305010904 0.054237141758059396 0.03241224720305297
0.051617237999458776 0.05402588229186179 0.03250320570851195
0.049251055270674526 0.0538393070932983 0.032469789913545044
0.04807908672193728 0.05380102030737351 0.03164490341632614
0.06169220443986684 0.05561145179624986 0.02082968517870687
0.061392494326075964 0.05568587451827165 0.01936100516014372
0.06146496357758019 0.05580732631483979 0.017633494451831266
0.06144244841051888 0.05591731936657084 0.01596392148072867
0.06002504515334195 0.05585191414014644 0.015251549790736174
0.0588450947470312 0.0558162381878353 0.01437815822405658
0.05841198639558659 0.055874949338041185 0.0129851518862108
0.05968105900730364 0.05614979410793059 0.010392781444210075
0.05352936878240294 0.055710193618763344 0.009626893210823662
0.053940682292720754 0.055877271776170065 0.007621774038061246
0.004361715057379478 0.04984457072836497 0.03863393865173015
0.0022114935987553874 0.04967060542044316 0.03866956740497696
0.00022493663412992415 0.04951706382181648 0.038595216869342475
-0.0003279015705034971 0.04954851091467799 0.03746670932105289
-0.0010504901215698248 0.04955806525928133 0.03646286824528577
-0.00440963783110826 0.04922487038267622 0.0374358401286945
-0.00637823309374258 0.049071449873729155 0.037381087046450046
-0.007518952864272288 0.04902547250590174 0.03670829982650403
-0.012437018062778082 0.048485097075265146 0.03891765699766592
-0.014004461647237398 0.04838174303169947 0.03859323780887841
-0.014250048178971852 0.048451626520233465 0.037256852972547494
-0.014370451344294766 0.048538287912479695 0.03581907874308571
-0.01430149386769708 0.048650301704687315 0.0342283389633693
-0.014291889680992709 0.04875494358940805 0.03267696374265794
-0.014814455578427255 0.04878951569835808 0.031537861371815135
-0.013006732394800324 0.04913367011630841 0.028552293691351815
-0.013582332987942036 0.0491621425258865 0.027441085725035064
-0.012945078945475474 0.04935247996134728 0.025357855880159874
-0.013593146714594995 0.04937185980519529 0.024296081893435073
-0.013566163378925078 0.04948173354783976 0.022687280811612143
-0.013500262383457917 0.04959730479417199 0.02103976806956015
-0.013903400100295615 0.04965028512348005 0.019768068849346565
-0.013544517356934627 0.049806216628829884 0.017866939788187153
-0.014126213491707507 0.04983575829276068 0.016732498181226185
-0.013876509453228214 0.049977990312769324 0.014905856108304971
-0.013916481581040918 0.05008153831518741 0.01331173521542689
-0.014846829169449072 0.05006446565710244 0.012457969462280838
-0.015218302925261773 0.050123480276284445 0.011133884076893974
-0.015749898395956696 0.05016088502543018 0.009941715348108227
-0.015940667349949644 0.05024510571293694 0.008456534239944358
-0.015681417685818266 0.050391430804692654 0.0065801383886565645
-0.015724430434986614 0.050496846795482775 0.004954495516530433
0.07041668918036564 0.054195814533205315 0.03161544394940624
0.06758290687490959 0.05396341982656295 0.03179807160235193
0.06495273129636209 0.05375453758845048 0.031863186768003704
0.06240302884044013 0.05355450296167492 0.03188867928057004
0.06039290757254234 0.05341867787134309 0.031573664645363264
0.059017748577160856 0.05335895907486479 0.030849580326498538
0.054536031195234314 0.052923259759502 0.032182474170592223
0.052024737991797354 0.05272462135819409 0.032232353809822256
0.05047434002559714 0.052641874620949304 0.031652167405838094
0.06155032789077958 0.054095162548459474 0.0225907032760308
0.06089832826358327 0.054124373292054676 0.021366233335633922
0.060520502049291436 0.054187197178758265 0.01995362793336619
0.06037754969787157 0.05427902678821752 0.018376627672663293
0.060167646137864794 0.05436301526279006 0.016839947753207463
0.05956393948294442 0.05439894108404109 0.015570170279122164
0.05896225833020913 0.05443526222039219 0.014296751309272049
0.05900695924695859 0.05455150212113046 0.01256947321644264
0.06052041424835075 0.05484984650647879 0.009803130626781509
0.005268712333023562 0.048712241942054195 0.03797190180039073
0.0026598249965356646 0.04848520131708211 0.03834053556228478
0.000596666918162736 0.048325965538322 0.03832091658382836
5.983574973128514e-05 0.04835874454843974 0.03717904072726097
-0.0006427873305341336 0.04837068769990989 0.03615874326805596
-0.004155660600026756 0.048026443660942844 0.03724535818362551
-0.005578075546947392 0.04794630674376364 0.036777719042905
-0.0080585570480749 0.04773114656680656 0.03711739745725706
-0.012037678092938542 0.047323910663374914 0.038613262701259254
-0.013702846889099618 0.04721075540951202 0.03836209221545461
-0.014135505755095423 0.04725500893454423 0.037168598653949725
-0.014166587165770128 0.04735100131409359 0.03566115610531673
-0.014593795001131782 0.04739644110932839 0.034455987666571986
-0.014433790994062445 0.047517776330246106 0.03278807285798002
-0.014771277169390529 0.04757535614380576 0.03150387099929253
-0.013181415251173334 0.04788271244623443 0.028690543023425163
-0.01367376467491288 0.04792122613105222 0.027513835298626332
-0.012988966966392346 0.04811296149499157 0.025392963243135558
-0.013519032246378238 0.04814722061690501 0.024236478461138355
-0.013536871506733661 0.04824851523049134 0.02266359822861358
-0.013538011207915424 0.04835243218652797 0.021070450988645073
-0.013905497409395118 0.04840875293844734 0.01976978266721585
-0.013501340267362882 0.04856673604891303 0.017831469698551927
-0.013970460270109397 0.04861037967796484 0.016603865771808668
-0.01372760151452146 0.04874819693004453 0.014782223381659687
-0.013559681501346565 0.04887670142498061 0.01301392431615589
-0.01436631173226377 0.048876561227413726 0.012054767439126535
-0.014944884970825356 0.048906722526294716 0.010903243149240738
-0.01533303850595763 0.048962372962350356 0.009588212288259346
-0.015797081366261012 0.04900814038043823 0.00833412708687925
-0.015865623886236413 0.04910700754910912 0.006738004412524368
-0.015929143110660404 0.0492069849185715 0.005130862329377928
0.07291524790465109 0.05299276134982385 0.03165983788292909
0.07084687389907318 0.052856276326026845 0.03134052658799236
0.06820595920398392 0.05265244447745571 0.031397647164778386
0.06527093271404444 0.05241341950056376 0.0316575300517874
0.06291600139792919 0.052241405016948815 0.03155527161681165
0.062032313827716346 0.05224140501840725 0.030502133830735856
0.06142272829346829 0.05227364368576401 0.029268834129711596
0.05529840660213747 0.051656099063913906 0.03167856956907528
0.06019710572459103 0.052337745566857725 0.0268004486347706
0.06020741142086222 0.052443717262296435 0.025146749750738884
0.06018128575706411 0.05254579473818747 0.023510854680329485
0.06010166126935007 0.05264192694922235 0.021904667691280577
0.0598205874880951 0.05271446647299658 0.020429303371461205
0.059618957281049045 0.052796774477827296 0.01889504594608382
0.05938006111212252 0.0528749613397997 0.01738116515543614
0.05897128989678607 0.052933120755737195 0.015979686606303223
0.05864338023267196 0.053001219921061875 0.01451831232173656
0.05842327736356728 0.05308255957777684 0.012977263434595265
0.058264672904224823 0.053171640884947705 0.011387799027507639
0.058162147803631714 0.05326785698884014 0.009753001273305528
0.057904772371658975 0.053345732279277434 0.008221995971318674
0.05822736231058373 0.05349423821184953 0.0062717823039757925
0.0031466047384279827 0.047301616421859746 0.03798328635722564
0.0009168014186670681 0.04712613274060645 0.0380846888976184
0.00043855515928808986 0.04716535891449178 0.036898062667364784
-0.00042339592103612933 0.047157454880372325 0.03599508874106955
-0.0036241961276032297 0.04686063923074358 0.036846761876345446
-0.004225488072587269 0.04688432635360198 0.0357577848970691
-0.008199250931856417 0.046489820553279014 0.03722406366972203
-0.01162508540976187 0.04616175910036341 0.038298766610250445
-0.013496032907473421 0.04602598273835731 0.03820359817886804
-0.01397789369003899 0.04606301470782408 0.037047159409575536
-0.013990201203292474 0.04615893562783057 0.03552451936677109
-0.014374356118189269 0.04620865360436361 0.03428508522583518
-0.014620769284634683 0.046275884969059954 0.032934477369682524
-0.014801091914937226 0.04635172213309381 0.03152734139411273
-0.012887062652455261 0.04669208279744786 0.028457583413010246
-0.013240101806130888 0.04674729975148761 0.027168782179391004
-0.012917904953203385 0.046888298620434136 0.025336118577126754
-0.01331009913947756 0.04693920295785191 0.024068452830093234
-0.013349502937843372 0.047035213606333656 0.022512110073296565
-0.01334918992116163 0.0471367026793853 0.020916973672563288
-0.01371874352266611 0.04719136716935882 0.019617176573857642
-0.013381233841054219 0.04733681614575991 0.017732801961815092
-0.013676486447826375 0.04740168817264774 0.01636108067447367
-0.012695684669739804 0.047630967104154154 0.013925461181473975
-0.013029031734650254 0.04769185303991673 0.012571006017614073
-0.013891959813375265 0.04768459329378581 0.011656738900342856
-0.014479458072993445 0.047712959952055316 0.010510633630630373
-0.014878164560837903 0.04776594647616346 0.009202472774089032
-0.015605810994254898 0.04777639292696531 0.008171068958909511
-0.015939677728518842 0.047838202811443555 0.006801469082045375
-0.016051013708278716 0.04792935008987327 0.005235857922889775
0.07287159382115693 0.05159327468772562 0.0316875786857016
0.07101888721430472 0.05148482669456407 0.031230598353224726
0.06847657946563235 0.05129760069281734 0.031223724428260324
0.06577106733541843 0.0510910547886242 0.03133428811073313
0.06436597454862647 0.051032024625504595 0.030612858316863
0.06302460260501969 0.050980042893430874 0.02985356487564389
0.06148990689975603 0.0509057148056324 0.0292246789438384
0.06006417317001361 0.05084359362009717 0.028528557538829602
0.05956925855509099 0.05088824791077257 0.02721775808542881
0.059318760640398316 0.05096123972001956 0.025740708660694056
0.059314712697536465 0.05106297425798454 0.02409328994511406
0.059310648560402246 0.05116511579621788 0.022439280548765095
0.05926308578263839 0.05126262700469314 0.02080819228545744
0.05913948195796598 0.051351700452217236 0.019222716990017652
0.058939503787153624 0.051432246176031406 0.017683909980641288
0.058585511328065554 0.05149515888254974 0.016246256644074863
0.058339041521864754 0.05157089049565045 0.014729771162652228
0.057938286719634136 0.05162886607970851 0.013316102871143043
0.057607071531744214 0.05169523647686516 0.011849766937949924
0.05746964336253135 0.051784659770380784 0.010242167856812923
0.05739816269042203 0.05188221779727995 0.00858181943389874
0.05728393861573944 0.051975130386465666 0.006945536133001695
0.0036588822006147215 0.04611793436078839 0.03760732429392266
0.0013084392601243056 0.045932777438612286 0.03779569879822586
0.00028828376451062176 0.045906168402757866 0.03700955144744045
-0.0005331230860748382 0.04590330064356648 0.0360769394722949
-0.00294083919810878 0.0457096469246375 0.036334246811305204
-0.004077813530115049 0.04566832522688045 0.03564642920940142
-0.00798606899332327 0.045292149656444174 0.03706244107932871
-0.011183628770447707 0.045000401636849506 0.03796226915628381
-0.013134063749381808 0.044858670950490336 0.037926199366008884
-0.013761725878282283 0.044877101495926185 0.03688060327881015
-0.0138054305054634 0.04496672992735932 0.03538138742375507
-0.014074512818706586 0.04502923159958916 0.034051562565525384
-0.014610500677625482 0.04505935444564811 0.03292643702237569
-0.014773333513870945 0.045135342249291985 0.03150548976933254
-0.012277107486262206 0.04553826398044086 0.027974846319790303
-0.012660298059839814 0.04558847667877819 0.026707448951199364
-0.012464766110873438 0.04571029318544692 0.02497363903296629
-0.012967984065721971 0.04574625317760631 0.023793321224525543
-0.012944809307746219 0.045847580889184385 0.022184913831925557
-0.013013030680398108 0.04593799853852899 0.020643737434555165
-0.013176297583486096 0.0460169813123241 0.01917391642497296
-0.012889459513195034 0.04615243056500472 0.017328808092324288
-0.01314107540081505 0.04622118149737796 0.0159188990470302
-0.012387325357136991 0.04641613771104315 0.013669441905842072
-0.012432891409990765 0.046511624171139354 0.012073424609194361
-0.013103623523415708 0.046528893649357715 0.010995246179288765
-0.01382906809985851 0.04653934188269527 0.009961999042790604
-0.014546350225970395 0.046550867169878496 0.008921089543196647
-0.015556111511092485 0.04652541195187419 0.008128700114218401
-0.016112001675466725 0.04655743645837217 0.006949151930180253
-0.016478509696157773 0.04661368636197431 0.005604160005988346
-0.016471292739987542 0.046717817528956464 0.003931470567090201
0.07313218711742603 0.050227556011471136 0.03152197980795596
0.07054652476288659 0.050041230193862994 0.031532470161142634
0.06801428732454323 0.049860074717509695 0.03152083120718091
0.06568597991318342 0.04970079083238464 0.03138928095135468
0.0637327412215441 0.049582502162222375 0.03102442973742775
0.060793618120886794 0.04935410943195085 0.03131175659240676
0.05972206267093133 0.049332902151117526 0.030386648428353258
0.05932264155046402 0.049386652365866125 0.029018685095251184
0.05894735557827979 0.04944331731840244 0.02763111662588763
0.0587714205812499 0.04952255520800366 0.02610654135004009
0.05867849712601092 0.04961143470099488 0.024520898882164965
0.05867037613475129 0.04971021548114186 0.022872014267419416
0.058616070120871555 0.0498041857114353 0.021247916611008277
0.0587395436063175 0.049918624034519236 0.019496032864442903
0.058505436434266644 0.04999303714222995 0.017982194987901767
0.05799688041760526 0.0500366136549874 0.016652996097112294
0.057776557431626685 0.05011313545826728 0.01512059306447261
0.057542907113780184 0.05018845033017801 0.013592335422318913
0.05725930868273699 0.05025837060921157 0.012094071897471748
0.05713970357116288 0.050347334648047457 0.010475228485637755
0.05699004408273628 0.050433218055790145 0.008871688846189274
0.05680596867229021 0.05051550094419854 0.00728688231851532
0.05713102689527161 0.05065671759360856 0.005330868006952705
0.0018234727662041483 0.044751240969543485 0.03741565486897053
0.00021754455426575836 0.044657218224356234 0.037062034012504796
-0.0007556432351740194 0.04463668755653951 0.03624292787552863
-0.002262566121245202 0.04455361745205244 0.035825544616156724
-0.005772333015337083 0.04423535117090809 0.036924201121772415
-0.007450471085789501 0.04413097209981681 0.03665638078256772
-0.010788842611989757 0.043830660827458366 0.03766134597300419
-0.012771384762625848 0.043689070041165984 0.03764825656860182
-0.013466263130127665 0.04369914465359068 0.036652950828068076
-0.013491924088831264 0.04378856275330761 0.03513853082859281
-0.013679455060035983 0.043859138111945466 0.03374388539234868
-0.014602285379862412 0.04384251168769125 0.032920004421811144
-0.014803147926454596 0.04391191262094012 0.03152895990204169
-0.014987152435949225 0.04398362443127599 0.030119658420772244
-0.011892083381301488 0.04444836083594908 0.026096202542632008
-0.012027321330576046 0.04452738265668498 0.024623713646428513
-0.012445746684560388 0.0445726823083436 0.02337333385714896
-0.011928132713169837 0.04473100542680674 0.02136292718401256
-0.012061126087024143 0.04481141933868595 0.01987001237066749
-0.01203259372219656 0.04491173507499709 0.018239337866597982
-0.01199119157448747 0.04501404680505738 0.01659087868072251
-0.012155977713378063 0.045091733375719874 0.01510533328096475
-0.011929156536680419 0.045217475108521143 0.013289041364213217
-0.012024066578767978 0.04530447693324646 0.0117321901264692
-0.01241239779296227 0.045355949530213754 0.010415238896706758
-0.012801612414432173 0.04540753922120426 0.009095291759804058
-0.015157569280555727 0.04521760510630982 0.009439411912936568
-0.01612737220664412 0.045197595062508436 0.008615700262868675
-0.01646882090365065 0.04525507408182936 0.00725494854649994
-0.016806919083994454 0.045313221649480824 0.005887095671067877
-0.01665975255586699 0.04543180332487112 0.0040946918037739755
0.07321377470296253 0.048841080255187165 0.031470133452749405
0.07056961442860599 0.048653672691265616 0.03151771429070033
0.06782992115378011 0.04845525791883286 0.03163932000304992
0.06505450659029144 0.0482522115973729 0.03179740839123246
0.06238343037200689 0.04805961873703598 0.031901417349065486
0.059951296072116356 0.047892094275278935 0.0318623059319918
0.058792232644290565 0.04786181515420175 0.03099780754470849
0.05852822369023164 0.04792856996611588 0.02954376868487596
0.058400637915868026 0.048010429239879346 0.027994501950293682
0.05827955498772891 0.048093324875004013 0.026435295859904673
0.05811219056272743 0.048171499101715476 0.024901521046111597
0.0578635967351836 0.048241099506655394 0.023417283180653725
0.057703394715426626 0.04832067138104159 0.02186818842330135
0.057673779356180954 0.04841491061193677 0.020224370836424532
0.05806241677514912 0.04855557308131638 0.018286631894657124
0.057475590809363375 0.04858920675645756 0.01701320322582839
0.05696069893536421 0.04863092779044493 0.01568746308739305
0.05682291886064261 0.04871458516892188 0.014095356288939598
0.056712729039896714 0.04880164552297196 0.012478046545427113
0.056600739162962044 0.048888861313838565 0.010855938503573193
0.056489755939808095 0.048976546258557165 0.009227022387065575
0.056372734636503774 0.04906391661119532 0.007596279985831289
0.056366866485191014 0.04916408318293527 0.0058795923330923205
0.002268538512945395 0.0435584671813167 0.037087240245122166
4.461556309187653e-05 0.043397149037331904 0.03719033283008244
-0.0012237170961838517 0.04334364152473095 0.03659208651621354
-0.0022032368912568434 0.04332276638495386 0.035781047922183395
-0.004857686701242925 0.04311086134913585 0.03623450154611363
-0.006861552123349546 0.04297238954498012 0.0362098954522615
-0.01049402055347376 0.042646893593908865 0.03743661977516527
-0.012265737677549071 0.0425334930179312 0.03726074868846779
-0.01303864789445397 0.04253443947569486 0.03632347559985827
-0.013186128727692259 0.04260744333655972 0.03490164757427078
-0.013449644937507721 0.042667360427160704 0.03356490566770076
-0.014465652354629266 0.04264047201731422 0.03281302039024003
-0.014896672162002134 0.04268129386267975 0.031602582892723274
-0.015322354394732673 0.042722910095415144 0.0303849474587104
-0.01073376727033254 0.04334855626170103 0.025174563601597255
-0.011224233209710777 0.043384221356140715 0.023981299029144365
-0.011465471368084124 0.04344918389273726 0.022584988816517437
-0.010999214591918105 0.04359733731662383 0.020611893574360662
-0.010839602867737386 0.04371011662713601 0.018877136469593214
-0.010744242536723347 0.04381582132618252 0.01718656062735474
-0.010911343047296185 0.043891026341618185 0.015703780350756646
-0.011196614202226784 0.04395258922489632 0.014313020681068378
-0.011486964270408517 0.04401381831438965 0.012921905561680214
-0.01161969349832026 0.0440940276319874 0.011394671393759548
-0.011854767530205423 0.04416241025440211 0.009947331527033254
-0.012241789175497453 0.044212973694151995 0.008623054479644843
-0.016054293815078446 0.043854397709108005 0.01019984695214371
-0.016923739828554607 0.04384672729137249 0.00929460422610412
-0.017377780247526176 0.04388888485164681 0.008033933168892449
-0.0170883962810493 0.044020660247896755 0.0061295976850268
0.07394206913234291 0.047521358774730384 0.03100732515376209
0.07122721220845529 0.047332088429204326 0.031097464480221215
0.06863853399138231 0.04715524449189313 0.031119639190376303
0.06581646048902245 0.04695328543801428 0.0313049500676254
0.06315466940492687 0.046767326432349814 0.03140014881060066
0.06059456371707894 0.04659130857015124 0.03144186035820262
0.058720337316047144 0.0464867688178363 0.031045062939802637
0.0579574000360194 0.046498991887248646 0.029921063995568986
0.05772259403749497 0.04656706370192176 0.028445175509324516
0.057416581723339244 0.04662786961514605 0.027012092359391005
0.057223231037004274 0.04670087047024769 0.025499002552205885
0.057044516076297014 0.04677572038292278 0.023970866007584746
0.05697485546227016 0.04686248670634808 0.022363317754261758
0.056843766738669754 0.04694304746821126 0.02079159731871627
0.056812472875638065 0.04703460573313524 0.019145575841169382
0.056962513981573815 0.04714596565659984 0.017367735386122407
0.05658043889555958 0.04720064375222098 0.01595167314154733
0.05633444584769376 0.04727018528736126 0.014436628687792719
0.056446255118256905 0.0473785845504865 0.012665245669271574
0.05653890609484086 0.04748535693920746 0.010899615726252865
0.056478494947667934 0.04757599736190122 0.009235020594233811
0.05606983749529354 0.04762923453532712 0.007812596482657308
0.054616524108149156 0.0475691416334906 0.007136469068246276
0.053983089754391034 0.04759810150393564 0.005872731287323796
0.00405138968142954 0.04250973831798881 0.03577167192704239
0.0004243941311711241 0.04219902584395481 0.03690856896333494
-0.0015178426408561374 0.04207281520662888 0.03681148880273932
-0.002787094065025475 0.0420204499802358 0.0362189385536717
-0.005014341536995148 0.041861774007227605 0.036352628927242614
-0.007940881101209996 0.041624827945402065 0.037028182153699185
-0.010194568756208 0.041461712592426106 0.03720836458905641
-0.011748366703124236 0.04137590778376187 0.0368642560843192
-0.012141149763241432 0.04141940092328185 0.03563195813993125
-0.01287260148463415 0.0414251761138411 0.034658774845994056
-0.013264971504528489 0.0414690044760766 0.03342107910418485
-0.014317604544294649 0.04143881195051237 0.03269709855078834
-0.015076392996230259 0.04144158644039909 0.03174406050252354
-0.015480489074456927 0.04148440687208358 0.030510100059849554
-0.009191885445165748 0.042284430321182766 0.02394773241182918
-0.00933499519071257 0.04235882426794675 0.02247004006838965
-0.00928644457213279 0.0424553098199701 0.020832598504205657
-0.009141283539040812 0.04256320897657441 0.019109749700531864
-0.009172576561676637 0.04265144244218275 0.017522147698515234
-0.009439392849883543 0.04271312908747592 0.01612030162404271
-0.010004509626299785 0.04274090328952228 0.01495881437352331
-0.010527464077421556 0.042773639590319004 0.013760387535297403
-0.011098376963123824 0.04280099927928964 0.012599275964114198
-0.011649677287194182 0.042830740212849425 0.011419698011286505
-0.01244445600793842 0.042832469173416175 0.010442138934326217
-0.013699352709818535 0.04278090745036537 0.009852577999277246
-0.015487228560495059 0.04266724569046936 0.009718967626887343
-0.017635115636495002 0.04251119817732526 0.009901052607571348
-0.019137555166091003 0.04242972322682506 0.009542072789955447
-0.019599236644239126 0.042469510975269034 0.008292770585616449
0.07221791859920312 0.046040162076857585 0.030464335559001965
0.06956663323594486 0.04586237300014584 0.030523166629927823
0.0668573422003863 0.04567799115264743 0.030632217946292173
0.06423607899737416 0.04550183406317806 0.030697284221608556
0.06165452735615157 0.04532902550727423 0.03074905849895243
0.05908974075366946 0.045157241716846167 0.030802261274931186
0.057685638114260473 0.04510356142683103 0.03010068952080419
0.05691994539813533 0.04511513426858776 0.028978669771995813
0.056875315139590654 0.04520084485413791 0.02737386564215416
0.057003278998601636 0.04530466937244163 0.025646835239038712
0.05692676367381977 0.045387815846251504 0.0240504499986533
0.05681667535685969 0.04546782659209875 0.02247082000540862
0.05663536316866252 0.04554078266185837 0.020934019278838645
0.056493792192963854 0.04561815853415635 0.019364568744259236
0.056500790254536304 0.045711299388048174 0.01768678294691528
0.05645336623715441 0.04579914687879154 0.01603996502195637
0.05641275238038318 0.04588806289152508 0.01438191971196734
0.05669308309101284 0.04601092435195937 0.01249184791253849
0.05692564838521463 0.0461292793784149 0.010626431333991992
0.05657423177656873 0.04618676203393702 0.00916702276760839
0.05575048735483096 0.046194752958341787 0.00804066302488271
0.05406645726406245 0.04611201823393445 0.007531458201903984
0.05180541112643511 0.04596794334260813 0.0074450314694858855
0.04967259404436658 0.04583685762574739 0.007276279573285471
0.04746456703144336 0.045697246099953806 0.00717223841189879
0.003936226368900175 0.041247176259763395 0.03585665109302494
0.0010987466125087497 0.041029909034638656 0.036408255942372736
-0.0013254146939516431 0.040855976524477935 0.03666794760984721
-0.00340454579800481 0.040718325651098244 0.036682024975172145
-0.005623738724104321 0.040565043708977386 0.03681215188697062
-0.007735822527568992 0.040422655463649475 0.0368727182430027
-0.009806020825412709 0.040284189522598254 0.0369121964542658
-0.010983615886373588 0.040241688865770744 0.036278181376136476
-0.011312012691537532 0.040291056510682 0.034993112506925494
-0.014034313507560847 0.04008059985226734 0.03555869080139262
-0.014450266414640589 0.04012030451109272 0.034344205354258306
-0.01496648696280245 0.040149240235413775 0.033205175255004826
-0.015532607929443887 0.04017284422494863 0.03210319637335046
-0.015841429517611916 0.04022473615335034 0.030795759318122062
0.005351805973602353 0.04282057968654912 0.009060403461353894
0.0032009111287705228 0.042675080087707665 0.009131041351186198
0.0015830561677974142 0.04258797722601906 0.008779777214443785
-0.007223183632593555 0.041702795542644853 0.01430932442491284
-0.008889297651730965 0.041607842172343826 0.014042664880991096
-0.00987958128961397 0.04158779973167831 0.013225318512899542
-0.010865692530104276 0.04156813611764542 0.012406086728187937
-0.011697855378070443 0.04156561955978947 0.011459910896276071
-0.012735931091280184 0.04153999198887706 0.010686715580682404
-0.013711052098355714 0.041521330114553674 0.009862446984767792
-0.015051784072052876 0.04146139078839954 0.009349704565720707
-0.017329531700646106 0.04129537649219874 0.009640542085243509
-0.019233150285110634 0.04117097143819036 0.009623998486845864
-0.02099753176861996 0.04106180933437126 0.00949744857487922
-0.021633705683814397 0.04108041148016203 0.008402532055884482
0.07291821687172872 0.044713683294798356 0.030016797222763736
0.07023705669156727 0.044538481742492565 0.0300922976280375
0.06792597443474174 0.044399023968393125 0.029941550388111082
0.0657472361678263 0.04427206950350826 0.02971510423085355
0.06300209734773637 0.04408862330757027 0.029868274516158033
0.06197194852378146 0.04407430781776145 0.028907842398937622
0.058611275029756216 0.0438286490180715 0.02948887453198268
0.057049384794193525 0.04376088048838929 0.028892635644764575
0.05527726555009693 0.04367189359533523 0.028441974524852198
0.05755426475825598 0.04398681058968693 0.02527651039073142
0.05745367562806947 0.04406513967685734 0.023694331946038316
0.057142872894858365 0.04412271212373809 0.02224912986578953
0.05680345997659042 0.044177643181375376 0.020819142758851106
0.05658976526311149 0.04424544945647671 0.01929861739423161
0.05647152929316146 0.04432315751536494 0.01770700204722664
0.056297069933137656 0.044395499388528804 0.016148561904683223
0.05626036000852519 0.04448208416504408 0.01448838886979642
0.05652756553604604 0.04459985932420247 0.012608124736476767
0.05681869884626395 0.044720548400514475 0.010701977622898207
0.05601026753067351 0.0447297051256297 0.009567582755396042
0.055612761647007125 0.044780851351758695 0.008139020977421696
0.054349016001769446 0.04474359043840985 0.007328559895608822
0.05213838404245219 0.044609109024931114 0.007204622545144257
0.04987903124447912 0.044469067861462104 0.007126415181286205
0.04743045964213399 0.044308970196852475 0.007197134130146388
0.04518064885976547 0.044168711084401735 0.007134367317595092
0.0036939429546771763 0.03997221863949159 0.03603543235608403
0.0027851260025884006 0.03996125068853382 0.035157103777164356
-0.0008673483470494903 0.03966546126244889 0.036326254051734785
-0.003076203936361821 0.03951858818043646 0.03643576984361169
-0.005279399734917367 0.03937169000829202 0.03655249911073849
-0.007390397274340155 0.039233805314913425 0.036610836187711104
-0.009085120370199318 0.039138911065594056 0.03636269476794041
-0.009962166202958977 0.039129381175215035 0.03549538283311021
-0.013318354375090546 0.0388592306887354 0.03653898793162613
-0.01452601496211009 0.038814244586398323 0.03593958552875093
-0.015083001330949974 0.03883774950194525 0.034836989222306824
-0.015822338322997065 0.038842065422710396 0.033875309205292525
-0.01620920222732969 0.038883763392443774 0.032635816558875985
-0.016753938183300787 0.03890886848828166 0.03151794646437084
-0.017275952238693937 0.03893649987584756 0.03037999273203601
0.007591917918962743 0.041672990365692754 0.008929687366574734
0.005730503836460454 0.04156347482277142 0.008755851692004935
0.0036071585081691726 0.04142542323762525 0.008802588897970809
0.001585328269829711 0.0412976764311555 0.008777930409309798
-0.0002324444599433595 0.04119133563555548 0.008596836114709683
-0.0021684675487792515 0.04107178184646156 0.00852148574319117
-0.00482774901067895 0.040873542489350496 0.009053145691400588
-0.010333823570847334 0.04036610267384349 0.011964495700724942
-0.011844453971101065 0.04029014252890175 0.011582272580891506
-0.013102558803495257 0.0402413211428001 0.010994352773154414
-0.01402453217292321 0.04022893170919387 0.010126882198424836
-0.015203038222479204 0.04018845875842527 0.009477970216298537
-0.016976218372077745 0.04008268988657487 0.009339342221726277
-0.01874633925770558 0.039976790429284835 0.009206797974067427
-0.020800498772039766 0.03983918287941427 0.009327698062272793
-0.022644077791536987 0.039724178062315874 0.00927759491299135
-0.024494311229474763 0.039607927692413794 0.009242814169184765
-0.02564528357535495 0.039568582044850004 0.008605670307463398
0.0710470894262234 0.04322376281915218 0.02957170427326633
0.06847224501833749 0.04306365789790414 0.029588490319409577
0.06618392377963839 0.0429303012459618 0.029431278138558892
0.06412025395911769 0.042817927416550466 0.029137437201799232
0.062289208118732564 0.04272742661067206 0.02869931386345248
0.06078302790887874 0.042667797826531656 0.028053418640779593
0.06011189320501298 0.042688373144709656 0.026857086605700076
0.053924690611737436 0.04217658873215832 0.029346012369281138
0.051469848670488094 0.042023742657617554 0.02936592726813836
0.0500757548472861 0.041973083208526336 0.028680764232512812
0.048309862900723366 0.041886114900748575 0.028252213858607322
0.0567020308216567 0.04278722230167257 0.020888458937353804
0.05625890463005345 0.042830519789613136 0.019525980188686287
0.0560775826952028 0.042899570690966546 0.01797921613067388
0.05547833484280934 0.04292798813786256 0.016717430625847907
0.05561421824844737 0.04302863488454981 0.014939816773929304
0.05523019875953977 0.0430785873775448 0.01351953070961065
0.055107570625696156 0.04315449018735833 0.011910672753095763
0.05470089233399156 0.04320266831163063 0.010497576663005825
0.0547224461772543 0.043293396633335805 0.008774847128561525
0.05422028059384293 0.04333259500967906 0.0074210015466456
0.05253306135150787 0.043254269113807704 0.006919662589640607
0.05010220478367905 0.043101618214555895 0.0069644009379992156
0.0476925431108261 0.042950449582186176 0.007005833760166946
0.0452916040582817 0.04279952613048769 0.007052936943535093
0.003697259855819368 0.038723418938590055 0.03603298481019007
0.0021784808597644645 0.03865158996195555 0.03560718362777343
0.001256407941866322 0.03863946064527468 0.03474204283903404
0.00035568758623921726 0.038629432144920234 0.033861864420250964
-0.004321735564320084 0.038238021649710977 0.035830361425486124
-0.006060709412031018 0.03814229139354501 0.035602741420397876
-0.0075040744379338276 0.038076132225786964 0.0351575527824487
-0.010264707293310471 0.03787584684893741 0.035727238330819144
-0.01321762652603553 0.03765513628401581 0.0364613776682729
-0.014081491740419616 0.03764665852842522 0.03559523724634561
-0.014709561574806351 0.03766225636406161 0.03454614848826143
-0.015347357372830328 0.0376769238307721 0.03350339782529044
-0.016120426474533822 0.03767776231783447 0.03256593160999005
-0.017163241587358824 0.03765084460217223 0.031841881642677816
-0.01833828898915274 0.03761017453104935 0.031225263645945855
-0.019398842221356405 0.037581163336028706 0.030520417443703263
0.006032373790359258 0.040295882067914214 0.008513085525121089
0.004030333741605552 0.04017480298184847 0.008460450214472226
0.0018854815748748366 0.04003834618222073 0.00853396043927429
-0.00019296819839170753 0.0399082216190483 0.00856457805485722
-0.002252360284493937 0.039779524280126315 0.008590403840382399
-0.004409354062600623 0.039640049444722956 0.008707604522446177
-0.006505154569552363 0.03950638847175048 0.008785694139416433
-0.01192465965588313 0.03902264157251757 0.011649217989457727
-0.01491853519218922 0.038792404184499966 0.012518137962326426
-0.014861406291762413 0.03888339093612258 0.010832824950048114
-0.015438662087678467 0.03890762933489287 0.0096777825736869
-0.01656017555402256 0.03887423958848203 0.00898466542387294
-0.018657782885684093 0.038736930483728386 0.009130904533415307
-0.020608417474601626 0.038614674403115834 0.009162213603993496
-0.022424823418152384 0.038506210465215886 0.009087703132586222
-0.024100806968885835 0.03841229335231035 0.008900211132769953
-0.0262571581584905 0.03826643450701332 0.009141203237355289
-0.02757081938045658 0.03821051338293211 0.00865329324840658
-0.028321089464463378 0.03821504143982956 0.00767189651161182
0.07232732135216913 0.041947384498838676 0.028748922421745038
0.06805202973592339 0.04163572031261941 0.029860079603060863
0.06630070732001603 0.041556253706294934 0.029355374414676838
0.0644498581865765 0.041467248383358475 0.028922004885837904
0.061781249020843754 0.04130195629244474 0.029033185457739308
0.05952134532479053 0.041174030937579695 0.028887348557745773
0.057924405476011076 0.041107399559578046 0.02831103805576113
0.05412615918372121 0.04083487317967098 0.02921135423805976
0.05154805249724198 0.040675457876441466 0.029313365437324712
0.049165009450483355 0.04053369638193596 0.029296299474257825
0.04734361234913437 0.04044414534905615 0.028908896373757487
0.04590529208686295 0.04039030569629517 0.028266896329213476
0.054616180050119645 0.04129388889776782 0.020654837519221647
0.05450469089723048 0.04136700085301632 0.01906607232226276
0.05444674753073658 0.04144548251697527 0.017434192081318467
0.054226514099076695 0.04150887693689721 0.015909338347076696
0.054320481665842635 0.04160241828480868 0.01415861104377053
0.05420067950703239 0.04167596524917605 0.01255127634175296
0.05382859744749341 0.041725716781486864 0.011117130884086446
0.05386639814138189 0.041814902520033365 0.009386200908576892
0.053879218645276394 0.041902059016590186 0.007665909533804138
0.052677770216344566 0.04187287733230075 0.006815181711873675
0.05021663595346226 0.04172226351477979 0.006881328906039985
0.048042484582109135 0.04159872135405842 0.006750403941332306
0.04552046148868705 0.04144102727620745 0.006884977745466703
0.043351884960722675 0.04131692839933566 0.006771782655162262
0.0018072896347281486 0.03736872009944338 0.03588257640572279
0.0005811900395353842 0.037327322956655376 0.0352457201100429
-0.0005518918941055384 0.0372948230198361 0.03454254553479269
-0.0016103541803024202 0.03726947841888406 0.033785813099876605
-0.004330940036919195 0.03708127310604247 0.034291327286948003
-0.007368899774518989 0.03686113396447355 0.03505451677386012
-0.011067705832880526 0.03657508476960251 0.03634262457747828
-0.012550205466761222 0.03650622197702851 0.03594713334891414
-0.013134598247053875 0.03652575426169955 0.03486172967654688
-0.013853425813363407 0.03653206602784026 0.033879376541236184
-0.014670050632019371 0.036528706269528755 0.03297306479915263
-0.015353332598372738 0.0365385836888528 0.031962069467029175
-0.01647137239196783 0.03650520524823855 0.0312943152922589
-0.018415235546588582 0.03638926351440615 0.03128648781699889
-0.020199187645615457 0.03628881882924235 0.03116063809454106
-0.021632075367267856 0.03622313086238784 0.030761050896333186
-0.023346529563891716 0.036128877218536096 0.030594741707858975
0.0023491368881199404 0.03879346055385277 0.008157093115217284
4.535305456410121e-06 0.03864078432383114 0.008403187902958742
-0.0019927323453530765 0.0385225625321685 0.008377118823618634
-0.004156540965731592 0.0383869533840578 0.00849881296456445
-0.006366725451679656 0.038246045100280054 0.008670761588215115
-0.008424612610293092 0.038120020515825866 0.008727828064233834
-0.01585342299313175 0.03744569182061131 0.01330260200794009
-0.017231544061238613 0.037386840268444306 0.012832147836303931
-0.015652891438295458 0.03763060044530242 0.009859452081282638
-0.016507577641306226 0.03762563145224141 0.008939825665928769
-0.018566055620404143 0.03749678936949116 0.009052293614688678
-0.020097275655571012 0.03742174435739462 0.00872184784140062
-0.022118034861672187 0.037295778121958806 0.008821999765767863
-0.023801287903549018 0.03720420805144677 0.00863943596074268
-0.02586058746445158 0.03707319723193573 0.008794111412426697
-0.02773419840987279 0.03696091971545495 0.008797040729499439
-0.02928124159200285 0.036882189571026604 0.008521120675325622
-0.030547559534676638 0.03683244174078112 0.008002623460105607
0.0704315799850127 0.04046018236557992 0.02832215279599709
0.06712847414284895 0.04024505050611115 0.02881736551242997
0.06487779430808566 0.04012334172644598 0.0286423019510455
0.062218978977537975 0.03996451472739969 0.028745474106341096
0.059672924783474024 0.039815196020470574 0.028787159614038493
0.057053517092326145 0.039658670336343134 0.028889889041534556
0.05450646034348 0.039508051249717256 0.028957167478456503
0.05193544127968386 0.03935465994225127 0.029052996290608923
0.04948333431651747 0.039211432854395684 0.02908115682950152
0.04711267440466288 0.03907502792269001 0.029065846255928063
0.04489522177286298 0.03895201855529939 0.02895717334306841
0.042816969147556616 0.03884120838053576 0.028763090043468498
0.04243470611192507 0.03888495549182425 0.02740633941069448
