# .PCD v0.7 - Point Cloud Data file format
VERSION 0.7
FIELDS x y z
SIZE 4 4 4
TYPE F F F
COUNT 1 1 1
WIDTH 782
HEIGHT 1
VIEWPOINT 0 0 0 1 0 0 0
POINTS 782
DATA ascii
0.07880862548306893 0.020796788707332703 0.01745056979221482
0.0784973462841393 0.023015902487082518 0.01771151772133911
0.07818851639753692 0.02521755508496626 0.017970412371540012
0.07788189010690467 0.02740294227415807 0.018228122275470493
0.07757787459837312 0.02957027527352618 0.018482978406159867
0.07727600977723847 0.031721724359744796 0.018736689008311713
0.07697648503358366 0.033856495260322916 0.0189884328277804
0.0766792732618012 0.03597478116217723 0.01923823264622221
0.07638434777329996 0.038076772280067395 0.019486110894800734
0.07609230348125902 0.040159856898048685 0.0197296269741844
0.07580145641458173 0.042231692674934374 0.019975373598539514
0.0755136399909978 0.04428409136482736 0.02021599539713942
0.07522800096342466 0.046320963196881226 0.020454796837574174
0.0749445147162376 0.04834248370338501 0.02069179849912839
0.07498390512755336 0.04891968277657327 0.019636235309179906
0.07516228191662475 0.04887979364820155 0.018018743263066128
0.07534130639948954 0.048840614702967244 0.016394359057121166
0.07552118573350637 0.0488012486763606 0.014762218332558807
0.07570213100358485 0.04876078928422567 0.013121430818690327
0.07588373949608504 0.048721042773613055 0.011473602979638398
0.07606622143701774 0.04868110510175111 0.009817849890790264
0.08689182420668873 -0.07766146527588907 0.04646303432105969
0.0864391327257115 -0.07437944714142303 0.046844324541727766
0.08599140232795871 -0.07113286806051777 0.04722080590793798
0.08610303411062108 -0.07084393326086069 0.045817917403002284
0.08627738104001904 -0.07088266448523822 0.04421082954308847
0.08645243545963933 -0.07092155287874191 0.042597220209233344
0.08662820168467046 -0.07096059939998561 0.04097704962506382
0.08680468406546737 -0.07099980501540554 0.03935027769006383
0.08698188698790613 -0.07103917069931859 0.03771686397627971
0.08581098198024292 -0.03953654915845822 0.0112765877165385
0.08543596330313862 -0.036818145590604645 0.011593035232927096
0.08506447112270474 -0.03412468817891762 0.01190577241409696
0.08469619559424446 -0.03145455269837283 0.012215801687051775
0.08433083675045992 -0.028806175805404455 0.012524104372043099
0.0839688726589974 -0.02618179798132353 0.012828817292984851
0.08360974855457953 -0.023578617449849737 0.013131861985975102
0.08325393503296387 -0.020998831024365616 0.013431394085714088
0.07034925173676813 0.04234375195556245 0.060311334600825106
0.0700520474057019 0.044497754158749625 0.060562534908493615
0.06982564970866088 0.0463042432190896 0.06055646116991953
0.06969764130634389 0.047632656953236485 0.060187158683306985
0.06957027722760578 0.04895536460567251 0.059818546642459725
0.06952494038555454 0.04988242690003458 0.05914362289689595
0.06968052648910128 0.049847860243673936 0.057709471555950964
0.06983681050985419 0.04981313853072228 0.056268886999633616
0.06999379715437147 0.04977826071552077 0.054821825844141414
0.07015149117162531 0.049743225742992 0.05336824431470605
0.07030989735348271 0.04970803254852396 0.05190809824117126
0.07046884012460797 0.04967353347913861 0.05044203672947639
0.07062886559586291 0.04963716718703193 0.04896793377735875
0.07078943745898982 0.049601492842160366 0.04748782502927906
0.07825633524969265 0.015230603898145179 0.017644576518237975
0.0779445424982747 0.017491242968434628 0.017907026656620473
0.07763522440575286 0.01973393963779496 0.018167393761941153
0.07732835162700838 0.021958906671665834 0.01842570253532172
0.07702389527907005 0.024166353484703695 0.01868197728887727
0.07672182693205461 0.026356486206474905 0.01893624195333432
0.0764221186003153 0.028529507745628402 0.019188520085486493
0.07612453220229391 0.03068659227856091 0.01943966996535551
0.07582946330703476 0.032825977935817874 0.019688040322586087
0.07553646573993918 0.03494979774949275 0.01993531996030773
0.07524551798616218 0.03705821404162585 0.02018151944516483
0.07495700707044362 0.03914951404100314 0.0204250100151796
0.0746707001545637 0.04122483812896127 0.02066664050579542
0.07438697413675077 0.04328253240108887 0.020904808024973243
0.07410539610148936 0.04532464864692193 0.021141172467677494
0.0738259417484168 0.047351363102384525 0.021375754232309807
0.07361861625444306 0.049045156497102005 0.021323133762656765
0.07379308678354313 0.04900656544465243 0.019714706817181293
0.0739685850150901 0.048966893342503204 0.01809782302195234
0.07414472026994574 0.04892793203746837 0.016474051553103497
0.07432189703712233 0.048887882538248495 0.014841700796747404
0.07449972095810196 0.04884854564629543 0.013202364147030632
0.07467839784930805 0.04880902006669757 0.011555164070557622
0.07485813744660096 0.04876839540337713 0.009899196714200309
0.0855977064423169 -0.07900745737254133 0.04724698152033535
0.08515104784748859 -0.07571372808573051 0.047625421594801265
0.08470982117784605 -0.07245846748571566 0.04799736785367459
0.08454695606665864 -0.07070620621418078 0.04747838130245102
0.08471776879856725 -0.07074457245563603 0.04587824680050734
0.08488927312384402 -0.07078309403580813 0.0442716336104334
0.08506120614756556 -0.07082034677357013 0.04265937756898863
0.0852341052330773 -0.07085917885586174 0.041039695277848065
0.08540770863455312 -0.07089816912317848 0.03941341510273311
0.08558202066439435 -0.07093731854406282 0.03778049664597871
0.08575704567027773 -0.0709766280949699 0.036140899179455455
0.08489139915556233 -0.04351090552177955 0.011749394448514416
0.08451872759627795 -0.04076218318446895 0.012064450590112408
0.08414931377520131 -0.03803748902293258 0.0123767526431251
0.08378285602594691 -0.035335215386604724 0.012687291374287757
0.08341983306684471 -0.03265765578002783 0.012994187411172975
0.08305994242017113 -0.030003199266458558 0.013298435421807253
0.08270314371974087 -0.02737154811578446 0.013600069531368608
0.08234914694728036 -0.02476117002421807 0.013900058066648846
0.0819984159165235 -0.022174269786787437 0.01419655954775495
0.08165041367936174 -0.019608098060479584 0.014491471169713832
0.06926251340909446 0.04219653926178951 0.06019851672090226
0.06913453180608377 0.043543063340419186 0.05982695098212204
0.06900719808661447 0.04488375905545838 0.059456088572114985
0.06888015740940046 0.04622038161694336 0.0590872567670801
0.06875358363017779 0.04755209184334874 0.058719780487031914
0.06862747417976268 0.0488789167656139 0.0583536522729699
0.06855765160280389 0.04992965285368328 0.05777420478480544
0.06871137933352894 0.04989512308847194 0.05633411983020803
0.06886579802498358 0.04986043812225549 0.05488756211911949
0.069020912346157 0.04982559690630389 0.053434487913553874
0.06917672700819931 0.04979059838241717 0.05197485308057148
0.06933324676489853 0.04975544148281835 0.05050861308781052
0.06949029814861896 0.0497209801525727 0.04903642168121913
0.06964842079351691 0.04968464823683655 0.04755613746916104
0.06980708479058591 0.04964900970602887 0.046069810740369144
0.0764600679438655 0.018669500567282338 0.0188852900860072
0.07615761509491122 0.020900335866551267 0.019140951529235506
0.0758577580692088 0.02311258382298631 0.019393752595509683
0.07556004228222933 0.02530847725101587 0.01964541244492718
0.07526465422371235 0.027487201809185347 0.019895104659919505
0.07497135920559263 0.029649936081339923 0.02014368598312749
0.07468054705308734 0.031794911794624126 0.02038950762008579
0.07439177798948243 0.033924269909972826 0.02063425551773862
0.07410523350310926 0.036037224185196115 0.02087711796191366
0.07382088798653984 0.03813396344725267 0.021118116656337282
0.07353911550605813 0.04021281234577262 0.021355643910175248
0.07325869338327304 0.04227953785929639 0.02159460795795587
0.07298118825633221 0.04432691144546974 0.02182852818318015
0.0727055824394125 0.046359736212847114 0.022061486321021784
0.07243224405984554 0.048376370442117234 0.02229189182516189
0.07243127562402725 0.04913177872196178 0.02140096190992513
0.07260288761884685 0.04909340293711845 0.019793137523046178
0.07277551026534383 0.049053947640668005 0.01817686156467141
0.07294875928272461 0.04901520375405943 0.01655370241468257
0.07312303252877528 0.04897537323201656 0.014921969362610199
0.07329794210450082 0.04893625594163781 0.013283254990319293
0.07347369045043896 0.04889695106634612 0.011636682244230867
0.08402407244307852 -0.07794848389251247 0.04787532689882096
0.08385355752250824 -0.0761294031783506 0.04737735154176115
0.0836837332713923 -0.07431769063730781 0.04688139323007856
0.08351459550188395 -0.07251330159276353 0.04638743973350312
0.08334614005992692 -0.07071619172857052 0.045895478920436994
0.08350151245915122 -0.07068214576475862 0.044333279062496955
0.08367085972143398 -0.0707206102771179 0.04272063234591306
0.08384063153016151 -0.07075780361673228 0.04110231294654909
0.08401135850910814 -0.07079657872459938 0.039476524254212664
0.08418278221891932 -0.07083551207227812 0.037844100774688916
0.08435490693331801 -0.07087460463041034 0.03620500181042868
0.08452800504889983 -0.07091529707904398 0.034558276607184024
0.08470154583602359 -0.07095471408293569 0.03290569612350058
0.08396239321054165 -0.047528487375460504 0.012226208120263482
0.08359186584189075 -0.04474761198684685 0.01254081327570683
0.08322459438918187 -0.041991172840272706 0.01285265391741941
0.08286027850917538 -0.03925753637337859 0.013162724624190547
0.08249939368761147 -0.03654902735375054 0.01346913932208138
0.08214163878569072 -0.033864008974436144 0.013772896514364641
0.08178672227802372 -0.031200905810248647 0.014074973708256555
0.08143510843868165 -0.028561974636500953 0.01437351360017669
0.08108650494075359 -0.025945636668332883 0.014669497543062793
0.08074062868586158 -0.023350371890216548 0.014963886549674565
0.08039793311200524 -0.0207783714899597 0.015254851274304204
0.08005813431589241 -0.01822811199925206 0.01554335649769606
0.07972095725833289 -0.015698126249640953 0.015830347286430624
0.068308156424676 0.04210219854411579 0.05871677269215292
0.06818163731608659 0.04345210787313747 0.05834706548624802
0.06805558601331693 0.044797025897421294 0.05797872527674108
0.06793017306829006 0.04613612158767505 0.057611072161848575
0.06780504898962786 0.04747114467303698 0.057245443605887736
0.06768038500800012 0.048801258710072126 0.05688115951215983
0.06758650183588133 0.049977067312255874 0.0563993205681686
0.06773835508447283 0.04994257500931165 0.05495326598114081
0.06789089223687343 0.049907927362941196 0.05350069877574348
0.06804411792367251 0.04987312332134297 0.05204157485621086
0.06819803681735821 0.04983816182319706 0.05057584972778928
0.06835247833073241 0.049803896394733094 0.049104176826898105
0.06850779702803826 0.04976861879353567 0.0476251195665891
0.0686640001031055 0.04973232183127507 0.04613861606147096
0.0688207394039422 0.04969671969961825 0.04464603301064679
0.07468967294272906 0.022058254674846844 0.02010743343479321
0.07439632464900657 0.0242599134156804 0.020356476421582892
0.07410527162594682 0.02644434552593583 0.02060357079946662
0.07381648703989854 0.02861175239946462 0.020848739349326406
0.07352994447386366 0.030762332303021167 0.021092004498321104
0.07324541662144912 0.03289724267343164 0.0213342129703038
0.07296308226962511 0.03501569445432395 0.021574554192890172
0.07268291615037462 0.03711787724032162 0.021813049675849128
0.07240489338229578 0.039203977725141614 0.02204972059983784
0.07212898946323577 0.04127417975686498 0.02228458782267234
0.07185518026309255 0.04332866439194816 0.02251767188545467
0.07158382655086269 0.04536579612553154 0.022747388750237296
0.07131451460557461 0.04738759971722284 0.022975377139197006
0.07107659003498469 0.04925633683074465 0.023078393804773112
0.07124455074565986 0.049218356024741894 0.021478749695701627
0.07141349850434327 0.04917930075179083 0.01987071952280739
0.07158305718111613 0.04914095657818035 0.01825585892344045
0.07175342294805599 0.049102429888483234 0.016633311674480067
0.07192479568500983 0.04906281812010432 0.015002195903931814
0.07209679394590647 0.04902392020651475 0.013364103381999004
0.07226961679900067 0.04898483580908508 0.01171815753452038
0.0828634600620098 -0.07827015804140891 0.04609977368035689
0.08269486015228421 -0.07644566000559877 0.04560410715988866
0.08252694493968495 -0.07462857139565926 0.0451104535788574
0.08235971026175389 -0.07281884716769133 0.04461880070005675
0.08219315198970224 -0.071016442642158 0.044129136385277545
0.08228086598844825 -0.07061949374199783 0.04278273469477789
0.08244803946628898 -0.07065790052231874 0.041164021298883025
0.0826156332693822 -0.07069503378912456 0.039539605163476654
0.08278417122914618 -0.07073375125324177 0.037907676381604305
0.08295339823792724 -0.07077262700942027 0.036269075637308246
0.0831233185300343 -0.0708116620303923 0.03462376193039024
0.08329420103192066 -0.07085229942848603 0.03297077749471372
0.08346552182284063 -0.07089165902075445 0.031311906345381946
0.08302380553282177 -0.05159001998435131 0.012707096954594044
0.08265522570795665 -0.048775087012845886 0.01302220158108397
0.08229016231389827 -0.04598638374575226 0.013333553768470896
0.08192805344063812 -0.043220873746457 0.013643129560961975
0.08156937125469074 -0.04048091351712413 0.01394903614235038
0.0812138160085125 -0.03776483986732082 0.014252275873954001
0.08086109756625993 -0.03507105214892853 0.014553829952013764
0.08051167691576337 -0.032401837792587485 0.014851834546068643
0.08016526313479967 -0.02975559282648993 0.015147274721031279
0.0798215745259187 -0.027130773145866927 0.015441115040956632
0.079481061274007 -0.024529599559485415 0.01573151983940274
0.07914344089093793 -0.021950524537366567 0.016019457470890286
0.07880843974709467 -0.019392057888445335 0.01630587642292669
0.07847649758448531 -0.016856356145572737 0.016588968403855375
0.0781473399808489 -0.014341925611349893 0.016869685614560537
0.07782070102546876 -0.011847327536408048 0.017148960994174067
0.06734922913567036 0.042007406039772155 0.05722793276366339
0.06722418799747139 0.04336071763944871 0.05686010614870135
0.06709961030322546 0.04470901341735156 0.05649364282110536
0.06697549348118266 0.046052321207350866 0.056128535215702546
0.06685200546262753 0.047389812718100555 0.055764098422416586
0.06672880211773984 0.04872323218512259 0.05540168011472135
0.06661146792157616 0.050024671406649124 0.055018937454171135
0.06676143042971266 0.04999021714306984 0.05356687692553452
0.06691206968301613 0.04995560739567506 0.0521082635926467
0.06706339027283131 0.04992084110959355 0.05064305299832328
0.06721539683213025 0.04988591722038971 0.049171200282311534
0.06736792090955918 0.04985169085670593 0.04769336354935538
0.0675214866020465 0.04981559232640037 0.04620738700133681
0.0676755792910315 0.049780189143939 0.04471533465900723
0.06783037690721391 0.049744624002779014 0.04321645663078272
0.0729443821868262 0.02539895616448673 0.021312246760171016
0.07265991194692431 0.027572037854384113 0.021554832358398335
0.07237745202258397 0.02972921155490038 0.021796360402421222
0.07209737796272682 0.031868712749118844 0.0220351945607698
0.0718192663517701 0.033992675844821574 0.02227300693653811
0.07154348734640903 0.03609936898082311 0.0225081759690563
0.0712694306465645 0.03819182000361021 0.02274316974199425
0.0709980424079421 0.040265516520093914 0.022973945395862283
0.07072814068993212 0.04232623767398369 0.02320538375793374
0.07046047266708624 0.04437044012276836 0.02343426828047307
0.07019519888655548 0.046397425743880505 0.023659832445272755
0.06993191504979059 0.04840920598974929 0.023883704546754037
0.06989331942589698 0.04934265547435013 0.02315554431548178
0.07005844114047308 0.04930488844038117 0.021556497151377862
0.07022453301563455 0.04926604846349808 0.01994906913963912
0.07039122527664479 0.049227920190483276 0.018334815130438886
0.07055890069129828 0.04918871193866259 0.016712059291559944
0.0707271860130355 0.04915021723847268 0.015082380453704525
0.0708962759859653 0.04911153847715044 0.013444909355477375
0.08169674170693655 -0.07859352451585033 0.0443148792882474
0.08153033718349612 -0.07676503148240993 0.04382067487209229
0.08136435234813935 -0.07494252654179723 0.04332935728785897
0.08119904198482907 -0.07312742726933358 0.042840036150721184
0.08103440199087064 -0.07131968861763993 0.04235269931663732
0.0810558055739205 -0.07055661516512696 0.041226583449121446
0.08122078840651925 -0.07059496354308697 0.03960176997935577
0.0813861872731165 -0.07063203605624702 0.03797122348590937
0.08155251915954431 -0.07067069520111319 0.03633312067950062
0.08171953231528511 -0.07070951268771403 0.034688308460910144
0.08188723093448723 -0.0707484894908641 0.03303674552449498
0.08205588044577324 -0.07078907116332528 0.03137746704635269
0.08222496379024656 -0.07082837265816799 0.02971227018100192
0.08207495129860728 -0.05569345119968966 0.013194093300506415
0.08170891062692048 -0.052846658760662746 0.013507719541032415
0.08134586371720848 -0.05002377945640846 0.013819531365050597
0.08098628313067179 -0.04722722597637363 0.014127619240330846
0.08062961532555082 -0.04445395030097771 0.014433955501163609
0.0802763253042202 -0.04170631747715958 0.014736650373193938
0.07992586993766894 -0.038981349419141886 0.015037654101513032
0.07957870684133414 -0.036281364673169114 0.0153350962899656
0.07923454655021236 -0.03360473358520699 0.01562996573662434
0.07889310881858515 -0.030949887491655947 0.01592323057634637
0.07855484049447048 -0.028319077263704806 0.01621304878522456
0.07821946055603382 -0.025710730843327922 0.016500392311270207
0.07788669683268296 -0.023123334574484844 0.016786213081056767
0.07755698576510182 -0.020559074042957592 0.017068696644799264
0.07723005440377563 -0.018016432109346503 0.01734879866465633
0.07690563830188497 -0.015493947589031165 0.017627455394052916
0.0765841638378878 -0.012993743071118224 0.017902879190579313
0.07626536578534548 -0.010514353817625888 0.01817600996687363
0.07594898709017706 -0.008054368729911665 0.01844776881220267
0.06638552766989729 0.04191303695759019 0.055732630000760786
0.0662619807862829 0.043269762854213245 0.05536670595578891
0.0661390625976505 0.04462058001381858 0.05500145789398464
0.06601643053127539 0.045967258030933544 0.054638245575025446
0.06589425238051747 0.04730895139608826 0.05427637766567334
0.0657726934504485 0.04864483456207813 0.05391516423745363
0.06565141498448412 0.049976646258060475 0.05355596319408518
0.06578058186975566 0.05003805063576222 0.05217491931441609
0.06592930671199808 0.05000347937256128 0.05071022292424704
0.06607870558898979 0.049968751429287805 0.049238888394373015
0.06622861293717529 0.04993472151443862 0.047761573517413725
0.06637937292769418 0.04989967903694026 0.04627683203148364
0.06653099256391229 0.04986361679480639 0.044784601607781194
0.06668313392635519 0.0498282513579707 0.043286258082317175
0.06683597270946977 0.04979272380498517 0.04178104610406169
0.06698968780822638 0.04975616694871904 0.0402681877661053
0.07094765832944662 0.030838676836647316 0.022737202538470835
0.07067378210747663 0.03296816509925454 0.022972478416826203
0.07040220449509307 0.03508032557974283 0.023205130442813415
0.07013251526268685 0.037177256373393475 0.0234368119360977
0.06986488433739732 0.03925818308890444 0.02366672520269275
0.06959928824485903 0.04132328824790954 0.023894890408685754
0.06933570386631192 0.04337275160708276 0.024121327414674876
0.06907429352358603 0.045405845532765665 0.024345259809752495
0.06881484692085751 0.04742366665863018 0.024567510002716175
0.068557706679358 0.04942461199441722 0.024786519191340173
0.06871066069490987 0.04942892948194111 0.023232654931085894
0.06887294633009686 0.049391376003775966 0.02163420430830748
0.06903618526268478 0.04935275110479598 0.020027378049353117
0.0692000140666737 0.04931483851298202 0.018413730217812063
0.06936480893175427 0.04927584748481989 0.016791585873557724
0.06953020302057632 0.04923757062305051 0.015162523044891518
0.0696963877288433 0.0491991107897361 0.013525672944131817
0.08035942181620931 -0.07708462712331676 0.04202872899308052
0.080195391078678 -0.07525668269105457 0.041539778617752876
0.0800320286199997 -0.0734361855006811 0.04105282027859064
0.07986933036451647 -0.07162309013341817 0.04056784182668949
0.0798263072305028 -0.07049350880306499 0.03966479485814245
0.07998908241634382 -0.07053179810218024 0.03803384767598633
0.08015252279393657 -0.07057024387303673 0.03639623551834015
0.08031637788999907 -0.07060740931849385 0.034752825941539556
0.08048115989664026 -0.07064616785116057 0.033101767787690584
0.08064687610397736 -0.07068652966670302 0.03144299811957729
0.08081301844436743 -0.07072561101492592 0.02977831329337388
0.08097984674466596 -0.07076485372014124 0.0281067554024243
0.0811161939835683 -0.059842249954644544 0.013685320662343514
0.08075224205893063 -0.056960267700128686 0.013999397011126458
0.0803915415011481 -0.054104031652449924 0.01431066755667032
0.08003430170745564 -0.051274569980719664 0.014618200840141704
0.07968022283309352 -0.04847014387390358 0.014923013015902264
0.07932901477148607 -0.045689080440378005 0.015226098495122797
0.07898113533846679 -0.04293375329452054 0.015525570556785606
0.07863604965595183 -0.04020117302623061 0.0158233757829776
0.07829420826227833 -0.037493666577296636 0.01611764678836286
0.0779553260629693 -0.03480959800899869 0.01640937039846646
0.07761912705004126 -0.03214739262276156 0.016699512831476415
0.07728605115409946 -0.029509309435932274 0.016986235012053708
0.07695558790333258 -0.026892525513588728 0.017271430536102028
0.0766281703538308 -0.024299255925441632 0.01755327876074725
0.07630352708005182 -0.021727959639676553 0.017832738827711414
0.07598139514859889 -0.01917715260905517 0.018110750321549574
0.07566219759116488 -0.016648985921330017 0.018385519599532107
0.07534567070798863 -0.014141971994634683 0.01865798992733031
0.07503155895976805 -0.011654677862132479 0.018929085605889184
0.07472027568450586 -0.009189192862681383 0.01919703924761551
0.07441156457697054 -0.006744080435140187 0.019462778758970845
0.07410517717789127 -0.004317956390430977 0.01972721364794705
0.06541753169205379 0.0418164526272955 0.05422876033774582
0.0652953253687732 0.043177496018531714 0.05386545143436594
0.06517374239939175 0.044532593218888306 0.05350280840817062
0.0650527783718814 0.04588178781900465 0.05314082475354803
0.06493209615707972 0.04722684385494008 0.05278087059084352
0.06481186087826564 0.0485669185940375 0.052422249486653194
0.06469223520871038 0.0499011892394462 0.05206426648397672
0.06479578571595478 0.050086076642623045 0.0507773595303701
0.06494257948159742 0.050051544454991825 0.04930654285351882
0.06509003987502378 0.05001685544801654 0.04782904682435635
0.06523800349691686 0.04998286593700202 0.04634553393235724
0.06538681007434816 0.04994786211558033 0.044854547437340575
0.06553646654334373 0.04991183675542116 0.04335602451288001
0.06568663937877875 0.04987650966617346 0.04185135086488878
0.06583750201865406 0.04984102030544585 0.04033976564345526
0.06598923106671994 0.0498044998336874 0.038820485279738026
0.0692592622030894 0.0340598004757961 0.023903098297798686
0.06899375908508322 0.03616216205508843 0.024132271944487804
0.06873028378708966 0.038248466531588254 0.02435969524284798
0.06846881316581802 0.04031889716327436 0.024585388169416134
0.06820950802678759 0.04237271751193994 0.02480857208666115
0.06795197734207005 0.0444119480980813 0.025030866603800772
0.06769638399849115 0.046435838045163935 0.025251488852864323
0.06744306520604164 0.04844277889507126 0.02546888247025214
0.0673697312697601 0.04955321006044644 0.024900857984659686
0.0675286133675363 0.049515158888129296 0.023309725682520988
0.06768806583665556 0.049477818749792846 0.021711871197817423
0.06784845476419453 0.04943940871080382 0.020105646283669065
0.06800942306645082 0.04940171158105078 0.01849260421767701
0.06817134036190052 0.04936293755543575 0.016871070951088918
0.0683338462158725 0.049324878309723874 0.01524262371041657
0.07918207461085539 -0.07740444565454468 0.04022821921360026
0.07902027267219948 -0.07557249355932544 0.039740773903047755
0.0788588809325566 -0.073746566697657 0.03925621003356594
0.07869814710460339 -0.0719280832070176 0.038773621483279064
0.07859234679903686 -0.07043017341579422 0.03809733823331224
0.07875289719450987 -0.07046840295335821 0.036460223454059415
0.07891410488541008 -0.07050678900309315 0.03481640630533517
0.07907572283193776 -0.0705438923465373 0.03316676073345798
0.07923825624795044 -0.07058259123457011 0.03150942192963607
0.07940171234472838 -0.07062289589616288 0.029844326505276297
0.07956558999903726 -0.07066191770532976 0.028173284032135593
0.07973014550848398 -0.07070110092224996 0.026495329544404145
0.07978582955355173 -0.061120818950626876 0.014494378653898965
0.0794275418574402 -0.05823064095826874 0.01480508928895391
0.07907245764021598 -0.055366304277881306 0.015113021835260199
0.07872078296324653 -0.05252884064120106 0.015417246203568047
0.078371975943767 -0.04971514265093263 0.015719738430930996
0.07802624637190214 -0.04692626929904142 0.016019561835744767
0.07768379602047856 -0.04416322602697176 0.01631579994394522
0.07734409829269834 -0.04142301206420451 0.016610395658429256
0.07700759662782652 -0.03870796277023697 0.016901484615952922
0.07667377425620285 -0.03601514577190351 0.01719098823732923
0.07634306761179342 -0.03334685070190185 0.017477061084387013
0.07601520149855598 -0.030701474358839187 0.01776067677219617
0.07568990943252936 -0.028077473273319886 0.01804278879329979
0.07536761763520747 -0.025477070521156886 0.01832157942355983
0.07504783271415115 -0.02289749593401702 0.018598918383306184
0.0747309742715201 -0.020340929519113093 0.018873005996226544
0.07441678018550013 -0.017805860415542107 0.019144788897981713
0.07410499648111933 -0.01529083337527165 0.019415194616796194
0.07379603310683278 -0.012797965694888613 0.019682449917931444
0.073489635334569 -0.010325798546860887 0.019947485956711808
0.07318555626746605 -0.00787292642155435 0.020211215354022816
0.07288419651711536 -0.005441406083836642 0.020471890592717312
0.07258530843499301 -0.003029828394474521 0.02073042784600737
0.0722886519043773 -0.0006368353588025455 0.020987725300578464
0.07199461850382623 0.0017355747021954304 0.021242060460718637
0.06432401598858757 0.04308478496421614 0.05235696912285476
0.06420395385248916 0.044443311180670075 0.051996270364796315
0.06408433907796164 0.04579677541480931 0.05163691560038253
0.0639653334628718 0.047144343211384665 0.051278203546153145
0.0638466053335505 0.04848777303499441 0.05092151470466055
0.0637283171374689 0.04982622493613825 0.05056614753195671
0.06380701808859919 0.05013429632821059 0.0493741636848426
0.06395186395685318 0.05009980381375434 0.0478971891892605
0.06409720396683943 0.050066011300756386 0.046414201529472954
0.0642433718195253 0.05003120584360765 0.0449237447080284
0.06439020784085787 0.04999624128238295 0.04342647464744959
0.0645378838707762 0.04996025340435839 0.04192162028028129
0.06468607081661144 0.04992496527109702 0.04041057725020564
0.06483510863147372 0.04988864743247584 0.038891843702483
0.06498466523115752 0.049853031232414524 0.03736683676355401
0.06759404493030734 0.03723729199405018 0.025053665897105004
0.06733671195168589 0.039313061309439734 0.025276879178620537
0.06708151158369026 0.04137216525053966 0.02549760231766307
0.06682805895660844 0.04341663178839411 0.02571745216117699
0.0665765143482638 0.04544570736154657 0.025935646951219693
0.06632703294326461 0.04745867140605342 0.026151418985195185
0.06607958964799555 0.049455720393188296 0.026364797115351335
0.06619129074117572 0.049638296278068206 0.024976509661811364
0.06634717696977858 0.04960134372749597 0.023386756600695224
0.06650397677600829 0.04956332623988979 0.02178869778157727
0.0666613410393654 0.04952602131659928 0.02018387387426851
0.06681963107482303 0.049487644527063 0.018570624660676938
0.06697849449400592 0.049449982186099695 0.016950514556635043
0.06713811510767873 0.04941214033434088 0.015322682483168537
0.07799875313735871 -0.07772742342628303 0.038417290658231185
0.0778389483540671 -0.07588997225469668 0.03793226847399489
0.0776797970512705 -0.0740600348661713 0.03744922966283315
0.07752104961103451 -0.07223612282587738 0.036969063254955914
0.07736294968362073 -0.07041965031596886 0.036490855391246635
0.07751220826269434 -0.07040477684129959 0.03488086615345498
0.07767116588007213 -0.07044310247824087 0.033230809603998546
0.07783052921688813 -0.07048014301718653 0.03157489339100794
0.07799104505730665 -0.07052022727028529 0.029910309837013593
0.07815197472210925 -0.07055902837953637 0.028239782486243148
0.07831356989686084 -0.07059798994717026 0.026562346821919602
0.07847608642365503 -0.07063856804807239 0.02487700885050781
0.07863902610933629 -0.07067785668040855 0.023185619966006987
0.07880898902482154 -0.06532626441204442 0.014994701369635655
0.07845318718844368 -0.0624015771943186 0.015304821966273141
0.07810058361397203 -0.059503179654472105 0.015612154924266652
0.07775113537113987 -0.05663071890618232 0.01591673766208751
0.07740504517625628 -0.05378523025152926 0.01621764146459531
0.07706177968148505 -0.050963594423038716 0.01651683858929781
0.07672154527828884 -0.048166874109424884 0.016813393753324246
0.07638430199557697 -0.04539474074908584 0.017107341796285536
0.07605024694649383 -0.04264819462916064 0.017397772047378468
0.07571886671958593 -0.039924258177079675 0.017686612951917202
0.07539036186434837 -0.037223957201792446 0.017972947596461786
0.07506492541715083 -0.03454826651041809 0.0182558784345781
0.07474205818185227 -0.031894309249525854 0.018537302297678693
0.07442218283740835 -0.02926433851875948 0.01881539526448739
0.07410503377947235 -0.026656782937530377 0.01909111805439806
0.07379035375596539 -0.024070129398457596 0.019365411733675786
0.07347855561588357 -0.02150656577800908 0.019636479515266314
0.07316916255286926 -0.018963373303092945 0.019906167773367678
0.07286258104357876 -0.01644269763893469 0.02017269739445915
0.07255855798836039 -0.013943057271051273 0.020437002798440407
0.0722568481022954 -0.011463024970021218 0.020699999733515717
0.0719578485671961 -0.009004684930528806 0.02095993498408938
0.07166131335892084 -0.006566606304700906 0.021217727871957193
0.07136700396771421 -0.004147410306369892 0.021474279601569002
0.07107530858403677 -0.0017491217859112451 0.021727862151601163
0.07078598796123649 0.0006296417024928003 0.021979380226179734
0.07049881008202 0.0029902126493641656 0.022229720942385733
0.07021415443656978 0.005330623511009769 0.022477180796395435
0.06334801895486843 0.04299162647548804 0.050841206698005126
0.06322949374870909 0.04435359906307268 0.0504824751949976
0.06311141123910194 0.04571048462676314 0.05012508356887618
0.06299376895043456 0.04706231161380514 0.04976902432689356
0.06287672600935838 0.048408248351946404 0.04941359108375992
0.06275995620965784 0.04975004772129882 0.04906017474582541
0.06281425491498638 0.05018271086649001 0.0479652976153927
0.0629571359081165 0.050148258629112985 0.04648212746330732
0.0631005056572037 0.050114507872554115 0.044992907357483625
0.06324469335753177 0.05007974242728136 0.04349617075472639
0.06338970574982489 0.050043955051296385 0.04199185437688596
0.06353521967498055 0.05000886794750936 0.04048135318395374
0.06368140320470418 0.04997361938515088 0.03896390118878823
0.06382842748389826 0.049937339312896845 0.0374387095359926
0.06397596493402538 0.04990176237043148 0.035907205509713214
0.06595189756130232 0.04037017816847582 0.02618762063780905
0.06570271136876549 0.04241897892379198 0.026404226428717648
0.06545522597925973 0.04445326174669573 0.026619990171317165
0.06520942422428931 0.04647317381176436 0.026834919620054742
0.06496580666096033 0.04847619544178722 0.027046677758580773
0.06486075181516406 0.04976167666783199 0.026635405803938084
0.06501327867680579 0.049724224721725496 0.025052910176247556
0.06516635102813037 0.049687484034579565 0.02346374771647869
0.06532032027876858 0.04964967991673136 0.02186628464440893
0.06547484360789811 0.04961258895722376 0.020262060852800468
0.06563027580489798 0.04957442765786557 0.018649417004487745
0.06578627084084723 0.04953698141236862 0.017029916722648142
0.06594300920526222 0.049499356732717825 0.015402699396007191
0.07680890747818885 -0.07805064115030158 0.03659766367288786
0.0766513688331132 -0.07620913202407126 0.03611418687008178
0.07649423160054085 -0.07437370545331601 0.03563359892631274
0.07633749481436912 -0.07254434159858092 0.03515588669141395
0.07618139902201294 -0.07072245914575104 0.03468012811757948
0.07626699096388827 -0.07034091850151963 0.03329574438659155
0.07642368097487078 -0.0703791830276026 0.031639413773489666
0.07658101614847414 -0.07041760510573908 0.02997626330886516
0.07673900047755051 -0.07045618571099782 0.028306250785275766
0.07689763798797057 -0.07049492582652117 0.02662933364626191
0.07705693273896172 -0.07053382644358669 0.024945468982745134
0.07721713694840081 -0.07057434612132757 0.02325365550404923
0.07737775952673198 -0.07061357390657724 0.02155575817533839
0.07782104672521423 -0.06957440319901598 0.015502433335437993
0.07746806000508046 -0.06661610889440062 0.015810936762348737
0.07711826103259146 -0.0636845303133956 0.016116654160565735
0.07677136155012093 -0.0607778893301702 0.01642059743153096
0.0764275689914097 -0.057897280994266165 0.016721818505795683
0.07608708271849454 -0.05504374418583907 0.0170193900468652
0.07574937795051381 -0.05221414772867855 0.017315280515648235
0.07541465767068192 -0.04940955801660363 0.01760855603274819
0.07508311708945749 -0.04663098747579536 0.01789830282855509
0.07475424625731542 -0.04387541246472082 0.01818645642420169
0.07442824382729438 -0.041143871501030826 0.01847209675215855
0.07410507243515559 -0.0384360515135988 0.018755256550630095
0.07378492192026313 -0.03575293069873581 0.01903503959605224
0.07346730113552709 -0.03309162131823612 0.01931333914504818
0.07315240314252341 -0.030453125907999146 0.01958925298191183
0.07284041387348972 -0.02783839776521979 0.019861897647792615
0.07253085559756635 -0.025244645822275313 0.020133135882777375
0.07222413439013069 -0.02267406584528847 0.020401173799598105
0.07191978115556764 -0.020123928850292905 0.020667854332693858
0.07161819569744642 -0.01759638823804338 0.020931401228678315
0.07131891731971231 -0.015088775306066449 0.02119363802855523
0.07102233969267822 -0.012603202080136933 0.02145280578819997
0.07072821846779245 -0.010138215597170763 0.021709826992521775
0.07043631679173923 -0.007692415893447713 0.021965605877058536
0.07014701938741726 -0.005267854733903343 0.02221840886640214
0.06986008867669814 -0.0028631285029345754 0.022469143716697282
0.06957529429090716 -0.00047688442977478207 0.022718700471153597
0.06929301229616805 0.0018888839064922225 0.02296537023909645
0.06901301160210098 0.004235532961462285 0.023210046511325355
0.06873506805645749 0.006564370387971363 0.023453605579093095
0.06845954934737693 0.008873458804001144 0.02369436257844193
0.06236730025077844 0.04289801730545956 0.049318111330312886
0.06225032825160421 0.044263453750996495 0.04896137033484593
0.0621337942005367 0.045623777944901134 0.048605964992610606
0.06201769564262738 0.04697901854425551 0.0482518878165093
0.06190203014124125 0.04832920399235968 0.047899131375302884
0.06178695414609617 0.049673505406300944 0.04754698417150882
0.061817471927467386 0.05023132144093345 0.046550726882924
0.061958211158140486 0.050197768233709805 0.04506203541168541
0.06209975317113453 0.05016320170937466 0.043565831920272136
0.06224194336330995 0.05012847689078348 0.042062776696640436
0.062384948155543594 0.05009272836662948 0.04055209347164801
0.06252844888099712 0.05005768160064822 0.039035187205225086
0.06267261130236383 0.050022473230693976 0.03751128633517742
0.0628176042194092 0.049986231542279214 0.035979596265240776
0.06296310459857196 0.04995069448337097 0.03444155450759179
0.06433216238803637 0.04346030639081183 0.02730609904764253
0.06409057757618537 0.0454844826837395 0.02751781883717841
0.06385080040842586 0.04749351319715994 0.027727954445773473
0.06361297906918764 0.0494866843488842 0.02793574674152055
0.06368614764731047 0.049847349759466364 0.026711181019580255
0.06383587371291831 0.049810108881287785 0.02512927131690368
0.06398613506957299 0.049773579843889915 0.02354069906071593
0.06413727667110315 0.04973598888021019 0.02194383133327621
0.064288961989991 0.0496991116676872 0.020340207250885645
0.0644415392968364 0.049661165639763916 0.01872816835659946
0.06459466891571035 0.049623935269757447 0.017109277481541785
0.07561298172816373 -0.07837705505612147 0.034767449237291026
0.07545724296183846 -0.07652851648635833 0.034287371074142425
0.07530238476309598 -0.0746890379362471 0.03380834857853088
0.07514768216657335 -0.07285419002727006 0.03333312325533466
0.07499361391395795 -0.071026865744857 0.03285984655008606
0.07501722046076324 -0.0702768266602859 0.031704826536347375
0.07517162518499328 -0.07031502937098794 0.03004218694109878
0.07532666682942701 -0.07035338966799015 0.028372688949737213
0.07548234934315659 -0.07039190852836769 0.026696290038187298
0.07563867670799083 -0.07043058693730042 0.025012947330089685
0.07579565293879129 -0.07046942588813526 0.023322617593159456
0.07595352660013924 -0.07050988643266765 0.021624292191386174
0.07611181376160535 -0.07054905264959616 0.01991984974796851
0.07647174666918986 -0.07087343351011693 0.016324521454565033
0.076124829242034 -0.06790816743206357 0.016628573246595446
0.07578080180320566 -0.06496824501524667 0.016930856741036004
0.07543962864745628 -0.06205335240484516 0.017231392904426768
0.07510175277912887 -0.05916599601759803 0.017528267846820267
0.07476665300715532 -0.05630299561394292 0.017823457400545306
0.0744347651774253 -0.05346680787862823 0.01811506760075582
0.0741055780479903 -0.05065432625141825 0.018405052021097545
0.07377952047040623 -0.047867958884754425 0.0186915362359103
0.07345609086498564 -0.04510467064658652 0.01897645205084486
0.073135484538246 -0.042365503678082006 0.01925888078116017
0.07281766468342718 -0.0396501435130166 0.01953885485069301
0.07250281793420019 -0.03695957174427639 0.01981547936305522
0.07219046122169882 -0.03429088971460392 0.0200906439845418
0.07188078435305624 -0.03164510346665089 0.020363447849113425
0.07157397011949428 -0.029023169615619737 0.020633008801837827
0.07126954865967909 -0.026422286577190035 0.020901186082196155
0.07096770578736752 -0.023843434194769364 0.021167091779499714
0.07066840887802747 -0.021286333734421736 0.021430754634031768
0.07037183575393076 -0.018751909519663323 0.02169130897821342
0.07007753332570224 -0.016237482852968832 0.021950574955516278
0.0697858886693171 -0.013745173364962782 0.022206796453173472
0.06949645674000081 -0.0112723611439145 0.022461774676089064
0.06920961871191239 -0.008821125261213536 0.022713770466187222
0.0689251387265625 -0.006390040538307384 0.02296369464504222
0.06864278811326817 -0.00397773355076203 0.02321244019427765
0.06836293943515775 -0.0015862242892740186 0.02345829280931272
0.06808536331160377 0.0007858643507807073 0.02370214893995004
0.0678098372778822 0.0031398598082693074 0.023944887715269147
0.06753672556435542 0.005473799148048797 0.02418481901923142
0.06726580500014555 0.007789013514473975 0.024422825377011126
0.06699685907202367 0.010086786366345302 0.024659772490193466
0.06673024394455 0.012365209882792216 0.024893993791412883
0.06138182552954991 0.042803954175749115 0.04778762967787681
0.0612664231971621 0.04417287209919035 0.04743290271155515
0.06115145397971946 0.04553665235524723 0.047079507066125015
0.061036915443512016 0.04689532381291228 0.046727435260781325
0.06092280517302923 0.04824891512529311 0.046376679870661464
0.06080912077079071 0.04959745473162386 0.046027233526321154
0.060816644661468675 0.050280129244621274 0.0451304167688828
0.06095538684989413 0.0502466191601349 0.04363545817035558
0.06109492172203028 0.05021209401726601 0.042132939872086106
0.06123509688703424 0.05017741044669627 0.04062352686891735
0.061376076427589 0.0501417013918215 0.039106437245200465
0.06151754620804771 0.050106695589521855 0.03758308602976973
0.06165966966123847 0.050071528040141255 0.03605269604489436
0.06180261322040683 0.05003532535971911 0.034514466911485076
0.06194605843664342 0.04999982881708537 0.032969846440665695
0.06273421688384045 0.04650944086416131 0.02841019485732571
0.06250022419424008 0.048508570569057996 0.028616366278251038
0.062366071420704716 0.049968955192138675 0.0283600681683413
0.06251214724860502 0.04993297881348718 0.026786917285307132
0.06265907538032044 0.049895948790983025 0.025205593114212443
0.06280669581693032 0.049858744288280354 0.02361681796371734
0.06295484547711026 0.04982225316504407 0.022021337879372216
0.06310386448759799 0.04978469818694692 0.020417508091916503
0.06325342106789805 0.0497478585079803 0.01880687874899123
0.06340368823238866 0.049710843793744186 0.01718859686569607
0.07425700626779091 -0.07685107376261613 0.03244991585961399
0.07410396934020433 -0.07500457979102587 0.03197432815952739
0.07395179807647763 -0.07316713795036028 0.03149977091062678
0.07379978008634534 -0.07133433083601898 0.031029009470702085
0.07376287173402028 -0.07021250003453466 0.030108080753957156
0.0739149733421982 -0.07025064021880761 0.02843909700011904
0.07406770352416271 -0.07028893802081532 0.02676321601842574
0.07422106618443848 -0.07032739441962876 0.025080394965217856
0.07437506525995745 -0.07036601040245516 0.023390590641248987
0.07452994459896381 -0.07040624634765735 0.021692794884927424
0.07468522944769683 -0.07044518765928115 0.019988885475549334
0.07484116272656256 -0.0704842915798703 0.018277860972670756
0.07477904931775609 -0.06920098535269337 0.01744859597226539
0.07444081590073165 -0.06625271087327117 0.01774742793624834
0.07410562843437492 -0.06333098698914902 0.01804356877797575
0.07377321092416367 -0.06043404385300777 0.018338020189860527
0.07344399530065454 -0.05756437180958485 0.01862888147780467
0.07311747402057138 -0.05471881579272447 0.018918113431864725
0.0727940720544882 -0.05189981683758915 0.019203835043580364
0.07247351833223425 -0.04910564517844218 0.019487040267164135
0.07215555055224478 -0.04633463637675356 0.01976870207409398
0.07184058354340911 -0.043589159725166804 0.02004696827004121
0.07152813336794134 -0.040866238142791333 0.02032374568679024
0.07121860828435356 -0.038168194517080145 0.02059720088546313
0.07091153333129481 -0.03549211923731438 0.020869219926420213
0.07060709505242166 -0.032839021860822326 0.02113890329778445
0.07030547308945816 -0.030209862328048342 0.021405370152757286
0.07000620547870783 -0.027601828505270376 0.021670476215231882
0.0697094748375413 -0.025015903665243144 0.021933334904325585
0.06941524904228953 -0.022451807859146244 0.022193974676776806
0.0691237028496135 -0.019910468633292988 0.022451531142697545
0.0688343908005103 -0.017389197247230814 0.022707821045202803
0.0685474904432762 -0.014888943062784543 0.02296197452677995
0.06826317298219273 -0.012410610079116924 0.023213139176324227
0.06798100475365754 -0.009951597466963613 0.023463103551784048
0.06770115962542475 -0.0075128299863708725 0.023711009962179008
0.0674238053422599 -0.005095188716406629 0.02395601767576
0.06714871428427276 -0.002697275523101006 0.024199026113688793
0.06687566572350127 -0.00031774282023683265 0.024440917254180572
0.06660502035413252 0.0020414205364032156 0.024679995703421498
0.06633655675351614 0.004381565836780343 0.02491714685596219
0.06607006013225437 0.0067039958478523065 0.025153239166107122
0.06580588316556438 0.009006777666474397 0.025386600945320692
0.0655438103737444 0.011291217781559781 0.0256181039931207
0.06528363266455513 0.013558576079682916 0.02584860365027908
0.06502569494981887 0.015806973715271344 0.026076451311237925
0.060391560110474606 0.04270943377610087 0.04624970788017285
0.060277744089832955 0.04408185093187911 0.04589701873730395
0.0601643562649467 0.0454491048146361 0.04554565647248643
0.06005123849244488 0.04681209640408579 0.045196329877133956
0.05993885557298383 0.04816823887506111 0.04484688273758769
0.05982673793620955 0.04952017656672869 0.04449945648733611
0.059811748453492554 0.050329135480329024 0.043704332272408
0.0599484761605104 0.05029566914790967 0.042203067808800954
0.06008598632082153 0.05026118601212737 0.040694195578453385
0.060224128774609344 0.050226544317529875 0.039178385314708464
0.06036306524519633 0.05019087535600808 0.03765484941432318
0.06050248616741702 0.05015591114996548 0.036125013044580045
0.06064271143668867 0.050119913238855895 0.03458734227180543
0.060783428657607684 0.050084622014546665 0.03304328419041391
0.060924800446497555 0.05004916662773928 0.03149204368333214
0.06115779498800726 0.049517504865195405 0.029499418992015247
0.06119545301449335 0.05005433107984747 0.028435185406365304
0.061338912634559886 0.05001768176705679 0.02686183444457929
0.06148288321030402 0.049981744484997204 0.02528187559856926
0.06162769522653218 0.04994475166326956 0.023693690266477774
0.061773026221380756 0.04990847280591487 0.022098804313857856
0.061919209847899837 0.0498711316042586 0.020495573841370074
0.06206592063584382 0.04983450629770547 0.018885548213613434
0.07305036336684152 -0.07717535267313613 0.030602653314325823
0.07289941227106211 -0.07532327100849895 0.030129616198563303
0.07274908373820328 -0.07347882782663517 0.02965853001489782
0.0725993739247663 -0.07164197597005872 0.02918938271891025
0.07250391958071999 -0.07014793733178376 0.0285054749568876
0.07265370009312896 -0.0701860142719874 0.02683011160769544
0.07280410072770974 -0.07022424885850503 0.025147811909088658
0.07295512534360027 -0.07026264207239291 0.02345853269484033
0.07310677783202843 -0.07030119490287579 0.02176223043979636
0.07325929834274968 -0.0703413702270107 0.020057889592823397
0.0734122193671822 -0.07038024846852514 0.01834740167106952
0.07309878017885883 -0.06754081673310408 0.018564417250242105
0.07276912203869375 -0.06460936488525676 0.01885809759148438
0.07244265489634491 -0.06170565266675798 0.019148177236598674
0.07211910395519983 -0.05882787815507151 0.019435665715393402
0.07179820341623523 -0.05597430802905351 0.01972155094560596
0.07148037087022986 -0.05314739211840136 0.020003955064191503
0.07116511693464454 -0.05034403651319175 0.02028481312260466
0.0708528525132342 -0.047566642742973564 0.020562266519223882
0.07054309744409497 -0.04481218782880536 0.02083822890728454
0.07023625609615992 -0.04208302615797549 0.021110860577945645
0.06993185726577468 -0.03937620354216098 0.02138205424983497
0.06963029893495895 -0.03669402835119451 0.021649988748148052
0.06933111860590241 -0.03403361313075054 0.021916536305657486
0.06903470801746206 -0.031397221325956015 0.022179893932417816
0.06874061313476765 -0.028782030239532186 0.02244191380988847
0.06844921959323778 -0.02619025945359499 0.02270081079305103
0.06816008158709702 -0.023619149126846983 0.022958417432961953
0.06787357878414878 -0.021070876009989636 0.023212966098545063
0.0675892733825032 -0.018542741288929798 0.023466270118298105
0.06730733981218477 -0.016035697651825387 0.023717460937077273
0.067027946264847 -0.013550652252621698 0.023965687403164293
0.06675066654142427 -0.011084994547263083 0.024212734743147557
0.06647567145450875 -0.008639652541533871 0.02445774654513705
0.06620293288367601 -0.006214376179859038 0.024700747863531047
0.06593261450696579 -0.0038100420945108016 0.024940903026564598
0.06566430488198698 -0.0014241516548403332 0.02517996110324955
0.06539835840170619 0.0009412991401019366 0.025416229418872116
0.06513437071077094 0.0032887553160120264 0.02565143950750831
0.0648726909172044 0.005616258528433171 0.025883914535066443
0.06461310532540467 0.007925134925069632 0.026114529084048987
0.06435540660081018 0.010216663238449997 0.026344141165900115
0.06409993613639856 0.012488940000475568 0.026571097181070702
0.0638464859234015 0.014743247678189408 0.026796258435951126
0.06359485408018824 0.016980823186842797 0.027020470132352647
0.06334537452930125 0.01919981608457655 0.027242101299967292
0.05939646897483533 0.0426144527639965 0.04470429155173561
0.05928425609849796 0.043990387042393664 0.044353664302974216
