# .PCD v0.7 - Point Cloud Data file format
VERSION 0.7
FIELDS x y z
SIZE 4 4 4
TYPE F F F
COUNT 1 1 1
WIDTH 782
HEIGHT 1
VIEWPOINT 0 0 0 1 0 0 0
POINTS 782
DATA ascii
-0.003892294458989569 0.017812969627295394 0.024007702663167207
-0.003893404380215844 0.017093060657063897 0.022928726810308775
-0.003896170373164403 0.016542511521196845 0.021721808215960814
-0.0038993462673159148 0.016032725943940507 0.020481845030446533
-0.003903189752178253 0.015589756904530239 0.019188571593531267
-0.003905690337327176 0.015008285364854823 0.01799765246797741
-0.003912020056195832 0.014815150439338287 0.01650702939373816
-0.003920538571230218 0.014841426248815959 0.014842029093224574
-0.003933055655083676 0.01526897725040488 0.012859004381205186
-0.003951243235532819 0.01626418714650185 0.010423308241133578
-0.0035689538162694628 -0.037661305895106356 0.0222837054130825
-0.003555120916127385 -0.03976161871972694 0.022535231798563427
-0.0035562784057240867 -0.04041183575943613 0.021529839155343733
-0.003561999736463726 -0.04062384807576175 0.0201378688273266
-0.003273553042575803 -0.06905228143483211 0.043697332889849894
-0.0032555677728842375 -0.07147481396172173 0.044391725119898084
-0.003243772610388733 -0.07329859217644669 0.04456703256195238
-0.0032344393437730903 -0.07488277528269555 0.04453763450860582
-0.0032269858887691567 -0.07628427520469194 0.044351617946830624
-0.0032204764124166532 -0.07759305443065867 0.04408812464662537
-0.0032154833249983627 -0.0787555551333054 0.043696996769593155
-0.003211559791879496 -0.07981493823603486 0.0432157764908927
-0.0032087373154058596 -0.08076892380955264 0.0426409077789589
-0.003206688432491319 -0.08164899546597976 0.042000078514977335
-0.0032057708168785164 -0.08242211195179716 0.04126144121435338
-0.0032058021797108736 -0.0831060543160207 0.04044010490933958
-0.003207669371763266 -0.08361865397191975 0.03945739337098453
-0.0032108832034387523 -0.08400664706927002 0.03835502224115217
-0.0032149075893022016 -0.08432070765552341 0.03717935265023764
-0.00322120454778944 -0.08442583183169977 0.035800140386754775
-0.0032294426836336093 -0.0843541287636867 0.03424511085140919
-0.0032396276373874103 -0.08410632577012889 0.032512274041121725
-0.0032525463780572065 -0.08361123032679613 0.030529762684991302
-0.0032690870412279928 -0.0827890332345847 0.028215832897133364
-0.0032973028006321285 -0.08090418399312888 0.02484342986874466
-0.002771488916919598 0.07360049335942581 0.037734706053568434
-0.002760125898811363 0.07084126712308225 0.03784050969505126
-0.002752778496244538 0.0687483652613528 0.03754094763606458
-0.0027459791365941713 0.06674995181964649 0.037190292645292944
-0.002739101659842623 0.06474313899231143 0.03685296115418962
-0.0026935336621955385 0.05642837965461284 0.04055492995319432
-0.002687874800056027 0.05464126882706977 0.040115430202291746
-0.0026816552310535728 0.05276667640888 0.03973915650711951
-0.002677505674516225 0.05123180898830848 0.03914944073629634
-0.0026809312149479406 0.05092574928532573 0.03776148741831187
-0.0026818939130300295 0.0502196321101237 0.03663241261001443
-0.002678950397990104 0.04888312916217907 0.03591885507612641
-0.002666573237232546 0.04603064023274883 0.03621643593685858
-0.0026618132511651653 0.04440926606826395 0.03570596010989119
-0.0026432378420029666 0.04057692386629813 0.03668720764917066
-0.0026384730909970494 0.038965347125235916 0.036189831221575486
-0.0026391823241889456 0.03823056252314977 0.03510230160559186
-0.0026242025413357145 0.034996163727815555 0.03572214052550593
-0.002624848928167966 0.03425551888680045 0.034646399091847246
-0.002627737907377933 0.03387024743916467 0.03332431517152834
-0.0026298890308896774 0.033366294800345586 0.032081189242520736
-0.0026319485467456343 0.03284648471040963 0.030846528250107252
-0.0026317107457158877 0.03196309485426374 0.02986477592364345
-0.0026266162919917828 0.030315590025698724 0.029423063930920812
-0.0026206923951136918 0.028541100988750512 0.029077771858025625
-0.0026150925207201895 0.02682120132459692 0.028700751688789217
-0.002609080199441985 0.02504039410188663 0.028374342173352496
-0.002604034100524754 0.023414259089363343 0.02794365420870165
-0.0025999277050280547 0.021937734131869835 0.027410576132886666
-0.002597246186333679 0.020685326971609908 0.026718982031496974
-0.002595040213261472 0.01950840789942293 0.02597530614879584
-0.0025934844050301033 0.0184335484085843 0.025159056578534233
-0.00259329198424368 0.017570294969159017 0.024187746870910853
-0.002593068811895863 0.016702424825268902 0.023220120648544118
-0.0025934382214991324 0.015925854901531922 0.02218429817997869
-0.0025953176821298654 0.015380853064547118 0.020973397141386463
-0.002597346547111292 0.014857529941057657 0.019743704863213918
-0.002600492533873366 0.014503672209597585 0.01838229046183687
-0.002604911293491002 0.014341946436094377 0.016869674084347808
-0.002610077733969548 0.014291194442526689 0.015265979612337222
-0.0026177326139769823 0.014615119086831496 0.013365513072010171
-0.0026274929664342576 0.015253270892575055 0.011210625449917522
-0.002653141343850029 0.01828835019781455 0.0071665482672664815
-0.002387493590765809 -0.035705032116217617 0.022168444806998644
-0.0023738923467233803 -0.03844660783120063 0.022963839366590577
-0.0023658198236748275 -0.040378711847166626 0.02307250151871232
-0.0023651794658497167 -0.04123160929079389 0.02224733195302009
-0.0023696435598885212 -0.041348094439407956 0.020775089917951683
-0.002181230143055427 -0.06921608104096455 0.0438422084187316
-0.0021688863084845657 -0.07168901309269726 0.0445821731483827
-0.002160942805088517 -0.07352377846814206 0.04476830095858503
-0.002154639336853927 -0.0751190728649847 0.04474994237004837
-0.0021496462462037044 -0.07652348049013363 0.04456766535511181
-0.0021454608387602996 -0.07780977790261884 0.044284892476243176
-0.0021418952973134035 -0.07900540229953507 0.04392502616070271
-0.002139289137297874 -0.08006287023930259 0.043443242062614185
-0.0021373739641212617 -0.08102102967462765 0.0428734121806123
-0.002135952885681045 -0.0819083035206924 0.04224047486984028
-0.002135310885943603 -0.08268508442035527 0.04150650792546445
-0.0021353578484674765 -0.08336476970140322 0.04068246272128612
-0.002136203526960495 -0.08393265704528474 0.0397530774794948
-0.0021384305481477726 -0.08430813031582535 0.03864039677176845
-0.0021411605256795364 -0.08461493952623794 0.03745931416594428
-0.0021451448255970784 -0.08474909540413511 0.03610932699410824
-0.0021504662359279193 -0.08470032263239924 0.03457795220414023
-0.0021570913402084663 -0.08447453536357696 0.03286812304617348
-0.002165360588772495 -0.08402598069749884 0.030932673541587685
-0.002175950631650237 -0.08326302849789913 0.028678689572063987
-0.0021917839328881145 -0.08178625669501799 0.0257092468447912
-0.0013852216334649403 0.07342821499934604 0.03784172725903001
-0.0013804074105454966 0.07095455061066791 0.03776973533278638
-0.0013767058491013235 0.06885228282602257 0.03747565500332295
-0.0013732312289253673 0.06682911646523576 0.03714026984133473
-0.0013697569260634071 0.06481052073306937 0.0368101421808229
-0.0013469329065067886 0.05648257013597158 0.040520298551403655
-0.0013441110482919126 0.05469781871547741 0.04007908662460452
-0.0013410292729662968 0.05283221807717192 0.039696796292340686
-0.0013381337044391507 0.05103097958094699 0.039279970222364624
-0.0013373800380854861 0.049926860055008626 0.03841437030243372
-0.0013375560906223577 0.04912408906129201 0.03735249145365338
-0.0013368235257802115 0.048028113763012914 0.03648399144768122
-0.001333555205882876 0.046117071867979864 0.03615898767601472
-0.0013245116395947704 0.042355464174548496 0.037078685611179385
-0.0013218268385381856 0.0406435646317404 0.03664241751814007
-0.0013205962799036608 0.03940028887590469 0.035895872118393124
-0.0013218868269308799 0.03896340712975571 0.03460424641363402
-0.0013130555439930538 0.03530018280727326 0.03551437546158004
-0.0013135963887003425 0.03462812554046302 0.03439034908832672
-0.0013147981039351344 0.03416506813978892 0.033120596381294054
-0.0013158831143697362 0.03366351026055764 0.031874679794509364
-0.0013169857960765219 0.03316614192116413 0.030623199325373385
-0.0013162081737809008 0.03207435876309095 0.029786612550914637
-0.0013134858149325588 0.030371507819647314 0.029383565110387477
-0.0013104641045057887 0.02857813408653359 0.029051468819848103
-0.0013076675777553169 0.026859227619588255 0.02867359490343563
-0.001304766056326134 0.025111073760934688 0.028323588905999342
-0.0013019627314552135 0.023397302977852474 0.027955896644082934
-0.0012998400931276265 0.021899181060643425 0.027438563971269148
-0.001298198645722629 0.020553377486325908 0.02681529477706268
-0.0012971040814267576 0.019379344081696892 0.02607002647034362
-0.001273151864972327 0.011130263495848614 0.030548159043332523
-0.0012699545230274922 0.009324093951351142 0.030305735211959728
-0.0012683250470248248 0.00800541166816704 0.029707636228940404
-0.0012727068273132326 0.008538245000718536 0.027724975646576167
-0.0012964766965138648 0.015017914793694576 0.021247074845764102
-0.0012972696891907266 0.014427508127370592 0.020069723198205047
-0.0012987968108537963 0.014060528184589027 0.01872007402335185
-0.001300888926378377 0.013863958122778963 0.017235985279538457
-0.0013032404229481155 0.013743665927735627 0.015687847260520082
-0.001306744566607136 0.013970528225289935 0.013864842883234085
-0.0013112231470529072 0.014488296040224169 0.011806399692544767
-0.0013186034914750655 0.015878140153283316 0.009053748802959172
-0.0011974372600280924 -0.03386160425682189 0.02216068086639622
-0.0011906757609215358 -0.03659854081120972 0.022938232212722842
-0.0011852235432255553 -0.038946694858344344 0.023396954517892754
-0.0011813299129357529 -0.040836376802495966 0.023470965723769943
-0.0011803724576906604 -0.041872443469413045 0.022808211134984657
-0.0011814257439188888 -0.042327429691849716 0.021636748476383028
-0.00109005454791712 -0.06937736229476349 0.043984856545271844
-0.0010836980760929493 -0.07190291788811082 0.0447723594781983
-0.0010797050876169814 -0.07374328756128795 0.04496449515358303
-0.0010765286376076206 -0.07534515330204777 0.04495307036501922
-0.0010740568752983506 -0.07674198528678655 0.04476501632470559
-0.0010719803020047287 -0.07802320074720115 0.044478663596369206
-0.0010701161426641128 -0.07924144729200916 0.04414045864577193
-0.0010688098548614802 -0.0802992893056822 0.04366014507388788
-0.0010678093944202854 -0.08126902795819835 0.04310212836901006
-0.0010670687471331247 -0.08216422661464262 0.04247773313387321
-0.0010667248522632153 -0.08294686454464867 0.041750463478859634
-0.0010667066216117531 -0.0836376586251783 0.04093809793359787
-0.0010671782147632144 -0.08419126892866202 0.03999660192454918
-0.0010682009965010501 -0.08459149610600697 0.03890862188971356
-0.0010696105266818799 -0.08488523813678767 0.037716503193492956
-0.001071457157606917 -0.08505923827077566 0.036405964255179946
-0.001073998790848354 -0.08504278496584905 0.034907205944966935
-0.0010771948314575836 -0.08484845535628849 0.03322949075560594
-0.0010812040221642772 -0.08443367250391665 0.03132872732852654
-0.001086330597249339 -0.08371618175480705 0.029121194014534058
-0.0010936754317955912 -0.08239553209276573 0.026307293900694584
0.0 0.07729439345415651 0.03706478799764412
0.0 0.07343110935990688 0.037839929250527315
0.0 0.07097750098865369 0.037755396982155576
0.0 0.06893773032434802 0.037421967331324635
0.0 0.06691538109980871 0.03708576067412195
0.0 0.0649158453117894 0.036743211729333425
0.0 0.06297784852828098 0.036369374069722016
0.0 0.05475034241272925 0.040045330606241825
0.0 0.052955329175017274 0.039617228397865245
0.0 0.05116395840777421 0.03919354036056416
0.0 0.04940269540931386 0.038756968976289885
0.0 0.04762903201074925 0.0383351629728394
0.0 0.04587854278781128 0.0379047854386545
0.0 0.044205409046104815 0.03742960698274139
0.0 0.04246897467072702 0.03700281716775994
0.0 0.040879538874455335 0.03648381613982604
0.0 0.04010754345825179 0.03541786805824326
0.0 0.037035457087917834 0.03591451808585083
0.0 0.03555051350084565 0.03534330076243475
0.0 0.03509324755781468 0.03407072384006632
0.0 0.034633874741253956 0.0327966546991052
0.0 0.0341308822986911 0.03154994318241655
0.0 0.03346995768258404 0.030410938049755865
0.0 0.032240740791657785 0.029669728462881684
0.0 0.030426197626819362 0.029344933706572096
0.0 0.02864357551605612 0.02900498854889677
0.0 0.026877629973097006 0.028660452714212303
0.0 0.025139108681889843 0.028303457741565008
0.0 0.023409414341703128 0.027947152151619248
0.0 0.021853408821757514 0.02747179260866678
0.0 0.010877687079676956 0.0338777877174678
0.0 0.009638475484867182 0.03321887904500348
0.0 0.008365695762586556 0.03258813680175787
0.0 0.006563314651608809 0.03235400150228629
0.0 0.005062768630708536 0.03190269356738634
0.0 0.00479666827364017 0.030531143018649565
0.0 0.014862066364346838 0.021364594115017732
0.0 0.014239960483317438 0.0202119112656462
0.0 0.013717328647612659 0.018981675569052336
0.0 0.013380045225671822 0.0176068368396487
0.0 0.013201185155627904 0.016105825651290928
0.0 0.013326840301729814 0.014363473237052171
0.0 0.013714370433476286 0.012409144921087967
0.0 0.014749687923329813 0.009937329741352474
0.0 -0.03202700713779921 0.022170143833564193
0.0 -0.034742631810828484 0.022915727548312392
0.0 -0.037052048074140975 0.023328943776432964
0.0 -0.03927027503602332 0.023677200695071676
0.0 -0.04119682854442941 0.023784791624439472
0.0 -0.04226921730868338 0.023155480668695216
0.0 -0.04317012914660279 0.022378189362497358
0.0 -0.06952440639384494 0.04411491236241544
0.0 -0.07211113445332856 0.04495748830744689
0.0 -0.07396019584452973 0.04515836478061824
0.0 -0.07556711698291158 0.045152499550648484
0.0 -0.07695266002114193 0.044955295273867435
0.0 -0.07826322513752548 0.04469658682319966
0.0 -0.07945483771442646 0.044335214859447414
0.0 -0.08052720613360898 0.04386924769430811
0.0 -0.08151514671620907 0.04332911116669291
0.0 -0.08241311305569149 0.04270846793796268
0.0 -0.08318039434910202 0.04196809227261733
0.0 -0.083881593481892 0.04116660973255104
0.0 -0.08442538659538606 0.04021706114754331
0.0 -0.08485611745457344 0.03915910411053691
0.0 -0.08517617410033479 0.03799332865475391
0.0 -0.0853351902600365 0.03666989952852129
0.0 -0.08536180530342963 0.03521392183541272
0.0 -0.08517523461765963 0.033545300221463514
0.0 -0.08480930131382075 0.03169363339311748
0.0 -0.08414941718775965 0.029544248689292563
0.0 -0.08295137361357585 0.026852891813064272
0.001391721152260018 0.0764644809650531 0.0375774094013373
0.0013851381937262169 0.07340072040460766 0.037858807202623745
0.0013805469880462475 0.07100045368722985 0.03774105718172566
0.0013771354448481052 0.06899328852957831 0.03738705945505355
0.0013738011942781804 0.06701582915184295 0.037022289244704354
0.0013704013764889137 0.06502121944417227 0.036676249788052395
0.001367172339733128 0.06308670638613179 0.03629980649772824
0.001344425383053323 0.05480018424036798 0.04001329817636673
0.0013419065708979044 0.053117352958216846 0.039512510858100314
0.0013389702846370942 0.051302342849405325 0.03910359710831207
0.0013360509059211726 0.049496581024643604 0.03869560450317955
0.0013333476516537914 0.04776439917546382 0.03824618880469666
0.001330748531645226 0.046069270001200036 0.03777872117661152
0.0013279778644300752 0.04432227813816436 0.03735192794696618
0.001325709282386126 0.04274009692238695 0.036821603765455124
0.00132500570632886 0.041662440606177686 0.03595761763482386
0.001327090461226167 0.041477599402800325 0.034491904027083076
0.001316069409209955 0.037106314084838 0.035866362317377554
0.0013157008342353045 0.036142937899669936 0.034938440997342
0.0013166405135786824 0.03559598743910003 0.033725248129668484
0.0013177961345148623 0.03511634752614623 0.03246326979142705
0.0013188462892790341 0.034601825201044045 0.031222725484049252
0.0013187189086704375 0.033713832977099456 0.030240554259054808
0.0013168706818128967 0.03228329595251617 0.029639833280025285
0.0013138531497770766 0.03048711921762809 0.029301900338979392
0.001310896611584602 0.028713979149824376 0.028954983834797776
0.00130796901193844 0.026953710567783173 0.028606119143720188
0.0012707080018107917 0.014457649049248844 0.03597354251218299
0.0012665345090428647 0.01233805994171 0.035940750255657516
0.0012625342572958286 0.010277803581235478 0.03587517419009828
0.0012584504427813014 0.00819671239006442 0.03583468836465903
0.0012560626407663179 0.006647026505842923 0.03541431239091897
0.0012553011780418442 0.005603905413635923 0.03462606512505684
0.0012520958669581792 0.0038067480407569243 0.03439914233139013
0.0012498572233159673 0.002311737231368405 0.03395481867551092
0.0012493604366750793 0.001355503422476756 0.03311200270204856
0.0012675560034225394 0.006138775323871082 0.027942490298211053
0.0012968615233031262 0.014302456695010735 0.020164530155593163
0.001297766766116439 0.013745611315950701 0.01896011729476399
0.0012990439559617227 0.013301078928713073 0.01766735346278142
0.0012999793242181971 0.012750838512601337 0.0164528152126166
0.0013025799047396518 0.012705291910431904 0.014844953288058516
0.001306396820101718 0.01302514626286494 0.012945923361561473
0.0013119082191514284 0.013852704341119015 0.010639670145541236
0.001204422061972863 -0.030276531426012554 0.022260498518914817
0.0011982155528492064 -0.03286446390854009 0.022884076138033227
0.0011929645230706748 -0.03516580930439256 0.023278393574958256
0.0011879369362847608 -0.037395394007681604 0.023624747697455206
0.001183444997329487 -0.03946301447399847 0.023844128382273067
0.0011795789477033953 -0.0413435641328212 0.02391254639111179
0.0011777823639440338 -0.04262102919890037 0.02346339802356462
0.001176906728900465 -0.04363060512367428 0.02278333465427196
0.0010888131107679355 -0.06973456498194552 0.04430079093269407
0.0010822565590584941 -0.07231676361236955 0.04514031663060558
0.0010781969996936011 -0.07417527576961075 0.045350600246387596
0.0010750003082572307 -0.07578195722809394 0.045345528495610965
0.0010725566145887815 -0.07716980271056606 0.045151416004187706
0.0010702944010719526 -0.07850287204205014 0.04491416732267883
0.0010685798181920875 -0.07967757367193812 0.04453850051417807
0.0010671756080844236 -0.08076216305123612 0.04408480925511338
0.0010661001563869357 -0.08175204307714151 0.04354758861717212
0.0010653644752641814 -0.08264474285601903 0.042923204652323854
0.0010650164856420377 -0.08342743717696077 0.04219831398996615
0.0010649749498426574 -0.0841236740227666 0.04139338445688545
0.0010654008455386829 -0.08468896741942433 0.040465264644856114
0.001066209425385467 -0.0851478952002826 0.039435291720221366
0.0010675432690557248 -0.08546145349129691 0.03826477188930105
0.0010694351136512502 -0.08562155128540638 0.03694379056191349
0.0010718251456968417 -0.08564585977581418 0.03548702047574798
0.00107482576734827 -0.08550422607819141 0.03386324762420351
0.001078511059168389 -0.08517736931814274 0.03205119448379429
0.001083281601842066 -0.08455624170150533 0.0299415130847126
0.001089619587345155 -0.08351039228340273 0.027401608322742577
0.0027822370126570355 0.076265513084319 0.037700308135421856
0.002769969030510212 0.07335008113670177 0.03789026487085595
0.002761504087363986 0.07106789066307806 0.03769892563139604
0.0027549047784887204 0.06909731881366932 0.0373216959993688
0.0027481986381071603 0.06711349066316868 0.03696057858334861
0.0027412842535960522 0.06509993113062629 0.036626230991149644
0.0027351320811852906 0.06321517115532665 0.036217708776387136
0.0027287603200085507 0.06129861033710221 0.035836878729008925
0.0026848686515661556 0.05328888114833702 0.03940165052812267
0.0026774482461457234 0.05122249490798486 0.03915549444194544
0.0026727474883595226 0.04960109322937384 0.03862729439673407
0.0026672488099123873 0.04785381443583864 0.038187417917178335
0.0026622349517757752 0.046188233758552855 0.03770009014114423
0.002656052604753134 0.044337865514943176 0.037341567531076036
0.002654713115242089 0.04326913279570921 0.03646800537963807
0.0026617159546232366 0.043538183384069284 0.03469690635331507
0.002638720084002367 0.03900485027001549 0.0361631326832208
0.002635727415402207 0.0376791076176855 0.03547708089211632
0.002636642005469121 0.0369776895312362 0.034367976056773386
0.002638528859636546 0.036430246431424895 0.03315195719183334
0.0026400514552792176 0.03582380061013968 0.0319744252628254
0.0026415199117543016 0.03520780426575881 0.03080168277627293
0.002639078704666456 0.03397310618161403 0.03005941269856921
0.0026340192306940967 0.032327111847178014 0.029609052426269544
0.00262807774056858 0.03054557108461836 0.029260611517639035
0.0025389791703556287 0.015708550109572117 0.03819218830969079
0.0025306774739555747 0.013591476666799662 0.03814886628688169
0.002522997966200444 0.01157705035100648 0.03804202724793326
0.0025155025057073312 0.009596286343405036 0.03792033066156758
0.002507626801887187 0.00756111431926676 0.037847371412804476
0.002499635789652412 0.005513081530928832 0.03779352780667694
0.002492832871606361 0.0036544769506605124 0.037610553452966156
0.0024927902031538773 0.0028466912042158787 0.03666061670965276
0.002486675307591188 0.0011009402022972847 0.03640662441593617
0.0024818796679205225 -0.00043751533991387426 0.036005616871219503
0.0024797315298646064 -0.0015656236397572076 0.03530283615266239
0.0025012241876564176 0.0009367099384718358 0.031865166485967045
0.002591353975874784 0.01393954580836887 0.02043966876309472
0.0025939232314001522 0.01349945166995864 0.01914775083427267
0.0025969297153764395 0.013124402724839057 0.01780275106477286
0.00259985035059624 0.01273435310789428 0.016465517124435336
0.002602451991348646 0.012293970422403322 0.015163581883689659
0.00260931392844927 0.012497691375341513 0.013356713383179286
0.002618218909126513 0.013006029590237278 0.011302618608081627
0.0024167053698152933 -0.02834863423405032 0.022209931149559603
0.0024039997522069417 -0.030985930331060008 0.022862078627083282
0.002393772341729746 -0.033252952815839676 0.023215263120501206
0.002383495047402249 -0.035520674062988644 0.023582515117228364
0.0023743245149632935 -0.03762078459027374 0.02381892916745182
0.0023660440308266623 -0.03958580796550243 0.023950477315088647
0.002358769432725617 -0.041399825487002995 0.02396153011929214
0.0023534647839090392 -0.04292449082021638 0.023728997630452164
0.0023514318554383575 -0.04397400359376413 0.02308547044481707
0.002176302887536704 -0.06992494854701459 0.04446917912562698
0.0021630771526530016 -0.07252288957316283 0.045323586668508165
0.0021550059846696243 -0.07437407253128375 0.045528282045650126
0.0021485310069336923 -0.07599196799392499 0.045534218266117976
0.002143581929235909 -0.07738813702802616 0.045348612998974025
0.0021389854110509354 -0.07873096986997169 0.04512126217094198
0.0021354935294391805 -0.07991405795755818 0.044754333931345425
0.0021326998937997643 -0.08099601811548507 0.044299359918957726
0.0021305523157000242 -0.08198489756759603 0.04376233845632932
0.0021290884138126546 -0.08287601597354127 0.04313761069725658
0.002128248358317304 -0.08367844774473582 0.04243223328439283
0.0021282379914225437 -0.08436390828361617 0.04161842963434176
0.0021290365393851663 -0.08493610608961422 0.040697985224914246
0.002130692582217766 -0.08538903503504514 0.03966354708082437
0.002133126804827059 -0.08573457581405958 0.03852464767797159
0.0021366370662907956 -0.08593206271052356 0.03724078033206668
0.0021415226002246763 -0.08594102224668049 0.035770798684888194
0.002147327214593956 -0.08582591873851508 0.03417414124334217
0.0021545596475914556 -0.08551739100637573 0.03238150987190391
0.0021637306024406507 -0.0849464611888715 0.030322562661352914
0.0021757284979113077 -0.08399289522834213 0.02787521921652303
0.0041723724457307 0.07615732352009863 0.03776713480329802
0.004155375059848616 0.07339637945560085 0.0378615038477238
0.004143539407448889 0.07120856838610168 0.037611036598810044
0.004133204168447239 0.06918998882767424 0.03726347033549943
0.00412281661279202 0.0671701254427286 0.03692479202163218
0.004111848984228311 0.06509149641285439 0.03663159098855501
0.004103109099532959 0.06325987189800736 0.03618914196278267
0.004093600683957901 0.06134856665138633 0.0358047727206634
0.00408075396779768 0.059079670211798 0.03565900749110268
0.0040163323511919905 0.05123979280375318 0.039144251639039396
0.004010016605407245 0.049697712707803876 0.03856414304638894
0.004004246634749865 0.04821711659510275 0.037948626571632005
0.0040025103245128 0.047172535894799694 0.037049499592325286
0.0040210513923302875 0.04830379236230542 0.034705546594925196
0.004220917343626282 0.06883842512659566 0.019377934647936523
0.003972065860572373 0.04134713271559137 0.03616954019664642
0.003962519437367082 0.03947818826134797 0.03584322315230021
0.003963454036900181 0.038728619588658975 0.03476381251099786
0.0039651446245402835 0.038058933078661206 0.03362905981786202
0.003966500534071104 0.037353052453190316 0.03251781799222636
0.003967400986146489 0.03659841835279187 0.031439170482231604
0.003966044461097055 0.03560516794961788 0.030525588945370108
0.003961178219115236 0.03424279012047149 0.029870997665037313
0.0038077606699302383 0.0172661371847197 0.040189451664528864
0.003793401524880034 0.014943857600996036 0.040281240862732715
0.0037808508382861723 0.012817069329874808 0.04024588443264232
0.003769217343196996 0.010791488948326766 0.0401485001055486
0.003757515181634025 0.00876373414220516 0.040062198137510885
0.003745596439747082 0.006718458163268937 0.03999814346146302
0.0037335509982714455 0.004665133332576177 0.03994972656210932
0.0037222803178195954 0.002697254512374958 0.039848860046976076
0.0037100480624277497 0.0006347687505625643 0.03982672632568279
0.003711823638529735 2.30768947307447e-05 0.038744165005619
0.003703778871811048 -0.0016006917360573136 0.03841100833344735
0.0036963421264160712 -0.003158528171267827 0.03803534970236422
0.0036913246291172567 -0.0044650761283301366 0.03747741376092745
0.0037089562444759644 -0.0034515877171065745 0.03517421192138925
0.003800517945646033 0.005104431485076721 0.027137955151031623
0.0038869387488834834 0.013097303151974604 0.019454285845457775
0.0038921210911677063 0.012791502201464189 0.018057872759592586
0.0038950357252856014 0.01225334917063503 0.016836127958933522
0.0038984532487547764 0.011764873559089561 0.015573444717062401
0.003908695272145877 0.011964572153824349 0.013771914875690183
0.003921746797440131 0.012443189443562708 0.011743323860606725
0.003949552577776394 0.014400858422124796 0.008539344257951942
0.00363550479852471 -0.02654757840502381 0.02227605842454794
0.003617095110531684 -0.02912772415642606 0.022867130035932992
0.0036020753539135926 -0.03136903827712206 0.023186959477606683
0.0035869736672117063 -0.03361189694006317 0.023521263161023653
0.0035727185685282296 -0.03576599863941127 0.023792759968910948
0.0035598327448562814 -0.037781196122697536 0.023957129028387536
0.003548162955889404 -0.039673198318814495 0.024026164313636245
0.0035378294520930728 -0.04143117623366438 0.023988825524371593
0.003529085104478408 -0.0430316273244683 0.023822767028009617
0.0035235257686887025 -0.04432217093039642 0.02339180207602043
0.0032625610686108867 -0.07010653339334721 0.04462978513238419
0.003242488700406564 -0.07272643941203549 0.04550456623334165
0.003230421671801817 -0.07457337373928435 0.04570641471207143
0.0032206346745946874 -0.07619792237306933 0.04571926346788119
0.003212795695070695 -0.07763311012657947 0.04556986982840955
0.003206445252299537 -0.0789237662201761 0.045296306060027214
0.003200776291887917 -0.08014721538623326 0.04496713100763722
0.0031966546460621297 -0.08122215138755529 0.04450682621350116
0.0031934847816569474 -0.08220566623691311 0.04396594215808419
0.0031910823720844696 -0.08311569523887485 0.043359809817859585
0.003189731149040329 -0.08392612662461485 0.04266304774507157
0.00318973114906798 -0.08460956641089434 0.041848555748125016
0.0031909503056619637 -0.08517921022377134 0.040926906644100036
0.003193547028141482 -0.08562108975024851 0.03988320275385132
0.003196958722901057 -0.08598836182781461 0.03876612497580295
0.003201769259062234 -0.08622742731858091 0.03752328287452622
0.003208941562319706 -0.0862501312508534 0.036067985516858636
0.0032175355677973244 -0.08614473021381686 0.0344822503972152
0.0032281621396872177 -0.08585590535832349 0.03271036095233182
0.003241502385912741 -0.08532241018649744 0.03068967709572057
0.0032586028884551573 -0.0844500950846826 0.02832399333255431
0.0032930613509339107 -0.08199838986609082 0.024384016995385782
0.005617145082157406 0.08151560265670765 0.036090726633698555
0.005560172072938165 0.0759104329690668 0.03791963447343222
0.005540043430856106 0.07335876135602543 0.03788487262347645
0.005525452835316066 0.07126888552532218 0.037573353198051884
0.005511581949879433 0.06924275641983446 0.03723031583436648
0.005498074563475225 0.06725085463150016 0.03687378060923252
0.005484702071645676 0.0652743197502278 0.036515412517566403
0.005470521009799061 0.06323612351345614 0.03620431879507219
0.005459378924056406 0.06144990144807083 0.03573964670256807
0.005446397447931571 0.05951780306890059 0.03537583798363925
0.005428734815592786 0.05721026774727517 0.03526372917870807
0.0053500114421637015 0.04996662128301316 0.038388382010210775
0.005374096529443171 0.051052282876281496 0.036085127679961304
0.005394034024202935 0.051795862373337165 0.03399363655975085
0.005411253391589556 0.0523143600971569 0.032039854331349704
0.00564197051830448 0.0699689601827918 0.01862230465923631
0.005652335153684791 0.06989281935350145 0.016983610437513674
0.005297388130312355 0.040600051806355786 0.03508500207769333
0.005299846026060792 0.0399449364517519 0.033937180339226936
0.005300794451559696 0.03916880674377293 0.03287057790484238
0.005301421563277007 0.03836683225314258 0.03182116290355497
0.005300681908848716 0.037456237000031534 0.030846424529569316
0.005082610273744657 0.019340867043426857 0.0418262521074797
0.00505964051957702 0.01670940581525332 0.04212071934216499
0.0050385183734636425 0.01423099837700531 0.04232164968284163
0.0050203392673298965 0.011990945412921672 0.04236709833906305
0.005004711797962879 0.009957094397687938 0.04227720328878415
0.0049880848377779575 0.007849944677771947 0.04224922767792366
0.004972345962730306 0.005817587442239647 0.042177751227872984
0.0049565936328629726 0.0037892385717201993 0.04211306123280001
0.004940647461947555 0.0017508562381925996 0.04206536388294685
0.004926275065352215 -0.00016008989167864973 0.04193449671307564
0.004911737553502133 -0.0020792227809774966 0.04181853282168352
0.00491240025375551 -0.0028172326701092487 0.04084003275000575
0.0049022722121114535 -0.004388892501138664 0.04047961904720926
0.004891597045418497 -0.005999467234692912 0.040154541211448735
0.004883177650493809 -0.007433108567308111 0.03970342605388366
0.004898136581234125 -0.007069659108836501 0.037902459538917244
0.004990534783271244 -0.0007796717385899488 0.03159895102342186
0.005173946788480521 0.012437060456954419 0.019957551412411734
0.005178561500126617 0.011957597178249069 0.018696944337746102
0.005183645662541668 0.011512381324479015 0.017407039526445622
0.005193766818075756 0.011448094720360458 0.01581883621604213
0.005204826476630073 0.011451684408175622 0.014171359781986914
0.0052224017444032315 0.01194449074374443 0.01213380619868415
0.005244325989370414 0.012759859857725875 0.009831150483242235
0.004836808504175887 -0.02732204769106905 0.022925915176103706
0.004817701528689726 -0.029501369419542844 0.023182317338151237
0.004797809562855834 -0.03173202639609812 0.023494778435775077
0.004778760576694221 -0.033894703659287595 0.02376235602674448
0.004761068203005828 -0.03595236506385252 0.023952477278267548
0.004744768432758098 -0.03790304675270001 0.024062107391643772
0.004730064465069487 -0.03973267268975772 0.0240776738505199
0.004716558521638351 -0.041470817467892884 0.024023339010056766
0.004704712107920204 -0.04308471270768871 0.02386922910401673
0.004694589087212993 -0.044570554292433784 0.023610339751589493
0.004348241470947202 -0.07023888734822265 0.044746847985372096
0.004320635484303398 -0.07291898972673133 0.045675765937331636
0.004304364600768656 -0.0747784913640201 0.04588974601141854
0.0042913220573449476 -0.07640209483335514 0.04590270765714799
0.004280695231953073 -0.0778492887323583 0.04576511980968867
0.004272877112813343 -0.07909328447614328 0.04545021527440796
0.004265181180849042 -0.0803260960089826 0.04513039097212823
0.004259474116330218 -0.0814156055507877 0.0446843110128074
0.004254973318313972 -0.08241806089268078 0.04416182293356302
0.004251691875391702 -0.08333312098853085 0.04356137840287155
0.004249469170058504 -0.0841726693179784 0.04289280338201079
0.0042494588373605535 -0.08485627075285906 0.04207966192848561
0.004251040330330619 -0.08542843320938853 0.04116158994045371
0.004254372549760384 -0.08587882578658124 0.04012716755531781
0.0042588720763138644 -0.08624894722048987 0.039014071880151546
0.004265368556992675 -0.08648168083694163 0.0377664645672775
0.004274821122199432 -0.08651146200133164 0.036319236877325745
0.004285860161739755 -0.08643449483090665 0.03476228777952517
0.004298975222086153 -0.08621774549108785 0.033061871953023625
0.004316761487983003 -0.08568345833109664 0.0310422408376671
0.00433832178627824 -0.08489553846304049 0.028761227630842656
0.00437340992027954 -0.08318709756679055 0.025556873418459802
0.006992662987590624 0.07961228781341584 0.03725967657590151
0.0069484907615374345 0.07579657300742632 0.03798996363961171
0.006925756838768084 0.07340506143623088 0.03785611050620147
0.006907514898471392 0.07131485219398104 0.03754463531754598
0.006890281448234275 0.06929553632808677 0.037197153594887455
0.0068732202741058285 0.06729193849013732 0.03684782041208706
0.006857556254406329 0.06538408537566887 0.03644565992080245
0.006839735596082425 0.06333951728328968 0.036138243146803806
0.0068254816402551505 0.06153183595200723 0.03568698889734634
0.006809439844048054 0.05961160458175063 0.035315213157716074
0.006795100380925617 0.057805935666635166 0.03487657359027646
0.006769369641236581 0.05526641563595747 0.03492438928971209
0.006764988386293175 0.05411305749526646 0.0340733408764865
0.0070456394551380586 0.07134220290773474 0.021074164024453612
0.0070581140545406 0.07123930065507617 0.01946106973796613
0.007071227969563747 0.07117425528059285 0.017816706357670853
0.007083448885994939 0.07104859416759068 0.016206799051549592
0.007085447681138883 0.07026583561416111 0.015035128295893319
0.007075029584870112 0.06868979480966514 0.014401625573319088
0.00705747559578736 0.06666175211188957 0.014082041467900486
0.006373373807176911 0.022253219264196766 0.04289420902871832
0.00633737552767982 0.019149413135417737 0.043496296139109825
0.00630434586193728 0.01624287014408965 0.04397878357124174
0.006275297897690889 0.013596475735001168 0.04429557197869216
0.006251432108162485 0.011284413659510106 0.0443916380733117
0.006229238862839668 0.009083767897443085 0.044420650076961055
0.00620907273968784 0.0070161670951917054 0.044366019179046146
0.0061882828903572105 0.004914650572382218 0.04434549164442142
0.00616886836935832 0.002904520499320662 0.044269550585181394
0.006149783027291956 0.0009199334327074093 0.04418472033524318
0.006130608952090562 -0.0010652748703587345 0.0441097515237463
0.006111998644069661 -0.0030105011695888417 0.044015072742426276
0.006093517979390082 -0.0049428986087241 0.04392019307001499
0.006094742011748165 -0.0056504769269368205 0.042930686995360345
0.006081981877388966 -0.007222438173767443 0.042581871872666155
0.006068297219555569 -0.008848125160400178 0.04227949058687358
0.006058452092035699 -0.010234039931778405 0.041804113218605
0.006063732510310136 -0.010688663953420496 0.040631411037117926
0.006168467736081414 -0.005050571397008652 0.034836906753186625
0.00635849613104278 0.005775949666150582 0.02503493844593918
0.006467280313226641 0.011596277129147015 0.01897384562454718
0.006475139754102464 0.011243414279563713 0.017614277125240718
0.006487253753389238 0.01114704007871331 0.01605204702672941
0.006500225412830269 0.011099552855053874 0.014445605280020646
0.0065211038875828175 0.011527120132063251 0.01246060843890151
0.006545782629130632 0.012178759989155075 0.010288596604171696
0.006588305045732168 0.013899070831200233 0.007258222386102575
0.006064018656501279 -0.025483020506355425 0.022965991135206698
0.006040510469177093 -0.027645634351496362 0.023197436564725726
0.0060159741967203756 -0.029862556247026883 0.02348699536565213
0.005992244546391371 -0.03202592152640399 0.02374400558149181
0.005969745245755392 -0.03411127587019469 0.023946983941902478
0.005948807086167382 -0.03609980270497681 0.024078832352197044
0.005929479502291708 -0.03798922754508938 0.02413635500553768
0.0059116845703954275 -0.03978469586508593 0.02412273005920057
0.005895300394757556 -0.04149386046777642 0.024043401307866086
0.005880478543735408 -0.04310850422278645 0.023890052221713864
0.005866739210285805 -0.04465690264203376 0.0236863125037739
0.005432274295573589 -0.07041311228346153 0.04490094438543735
0.0053976717512574405 -0.0730982836696365 0.045835179179533
0.005376946312768324 -0.07497954541312324 0.046069445343002335
0.005360730135372284 -0.07659772460595476 0.046078476440953364
0.005347280276824738 -0.07805396454387653 0.04594998060210265
0.005337716344861766 -0.07928562212591334 0.04562484269965522
0.0053283295184137595 -0.08050476545955815 0.04529345820494679
0.005320737526552854 -0.0816198237745327 0.04487167131485742
0.0053151450051363534 -0.08261992364286602 0.04434799066882755
0.005310648460895229 -0.08355678385021847 0.04376872921859343
0.005307719467953115 -0.0844042958221759 0.04310865847095252
0.005307332618105594 -0.08510835783837262 0.042315810522334074
0.005309357757484414 -0.08567723946431888 0.04139588081822276
0.005313335135612234 -0.08613755967657766 0.04037207689358413
0.00531902745266125 -0.08650330011444224 0.039256088564280145
0.005327056187607414 -0.08674055659223412 0.038014067215178526
0.005337833726964288 -0.08682734698972039 0.03662293834735392
0.005352166895392604 -0.08672006469362076 0.035038271222998185
0.005367698080149732 -0.08655029810691989 0.03338493148177396
0.00538949539395469 -0.08603923574493572 0.03138965770768698
0.0054154278334826176 -0.08530644723446873 0.029164563760786466
0.0054549135897038374 -0.08383696849057065 0.02619807838977095
0.008380867275445954 0.07904285373148856 0.03760940323279349
0.008337844147734324 0.0757776018396728 0.038001681774681606
0.008311725084265866 0.07344992359837388 0.03782824163938653
0.008290826741354375 0.07141399948371197 0.037482692607707646
0.008270946467878293 0.06943824638802598 0.037107487179380505
0.008250382255305062 0.06742941140739678 0.036760953594981494
0.008230901981639645 0.06548404698316873 0.036382137468561115
0.00821110195351779 0.06352546711380702 0.03601940856308944
0.008191038629620489 0.06155683893344882 0.03567091993905086
0.008172525111443108 0.05967646122421988 0.03527329568175869
0.008153663938854909 0.057781255369731666 0.03489261459997295
0.008142039970078905 0.0562805732494141 0.034261526854587554
0.008453813061177377 0.07219658662448014 0.022187393758149043
0.008471187459101318 0.07222462998167001 0.02049090945943427
0.008488413528033525 0.07224099525529504 0.018795276333440136
0.008505019904962224 0.07222049977159212 0.01711741471821343
0.008515546030078876 0.07187164380780481 0.015653616611563892
0.008502454486071186 0.07026142503535582 0.015038109223312057
0.008484869337372978 0.06841492920867931 0.014588429485673182
0.00764474767725301 0.02289729410832181 0.043990445345086615
0.007596344379041718 0.019513377925813202 0.044776989106430465
0.007543966617954383 0.015929648963761145 0.04572112791144051
0.007503200065283338 0.012969940838726657 0.04625286051107669
0.007472380592555343 0.010542873284101917 0.0464289752900528
0.007445237221654201 0.008315633104391207 0.046477219134824
0.00741944509836203 0.006165088487433745 0.04648232644274197
0.007394811338712445 0.0040807080771669835 0.04645095117884712
0.00737083797450759 0.0020361053337130675 0.04640122794991669
0.00734776089925715 4.336600040272254e-05 0.04632407293542962
0.007324786941841239 -0.001939063918709183 0.04624893714034778
0.0073023833486670605 -0.0038869584165252546 0.046158169990668296
0.007280318567756959 -0.005812498035574265 0.04606031005918254
0.007259894330780142 -0.007648485465848398 0.045905831350343984
0.0072575226490442495 -0.008548621067200002 0.045069230940482485
0.007245967834040638 -0.009921095982997508 0.044584049236241874
0.007229880683550219 -0.011523983455850928 0.04427554050298693
0.007217360350639353 -0.012940529767729914 0.043833969619926416
0.007210015684938719 -0.014089557286362409 0.04319589308528149
0.007311303850983427 -0.0096899645116712 0.03835423348050537
0.0074930771780728255 -0.0012109357984991798 0.030360645040090117
0.007756166979087508 0.011363932086629669 0.019151905606036745
0.007766047306910708 0.011034341384882795 0.017775366617376942
0.007778398551714972 0.0108277456529981 0.016299387215412686
0.007795051740533165 0.010835866477768519 0.014650968307622858
0.007818463042980891 0.011181160214464247 0.012731495925783598
0.007847062343515072 0.011782458532714313 0.010600568046212122
0.007892636342481192 0.013229848752883133 0.007787864976932568
0.0072979312572812646 -0.023664021266847413 0.02303205775512568
0.007270142511709997 -0.025811229388641943 0.02323993770131555
0.00724116418111968 -0.028010805026128793 0.023503851076774163
0.007213011297717599 -0.03016379105261091 0.023741101051120428
0.007186140073035408 -0.032248183898022365 0.023932487154565363
0.007160270086325948 -0.03427805349888352 0.024089161951494964
0.00713629484355401 -0.036210298756833126 0.02417352822968638
0.007114081662229039 -0.038051962562617836 0.02419040330597616
0.007093426417326013 -0.0398134876290096 0.02414766601736623
0.007074112298611405 -0.04150584159899384 0.02405383263294497
0.007056080412215199 -0.04313229240788091 0.02391087242488238
0.007039028446003422 -0.04470778208397863 0.023731078283919904
0.006517286788644255 -0.07048228171707244 0.044962122544002114
0.006473559222101701 -0.07327278102363866 0.04599032769434791
0.006448399383373279 -0.07516746422090365 0.04623740457735154
0.006428947903046857 -0.0767848438644182 0.04624659872648085
0.0064125297043474225 -0.07825389298240248 0.0461305536229098
0.006400739800839499 -0.07949995110470603 0.045819436518219514
0.006389834123495503 -0.08070164792456991 0.04547314801009561
0.006380362858967103 -0.0818332957274786 0.04506752146402471
0.0063739402804902645 -0.08281932570290584 0.044531889034873984
0.006368505170695278 -0.08375757707161696 0.04395487830894412
0.006364809642386883 -0.08461310497670749 0.04330324984027534
0.006363913466270193 -0.08533689551911411 0.042529898649215025
0.0063658915706214705 -0.08592635149359446 0.04163045963143691
0.006370733837866114 -0.08638286777883286 0.04060427780470377
0.006377817102036119 -0.08673631450785046 0.03947780167306608
0.006387062932765059 -0.08699104705801103 0.03825364972274192
0.006399864727595068 -0.08708332776454025 0.036869046077918466
0.006415951095546875 -0.08702681992564643 0.03533472885488265
0.006434723630179434 -0.08685012213838245 0.03367619670027178
0.006459824411592367 -0.0863868532560314 0.0317291064275082
0.006489954400496846 -0.08569855990603337 0.029549450184361892
0.006535223884062802 -0.08432475990831528 0.026679365166230318
0.009769245733170439 0.07864434587109775 0.037854152934616636
0.009727082645155542 0.07575863224069401 0.03801339894074879
0.009698826935931304 0.07353533079227853 0.037775185754465535
0.00967510972991233 0.07153044501007677 0.03740994274766435
0.009651355948688644 0.06952819997241766 0.03705096828030757
0.009627839752763805 0.06754143591943396 0.036690167195794876
0.00960262852733947 0.06547982235150568 0.036384822088884494
0.009581179502206633 0.06359821143859234 0.03597291999394481
0.009558123115635914 0.06164576120513643 0.03561377122346171
0.00953603962110909 0.059742717415230184 0.03523047366402904
0.009515212340607494 0.057901940876738 0.03481417480665594
0.009529532443383946 0.0576904519032333 0.03334001762830918
0.009874723561036636 0.07274775635927794 0.02182512075965276
0.009895138901445938 0.07278139199423789 0.02012290852762766
0.009919691100950655 0.07300145615765946 0.01828982302153903
0.0099400022318934 0.07302243211473375 0.01658141707350058
0.009950156648470102 0.07257462314200885 0.015181134996416823
0.009932448395550663 0.07085173442517945 0.01463914357201307
0.009910080392038823 0.06891959343388898 0.014245450039150176
0.008870730236192136 0.020706232291291315 0.04548780564001559
0.00879021466044558 0.01623459567789598 0.04703012172730575
0.008722202842928947 0.012344526088084729 0.04819841968073513
0.008682115477720976 0.009730164129652497 0.04850390256452014
0.008650461617362493 0.007503895964173335 0.048552160734699035
0.008620543969862894 0.005361663253765303 0.04855239561296448
0.008592256528149307 0.0032982214722217518 0.04850740393115327
0.0085642260693605 0.0012515055122468421 0.04846041372807741
0.008536234947753686 -0.0007883011206727408 0.04841830060583935
0.008508236841396543 -0.002823279204470952 0.04838253802211834
0.00848373870033197 -0.004697037319351782 0.04824021392093558
0.008454704139169582 -0.006768177547366749 0.0482498086802311
0.008432697897712171 -0.008521854228343284 0.04803792697128684
0.008408100523732582 -0.0103863249597001 0.04791513993715696
0.008402187098260282 -0.0114199460311602 0.047187984984095266
0.008391259951238192 -0.012673761818296714 0.04662629601761381
0.008372904755162303 -0.014252725849599746 0.0463110391821947
0.008357940259520285 -0.015679292941585488 0.04588803089379767
0.00834564728516649 -0.016985940037130165 0.045379943227933095
0.008437327391352847 -0.013739664793320616 0.04142448829320017
0.008601342477129514 -0.00735093207507298 0.035040816029532684
0.008915934208009573 0.005570421208433263 0.02359182146804195
0.00906092538132756 0.011057690480782756 0.017757376270009784
0.009069335483791258 0.010590656724987657 0.016483047234085058
0.009089632195334544 0.01063687065767377 0.014805949329075474
0.009114716924006368 0.010886279610970051 0.012962388181063322
0.009147759161822911 0.011474248709801627 0.010843193101816584
0.009223265455450824 0.01388350969115737 0.007270537942919375
0.008539309543584358 -0.021822336397839814 0.02308851432864517
0.00850646200536587 -0.023992858799696426 0.023305079263810646
0.00847358446947557 -0.02615861198077002 0.02352988801459316
0.008439958463814772 -0.028349780038311623 0.02378828482288259
0.008409718927390042 -0.030392773893749503 0.023934258816190768
0.008379396842994317 -0.03243366790425001 0.024089780163810193
0.008350751661421655 -0.03439898660326196 0.02419225748181003
0.008323887198997553 -0.03628486740246062 0.02423743407258533
0.008298635905860687 -0.03809876487687003 0.024230725053567437
0.008274970025001195 -0.039842274563066604 0.024172597792483153
0.008252618805952593 -0.04152703692585674 0.02407228626145863
0.008231739302344445 -0.04314692963617067 0.023923683409226404
0.00821081087674038 -0.04476500316940574 0.023781423697156134
0.007604881440168907 -0.07042554949501434 0.044911944702495876
0.007548515306820005 -0.07343562085218563 0.04613511130838177
0.007519229929268301 -0.07532716633024283 0.04638014411643959
0.007496119058959951 -0.07696123286438289 0.046405080125239584
0.007477041363528743 -0.07842675380060177 0.04628667948650167
0.0074625736293110236 -0.07970139636728768 0.04600233293800493
0.007450556859450319 -0.08087398600727536 0.04563043675848272
0.007439374865262331 -0.08201059206816252 0.04523018224587727
0.0074312766967440025 -0.0830206500758165 0.04471756025219337
0.0074248721310639434 -0.08396100537896167 0.04414347030472998
0.00742069257340386 -0.08481076923066605 0.04348745516369734
0.007419288434080737 -0.0855484860687013 0.04272811114651476
0.007421340817137838 -0.08614767438264043 0.04183887052512397
