# .PCD v0.7 - Point Cloud Data file format
VERSION 0.7
FIELDS x y z
SIZE 4 4 4
TYPE F F F
COUNT 1 1 1
WIDTH 773
HEIGHT 1
VIEWPOINT 0 0 0 1 0 0 0
POINTS 773
DATA ascii
0.07286264147417776 -0.04424780272971335 0.02452056171614525
0.0726951615284358 -0.04240036824653065 0.02417169113826989
0.0726380894063097 -0.04120172898992841 0.023374591834025682
0.07263741843296624 -0.040333173247105725 0.022346909422285566
0.07269359343504223 -0.03979527421518009 0.021084405929743033
0.07286961744053333 -0.03995170476368537 0.019323492426303768
0.07302524330556433 -0.03998578594469582 0.017642431590055407
0.07317631481195437 -0.039989834672433056 0.01597596396533496
0.07331206281830095 -0.03990188836855291 0.014369383563205829
0.07348652033509151 -0.04003355766206085 0.012596290665848331
0.0736231930264819 -0.039943999418506904 0.01097755950602397
0.07376037504206746 -0.039854107427287566 0.009352795985599127
0.07391798032335344 -0.03987779522409918 0.007637450652294209
0.07419623301055382 -0.04058654323438293 0.005403815830169356
0.07562329071041995 -0.08622962743231033 0.02822655825985576
0.07534720309308977 -0.08360265499864916 0.028207817157664905
0.07505974005186311 -0.08091206941614171 0.028241484690603946
0.07478581226878385 -0.07831195201176411 0.02823040327906773
0.07450716347211014 -0.07568941359376036 0.02824581517650121
0.07423772280551892 -0.0731302132870118 0.02823291965880359
0.07395510441384587 -0.07049673810290186 0.02828004153637592
0.0736891656689121 -0.06797220132372261 0.028268983971656225
0.07342327015896352 -0.0654543792651957 0.02826544137655418
0.07321665364964233 -0.0633043697157128 0.028032068358873674
0.073048508610361 -0.061393426162299425 0.02764996605590475
0.07288480441995562 -0.059513524708518784 0.027254802584637083
0.07271703662666439 -0.05761297033512247 0.026880829447134158
0.07254753914701545 -0.05570602515108525 0.026518736466464576
0.07238810670705073 -0.053863937132634654 0.026120487617719457
0.07222531832443459 -0.05200550280860067 0.025740585025071427
0.07206326046440772 -0.050155408319435546 0.0253623872678157
0.07190170496054407 -0.04831225832807118 0.024986803260699908
0.07173776067585381 -0.04645872585149391 0.024625771401894758
0.07157389862297643 -0.044609661332963235 0.024269137363946203
0.0714125452567557 -0.04277952966290849 0.023906789575306175
0.07134631684986052 -0.041519346383223465 0.023151464311562175
0.0713447780466554 -0.04064491606403453 0.02212670276791695
0.07142576140557101 -0.04025956390328256 0.020754640708770866
0.07159204358430131 -0.04037670868706905 0.01901997249567705
0.07176332716047035 -0.04051933795598689 0.017259301488912693
0.07193386804429845 -0.04065343824678175 0.015496837407695085
0.07210162919654776 -0.040767063550468496 0.013741304352264894
0.07227581394536235 -0.04091429745284869 0.011953419909455754
0.07245106901442987 -0.04106357132949218 0.01015590233032232
0.0726239871868308 -0.041194943731833966 0.008363391288632616
0.07280253908278259 -0.04135496163708058 0.006541517246478612
0.07304735484133773 -0.04189610699499208 0.004426949943888037
0.07425220931474937 -0.08658236114063633 0.028006186360009067
0.07396117542826663 -0.08382747619289893 0.028066559408483405
0.07368675077058064 -0.08118441996633563 0.02806939103075351
0.0734084248089804 -0.0785236192941951 0.02809589545233332
0.07314490772737117 -0.07596262535003256 0.028071214347720308
0.07287556094169896 -0.07337163686414183 0.02807776120751987
0.07260865464304854 -0.07080256105473104 0.028082385257494846
0.0723411624338099 -0.06823642898941812 0.02809724871631697
0.07207494792722509 -0.06568486443189459 0.02811479428356256
0.07186906609093109 -0.06351474024238224 0.02789379602323927
0.07170258043241734 -0.06159399526871612 0.027517396698495733
0.07153821584486028 -0.05969049244357 0.027137178026893083
0.07137886368228812 -0.05782201044370611 0.026741110734698204
0.07121262983640271 -0.055915051037931596 0.026378247495293716
0.07105583439791546 -0.0540702607038705 0.025981042131703103
0.07089375452442095 -0.05219690544472316 0.02561050420388078
0.07074056116093841 -0.050382001925787345 0.025207534434681433
0.07057311824982868 -0.048483759611434196 0.024868950081195385
0.07041606767871275 -0.04665307042279876 0.02449148089494657
0.07025819362700761 -0.04482124927073122 0.024122123178425547
0.0700988629902978 -0.04298447917544568 0.02376360139874739
0.07002712988679816 -0.041682915194326875 0.023036556590548707
0.07003619636398511 -0.04087216425239221 0.021966180845676808
0.07010816425214535 -0.04044112252791998 0.020625687389722314
0.0702629735138538 -0.040507651087706376 0.018926458997685636
0.07043374958641815 -0.040666399404196696 0.017153700472608502
0.07060426074305412 -0.04081933538958715 0.015377058540695876
0.07077626092358268 -0.04097697618727547 0.013588917056142902
0.07095286794954066 -0.041157905957507346 0.011775604929639305
0.07112278766815316 -0.04129457325152752 0.009986369398191308
0.07129620793233855 -0.0414478805797136 0.008176748960875335
0.0714691270090364 -0.041593922830546415 0.006364228186934551
0.07178300336659965 -0.042571410149552735 0.003923209250192905
0.07284666187274441 -0.08672667464655065 0.027916025923255983
0.07257381153631384 -0.08405251413044496 0.027925165476989255
0.07229431792828442 -0.08134256003506085 0.027969465055859455
0.07202651319792983 -0.07871458450411373 0.027974543142067543
0.07175999192825445 -0.07610157125090761 0.027982418538876175
0.07149176560122453 -0.07348438874211471 0.028005297710654797
0.07122644766919965 -0.07089250222733373 0.02802425547898446
0.07096196176781452 -0.06831259557553682 0.028047744160432653
0.0707045925809022 -0.06578453017211422 0.02804965194108122
0.07050034976495914 -0.06359950929534991 0.027838079069216926
0.07033522765534012 -0.06166697445808739 0.02746915998726568
0.07018038059671376 -0.05980343561419099 0.027062108493086212
0.07001653216558222 -0.05788711647122874 0.026697595072324498
0.06985563692764263 -0.055993487178749524 0.02632552961246054
0.0696998396248331 -0.05413588791142537 0.025936687497697564
0.06954343342396353 -0.052278404536924616 0.02555511593887866
0.0693803818660552 -0.05038335152446749 0.02520661220710596
0.06922497438295235 -0.04854006326971583 0.024830259083553685
0.06907154617958494 -0.04671300669336731 0.024450065479502625
0.0689124022747114 -0.044854328900557405 0.024099139069621522
0.0687503837568506 -0.042981850487790074 0.023765438017329887
0.06868765264534468 -0.041727427802497996 0.0230052863717502
0.0687060785317872 -0.04097542070589205 0.02189324334858428
0.06878455227779089 -0.04059275836649395 0.02051798695855861
0.0689367065889877 -0.04066095652858143 0.018816974752352222
0.06909467721639578 -0.04076099288891638 0.017085775372068346
0.06926930476817428 -0.04095900032738442 0.015276219517983136
0.06944222019392321 -0.041142147930115114 0.013469009689959288
0.0696125212770177 -0.04130500092200917 0.011668237250655633
0.06977164170706839 -0.04139554969322312 0.00991226256537353
0.0699472969196367 -0.041582459362252966 0.008077443197528567
0.07011148275905985 -0.04169546268881852 0.0062888942238852885
0.07041257231215374 -0.04263192967326601 0.00387806494531312
0.07142366662516894 -0.08676199899889081 0.027893956952576904
0.07115380848508093 -0.0840722914544943 0.02791273922750137
0.07087310331380006 -0.08131845568440654 0.02798469626846284
0.07060509971394495 -0.07865489106362289 0.02801247652572847
0.07034455131862262 -0.07604686991093529 0.02801737649673841
0.07007849945067618 -0.07340970290015136 0.028053297017912315
0.06981266761075136 -0.07078080671960552 0.028096445454329266
0.06955172351099258 -0.06819045437604337 0.028127130172322434
0.06930503339984079 -0.06569909990791223 0.02810549000716539
0.06911667798840104 -0.06359103107372593 0.0278436517171875
0.06895305851685252 -0.06164732401004075 0.02748214835254248
0.06879519441345565 -0.05974486547747726 0.027101038218060203
0.0686386984822953 -0.05785525384975726 0.026718891577564963
0.06848355699210516 -0.05597834833872345 0.026335704706709984
0.06832398630352862 -0.05407709617693757 0.025976422479701278
0.06817111354917568 -0.05222271038794751 0.025592966831601227
0.06802167668851498 -0.0503941477892203 0.025199234176142893
0.06785708143617714 -0.04847303702903388 0.024876318651522678
0.06770733783775806 -0.04665040721718838 0.02449332131293408
0.06756034300857901 -0.044849035952289174 0.024102816766408408
0.06741024062875356 -0.04303180344550467 0.02373053839706435
0.06735557769830697 -0.04182041056724217 0.0229399656564499
0.06736056219666856 -0.04098587996597475 0.021885855291900513
0.06744770342776743 -0.04066730893866355 0.02046503692786894
0.06760529456306379 -0.04078814010470344 0.018726145649622383
0.06777560729938845 -0.04098450614474619 0.016925276249160792
0.06793980691876333 -0.04113832790862293 0.01514674377616193
0.06808845929950808 -0.04119106353556862 0.013433499188799602
0.06825460666984527 -0.041348751616160195 0.011636302768758822
0.06842220978657669 -0.041511200141932436 0.009827386433801932
0.06858546977578202 -0.041642447756809364 0.00803317777471696
0.06875730055876952 -0.04182245579395183 0.006194676088105311
0.06909678244014891 -0.04303178993182377 0.0035797902257437286
0.06997277350509423 -0.08661152408754885 0.02798796691116473
0.06970666582279145 -0.08391108015664 0.028014030279254587
0.0694470797653347 -0.08126121771079359 0.0280208640608543
0.06918740749072601 -0.07861759054637951 0.028036179910483128
0.06893166734412932 -0.07600696097552317 0.028042881101289774
0.0686727439686007 -0.07338188508684695 0.028071175097919787
0.068419912817621 -0.07080401179736273 0.02808144786506317
0.06816828534337793 -0.06824073997443286 0.028094447019565427
0.06792561316521609 -0.06574323499888524 0.028076642995088275
0.06774270340116233 -0.0636461461685337 0.0278074257274189
0.06758637053345344 -0.06172874493300917 0.027428331939220563
0.06743521797040596 -0.0598494662118933 0.02703151362748052
0.06728093377910657 -0.05795362770147905 0.026653140277010545
0.06712966930146669 -0.05608158934675023 0.02626631514597827
0.06697195948682837 -0.05417144438440452 0.02591265651001151
0.06682499967661196 -0.05233547221904755 0.025516331809751158
0.06666892409930035 -0.05044408708253545 0.025165105999217008
0.06651915584859232 -0.04859772283059449 0.024790636410363887
0.06636635555536316 -0.04673565382732203 0.024434416649548818
0.06621794211429932 -0.04490594339011783 0.024063276762353147
0.06607671649735913 -0.04312648318377327 0.023664390350085385
0.06601559023979232 -0.0418662621830192 0.022907754779009082
0.06603249042751415 -0.04110881367612623 0.021799018310267426
0.06611303802365569 -0.040758898152885525 0.020399985071293925
0.06627575009930016 -0.04093246131126205 0.018623077568540758
0.06642833895876306 -0.04103713185799496 0.016887487142464297
0.06659323007427735 -0.04121617168826508 0.015090540082697113
0.06675581933660506 -0.041376251432191424 0.01329906097157968
0.06691355718932462 -0.04150128638800693 0.011524964457949816
0.06707330306897547 -0.04163489619331079 0.009736605609781568
0.06723360236442326 -0.041767811418478185 0.007940671860667825
0.06740379378493118 -0.04195889084730864 0.006093452819301015
0.06774827543806758 -0.04324211868081118 0.0034228960854464363
0.06858151919289453 -0.08686339392621767 0.027830610169777503
0.06832056312436245 -0.08416054885212443 0.02785728621244843
0.06806423617435449 -0.08149628527217789 0.027872328895619913
0.06782057066061123 -0.07892512784727884 0.027840749700539236
0.06755709183644283 -0.07622580712578703 0.027903023595129584
0.06731163589325277 -0.07365581988274561 0.02789512227949953
0.0670608798832824 -0.07105651914193944 0.027918249983586108
0.06681432665776617 -0.0684923356996886 0.02793092192105473
0.06656725540902145 -0.06593126190383475 0.027953747002963325
0.06638729805352835 -0.06382854661842174 0.02768753757404624
0.06623486744058242 -0.06191556400510656 0.0273048508924722
0.06608105295642681 -0.05999738618131434 0.026933196165097706
0.06593168201201492 -0.05811305872983241 0.02654657941584171
0.06577988980306713 -0.056216564095927735 0.026175596919919664
0.06563208113884275 -0.05435068125138992 0.025791517807079056
0.06548391286340753 -0.052486365496076326 0.025413781926047707
0.06533763341552616 -0.050638554671313396 0.025032207922767002
0.06518815584151762 -0.04877347775970742 0.024669860185731474
0.06504420194703 -0.04694891823657338 0.024287052681802035
0.06489064081032489 -0.045064834731260384 0.02395287691163267
0.0647445983061136 -0.04323436413528475 0.023589019257361843
0.06468808109521759 -0.04199601014545018 0.02281660635196603
0.06469845839787719 -0.04119778892300041 0.0217361686733466
0.06479100388069962 -0.0409369560498376 0.02027351817111661
0.06493725590471064 -0.04102435330982651 0.018557452233553984
0.06508942169278294 -0.041146371772829315 0.01680904481155504
0.06524595589071336 -0.041292723938948506 0.015035268882634178
0.06540569252650628 -0.0414556672461619 0.013241408654702302
0.06555924440938715 -0.0415742766314704 0.011471687402637931
0.0657161958977078 -0.04171074558340776 0.009680939597393023
0.06588362714270511 -0.04191060270002367 0.007835306084198634
0.06605337000528241 -0.04212085392910614 0.005973289896136047
0.06719976548661169 -0.08719245986277857 0.02762502481764051
0.06693625119635456 -0.08443313922672052 0.027686014520068802
0.0666838892111147 -0.08175875697040341 0.027706477516716232
0.06643600215331713 -0.0791224061211252 0.027715385636774836
0.06618504453738097 -0.07647151810335118 0.027745997635975572
0.06593830469757989 -0.07385671890736539 0.02776600821929881
0.0656929774105109 -0.07125843678533472 0.027787748719636796
0.06545155496530618 -0.06869381438849997 0.02779997049721572
0.06520962255112646 -0.06613228293680723 0.02782235793229748
0.06503057933168668 -0.06400968041338168 0.02756848196814149
0.06488202346232179 -0.062101133670306674 0.027182195661748954
0.06472904345518851 -0.060166359025422556 0.026820885548860807
0.06458511040548039 -0.05829758798152462 0.02642324333642254
0.06443858052884865 -0.056415044895655464 0.026042195440964644
0.06428848712125605 -0.054512257123187025 0.025682315440253733
0.06414369931318047 -0.05264961106078775 0.02530283719081522
0.06399976167296258 -0.05079668813763116 0.024924140400247152
0.0638528944692745 -0.04892788447324725 0.02456375415353451
0.06370729271775494 -0.0470716411924853 0.024202252154800263
0.06356589512960348 -0.04524770568810993 0.0238258156875904
0.0634221854642858 -0.0434120919780529 0.023464849538092025
0.06336386661010959 -0.042153386655619685 0.022706048749630614
0.06337931643685626 -0.041390259970982834 0.021600212387567208
0.06346040501025442 -0.04106535529307842 0.0201823217098272
0.06360744025734856 -0.04117803310866597 0.01844770063765555
0.06376010739353814 -0.04132417134685279 0.016681371525918975
0.0639057519121493 -0.04141949176044413 0.014943741672586719
0.06405625921570214 -0.0415430589649774 0.013177966180204725
0.06421129182171957 -0.04169244122610355 0.01138543662062802
0.06437434089582976 -0.041890496839519176 0.00954901968666061
0.06452807995998845 -0.04202276783461428 0.007752539379869361
0.06468153640137395 -0.042148975896054486 0.0059524258463276025
0.06500587401322334 -0.043391902324572296 0.0033111655127668893
0.0657549206865981 -0.08708477092521372 0.027692304045861427
0.06550994040261272 -0.08441790245575181 0.027695588042497388
0.06526635486904768 -0.0817678131279137 0.027700755161284285
0.06501763227393445 -0.07908801989936165 0.027737237078413968
0.06477894011030248 -0.07648632848105236 0.027736532875305198
0.06452748854399787 -0.07380097753369891 0.02780183226232008
0.06429607737842677 -0.07126425014101861 0.027783991570117073
0.06405611045092664 -0.0686736585614402 0.027813070899068038
0.0638205625656608 -0.06612087279843454 0.027829815780340827
0.06365299748004193 -0.06405215498253958 0.027540564347683705
0.06350536738690735 -0.06212785730258902 0.027164532318943613
0.06336041793467145 -0.060226438349723854 0.026780952876525044
0.06321692403460662 -0.05833923255397444 0.026395408904903828
0.06307427656223336 -0.056461934688013304 0.026010680274552778
0.06293010382734034 -0.054578017134706835 0.02563787104968457
0.06278933486478547 -0.05272175022024633 0.02525381011575606
0.06264567924562563 -0.05084942500309886 0.024888100376893818
0.06250229071109253 -0.04898296060610441 0.024525906694172483
0.06236671697579119 -0.04717440885636748 0.024131240579562396
0.062225371788930485 -0.04532991604324249 0.02376869486175348
0.06207872101747425 -0.04345292457304861 0.023436321871896926
0.0620365646422032 -0.04229643804207345 0.02260555460927144
0.06205073802633424 -0.04152653552244168 0.0215039510884098
0.062133609726724236 -0.04122530793646162 0.020068714204677318
0.06227936213809673 -0.041350234164401034 0.01832472193531831
0.062421728334225754 -0.04144806062081824 0.016592409861364066
0.06256591550555651 -0.041554265584794414 0.014846434069877512
0.06271742396072712 -0.04170602130488055 0.013059662744086431
0.06287773236182367 -0.041913013836951896 0.011224436033676621
0.06301988629085284 -0.0419930898353314 0.009473726460042908
0.06317916461696953 -0.04218444310930303 0.0076332390813962925
0.06334603778116178 -0.042422353407214064 0.005749602768257145
0.06431746973534826 -0.08702633192690251 0.02772881415206474
0.0640724452288425 -0.08432040997122026 0.02775684380687149
0.06383238900335289 -0.0816576554657219 0.027770362015988537
0.06358589804113678 -0.07895500801695915 0.02782176202738218
0.06335477457880147 -0.07637083392285604 0.027810341837205543
0.06311499044207688 -0.07373058678388611 0.02784707119218094
0.06287741669390683 -0.07111315450532563 0.027881646232517543
0.06264980867746242 -0.06857434492660802 0.02787762008664907
0.06242721205841294 -0.06607808961103712 0.02785777933456529
0.062261349153652154 -0.06399552429739275 0.027577786664114645
0.06211735745684578 -0.06207441360603455 0.02719985688551968
0.06197031880740254 -0.060135627364435285 0.026841312033971942
0.06183369642916938 -0.05827538105845825 0.026438086220225476
0.061690705887677534 -0.05637368020112299 0.02606999735803378
0.061547604456764736 -0.0544752761058952 0.025707309541621592
0.06140880942781309 -0.05261150974851181 0.02532873173545319
0.06127273940304353 -0.05077100075694585 0.024941695187808977
0.06113822162277227 -0.0489453463156031 0.024551754785217428
0.06099577656562402 -0.04706763849158141 0.024205018153782842
0.06085776102197717 -0.04522516991874881 0.023841474020573405
0.06072393186424974 -0.04341604340116445 0.023462089035743483
0.06067876613547002 -0.04223211879996702 0.02265073924030686
0.06070274609327248 -0.04153308954825108 0.021499321584246056
0.06078663765439508 -0.04125154129160741 0.02005008184731194
0.06093471543905882 -0.04141468125299996 0.018278696606502942
0.06107668523332847 -0.04153113332911984 0.016532757538835374
0.0612177931808524 -0.04163755105263145 0.014786301437818339
0.06136453394569228 -0.04177893119288778 0.013006733444676954
0.061516214038248425 -0.04195024153791771 0.011197262824420462
0.061669226125735145 -0.042126401427874216 0.009375888761054885
0.061823584502714024 -0.04230745212619258 0.007542470662886436
0.06197715453857827 -0.042478680753611886 0.005707812694397574
0.06289930405579768 -0.0871093814668144 0.027676928654996324
0.06265964002784526 -0.08440266680159841 0.027705160941435714
0.06242706576056438 -0.08175573873988279 0.02770838492101063
0.062187358954644154 -0.07906260743963905 0.027753386054844786
0.06195347884810195 -0.07641969009285304 0.027779119498102134
0.061718973466076694 -0.07377897829930302 0.027815970926647393
0.06149017008034157 -0.07118723710031066 0.02783376600759696
0.06126051894280971 -0.06859593127920155 0.027863590069921174
0.06104362347498592 -0.06610518488004169 0.027840069703036763
0.06088046284227123 -0.06401534356739652 0.02756475992676838
0.06074426469297578 -0.062127857542408294 0.027164532319977452
0.06060179633235237 -0.06019849274681993 0.02679952756040882
0.06046379788203639 -0.05830591660158707 0.026417676871735907
0.06032604787101047 -0.05641918217468317 0.02603941496292217
0.06019250477615277 -0.054567056017711835 0.02564527937687483
0.06005336023504518 -0.05267819195291562 0.0252834133117123
0.059922327813072974 -0.05085213003408501 0.024886251935251624
0.05978628742770468 -0.04899370901950628 0.02451852069947935
0.05965234411553581 -0.04715438558884055 0.024145076665615495
0.05951402462442066 -0.045287481247445194 0.023798179317466583
0.05938735069410689 -0.04350825870486219 0.023397662769529315
0.05934170408698662 -0.0423135058624336 0.022593564556654178
0.05936351026859164 -0.041602573537618426 0.02145024004727175
0.05945255043407424 -0.04137094361453536 0.0199652755176577
0.059588552016222984 -0.04147125300380933 0.018238295514350855
0.05973352832978466 -0.04163139128360277 0.016460764926338967
0.05987492233825337 -0.04176187896559347 0.014696535859752502
0.060019048470856345 -0.0419075786533844 0.012913341108452492
0.06016161074669974 -0.04203801819964381 0.011133192845797613
0.06031147366667487 -0.04221576703079194 0.009310303158764466
0.06045676103943554 -0.042356943285067616 0.007505951163611302
0.0606214784291197 -0.04263030200821183 0.005595322539212411
0.061476613536992936 -0.08716168702133681 0.02764425060167003
0.06125732087370774 -0.08456879185587485 0.02760078267470617
0.06102075273664246 -0.08185084359379197 0.02764828983979084
0.06079485635942871 -0.07922110888780076 0.0276526634451168
0.06056769723812975 -0.076588545637573 0.027671209391475715
0.06034591200881305 -0.07400347256233242 0.027671692637242895
0.060118241500408634 -0.0713805464444166 0.027708828371620475
0.05989285522877785 -0.06878165821482812 0.027742876531763216
0.0596826110528984 -0.06630350689688524 0.027710444733688278
0.05952320653644027 -0.06421363188693702 0.02743442898900117
0.05938904712049713 -0.062317827686237226 0.027038968520984308
0.05925306158244387 -0.060412368236165914 0.026657371631786386
0.059116953269592654 -0.05851005737208764 0.02628123279258654
0.058978691408622316 -0.056595763539359356 0.025920732382846257
0.05884439216038842 -0.05471508077542664 0.025545235647619402
0.058710886616477415 -0.052844305577561645 0.025170519388107715
0.05857816813805733 -0.050983353164571754 0.024796574799039683
0.058444411975280004 -0.049118695954915526 0.024432631523630788
0.05831416116327911 -0.047283903985300246 0.02405558054214013
0.058179264309223606 -0.04541879198163501 0.023706942859566038
0.058043555466903825 -0.04355174552985763 0.023367280721940664
0.05801236918558883 -0.04245535120838562 0.02249391766512382
0.05803297693230902 -0.04173898548941818 0.021353882398705948
0.058114655904943455 -0.041468089588696244 0.019896276930064405
0.05826027155496998 -0.041660812172595485 0.01810292037433764
0.058399538087490134 -0.041802994884632294 0.016337540812212115
0.058537830429007016 -0.04193394178574433 0.014572305329069946
0.05868356074788477 -0.04211463903232393 0.012763024427256853
0.058827071098997805 -0.04227492986177839 0.010960266035486943
0.058966842875086085 -0.04240395758855886 0.00917218961890437
0.05911062790049383 -0.042557700801724274 0.007357812030191979
0.05926147085741708 -0.04275785485704664 0.005500689120971236
0.06004613907935209 -0.08715553296123879 0.027648095456593857
0.0598231742934809 -0.08449409735700997 0.02764771419385542
0.059601859216938405 -0.0818523536296536 0.027647335751887714
0.05937679552764175 -0.07918820356763262 0.027673573820333752
0.05915514139622684 -0.07655743148829525 0.027691093529165378
0.058934000319898656 -0.07393742209355686 0.027714142147644394
0.058710749394060346 -0.07130785462712996 0.027755809881265914
0.05849701448592349 -0.0687586141537686 0.027757854147454297
0.05829297683535927 -0.06629066072842099 0.027718841183898557
0.05814041969582722 -0.06422496807464667 0.027426978015050174
0.05800148931749503 -0.06226856075114828 0.027071532388649566
0.05787307573661843 -0.06039698480906397 0.02666759657026524
0.057734147036098186 -0.058448934366179484 0.026322086432652658
0.057601488356651714 -0.05655298486672278 0.025949484572671155
0.057471417794704764 -0.05468080702457062 0.025568399938798503
0.0573403207131641 -0.05280480822417727 0.025197362627982
0.05721570686375406 -0.05098200006354875 0.024797499582760618
0.05708275362596574 -0.04909987622952361 0.024445564254877428
0.05695077034291622 -0.0472291497493143 0.024093415375584015
0.056818340391102 -0.045359095475760836 0.023748420911406554
0.05670263984484307 -0.04361896982148106 0.023320314460702596
0.05665624651673696 -0.04240280502618887 0.02253083167020603
0.05669423076006934 -0.04182034975421822 0.021296408954936397
0.05677913522643397 -0.04158761384509685 0.019811383996318377
0.056917207378901984 -0.04174906762642172 0.018039892107653777
0.057058436423311314 -0.04192980662609391 0.016246480597967516
0.057197337107459 -0.04208891755872596 0.01446041177167895
0.05733404938895208 -0.042227545399746325 0.012681059435406539
0.0574715967679137 -0.04236816980643632 0.010892208289715821
0.05761288054275185 -0.04253218270825265 0.009078084898114569
0.057755587782387076 -0.04270236362229213 0.00725106524308633
0.057908504867227185 -0.0429432783379064 0.005363120551242773
0.05863565617964224 -0.0873094360354818 0.02755194389405813
0.058424335834868696 -0.08469842103579889 0.027519335277678192
0.05819996961544966 -0.08198979687935054 0.027560487749640872
0.057980510222856343 -0.07932733593791735 0.027585159650850954
0.05776418979222331 -0.07669673780144254 0.027602067392689722
0.05754744382333309 -0.07406954249382691 0.02762923085506741
0.05733507088976447 -0.0714838092165847 0.027642088792608155
0.05711697400931306 -0.06885944993000653 0.027692315799158818
0.0569204185026333 -0.06641201621144527 0.027639522231312164
0.05676457713108835 -0.06429157919859041 0.027383195911352853
0.056635538750116884 -0.06238682012131963 0.026993367000381074
0.05650476855029918 -0.06047251440198337 0.026617394612260536
0.056377262199938334 -0.05858787516296643 0.026229220888075278
0.05624202944736193 -0.05664683323674613 0.025886407927888433
0.05611429850765222 -0.05476855896957611 0.025509092110273357
0.05598942132369673 -0.05291650935103137 0.02512144848135328
0.05586475026718996 -0.05106997700478205 0.02473737667160142
0.05573248236065895 -0.04916844224154282 0.024398446741091706
0.055608433780630885 -0.047334664604480325 0.024020505512648227
0.055475313722336404 -0.045434714126759534 0.023695880094163846
0.055359419549027 -0.04367170960908179 0.023283467818119685
0.055323344525690175 -0.04252630954144321 0.022444069292321678
0.05535018247395191 -0.041864982155563946 0.0212648819110674
0.0554351413710765 -0.041648058373601804 0.019768452891402277
0.05556427633856765 -0.041766196163374514 0.01802765970807252
0.05569955592463246 -0.04192716406339558 0.016248378240590056
0.05584019525691782 -0.04212469734356028 0.014434578590901526
0.05597997210252154 -0.04231126767760046 0.012620280814621687
0.0561148248294149 -0.04245611921415726 0.010828012220230554
0.05624767945090429 -0.04258162351866224 0.009041800223677399
0.056388263790823304 -0.042761328597484605 0.0072075550030458735
0.056531158209100534 -0.04295403259107783 0.0053551418874872025
0.05722237592265648 -0.08744803498475917 0.027465353652752933
0.05700697526766845 -0.08476097375521324 0.027480032739328752
0.05679780458097913 -0.08213185658226424 0.027470722688202998
0.05657880443501271 -0.079429120191425 0.02752047903567212
0.05637912343113326 -0.0768910183190108 0.02747790899815078
0.05616207053716867 -0.07421790193457983 0.027533883027415884
0.055948652658284255 -0.07158129731030322 0.027579081365650404
0.05574325069406204 -0.06901655521821448 0.02759020496181175
0.055548177864760837 -0.06654201063475379 0.027554556789935403
0.055393415898132105 -0.06439933272163834 0.02731237171696821
0.0552658912451225 -0.062481191113269274 0.026930991027081186
0.0551391263742528 -0.06057326052035217 0.026550432058582984
0.055016405352096676 -0.05870187191396342 0.02615302751221843
0.054888712337128755 -0.05679458750397032 0.02578710041976312
0.054758522199329786 -0.054871438046636134 0.02543956047902951
0.05464022085390352 -0.05304735415874573 0.02503252392216604
0.05451188556921434 -0.051147155387516796 0.024684633440228254
0.05438939853397087 -0.049297566617313826 0.024309714374744162
0.054269988486291144 -0.04747632279217562 0.02392262088789132
0.05414120390744128 -0.04558470362082151 0.023591665372004633
0.05402839137914212 -0.043823408934963226 0.02317748295824129
0.05398449842773455 -0.04260912402609557 0.022385891838477723
0.054015533080009545 -0.04198579901443106 0.021179540216605064
0.05408825371545721 -0.041688802475536135 0.019739514165214578
0.05421644968200483 -0.04182417964303836 0.017986250418374816
0.05435049408259261 -0.042001171676203264 0.01619523533369971
0.05448231539199778 -0.04215650666652504 0.014411612112691097
0.05461409500523709 -0.04230728027954456 0.012623175577649415
0.05474599916001557 -0.04245478649709289 0.01082898508630209
0.05488147171681773 -0.04262572908275958 0.009009431102896981
0.05501588445133567 -0.04278411496804446 0.007190741000511314
0.0551464324821348 -0.04290833139572414 0.005389048427881016
0.05579711484797345 -0.08749271213306387 0.02743744148074745
0.05558996095655104 -0.08482964842938251 0.027436883704110904
0.0553812794034063 -0.08216058142173438 0.027452572023125732
0.05517487337395141 -0.07951746933298509 0.027464336011865154
0.05496379416230493 -0.07684206210755351 0.027509195427917632
0.05476153855715472 -0.07424729156371374 0.027514994927726744
0.05455832026234238 -0.07165116527810889 0.027533925095534817
0.05435365703518694 -0.06904971992935377 0.02756864956639843
0.05416773772792478 -0.0666106094774026 0.027509720050633013
0.054019196256212786 -0.0644872753910064 0.027254568807568547
0.053891913131481305 -0.06254459710704346 0.026889081876623755
0.05377150608272015 -0.060662851072338375 0.02649088424327556
0.05364487949233139 -0.05873385726825869 0.026131649135132884
0.053519015982383705 -0.05681530875863244 0.025773173472266098
0.053400602313686714 -0.05496201165403031 0.025378345605695185
0.05328004576705052 -0.053095077610715136 0.02500009023026062
0.05315721304276417 -0.051213523672716754 0.024639277774353596
0.053038081882482234 -0.04936619538476167 0.024262553736377035
0.052915210704428416 -0.04749236554938274 0.023911535549312246
0.052795197538408334 -0.04564579144056863 0.02354922078020616
0.052674750498500185 -0.04379965770869365 0.0231940768675849
0.052643667306969275 -0.04268013354553474 0.022336007424220428
0.05267605306541053 -0.04207382848520719 0.02111735865079739
0.05275172067691007 -0.04181502712062274 0.0196498622292538
0.05287383274764561 -0.04192700736009014 0.017912815251297398
0.053004424509078295 -0.04210297419973652 0.016122133605486866
0.05313251490071391 -0.04225461513629958 0.014340777164883634
0.05326355671530828 -0.04242560853720795 0.012537274531025822
0.053396585103593144 -0.0426081175484761 0.010717065554541383
0.0535262439340546 -0.04275943790382214 0.008911301876975974
0.05365501336772842 -0.04289942409542519 0.007105654340350542
0.053787120285180956 -0.043061604034536516 0.005275333084470979
0.05437977507094457 -0.08760829564399514 0.02736523023854598
0.05417571237586437 -0.08492582680629696 0.027376453765795894
0.053968964738654215 -0.08222711556312051 0.0274105302953373
0.053769360934619884 -0.07959686261599408 0.027413884154686874
0.05356846258675825 -0.07696224638710097 0.02743238957245131
0.05336905988137441 -0.07434724427627665 0.027450757221414934
0.05317300937534903 -0.07176765954668413 0.027458633792430576
0.05297771777300236 -0.06920118545282039 0.027470204306236867
0.052787044078676654 -0.06668065905713871 0.027463935096586733
0.05264226631967742 -0.06455680295527672 0.02720886978501974
0.05252402349766989 -0.06266300316030943 0.026810819535873998
0.052404656510257976 -0.06076368369436036 0.026423864193533597
0.05228319639423202 -0.0588507123890768 0.02605354527440701
0.05216573979526263 -0.05697561828153047 0.025665427411556085
0.05204570967564404 -0.05508283472431502 0.025296686371848398
0.051927692329744014 -0.05321102075256112 0.02492129312901914
0.05180875392526805 -0.051335477380236694 0.0245559353146656
0.05169212943666497 -0.04948331820616092 0.0241820686688336
0.05157682994240498 -0.047646168282058976 0.02380525913845305
0.051457896635723546 -0.04578263805873101 0.02345413791266754
0.05134681433676726 -0.0439884220034113 0.023062196516427547
0.05131967380943679 -0.042894620630667235 0.02218532939428236
0.05134427351673604 -0.04223026917995781 0.02100685323743412
0.05142044397275846 -0.041991341147165184 0.019524633926937873
0.05153792396474815 -0.04209057949802719 0.017795998961313064
0.05166413991031847 -0.04225775447260305 0.016010989897445593
0.05179242965111899 -0.04243769507017875 0.0142085921976694
0.05191778612709607 -0.04258924921529289 0.012418478651538556
0.0520458717997263 -0.042758889659955945 0.010607013847896807
0.05217098412994112 -0.042899922598931495 0.008808199816362716
0.052298182031320695 -0.0430537141195656 0.006991803627917237
0.052428319428031396 -0.04322710090167564 0.005152548389768419
0.05295063632492616 -0.0876252527736261 0.02735463627340673
0.05275003592968185 -0.08492582693011119 0.027376453766312592
0.052550437234373484 -0.08224223970862404 0.027400973680322405
0.05235336062289617 -0.07958787346592427 0.027419596555606274
0.052156578692681324 -0.07694295346239483 0.02744471914314306
0.0519632748213768 -0.07433548300208226 0.02745831605671828
0.051769574773102976 -0.07173124883528498 0.027482166469440072
0.051579288235301876 -0.06916367040152993 0.027494587372878854
0.05139382640045428 -0.06664491693102564 0.027487296550062268
0.05126328279362032 -0.06461215668789083 0.02717248694359853
0.05114472492340124 -0.06268838416835942 0.02679404362269311
0.05102880809919437 -0.06079170097670833 0.026405242106921467
0.05091165173198658 -0.05888828617522279 0.02602843168619512
0.05079375527512657 -0.05698253091609434 0.0256607814195014
0.05068085207938719 -0.055124039723612794 0.02526883769840821
0.05056512802436217 -0.05324513349373161 0.024898109537204227
0.05045087593338388 -0.0513829223959561 0.024523511714603374
0.05033886319360816 -0.04954392393404822 0.024140421350037133
0.05022328956063627 -0.04767828019840714 0.023783070135849405
0.050109643313033254 -0.045833147301101274 0.023419043464869505
0.050003624072223855 -0.04405710504268279 0.023014211099292137
0.04997487176439361 -0.04294333807650458 0.02215110525904118
0.04999279931160295 -0.04222763909289112 0.021008711143597425
0.050073788062618245 -0.042046633960687696 0.019485361867129625
0.05019833628459299 -0.04223182768573036 0.01769512550228103
0.05031457781469687 -0.042342468355029195 0.0159501590896452
0.05043670867205907 -0.04249875682794646 0.014164505247363957
0.05055769452696056 -0.042641161653310444 0.012380792581599187
0.05068323449333587 -0.0428176263554535 0.010564140763005048
0.050809239773636924 -0.04299363061605238 0.008739427303258718
0.05093250304125702 -0.04314231372470145 0.00692642595762144
0.05106136514048154 -0.04333346350099071 0.00507363635831265
0.051519200751284605 -0.08762216971514453 0.027356562506276216
0.051327709215808724 -0.08495636810264734 0.027357264463164943
0.05113497590520258 -0.08228610505723788 0.027373255981901434
0.05094252961114629 -0.07962533119787679 0.027395793422983705
0.050752672759197044 -0.07699490009155674 0.02741152179046691
0.05056357560154249 -0.07437812106372033 0.027430913431153225
0.050379109375409244 -0.07180990366148149 0.027431331167098838
0.05019133903855792 -0.06921850248974298 0.02745894921967107
0.05001259519943236 -0.06671497720170255 0.02744150460835193
0.04988633136068831 -0.06468882287845173 0.027122095842275207
0.04977015083826683 -0.06275749135357256 0.026748366176432226
0.049656861644785104 -0.060856153997266293 0.026362402382654304
0.049544867334350276 -0.05897041395626801 0.025973538978629973
0.0494287166367241 -0.05705166813476281 0.025614313465103733
0.049319139676337734 -0.05519547999894825 0.025220554252755267
0.04920743026883369 -0.05332429544656797 0.024844309637350903
0.04909362065321948 -0.0514385140066842 0.02448552077312305
0.048986743266622966 -0.04961802064512133 0.024089503218098607
0.04887683664249936 -0.047774644449769366 0.023716483269199784
0.048767422086568334 -0.04593952132181278 0.023345133385537897
0.04865834577241838 -0.04411127458265923 0.02297636555838517
0.04863021310119019 -0.042996018114449974 0.022114097385580733
0.048651572776863924 -0.042314453149037534 0.020947388114074816
0.048732518585710594 -0.04215199330886621 0.01941052966807233
0.048845416508401664 -0.04226484321756607 0.017671547276021604
0.04896737427740559 -0.04245238191451406 0.01587123303210114
0.049084274431512295 -0.042591710468921906 0.014097392123831931
0.04920265754895265 -0.04273969688835749 0.01230926040275443
0.04932594396064149 -0.04292579755867171 0.010485184371985423
0.04944549710099356 -0.04307532410371928 0.008679472290208767
0.0495746921229315 -0.043303498255590434 0.006807487780179977
0.049698124959688006 -0.043477608858946304 0.004966692691366459
0.05010764306610352 -0.08780568954519291 0.027241907742069582
0.049920673908781875 -0.08513205665016127 0.027246877340360243
0.04972927226110013 -0.0824238049473206 0.027286245813118337
0.049539974673894066 -0.07974223805758901 0.027321502867057368
0.04935545779150588 -0.07711219404200731 0.027336563052091645
0.049175156595166254 -0.07452815228759929 0.027334491179162368
0.048990673999717134 -0.07191190408987047 0.027365407374370876
0.04881193266561045 -0.0693556407242002 0.027369816011596604
0.048639595758330934 -0.06686517975355977 0.02734333095314001
0.048511524288746964 -0.06478966465626662 0.027055814602415074
0.04840357565196464 -0.06290423872765588 0.026651371175526517
0.04828848092718127 -0.060957074509033926 0.02629532391557654
0.04817909271574623 -0.05906650041413053 0.025909316533010263
0.04807171011905322 -0.05719831078333398 0.025515753090722237
0.047961194665812376 -0.055305433552884864 0.02514624127543974
0.04785418108613854 -0.0534485556660203 0.024759860090800112
0.047747494903813095 -0.05159858858292388 0.0243761267064993
0.0476375730275983 -0.04972314674228395 0.024017262130179517
0.04753244038555668 -0.04789516038989916 0.02363320777338551
0.04742291704798174 -0.04603131132526811 0.023281356485989835
0.047319900096307224 -0.04423023139058163 0.02289325630384237
0.047291363605356664 -0.043104052814286364 0.022038202620753344
0.04731228687240168 -0.042423678700731715 0.020870234207263805
0.04739249338332969 -0.04227453920099883 0.019323490594731874
0.04750143326372228 -0.04237977694765066 0.017589466501308382
0.04761606393204345 -0.042531872912132895 0.015814152645655055
0.047738401581756254 -0.04274849563132971 0.013984192174376076
0.047854479712808214 -0.04290491221209802 0.01218932139964285
0.04797428415358521 -0.04309016259779441 0.010365210896432775
0.04808758164211731 -0.04321333662349941 0.00857818456680376
0.048207949635620466 -0.04339489034200755 0.006740049534555648
0.04833686552398392 -0.04364747511480793 0.004840666277178163
0.048684132149470156 -0.08788438479184324 0.027192742609641607
0.04850244435458412 -0.08521001300011471 0.027197896518126485
0.04831849256462319 -0.0825206976880501 0.027225020996509752
0.04813780264776073 -0.07986970383995745 0.027240502447729797
0.04795985261836992 -0.07725183692464221 0.027247321825069226
0.0477818301140621 -0.07464000429330081 0.027262606014321844
0.04760420899473538 -0.07203873980304831 0.027283432294875787
0.04742517805353781 -0.06943074114634523 0.027321004411678285
0.04726432543225968 -0.06700259563607058 0.02725351477970761
0.04713744389975547 -0.06490334362251393 0.02698109573082741
0.04703222849822628 -0.0630143627083598 0.02657858300645438
0.046927037018554274 -0.06112958650153055 0.026180660944297218
0.046819511132604665 -0.0592267373024673 0.025802217049579412
0.04671012674471303 -0.05731043381988038 0.025440393802175387
0.046603591462897186 -0.05542507067967939 0.0250653835718872
0.04650074318467741 -0.05357835339717265 0.024671647145166398
0.04639617412938392 -0.051719400883235345 0.02429356427883339
0.046289622054144455 -0.04984585842446981 0.023932936476571076
0.046183845433337464 -0.04798358164114097 0.0235721094581528
0.04607783648782322 -0.04612314061987066 0.023217552286436904
0.04598526353322352 -0.04439158973578933 0.022780523157142574
0.04595083989668051 -0.04320291303771201 0.02196875296565587
0.04597771993231042 -0.042583011617197075 0.020757685806507997
0.046054836529688344 -0.042426172135335116 0.019215792227197326
0.04616073940470141 -0.042531796168317704 0.017480900821504053
0.04627361599902851 -0.0426975744642053 0.015695166643871328
0.04639052266615522 -0.04289608545844842 0.013877631324404949
0.046502343537211485 -0.04304357882298521 0.012088655599491516
0.04661631387810396 -0.04320649744530458 0.010280295686669771
0.046730109220948286 -0.043363509978392833 0.008467971969273569
0.046842836611865536 -0.043506495537069534 0.006657696010915426
0.04696471952120982 -0.04372841143759609 0.004780618408841308
0.04724264678999504 -0.08778871978440528 0.027252509833117
0.04706176539528317 -0.08506940502625748 0.027286242256464754
0.04688881983367664 -0.08243591456572308 0.027278594105666742
0.04672077393171275 -0.0798577042017326 0.02724812791928033
0.04655588244717447 -0.0773172308700914 0.02720553072217108
0.04638453907799244 -0.0747195113601124 0.027211508351737412
0.046195055152356286 -0.07194980181448773 0.0273409138634787
0.04602488339988209 -0.06937730195640163 0.02735573740613023
0.04586631796500242 -0.06692528906352363 0.02730404312805157
0.04574306536057396 -0.06482518333783 0.027032469030100537
0.045641124599874766 -0.0629381174408451 0.02662897864490832
0.04553604153253706 -0.06102438050897391 0.026250587989917196
0.04543129808014331 -0.059118042421336225 0.025874866908012994
0.045318202252438905 -0.05713466169707154 0.025558532641096254
0.0452216899073725 -0.05531643216969184 0.02513880792729528
0.04511909193938452 -0.05344309243455059 0.02476357317012895
0.045014850238011044 -0.05155788074311646 0.02440394639937138
0.044916545645398806 -0.049733932019650984 0.024009850803392074
0.04481281883075422 -0.04786167724600571 0.023656344529608353
0.04471012456329446 -0.04600337135092436 0.02330076973663997
0.04462667742676645 -0.04433338103333895 0.02282119082957429
0.04460582973593867 -0.04326488887148355 0.02192521475517234
0.04463510469341296 -0.04267524223733293 0.020692536662075323
0.044710124270734355 -0.04251984303215023 0.01914926184027338
0.044821037589799904 -0.042702451408943964 0.017359026076331663
0.044931102331996056 -0.042872695437066954 0.015569416794688762
0.04503636264406871 -0.042993204865841794 0.013807510487148567
0.04515088192336517 -0.04319701723940983 0.01197726611547606
0.04526072747863889 -0.04335233994837051 0.010173842207081174
0.04536639772902445 -0.04346413170290253 0.008394125465290059
0.04548705200094304 -0.043712378670022256 0.006505774679503751
0.04559738772074992 -0.043859323386041316 0.004683492821142832
0.04594382871324144 -0.08823042208576765 0.02530013777333473
0.04568411441450206 -0.08464883498813963 0.025880286946400655
0.045505535625672194 -0.08190664050054841 0.02594609338659265
0.04549220951188632 -0.08085668191411066 0.024943580697428636
0.045600821486476234 -0.08104819733230512 0.02314417739962893
0.04500906536549373 -0.07412191680733449 0.025937054836629947
0.044980972955746795 -0.07293305358607716 0.025044669149459964
0.04510606452248036 -0.07329500946312345 0.023140736847453658
0.04602474319093098 -0.08166434790253524 0.015964417061575975
0.04614764163001025 -0.08197821329575716 0.01404411548102269
0.046256960857392074 -0.08215058512316914 0.012208694227227646
0.04421425194947725 -0.06072041668084449 0.024803867757071163
0.044094051225183846 -0.05862833895891628 0.024554612566564715
0.044102118385762674 -0.05782325712436248 0.023444548731645642
0.044210197200216385 -0.058015559643259884 0.021656036864283357
0.04601368510732826 -0.07508273306498009 0.008327182529905996
0.046011716436100934 -0.07413889175817562 0.007239107146844614
0.04614642248026892 -0.07455034963758411 0.005214679461775562
0.04340237884605324 -0.04559768893227195 0.021937880464329762
0.04335056725312743 -0.044215237398805285 0.021257590853698938
0.043393757294470876 -0.04376923809701805 0.019919767512305675
0.0434945989938719 -0.04388736768063978 0.018177967081713264
0.04515122012503674 -0.05924052058502943 0.00554822937365862
0.04522088015613747 -0.05901449423926375 0.003978400051680209
0.04420222923204357 -0.04728134084676233 0.009012226128402412
0.0441832315970285 -0.04620888854639643 0.00808878628338483
0.04417541374311959 -0.04524558411226809 0.007086712167953035
0.04420418556681847 -0.04463658482173016 0.005823801897925085
0.044279504692448256 -0.04447582190518756 0.004226102757188432
0.04469520148894541 -0.08465107581029108 0.017428515758810104
0.044710103030329656 -0.08387993297922536 0.016222336022088057
0.04474703092176424 -0.08333773378825438 0.014864533476973585
0.04481098635852739 -0.08307512752170815 0.013319092138776578
0.04297334763895116 -0.04703106525080375 0.005776342174662774
0.043335505574221354 -0.08368157331814713 0.014638534592070207
0.04335557343669396 -0.08296874854500352 0.013389405149471512
0.04186496709836038 -0.08339166634280609 0.014829084834333317
0.04186842551085057 -0.08250217988851977 0.013697791428913586
0.040423484839942986 -0.08341632539053817 0.014812877009677428
0.040455300012138824 -0.08285471501439551 0.013464777646400472
0.03900659852510175 -0.08466575675207083 0.015708714889301534
0.038962151329462055 -0.08320526787726618 0.014951601049509489
0.038994478091082974 -0.08266375656982422 0.013590994841673143
0.0376575401753144 -0.08678745049463993 0.01603997489983161
0.037525306024025484 -0.08420999707019777 0.016006603585490775
0.03751502006575091 -0.08315445784339703 0.01498499756942867
0.03756513934209689 -0.08284855286770465 0.013468850785163855
0.036123791063696946 -0.08567962425448217 0.016760009002258158
0.03606344084659811 -0.08396934410966395 0.016163896600208394
0.03606534598521882 -0.08306672104642193 0.015042665325214533
0.036142078782478576 -0.0831291072602211 0.013283413847614556
0.034653855335936526 -0.08534194824301028 0.016979482325887918
0.03461050469319686 -0.08382907771644543 0.01625557605458372
0.03461313229593479 -0.08293748483313135 0.01512760983196193
0.03468423074716576 -0.08296566657194565 0.013391442731091718
0.03332846058605388 -0.08794482602123266 0.0170031745246374
0.03319502532671284 -0.08513153436796567 0.017116241353302253
0.03315756581288837 -0.08367657586783778 0.016355252712227653
0.033170918752348524 -0.08293748495876829 0.01512760983225453
0.03323696593814694 -0.08293638281492305 0.013410798393441892
0.03188616567622586 -0.08804481624663135 0.01693854994874089
0.03174180257068521 -0.08498466624647233 0.017211698683051613
0.03169825682556643 -0.08341647442170119 0.016525257431242057
0.03171886322914277 -0.08279294841531748 0.015222610945331616
0.0318114510689898 -0.08322321518488368 0.013221211924041576
0.0302955921682076 -0.08493212538874656 0.017245847807181636
0.030249845772274967 -0.08329960027454081 0.016601647503747374
0.03025842507487313 -0.0825056792867942 0.01541142738213891
0.030356434415413674 -0.08308438143276486 0.013312976449966762
0.028859806370504077 -0.08504340273738814 0.01717352293991581
0.0288224908697053 -0.08351186287372592 0.016462910848667744
0.028841231624154924 -0.08288827129439208 0.015159957255512557
0.028922181771760556 -0.08326642506847348 0.013192651810878364
0.027432943781332233 -0.08531873216565805 0.016994572074917447
0.027396276922953006 -0.08376590887220792 0.016296864189375204
0.027407040366343928 -0.08302209639126878 0.015071996731619408
0.02751614575755042 -0.08394648701427831 0.012743153813110586
0.02601214262252615 -0.0857338845618672 0.016724742974898676
0.02596653679600445 -0.08398476403293992 0.016153818577137324
0.02597717232874133 -0.08324838934603157 0.01492325890162799
0.02604427396595717 -0.08352276128849034 0.013023222355078634
