# .PCD v0.7 - Point Cloud Data file format
VERSION 0.7
FIELDS x y z
SIZE 4 4 4
TYPE F F F
COUNT 1 1 1
WIDTH 776
HEIGHT 1
VIEWPOINT 0 0 0 1 0 0 0
POINTS 776
DATA ascii
-0.02158510478150316 0.11062355276452687 0.033808661943059815
-0.023632937243630803 0.1102325054286554 0.03390739885036176
-0.025667319338303074 0.10984391283658927 0.03400622551088833
-0.0268669122730838 0.10971079769305801 0.03344098366713738
-0.027268346979301583 0.10982350489445747 0.03223071326268301
-0.027670607330985864 0.10993644390487628 0.031017953650819996
-0.028074667666674713 0.11004931414306768 0.029803495471093178
-0.028452349549725475 0.11017087067920593 0.028564069816648663
-0.028632496162875443 0.11035446723739382 0.027157203397770058
-0.028813244196511212 0.11053867673368559 0.02574564014768216
-0.02905114954562371 0.11070581511221869 0.024376810007908534
-0.028778740846640616 0.11103363774128239 0.022572752413166197
-0.0286392242001397 0.11132115440637841 0.020872045227477876
-0.02850095190439461 0.11160954415668353 0.019164185742551854
-0.027722010269497555 0.11210134399357026 0.016899011867847424
-0.026438736140569408 0.11275479120154151 0.014185228019772955
-0.025031322715365567 0.11345047295422848 0.011345139481662991
-0.02283617828527512 0.1143994351579548 0.007799166823125259
-0.020257295991730873 0.11547476925398378 0.0038899248648387452
0.015516655745706764 0.11642099059269115 0.032071999160171116
0.01319880141664237 0.1159832216529119 0.032183558936811685
0.01089716826567827 0.11554839678731407 0.032295123065740505
0.008614996322112656 0.11511748670522434 0.03240418033896669
0.006348659572803006 0.1146894477972475 0.032513260542128
0.004099114132501136 0.11426458023333293 0.03262153256903666
0.0018650720203806648 0.11384252293013336 0.03272983190832923
-0.00035252713353151055 0.11342357204582408 0.03283733414463236
-0.0025527827809761483 0.11300801461582995 0.03294322817588041
-0.004736974837785568 0.11259549108076942 0.03304834909764648
-0.006905278579342755 0.11218596833676706 0.03315270534559811
-0.009059969478256769 0.11177878524317326 0.03325792538136596
-0.011199075882033005 0.11137454723231259 0.033362384379314824
-0.013321734370309923 0.11097353221162927 0.03346528691355377
-0.01542813968351403 0.11057570214599319 0.03356665059497643
-0.017519496399824197 0.11018071426095287 0.03366729011315772
-0.019596968757581323 0.10978823504270394 0.033768007438408465
-0.02165969315147076 0.10939854203209132 0.033868009771911955
-0.02370684089294134 0.10901190455573107 0.03396651662754485
-0.02574054564588818 0.10862769358211517 0.03406511467749107
-0.026863995969523657 0.10851917760189227 0.033438625825321755
-0.027264458956511084 0.10863095835693032 0.03222755300828051
-0.027666719710632448 0.10874267221246318 0.03101477687862536
-0.028071752284618612 0.10885402001724924 0.02980110047726947
-0.028438743487724405 0.10897754289693086 0.028552832934869155
-0.028617901323560013 0.1091594574898007 0.027145085845172168
-0.02890186295934266 0.10930981455242124 0.02581960771370323
-0.02903165059419721 0.10950852312040812 0.024360448444193772
-0.028749382417459557 0.10983585242177205 0.02254798719482226
-0.028609778149703946 0.1101202911074165 0.020847074561843593
-0.028469448946500664 0.11040620682311003 0.01913732944857477
-0.027598105832731423 0.11092151948643492 0.016792824884307
-0.02632366846849704 0.11156518554787268 0.014086093374014508
-0.02490295469246856 0.11225755441400054 0.01123396253208292
-0.022720303743053227 0.11319236615599575 0.007698281079349556
0.015429150628356425 0.11511635799415641 0.03213552405394693
0.013112132272170063 0.11468358944872066 0.032246820612514104
0.010812469870100039 0.11425406261736977 0.03235728348838357
0.008529969138945881 0.11382774121223438 0.032466922013834
0.0062655613900035045 0.11340491654469508 0.03257491242897276
0.0040156899479665276 0.11298457221713219 0.0326837626512923
0.0017824355678371373 0.11256733246150326 0.03279180892944672
-0.0004343851680582711 0.11215316300981545 0.032899060137300096
-0.0026327910687556355 0.11174266517889168 0.03300388597275028
-0.004817304326763305 0.11133453090112763 0.03310957972849948
-0.0069848571940290816 0.11092968009048945 0.03321369124107976
-0.009138805086316704 0.11052714161894585 0.033318667791340406
-0.011276135995737235 0.11012782245537295 0.03342207871360653
-0.013399110207559073 0.10973107206001297 0.03352554842811595
-0.015504798916791629 0.10933777813740234 0.03362667498380334
-0.01759544727470802 0.10894729340437342 0.033727079220452705
-0.01967121585144954 0.10855958787013972 0.033826768849509636
-0.02173325684392291 0.10817433438219955 0.03392654229422443
-0.02378071415388522 0.10779180558042843 0.03402561009614907
-0.025813741949722302 0.10741197266136916 0.0341239797148436
-0.026860107490456142 0.10732783094217224 0.03343548197614565
-0.027261542883662004 0.10743809220242284 0.03222518277215897
-0.027663803939556586 0.10754858024537753 0.031012394253873588
-0.02806786503402775 0.1076590010129207 0.029797907090956033
-0.028424164405334407 0.10778441897102208 0.028540792461640485
-0.02860427838891494 0.10796405287866698 0.027133775228896706
-0.02892814790895204 0.10810058332589177 0.025841547015082234
-0.029012149494400785 0.10831109921259416 0.024344085077782518
-0.028720019121632523 0.10863786854950208 0.02252321787123318
-0.02858032720545417 0.10891922822991894 0.020822099746186096
-0.028428092816756345 0.10920568840609825 0.019102073318597868
-0.02747609948218227 0.10974025927580197 0.016688264574154066
-0.026218541804104822 0.11037171380994223 0.013995523238661989
-0.024783601083174622 0.11106095686111268 0.011130592783891669
-0.02260024886013401 0.11198579594853286 0.007593755737329122
0.015342849898730304 0.1138126312895718 0.032198174614831654
0.013025501035320297 0.11338452568170289 0.03231005461862613
0.010726664057914725 0.11295995678299893 0.032420256647606505
0.008446111828679492 0.11253888132559785 0.03252880043788642
0.006181376442225606 0.11212061016791751 0.032637370604345295
0.003932301711311648 0.11170511576246617 0.03274596591830814
0.0017009357053428542 0.11129300798058026 0.032852933512405036
-0.0005162081890721093 0.11088329737166831 0.03296075972762563
-0.0027138462221439896 0.11047753392474313 0.0330653374444157
-0.004897599706785993 0.11007410614169333 0.03317078436002313
-0.007064402141438109 0.10967392334130627 0.033274651335294836
-0.009217607462447652 0.10927602560566928 0.03337938459629314
-0.011354204877473462 0.10888130946008832 0.03348255448635229
-0.013476453663094357 0.10848913187676065 0.03358578472329182
-0.015581426183215785 0.10810037034234438 0.03368667434249678
-0.017671366591210325 0.107714385047018 0.03378684348474931
-0.01974643533603554 0.10733114635790882 0.03388629984023672
-0.02180778408559625 0.1069503309031859 0.0339858414850443
-0.023854557045201674 0.10657220819324895 0.03408467927116454
-0.025885932914486487 0.10619703979657784 0.03418203625068994
-0.026857191075452147 0.10613616857066233 0.03343312404422727
-0.02725765471214464 0.10624549678558076 0.03222202239686861
-0.027659916170338805 0.10635475957311077 0.03100921736003437
-0.028064949540221817 0.10646366434554067 0.02979551200532954
-0.028410556180085866 0.10659090474256658 0.02852955379329286
-0.028590654406924487 0.10676855636377267 0.027122463743049385
-0.02891451916294613 0.10690358019274684 0.025830171487623177
-0.028992646245883213 0.10711354336697293 0.024327719908380063
-0.02869162997517949 0.10743938921951618 0.02249927028854165
-0.028551853306359676 0.10771766732878398 0.020797953478585818
-0.02812254653152152 0.10808534655016423 0.018841594893445224
-0.02735301639429344 0.10855849087513884 0.016582781492443133
-0.026119365605977107 0.1091756991877353 0.01391007962889751
-0.024648980000611886 0.10986821766589823 0.01101400018574511
-0.02247086947983651 0.1107812618088043 0.007481112055979788
0.015255421079671483 0.11250913998065161 0.03226164411937982
0.012940062010202258 0.1120863567387358 0.0323724184037108
0.010642038960362865 0.11166673904409934 0.032482363276594206
0.008361157953766296 0.11125025147676436 0.03259148801849299
0.006097227897201629 0.11083685914321988 0.032699801771925496
0.0038489493993061896 0.11042621051290585 0.03280814238741281
0.001618369711330947 0.11001890835906217 0.03291485768989516
-0.0005979962190325039 0.10961397478281226 0.033022432932544754
-0.0027937867918432224 0.10921325193868602 0.033125943901234745
-0.004977860999573869 0.10881421646151918 0.03323196300877368
-0.007143913442930971 0.10841869775199853 0.033335585644613586
-0.009296376627657754 0.10802543686980452 0.03344007581241082
-0.011432240976236518 0.10763531990511936 0.033543004863888226
-0.013552734155430457 0.10724801049418471 0.03364519316607112
-0.01565802150277784 0.10686347843799547 0.03374664868670996
-0.017747254368996324 0.10648198886952978 0.0338465829215282
-0.019821623683787037 0.10610321335459508 0.03394580618832471
-0.021882280586422165 0.10572683229865924 0.03404511621625267
-0.023928369585614395 0.10535311208494855 0.034143724167568834
-0.02595906966555117 0.10498231124869674 0.034240853395241744
-0.026853302447791494 0.10494477313056086 0.0334299800749131
-0.027253766455636708 0.10505287530028033 0.0322188619524964
-0.02765700028761331 0.10516062515034479 0.031006834644047965
-0.028061062140628812 0.10526859625946919 0.02979231849661046
-0.028396946910323462 0.10539729890484557 0.02851831426230922
-0.028576056120994175 0.10557325782299112 0.027110343328855313
-0.028899915770835505 0.10570677553519317 0.02581798245072442
-0.028966313451342873 0.10591789801752509 0.02430562406916109
-0.02866225710475151 0.10624101138037804 0.022474492888325537
-0.028522392734053048 0.10651620844863555 0.020772970498200483
-0.02794192836334619 0.10692529398582545 0.01868761777680611
-0.027227860773888668 0.10737650373124998 0.016475522235625706
-0.026019131640680815 0.10797932275101807 0.013823724717360208
-0.02452033758187644 0.10867273870924737 0.010902585587476477
-0.02234139718048167 0.10957586258394991 0.007368387474995075
0.015169195581796524 0.1112065460455465 0.032324240065298604
0.012853506009416094 0.11078842487342697 0.03243559749339914
0.010556307388502939 0.11037375657179882 0.03254528195060552
0.008277372927538773 0.10996249891526218 0.03265331310405423
0.006013115731325125 0.10955366311046703 0.03276220594922735
0.003766743638159986 0.109148169527041 0.0328694635894905
0.0015358391489325718 0.1087453554929388 0.03297675529381161
-0.0006786594694840331 0.10834550371699514 0.033083257984535264
-0.002874773355611815 0.10794919477475132 0.033187343372097
-0.00505808822682835 0.10755486151994735 0.033293115691292785
-0.007222331638576385 0.10716430511072188 0.03339568224094597
-0.00937406300816096 0.10677567501585321 0.03349993274876334
-0.011510244312671891 0.10638985346082769 0.03360342986220721
-0.0136300133395717 0.10600710574566954 0.03370537940567814
-0.015733564260139554 0.10562739562311879 0.033805798871848314
-0.01782311062771491 0.1052501045528172 0.03390629754625707
-0.019896780914033574 0.10487578854452065 0.0340052879090717
-0.021956746365416724 0.1045038382563095 0.034104366502980044
-0.02400116823049414 0.10413480223112836 0.03420195801809428
-0.02603217646788475 0.10376808011938184 0.03429964645479083
-0.026850385921339037 0.10375306847634486 0.033427622052888184
-0.027250850207493904 0.103859943963523 0.032216491573893
-0.027653112369520838 0.10396675549534896 0.03100365762855567
-0.028058146535064554 0.10407321704814489 0.029789923319174183
-0.02838236439063646 0.10420388711055259 0.02850627095030922
-0.02856242996912245 0.10437757419662479 0.0270990300414361
-0.028885311174188077 0.10450987216118404 0.025805792408433004
-0.02877211010263575 0.10477172241539959 0.024142668103274145
-0.028632879364088093 0.10504243484140205 0.022449711379836368
-0.028493909525554917 0.10531425805652979 0.020748816336094822
-0.02788069362161788 0.10572846389777865 0.01863541511599559
-0.027102617041029897 0.10619368444104559 0.016368187465808537
-0.02591984454111923 0.10678197416080043 0.013738185562303384
-0.024389574715202977 0.107477008961059 0.010789334512115056
-0.022209774519066472 0.10837021526574755 0.007253790689195683
0.015081842961282732 0.10990419453257459 0.03238765425303075
0.012766987842054212 0.10949106033104011 0.03249874896765603
0.010471755493872859 0.10908165381692593 0.03260733485573547
0.008192492266113294 0.10867498326681072 0.03271594666032801
0.005930160692773967 0.10827133369520914 0.03282375163503731
0.003683462627618983 0.10787036188376604 0.03293158687142855
0.0014533439953454685 0.10747234903034128 0.03303862634125598
-0.0007603780504427116 0.10707726250204498 0.03314487882063566
-0.0029557254273404054 0.10668567597058985 0.033248716693028924
-0.005137212391629009 0.10629634168387402 0.03335342757162607
-0.007301776160149875 0.10591013723168947 0.03345656537278191
-0.009452766256597744 0.10552613626286975 0.033560573176363406
-0.01158717551475752 0.10514520402736555 0.033663024335586655
-0.013707260202647509 0.1047667199902345 0.033765540473133016
-0.015810096171177956 0.10439153103808145 0.03386572356701456
-0.01789792459732098 0.10401901973849094 0.03396519167305656
-0.01997190704608859 0.10364887161226902 0.03406474501776291
-0.022030189175771597 0.1032816323563145 0.03416280284287132
-0.024074920529266408 0.1029167043588864 0.03426095472537788
-0.026105253339878787 0.10255434610316418 0.03435841544412788
-0.026846497145076642 0.10256162425300361 0.03342447796342901
-0.027246961802245506 0.10266727359447346 0.03221333100862189
-0.02765019637513716 0.10277257861452718 0.031001274821327696
-0.02805425898645897 0.10287809987744617 0.029786729688040914
-0.02836875295686142 0.10301009476084495 0.02849502963212558
-0.028548802769538084 0.10318179863419115 0.027087715884140107
-0.028870705372854744 0.10331287005850527 0.02579360136062442
-0.02874281473478385 0.10357601444573816 0.02411808636976598
-0.028604476250874533 0.10384337256282423 0.022425752015524214
-0.028464439320469326 0.10411240297895973 0.02072382518697713
-0.028231026435441897 0.10441009614028485 0.018934074088576558
-0.026977285102634474 0.10501003212544084 0.01626077710321916
-0.025820502200184337 0.10558395938956341 0.013652598814957007
-0.02425973119535557 0.1062801059972606 0.010676879664454408
-0.022077026325467486 0.10716399331289002 0.007138213962942397
0.01499452865805595 0.10860241429694426 0.03245104062408588
0.012681660306175346 0.10819457794808308 0.032561031374343186
0.010386098066029581 0.10778979324781127 0.032670199115216514
0.008107648421310232 0.10738802607270603 0.03277855304956567
0.005846120730182813 0.10698924280621072 0.03288610224355315
0.003600217472465972 0.10659310438133837 0.03299368340712089
0.0013719834586885526 0.10620019231453567 0.03309964643037294
-0.0008420617073143233 0.10580956329557832 0.03320647332182641
-0.003036643029058872 0.10542269518234522 0.033310063880732266
-0.0052173720063348195 0.10503805157601401 0.03341452871691941
-0.007381187099497422 0.10465649950560126 0.03351742276853131
-0.009531436356752854 0.10427712379134864 0.03362118806339165
-0.011665113824548823 0.10390077927331924 0.033723398961254425
-0.013784474764930443 0.10352685290235396 0.03382567638422418
-0.015886596194961633 0.10315618137978183 0.033925623294373264
-0.017973718296387775 0.10278815472058869 0.034024857050350965
-0.02004600103622206 0.10242274471745245 0.034123385257906036
-0.022104593977081755 0.10205964308569168 0.0342220046114024
-0.02414864253296506 0.10169910684207983 0.03431992719871052
-0.026177326537118684 0.10134138543646094 0.034416377270414356
-0.026843580507171227 0.10136987731371941 0.03342211985129401
-0.02724404544254394 0.101474299885521 0.03221096053934153
-0.02764630830816328 0.1015786599739256 0.03099809768417683
-0.028051343269131834 0.10168267811979353 0.029784334418791192
-0.028354168118310985 0.10181648991037463 0.02848298440503838
-0.028535174522116513 0.1019859311250875 0.027076400856863803
-0.02885122909686122 0.1021171731584712 0.025777345065858326
-0.028714491273129583 0.10237982645751426 0.024094320162427796
-0.02857508892854349 0.10264440176594399 0.02240096242444689
-0.028432016435521235 0.10291120359774268 0.02069633012373584
-0.02818172561034965 0.10321036509565805 0.01889204510017345
-0.026852860612050722 0.10382525563871199 0.016154144429858297
-0.025720100273104396 0.1043855712863477 0.013566099198728754
-0.02412979362134826 0.10508233603831811 0.010564343358387296
-0.021963753008110598 0.10595113996217603 0.007039592966023134
0.014908416075286701 0.1073015186799182 0.03251355459856903
0.01259521722766227 0.10689834309180338 0.03262412803963166
0.010301619279378393 0.10649880403244728 0.03273219836616764
0.008023971887962611 0.10610193371152792 0.03284029807808225
0.005762117076355711 0.10570770583383839 0.03294842591400915
0.0035170081495501937 0.10531639666455209 0.033055753213836636
0.0012895585830347556 0.10492827390301478 0.033161464769637994
-0.0009226220418947495 0.10454270354280777 0.0332672207689203
-0.0031164479672284306 0.10416054768586994 0.03337056750933182
-0.005297497620213143 0.10378029518956203 0.03347560394530302
-0.007460564477907938 0.1034033915963745 0.03357825444450896
-0.009610073329563651 0.10302863726887068 0.03368177742598005
-0.011743019433569313 0.10265687664564183 0.033783748255390156
-0.013861657046676301 0.10228750415677444 0.03388578715472723
-0.015963064351415368 0.10192134632646828 0.033985498069525666
-0.01804948053497457 0.10155780061062909 0.034084497661715896
-0.020121065443771957 0.10119683915696126 0.03418279351594422
-0.022178968113261477 0.10083815744465184 0.03428118198056779
-0.02422233426025283 0.10048200937247705 0.034378875453021096
-0.02625034400200943 0.10012864136577122 0.03447509848409652
-0.02684066382149558 0.1001781108564141 0.033419761700536565
-0.02724015688854675 0.10028158062985487 0.03220779985316474
-0.027643392202115036 0.10038444063267178 0.030995714785702067
-0.02804745557150512 0.10048751186158245 0.029781140665236683
-0.02834055452000339 0.10062251100445299 0.028471741299225417
-0.02852057166553551 0.10079024845707053 0.027064276647828345
-0.0288317506785839 0.10092134473843735 0.02576108698298868
-0.028685186374317218 0.10118372615526476 0.024069730431493852
-0.028546676550785577 0.10144495171441867 0.022376995245055098
-0.028398604836176622 0.10171006638028195 0.02066799661675639
-0.02813241108193454 0.10201030058192719 0.01885000442967788
-0.026732334843371508 0.1026385026033107 0.016050852988898134
-0.025620646751864873 0.1031862191936748 0.01348041666583355
-0.02399976189095354 0.10388369814185719 0.01045172550537643
-0.021854531435267943 0.10473632952324113 0.006944499605555043
0.014821177820977416 0.10600087600126087 0.03257688576143114
0.012509963731220208 0.10560298197177925 0.032686356403338834
0.010216035899409615 0.10520806391015776 0.03279500828167736
0.007939201114487648 0.10481608855356428 0.032902850547886886
0.0056781497077675325 0.10442672241919707 0.03301072266385918
0.003434943380478117 0.10404053687057536 0.03311696924319474
0.0012071690482058361 0.10365690084436889 0.03322325660342057
-0.0010042363826340273 0.10327608364061987 0.03332876300148402
-0.0031972971538125616 0.10289863825546866 0.03343186282851707
-0.005376521589846528 0.10252336203502423 0.03353583945252131
-0.007538850619328963 0.10215110091716331 0.033638249839718914
-0.009687629362076955 0.10178096203074502 0.033741533929910805
-0.011820892362395363 0.10141349581579741 0.03384407223393315
-0.01393777861328438 0.10104895500171407 0.03394507182365902
-0.016039500660447015 0.10068702555665715 0.03404534790805974
-0.018125211332665037 0.10032795709057636 0.03414411352256774
-0.020196098810718266 0.0999714405324273 0.034242177207503444
-0.022253311603264492 0.09961717512191093 0.03434033496544847
-0.02429501377579879 0.09926568336482161 0.03443701400836863
-0.026323331591401378 0.0989163934960016 0.034533795671669865
-0.026836774832930232 0.09898659507756673 0.0334166174394297
-0.02723724041727993 0.09908856454633826 0.03220542929320214
-0.027640476048206797 0.09919020169246036 0.03099333184811842
-0.028044539742408836 0.09929204755521784 0.029778745304168297
-0.028326939876565094 0.0994284404355068 0.028460497330266954
-0.02850694124721531 0.09959419374862098 0.027052959818135602
-0.0288122701176729 0.09972538477670177 0.0257448271117236
-0.02865685369715304 0.09998715228863188 0.02404595649142438
-0.028517279642098492 0.1002455864661752 0.02235219756743473
-0.028366169908962124 0.10050842421447223 0.020640491341503475
-0.02808406954361642 0.10080962221750424 0.01880879323393092
-0.02663166821099283 0.10144527005720466 0.015964580968989395
-0.025521137850281927 0.10198619924602548 0.013394686420921398
-0.023868618921155327 0.1026844821258903 0.010338145230382734
-0.021745243762539945 0.1035207838922594 0.006849348695465107
0.04036935983994555 0.10767184886258707 0.04154616929961835
0.039607893748883294 0.1076928864395209 0.04048542350836837
0.032932148081603774 0.10620393924360347 0.043377067033833316
0.03187332585240382 0.10614604233897992 0.04253701057256176
0.031371525357182406 0.10623070643640901 0.04132218131928961
0.031214341336585405 0.10640423252687362 0.0398706601095104
0.014733977808737697 0.10470080347688324 0.03264018916222089
0.012423595643844154 0.10430787532995982 0.03274939833098084
0.01013163012595919 0.10391818679228057 0.03285695394800758
0.007854467086171102 0.10353080076435664 0.03296537590338888
0.005594218600913248 0.10314629220370171 0.0330729925105418
0.0033518051756705747 0.10276492393751942 0.033178985999518074
0.00112481483147725 0.10238607278793162 0.033285021948763927
-0.0010847283688247833 0.1020102951644509 0.03338945890968836
-0.0032781119360727473 0.10163726581424377 0.033493132064273345
-0.005456579719562371 0.10126666845959038 0.03359686324154071
-0.007618161386432509 0.10089904804761125 0.03369903046743167
-0.009766200583945006 0.10053352284965753 0.033802072631753166
-0.011897694976070683 0.10017091653107252 0.03390356709677239
-0.014014896824389611 0.09981063845737913 0.03400513269494321
-0.016115905141948383 0.0994532187491325 0.0341051728255507
-0.01820091070902702 0.09909862384265856 0.03420370464831041
-0.02027110115631059 0.09874654852947372 0.03430153634781846
-0.02232663382923672 0.0983969660499897 0.034398675359801456
-0.024368645409256595 0.09804958168198505 0.034495914191796595
-0.026396289323626088 0.09770464152267941 0.03459246884787698
-0.02683288575943693 0.09779505327917044 0.03341347310965831
-0.027233351714525122 0.09789579640118796 0.03220226848611252
-0.027636587768532117 0.09799621119952577 0.030990154537158976
-0.0280406518957525 0.09809683220660904 0.029775551428185554
-0.028312351598683505 0.09823454754511268 0.02844844926272838
-0.028493309780686538 0.09839804706117566 0.02704164211815424
-0.02879376159986974 0.09852902228066004 0.025729378577250606
-0.028627539262728208 0.09879065946176058 0.024021358759161116
-0.028488857995262684 0.09904574845248984 0.022328222569138967
-0.02833471219160355 0.0993062869540676 0.020613814753976334
-0.027998206191323205 0.09961914156825799 0.018735594665123367
-0.026531942219323812 0.10025108251983485 0.015879115084858897
-0.025420567538884886 0.10078579440986786 0.013308041735975495
-0.023738397833090952 0.1014841022269978 0.010225363378522256
-0.021636921879152615 0.10230421026812819 0.006755038646310496
0.040196064499536 0.10568320999467339 0.046322145539093196
0.03763640973389992 0.10525260273216748 0.04644751826776422
0.03455948280507154 0.10469059838336593 0.04692552073342904
0.03222269682150486 0.10431228165965775 0.04693084061092895
0.03065965069531712 0.10412721042164313 0.0464330275980917
0.02947772060463283 0.10403752047216278 0.04568594699415901
0.028479126013679634 0.10399380296311948 0.04481829737240367
0.027752847620723553 0.10401886725433228 0.04376789631617911
0.027339893654468816 0.1041235340874497 0.042503809497654144
0.02727412298705939 0.10431689382538886 0.04099934435048885
0.027446905520170206 0.10457180961145895 0.03932518256251322
0.028150335251247827 0.10496322065541398 0.03727673032562756
0.014647977919420574 0.10340160284900342 0.03270262132617918
0.01233841609051567 0.10301363401571492 0.0328115727220164
0.010046120697888461 0.10262856566297357 0.032919709589983526
0.0077697697791264675 0.10224606998158378 0.03302787416221398
0.005511442092289931 0.1018667080434394 0.03313440574210863
0.003268702734076312 0.10148985972949562 0.03324097607835319
0.0010424959101441034 0.10111578938333714 0.03334676082269661
-0.0011662734816259013 0.10074475319178704 0.033450948940128955
-0.0033588923359650358 0.10037643001950498 0.03355437523324645
-0.005536603912992988 0.10001050759094665 0.03365786116284725
-0.007697438656074973 0.09964752399137936 0.03375978542401825
-0.00984473874089803 0.09928660862500453 0.033862585857257155
-0.01197550304121986 0.0989285747808392 0.03396384082890613
-0.014091982815353732 0.09857283928412224 0.03406516847267649
-0.016192277815794187 0.09821992558294586 0.03416497283756065
-0.018276578683611877 0.09786980054936743 0.034263271054334854
-0.02034607249978304 0.09752216283398343 0.03436087095211171
-0.022400916491670697 0.09717698602542663 0.03445777994592836
-0.024442246821951008 0.09683397912592977 0.03455479020071661
-0.026428381271822066 0.09650443651000762 0.0346182774424415
-0.026829968898602508 0.09660322176266566 0.033411114817284426
-0.027230435131688602 0.09670273794073747 0.03219989783546412
-0.027633671502951873 0.09680192979543326 0.030987771508322437
-0.028037735954882237 0.0969013253491482 0.029773155975294563
-0.02829873478994882 0.09704029035409384 0.02843720350550971
-0.028479677265830283 0.09720180838412353 0.027030323547785562
-0.028774276859800718 0.09733280244547654 0.02571311521776093
-0.028599197365555773 0.09759369952890055 0.023997577082585764
-0.028459451495528143 0.09784598855929771 0.02230341680101816
-0.028302265575180396 0.09810420837180854 0.020586299566109856
-0.027876742267665566 0.0984379409199534 0.018632046583945072
-0.026431162300672106 0.09905650373469055 0.015792745977808498
-0.025319940627750837 0.09958471400059517 0.01322134828846433
-0.023608082280251907 0.10028285155040208 0.010112499712630063
-0.021527502451511193 0.10108719563727804 0.006659773024289939
0.041089425500624166 0.10418589176352015 0.048824951823509655
0.0386760574417509 0.10379790935847076 0.04884606037487327
0.0365164368727075 0.10347097110861456 0.04871372776440136
0.03382666399186268 0.10301172326620352 0.0489376026782663
0.03163394217375404 0.1026737237233244 0.048848421452775403
0.030117226873933423 0.10250209740289166 0.048322485705104556
0.028805720331874618 0.10238080052961654 0.04766527439175455
0.027725637678801318 0.10231666545104535 0.04685700911176016
0.02689273972274614 0.10231396994474348 0.0458845286719482
0.02631389891748981 0.10237480319932478 0.044740422382204936
0.025755933335946612 0.10244111283432034 0.04358029948687553
0.02535533595608641 0.10254720658836039 0.042310633835592526
0.0251613001419439 0.10270570361755096 0.04089581857626645
0.02523339149276177 0.10293194044566469 0.03929231613293738
0.02552525274899725 0.10321461798368534 0.03752925572890309
0.02739982565654442 0.10389911190331977 0.03465184422841611
0.014560853806862228 0.10210266564848278 0.03276586962711481
0.012252122896734774 0.10171965411926266 0.03287455998320982
0.009960648457666366 0.1013395053868109 0.032982437939678755
0.0076851091694880025 0.1009618958432385 0.03309034534197286
0.005427582955760346 0.10058737940679309 0.03319662219284247
0.0031856360326238398 0.10021534389251589 0.033302939496910156
0.0009602122615210429 0.09984605028051993 0.03340847324223262
-0.001247783781471501 0.09947975149985994 0.033512412719459816
-0.0034396383754263238 0.09911613052885357 0.033615592352067736
-0.005616594191711843 0.09875487909044674 0.03371883323288516
-0.007776682449473715 0.09839652841351632 0.03382051472573877
-0.009923243853803498 0.09804021902548178 0.03392307362250113
-0.012053278487526131 0.09768675384741964 0.0340240892929729
-0.014169036606364982 0.09733555715777308 0.0341251791725819
-0.01626760103237118 0.09698741485776621 0.03422395112166554
-0.01835221527595471 0.0966414868934581 0.034322812756019394
-0.02042101286035375 0.09629828313209901 0.03442018103559302
-0.02247516856444265 0.0959575083896299 0.03451686019273764
-0.02451581803248326 0.09561887538943264 0.03461364205000844
-0.026425464060748305 0.09531380344721993 0.03461593139858643
-0.02682607967648193 0.09541163117245315 0.03340797036734727
-0.027227518501031667 0.09550965991990974 0.03219752714594637
-0.027629783074373138 0.09560789030983603 0.03098459407568588
-0.028033847959185676 0.09570606090725665 0.02976996197687487
-0.028285116935713672 0.09584594146787546 0.02842595688484023
-0.028465069836451584 0.09600574140689268 0.027018195542126144
-0.02875478997605485 0.0961364510041823 0.025696850069005017
-0.02856987339086353 0.0963968139852485 0.023972971345087246
-0.028427098710985477 0.09664683131953535 0.02227612570283677
-0.028269813021817358 0.09690190983846425 0.020558779343634703
-0.027755195202959326 0.097255931749615 0.018528427624963872
-0.02633032538487534 0.09786124934291986 0.0157063280237994
-0.0252182499472684 0.09838323437005105 0.013133738368101777
-0.023477672159807228 0.09908072914824313 0.009999554143646394
-0.02142524897762832 0.0998674463831996 0.006570746413539108
0.044713094260558695 0.10335461403040405 0.04958142320509806
0.04050378874938276 0.10253910768224278 0.050731826519737344
0.03801590511193015 0.10213797494918013 0.05080024766237107
0.035974735946844416 0.10184383657910058 0.050591951113303446
0.033527375484760646 0.10144960558987638 0.05065647491458786
0.03150547351466071 0.10115763414183136 0.05045475385119352
0.029903043212333114 0.10096706870000668 0.04998610753458971
0.028577034450422034 0.10084346786441288 0.0493405012948015
0.02749624874965162 0.10077957389367717 0.0485356372653582
0.026600901523953724 0.10076103919567198 0.047608763428761636
0.025968504167189488 0.10080724153023718 0.04650571966629713
0.02559700371576823 0.10091806413951016 0.04522494227420404
0.025258146861998843 0.10103741137690508 0.04391860477755011
0.02467593228316589 0.10109689480348814 0.042774934916463225
0.024152697432267 0.10117127351392047 0.041588916236290796
0.02394742729245869 0.1013251187239753 0.0401809075510266
0.024008395825829254 0.10154600974906472 0.03858318937394367
0.02442522429432259 0.10185675990352686 0.03673005390552603
0.02559936794029921 0.10235848196927334 0.03433532211618595
0.014474928756345817 0.10080459188308996 0.03282824746137203
0.012167017190362006 0.10042653115616802 0.03293668047176146
0.009875213381038583 0.1000510055980015 0.03304513901489353
0.0076016133114278905 0.09967856584819695 0.033151957049947445
0.005343760010884269 0.09930860289859891 0.033258811792402865
0.003103711893211236 0.09894165969299981 0.03336405062389103
0.0008779638629417552 0.0985768551297143 0.033470159224371576
-0.0013281731792791907 0.09821556921541146 0.03357303126971373
-0.0035192741461412824 0.0978566444339247 0.03367596772739023
-0.005695484714984045 0.09750005803524192 0.033778967021481976
-0.00785483686995353 0.09714633440011418 0.033880409175241266
-0.010000669866112921 0.09679462516462214 0.033982729946567425
-0.012131021335496761 0.09644545340337582 0.03408431250485866
-0.014245031474364234 0.0960990593118136 0.0341843651666518
-0.016343910573907328 0.0957551445378955 0.03428370170090472
-0.018426812642060142 0.09541394631397414 0.034381536370893084
-0.020495922257224797 0.09507490911022244 0.03447946661345941
-0.022549390066444353 0.0947385328323371 0.034575916115260896
-0.02458837871087527 0.09440452837033883 0.03467168554390154
-0.026421574371705003 0.0941234075730175 0.03461280328037786
-0.02682316270417362 0.094219757363795 0.03340561198484632
-0.027223629585751308 0.09431682006348242 0.03219436616611221
-0.027626866697112784 0.0944135664394862 0.03098221095558995
-0.02803093190653333 0.09451051149631606 0.029767566432154613
-0.028270525217280518 0.09465176043488543 0.02841390597584237
-0.028451435149676907 0.09480931544256632 0.02700687516849426
-0.028735300948276477 0.09493996793505799 0.025680583130686052
-0.028541522269181552 0.09519946779822104 0.02394918192822898
-0.028394740021715992 0.09544745522083045 0.022248829623740085
-0.028237354529885017 0.09569939129366066 0.020531254085169093
-0.02763356491181318 0.09607311322681808 0.018424737715383555
-0.026229431423566874 0.09666531877121592 0.01561986118138109
-0.025116501431339866 0.09718107141131692 0.013046078620569168
-0.023355326693722256 0.09787551368865402 0.009893593208770868
0.04385016856729046 0.10164062570508187 0.051660279302766565
0.04038842170235202 0.10101457533608134 0.05232961716292295
0.03790280589929945 0.10061939621877451 0.052394031872768365
0.0359096841525689 0.10034061696236163 0.05215387769262997
0.033895748145448934 0.10005573981839957 0.051935621444513524
0.03196732756690246 0.09979029706206811 0.05167043155622619
0.030175818037081914 0.09955678782525851 0.051323828744965105
0.028804369225580884 0.09942376110153418 0.05070824448829914
0.027492795208119758 0.09930468787746785 0.05005714710786713
0.02642269397500857 0.09924366855817414 0.04924919396358224
0.02572387351231392 0.09927257832001952 0.04819495387977524
0.025137631132524707 0.09932900082489361 0.04706416047013556
0.02497907257455828 0.09948993956100304 0.04564257644037356
0.024761571264874827 0.09963712445493149 0.04425608713297574
0.024298931948983138 0.09972488586740325 0.043032575064178735
0.02362704863570836 0.09976166912548198 0.04195013472935444
0.023081919403547035 0.09982976048987287 0.040778966876623746
0.02292278586119484 0.09999320754386402 0.03933748653252461
0.023048359538125673 0.10022759182571729 0.03769200252047006
0.023524478227981538 0.10054963049255512 0.035792941435290826
0.024736292231772816 0.10105531289702895 0.033364130098582634
0.03145233101940109 0.10292997584890515 0.027010047983718533
0.014387880444416301 0.0995067885231547 0.032891440734361455
0.01208079879280305 0.09913367653853784 0.03299961313758115
0.009790953838742955 0.09876335215289783 0.03310697736171292
0.007517025536580901 0.09839550014705653 0.03321437448481396
0.005259973234237436 0.09803037816150527 0.03332097455816846
0.0030207161271391114 0.097668235826865 0.03342596112836105
0.0007957506917598001 0.0973082035814543 0.03353181878609818
-0.0014096143834927966 0.09695164339216106 0.033634442946688436
-0.003599951987888317 0.09659741289714428 0.03373713314252913
-0.005775407680407074 0.09624548965478184 0.03383988778239766
-0.00793401422009049 0.0958963912003083 0.03394108755748004
-0.010079109393350105 0.09554928027385212 0.034043167178408384
-0.012207695682888153 0.09520493908998544 0.03414370800669175
-0.0143220213546294 0.09486280681075918 0.03424432609186667
-0.016420188367049615 0.09452338690098681 0.03434342742106483
-0.018502386946240956 0.09418664753551323 0.03444102903886198
-0.020569802533682013 0.09385229891957102 0.03453793771409108
-0.02262358101655143 0.09352005904354146 0.034634947728516996
-0.02466188997490515 0.09319041797932197 0.034730489440162604
-0.02641865704925661 0.0929327323034347 0.03461045714695443
-0.02681927333341899 0.09302811797890653 0.03340246741473807
-0.027220712843513573 0.09312369966228297 0.03219199538589962
-0.027622978119623387 0.0932194779583489 0.03097903340127084
-0.028027043761789883 0.09331519795825548 0.02976437231129253
-0.028256905196984705 0.09345722486070479 0.02840265756628152
-0.02843779941420127 0.09361279745628773 0.026995553924165028
-0.02871678438565317 0.09374309535153627 0.025665127881429994
-0.028512188749563905 0.09400218934550403 0.023924568181586725
-0.02836237542610276 0.09424786020326152 0.02222152856236409
-0.028205873955715832 0.09449639065123049 0.020504558114744553
-0.027511851308716806 0.09488948452000096 0.018320976782306486
-0.026129480163725405 0.09546844400137228 0.015534202240824635
-0.02501469503061532 0.09597822454127289 0.012958369003350012
-0.023249226585903338 0.0966650904909413 0.009801702050278138
0.04389706572134339 0.10015204622226291 0.05315531261348555
0.04074355348354791 0.09960732225290111 0.05362329753346029
0.03827921573027737 0.09922276723443331 0.05366995149581111
0.03620827154249012 0.09892952968809253 0.053476954845018354
0.034429818802434564 0.0987042925811083 0.05310496032704115
0.032677698892319085 0.09848440313331856 0.05272285869635529
0.03092732269987436 0.0982640561301988 0.052346385051108
0.029244835868674435 0.09805898179015544 0.05193232714380236
0.02796504655108706 0.09794906484951586 0.05125991488975279
0.026758435769971056 0.09785618480800602 0.05054253409267778
0.025752489097811637 0.09781094829845219 0.04969465719527
0.024964442223120997 0.09781777377368996 0.048702544702437234
0.024307757479125947 0.09785618481602743 0.04762192957654937
0.024167161106767865 0.09801898347715589 0.046191313906800924
0.024109269131908306 0.09820238650947352 0.044699404246337116
0.023757322279694404 0.09831545883499952 0.04340270841035243
0.023094444061345254 0.09835368672832952 0.042316133135533174
0.022458325707769233 0.09839856336137061 0.04120986534666832
0.02218682851508208 0.09853228495410302 0.039848840106178174
0.022167710754834535 0.09872804497628242 0.03830726910604165
0.02237262445718574 0.09897930145750976 0.036602123869966086
0.022989354845103338 0.09933233682372752 0.03459811986430972
0.02443271540666675 0.09988946940683888 0.03199578451679852
0.030119942628015706 0.1014914242352244 0.02634492837679553
0.014300870249742526 0.09820955345337276 0.03295460633588776
0.01199576683739434 0.09784167047448407 0.03306167979371527
0.009705592521916828 0.09747596845039508 0.033169624304374035
0.007432474387984389 0.09711299000943724 0.03327676489312009
0.005177339039852236 0.0967529830939439 0.033382282204498515
0.0029377560324209684 0.09639535927479852 0.03348784502386504
0.0007135727253478885 0.09604009528657316 0.0335934519443829
-0.0014899356502844907 0.09568852898245937 0.03369501012196585
-0.0036805955346121966 0.09533871664206041 0.033798272557104825
-0.005855296795442555 0.09499145263127313 0.0339007827410755
-0.008013158157246236 0.09464697547870565 0.03400174033333464
-0.010157515938759687 0.09430445901893063 0.03410357899792943
-0.012285373829605095 0.09396467512363468 0.03420388109798872
-0.014398979095136877 0.09362707038862128 0.034304261986134565
-0.016496434431607088 0.093292141627156 0.034403128297656516
-0.018577929926428427 0.09295985744711102 0.034500497048344625
-0.020644650472908532 0.09262993189893551 0.03459717465250606
-0.02269774143362402 0.09230208671349133 0.03469395504751244
-0.024735371092238778 0.09197680549044958 0.034789269221164265
-0.02641476721171021 0.09174228773296815 0.0346073289093185
-0.026815383877723975 0.09183645257049118 0.0333993227759552
-0.027216823779455 0.09193081090933493 0.0321888342851358
-0.027620061630676263 0.09202511161936498 0.030976650189910027
-0.028024127597348847 0.09211960599145097 0.029761976674737622
-0.02824328413081678 0.09226259755913502 0.028391408292962828
-0.028424162629905658 0.0924161874374393 0.026984231809039527
-0.028697291175993567 0.0925463522395213 0.025648857452613416
-0.028483828398868094 0.09280445671624672 0.023900771020665956
-0.028330004922528684 0.09304804620688503 0.02219422251734482
-0.02817340376183275 0.09329343521425774 0.020477022932859856
-0.02739005430804292 0.09370504479646223 0.018217144752735392
-0.026028472532078628 0.09427116262659327 0.015447637982117901
-0.024913839537577698 0.09477442618318967 0.012871478624888244
-0.03054966855130964 0.09348943322775512 0.016124467252883135
0.04464018465624442 0.0988298926203054 0.05420975246275744
0.04146949078743278 0.09828927550013954 0.05468058704956741
0.03900420587254616 0.09791019176717644 0.0547223622640019
0.03684892085318736 0.09760167885624164 0.05457885909198679
0.034970500346483246 0.09735643612427428 0.054267975019474446
0.0334096249842572 0.0971843320205091 0.0537606204005161
0.03184698590960611 0.09701113475156908 0.053259756694445104
0.030220007102155555 0.09682217632937747 0.0528061064095558
0.028660456100953524 0.09664829715198542 0.05231428306630875
0.02739506531953584 0.09654292174280302 0.051634552421165325
0.026297671987893567 0.09647672321355588 0.05084708351530981
0.025320343848174776 0.09643861612536948 0.049981889989317796
0.02450705910132389 0.09643917630830554 0.04900825172079226
0.023718572601062804 0.09644561885215427 0.04801792855977283
0.02322026624178547 0.09652103253166283 0.046831281082775955
0.022877044504613364 0.09663367137815713 0.04553684787433959
0.022595656458284763 0.09676151538552681 0.04419658503773738
0.022184646227806637 0.09685889199240423 0.04294133346810303
0.021826003418052076 0.0969692061688147 0.041646795208305776
0.02157536889124334 0.09710589084753643 0.040273690901467096
0.021461434317872452 0.09727600712702564 0.03880071019184578
0.021541811398870403 0.09749364295076655 0.03718577376575366
0.021933570524659385 0.09778735923592995 0.03534389762153478
0.02281680036521805 0.09820119928675104 0.03314350073104372
0.024837710111273226 0.09889258654891331 0.030117278386032786
0.02995793500020255 0.10033984131398516 0.024843180268301457
0.01653790391584309 0.09727914195542761 0.032908434241485984
0.014215057524868735 0.09691316915154156 0.03301690262663376
0.011909623138853298 0.0965499396716736 0.03312455793511254
0.009620268296371859 0.09618914414304763 0.033232244025625635
0.0073479598418546566 0.09583103507458113 0.03333912829241592
0.005093624048006784 0.09547585709608229 0.03344439171195812
0.002854831586064588 0.09512302968402507 0.03354970232755394
0.0006325249468961402 0.09477280039140118 0.03365423746605062
-0.001571307846686243 0.09442567765895893 0.03375636976280616
-0.0037612048081757665 0.09408055532743445 0.033859385987692336
-0.005935152081591455 0.09373794662721266 0.03396165191390438
-0.00809226870256674 0.09339808690148163 0.034062367519010484
-0.010235889523139308 0.09306016106966375 0.03416396542115496
-0.01236301943913315 0.09272493066891596 0.034264028984471784
-0.014474879252253214 0.09239210679852765 0.03436337421788471
-0.016572648787372468 0.09206140839678498 0.03446280434617749
-0.018653441602093146 0.09173357573257071 0.03455994041466853
-0.02071946750569148 0.0914080696218684 0.034656387130620525
-0.022770883138437004 0.09108486538572087 0.03475215180635138
-0.024808822081417048 0.09076369059750271 0.03484802490173794
-0.026411849777880914 0.0905515702542351 0.03460498268632173
-0.02681246673022919 0.09064451369330992 0.033396964251815375
-0.02721390692563186 0.09073764812539366 0.0321864634142246
-0.02761714509386165 0.09083072567772357 0.030974266939434114
-0.028020239303550076 0.0909242433543353 0.02975878243142621
-0.028228688970616533 0.09106812828082679 0.028379354541501867
-0.02840955062558287 0.09121973596890112 0.026972100004974076
-0.028677795821255514 0.09134947743521163 0.02563258523336076
-0.0284554635102236 0.0916065324374898 0.023876970051953994
-0.028298609699645594 0.0918477591144212 0.022167739167542277
-0.02814092762453707 0.09209025958578788 0.020449482710877542
-0.027268173824048392 0.09251979322235866 0.018113241553574133
-0.02592740770997215 0.09307320335182082 0.015361024710780435
-0.029124078679676424 0.09244380822732964 0.01649874037784943
-0.03052126078631545 0.0922827217336288 0.016099863861904873
0.045804078274810145 0.09760415846073371 0.05500214373127621
0.042542656475488216 0.0970511526577259 0.05552019289776128
0.03997573974328322 0.09665467471297119 0.055619128739747725
0.037830275562053095 0.09635313134691813 0.055464149237586524
0.03587497548600549 0.0960940254764047 0.05519777086792266
0.03412536586509507 0.09588117662182871 0.054808073566817606
0.03263226361723692 0.09572656199079817 0.054260216459554866
0.03121525105162032 0.09558889414666194 0.05366805316703471
0.029769842696615756 0.09544411512733421 0.053098691774146944
0.028320432030161935 0.09529783393407526 0.05253652588648733
0.02706598631734697 0.09519622906293068 0.0518508496221875
0.025992258845216443 0.0951362539314789 0.05104895137012938
0.025050124555969222 0.09510670875146617 0.0501614959027718
0.024229102348229226 0.09510532858684792 0.04919403323779786
0.023455292968031283 0.09511499060129852 0.048194882298515485
0.022816811104815315 0.09515642147180517 0.047103959765687764
0.022370922124853143 0.09524326705741833 0.04588081840741526
0.02193835594188026 0.09533359946576242 0.04464578093170657
0.021592160491473167 0.09544467115571806 0.04334848137035491
0.021301751928643364 0.09556937911572526 0.04200904897423424
0.021094374466829935 0.09571425912785914 0.04060789263086123
0.02099155558634269 0.0958845433986363 0.03912899166825978
0.020997327885717953 0.09608134627036573 0.03756827587321204
0.02128228414555622 0.09634548236457817 0.035803948870367974
0.02193415571777635 0.09669831418403557 0.033770405950254656
0.023212870287620146 0.09720258203198695 0.03127767117532004
0.026231797608713137 0.09812617033825062 0.027518825593912055
0.016450130885451886 0.09597806471309105 0.03297180702289704
0.014128122982236868 0.09561706569894554 0.03308001330808147
0.011823517003763606 0.0952587721354084 0.03318740865813735
0.009534981137937715 0.09490287886633125 0.03329483654320636
0.00726460800682327 0.09454990779605198 0.03340063372560037
0.005009945154550499 0.09419928180230741 0.03350647443743848
0.002771942765097568 0.09385124670207241 0.033611533056564113
0.0005504168535742648 0.0935057738835813 0.033715818219786864
-0.001652645340793235 0.09316336489577755 0.03381770323598188
-0.0038417798304233863 0.09282292861231774 0.03392047345085303
-0.006013909496239922 0.09248523233468335 0.03402168424131796
-0.008170291734267754 0.09214998427542502 0.03412216127736173
-0.01031318584193286 0.09181664336504582 0.03422352181706817
-0.012440632531911688 0.09148570539948433 0.03432415168197411
-0.0145517732014534 0.09115739807678541 0.03442326043048288
-0.016648831454121993 0.09083118689052144 0.03452245558211253
-0.018728921992689773 0.0905078020759575 0.03461935915314851
-0.02079425365116988 0.09018671177580381 0.034715575163581536
-0.022844982952440807 0.08986789165596486 0.034811110905221376
-0.024881264213879928 0.08955131772522654 0.03490597356713626
-0.02640795979182281 0.08936107698465363 0.03460185432925156
-0.026808577125885025 0.08945279948579661 0.033393819492849086
-0.02721001771278453 0.089544710473057 0.032183302192522634
-0.027613256303627542 0.08963656532981533 0.030971089211270564
-0.028017323027314023 0.0897286088292825 0.02975638670303138
-0.02821506573762156 0.08987331422537456 0.028368103478658868
-0.02839591166834654 0.09002293857479551 0.02696077608573666
-0.028658298321088627 0.09015247091686748 0.025616311223379595
-0.02842220234306886 0.09040966367276194 0.023849060617557982
-0.028266227554446743 0.09064751027759425 0.0221404233022639
-0.02810844554219699 0.09088686370535883 0.02042193744741383
-0.027130338381257668 0.09133780227239563 0.017995736740708368
-0.027284489700651227 0.09149950012214614 0.016524053628616864
-0.02903636908404844 0.09125005200500413 0.016423175629422748
-0.030250667882311122 0.09113838295882419 0.015865508817974994
0.04747150843194026 0.09648900706396978 0.05548582541116376
0.043982742733587044 0.0958937470576989 0.05613357766330512
0.04123710696981664 0.09546337318746807 0.056335840991468655
0.039037068803221386 0.09515432001015425 0.05620890694546632
0.03707305951332979 0.09489737170196495 0.05594262142295525
0.035264110682755145 0.09467450927510072 0.05558595631751351
0.033591432986783964 0.09448167303495927 0.05514929307484301
0.03211199936268477 0.09433198688291902 0.05459458086491409
0.030790338589626043 0.09421763067998619 0.05394267828419991
0.029476680829506774 0.09410464700417574 0.05328923298690558
0.028158997747568637 0.09399029452158159 0.05264204079945661
0.026924263566302842 0.09389448571115694 0.051944001218515834
0.02584387628465662 0.09383371712976135 0.05114702727128506
