# .PCD v0.7 - Point Cloud Data file format
VERSION 0.7
FIELDS x y z
SIZE 4 4 4
TYPE F F F
COUNT 1 1 1
WIDTH 776
HEIGHT 1
VIEWPOINT 0 0 0 1 0 0 0
POINTS 776
DATA ascii
-0.044828140545236095 0.0496896123161371 0.029003016319394115
-0.04482234232085658 0.049789395027391825 0.02738502567723755
-0.04482312270741362 0.04989034913841453 0.02575596182703177
-0.044823906265027635 0.04999171347492436 0.024120278300731934
-0.04482469301306585 0.05009349054242932 0.0224779346677646
-0.04482548297105354 0.05019568286688264 0.020828890167638225
-0.04482627615867518 0.05029829299489179 0.019173103706570438
-0.044827072595774675 0.050401323493929756 0.017510533854076027
-0.04482920899231846 0.050504934739656775 0.015840184231327714
-0.04483001474042003 0.05060881441745602 0.014163914729164895
-0.044830823809878184 0.05071312230007512 0.012480735437716273
-0.04483163622127151 0.050817861040651745 0.010790603544239441
-0.04483379976958818 0.05092319372565392 0.00909249211211921
-0.06980285715301066 0.052838781644923054 0.030371349800556502
-0.0673695957305454 0.05265879042507528 0.030301143434902367
-0.06495285546354468 0.05248002129460488 0.030231413750500535
-0.06255246866035169 0.05230246184916198 0.03016215590898097
-0.060168269891110626 0.052126099851704806 0.030093365137232486
-0.05780009594976082 0.05195092322968834 0.030025036726306853
-0.05544915323332228 0.05177708154428127 0.029956257153363253
-0.053112536211944505 0.05160423902352751 0.0298888424130071
-0.050790123612513005 0.05143238730081856 0.02982277950900797
-0.04848446011011276 0.05126183464978134 0.029756254697984486
-0.04619403748451795 0.0510924093843973 0.02969016962861698
-0.04483208591793869 0.05103304540216569 0.0290003200713706
-0.04483288446143002 0.0511363143262414 0.02737778126584245
-0.04483500672189 0.05124016018195213 0.025747750064003205
-0.04483581444723378 0.05134426988434857 0.024112004327302594
-0.04483662546149858 0.05144880350802684 0.02246959804487475
-0.04483743978481297 0.0515537636474983 0.02082049045240164
-0.044838257437470164 0.05165915291848978 0.019164640452233872
-0.04483907843992674 0.051764973958160425 0.017502006609978693
-0.04483990281281519 0.051871229425323045 0.015832547151036047
-0.04484073057693028 0.0519779220006649 0.014156219957111082
-0.04484156175324033 0.05208505438697433 0.012472982562665047
-0.044843741418622185 0.052192793384622585 0.01078181569960679
-0.04484458226935906 0.05230081427063828 0.009084621733244258
-0.06910785413792342 0.054146043957209664 0.03081801563975123
-0.06668067847369824 0.05396188177464977 0.030746397456144214
-0.06426995752232911 0.05377896809498534 0.0306752647983628
-0.06187552452030254 0.053597290265019026 0.03060461274575027
-0.05949721494998089 0.05341683580195946 0.030534436443918844
-0.05713486650192251 0.0532375923905624 0.030464731103637288
-0.05478831903795578 0.0530595478803289 0.030395491999741786
-0.05245741455499403 0.052882690282759805 0.030326714470067795
-0.05014199714957196 0.052707007768665014 0.03025839391440238
-0.04784191298307583 0.052532488665524915 0.030190525793464873
-0.04555701024768616 0.05235912145490693 0.030123105627891666
-0.044843922472182385 0.0523774692594743 0.028992231029247084
-0.04484474499055702 0.05248346165704594 0.027369630876292905
-0.044845570844592175 0.052589883902363466 0.025740450336086518
-0.0448464000546171 0.05269673861558381 0.02410464929756706
-0.04484723264112972 0.05280402843820273 0.022462187323009253
-0.0448480686247949 0.05291175603327199 0.020813023644693618
-0.04484890802644642 0.05301992408561977 0.019157117161533288
-0.04484975086708687 0.053128535302073496 0.017494426435660848
-0.04485059716789791 0.05323759241168665 0.015824909688965383
-0.044852786534612166 0.05334726518475021 0.014147562877828146
-0.04485364258378011 0.05345722304710434 0.012464260113073777
-0.04485450216912806 0.05356763512970282 0.010774003864670367
-0.044916030058450906 0.053686114824043764 0.009032470452754515
-0.06841498125649614 0.05544929960566749 0.03126331248065645
-0.06599386552747727 0.05526099280737992 0.03119029144066332
-0.0635891384457668 0.055073960666754435 0.031117764683483096
-0.061200634169362444 0.05488819028511948 0.031045727207308915
-0.05882818908635129 0.05470366893725284 0.030974174077593508
-0.05647164177755004 0.05452038406847597 0.030903100425922536
-0.054130832979893795 0.05433832329180645 0.030832501448910365
-0.05180560555055874 0.05415747438516768 0.030762372407116212
-0.04949580443178603 0.053977825288652526 0.030692708623990317
-0.04720127661642892 0.053799364101844424 0.030623505484824287
-0.044971772417722045 0.053628331794353924 0.0305208445471708
-0.044854444403578886 0.053721802366665614 0.028985040393819328
-0.04485528823519347 0.053830517870218926 0.027362385706201198
-0.044856135488985316 0.053939674275846686 0.02573315024768541
-0.04485698618581446 0.05404927427115485 0.024097293903878103
-0.04485784034671081 0.05415932056563767 0.022454776233687967
-0.04485869799287584 0.0542698158909009 0.02080555646599358
-0.04486089057284848 0.054380932215911185 0.019148653011793082
-0.04486175798404668 0.054492334581133006 0.01748589828754188
-0.04486262895638793 0.05460419431117443 0.015816317087773035
-0.04486350351184498 0.05471651422841046 0.014139867286650232
-0.04486438167257384 0.0548292971784866 0.012456506411012369
-0.044865263460913685 0.05494254603055882 0.010766191636788491
-0.07015580033159424 0.05694230610859374 0.03178216970884756
-0.06772422873065653 0.056748566982311 0.03170724660746199
-0.06530914726510123 0.056556141732383915 0.031632831610343415
-0.06291038875562521 0.05636501703854987 0.031558919566259946
-0.06052778827516453 0.05617517975999682 0.03148550539337669
-0.05816118311109264 0.055986616932351324 0.03141258407809161
-0.05581041272817994 0.05579931576472735 0.03134015067389384
-0.0534753187322925 0.055613263636833866 0.03126820030024541
-0.051155744834817884 0.055428448096140566 0.03119672814148311
-0.048851536817785646 0.05524485685509826 0.03112572944575115
-0.04656122203623431 0.05506230853662622 0.031056091970721678
-0.044865417881706504 0.054955380535873434 0.030593125141570865
-0.044866282194975404 0.05506637086992946 0.028976950506231725
-0.044867150006487444 0.05517781043330834 0.027354234463051907
-0.04486802133752915 0.05528970195890025 0.025724937217330213
-0.0448688962095517 0.055402048201806754 0.02408901865092694
-0.04486977464418396 0.055514851939568365 0.022446438318963258
-0.04487065666323131 0.05562811597239309 0.020797155446490023
-0.04487154228867696 0.055741843123388035 0.019141128925114326
-0.044872431542682445 0.05585603623879384 0.0174783173095846
-0.04487332444759823 0.055970698188223214 0.015808678814327515
-0.04487422102595162 0.05608583186489955 0.014132171309956754
-0.04487646379182614 0.05620161651312114 0.012447783030961057
-0.044877370561198615 0.05631770314880106 0.01075740241070866
-0.06945964732954846 0.0582415369960732 0.032227058934661545
-0.06703416326523476 0.05804368076833946 0.03215073917299166
-0.06462651411841963 0.05784734664787845 0.03207402414917454
-0.06223369903120396 0.05765215512957766 0.03199873556969873
-0.05985697756179742 0.05745827643219818 0.03192395336677345
-0.057496187890478945 0.057265697355456655 0.03184967244883291
-0.05515117035972128 0.05707440487544853 0.031775887792344026
-0.052821767438199496 0.0568843861417121 0.031702594440673026
-0.050507823685515374 0.05669562847435106 0.03162978750297463
-0.04820918571761229 0.05650811936121277 0.031557462153110005
-0.04592438562157619 0.056321673588915586 0.03148650343129533
-0.04487591968121213 0.05629713735778679 0.030585987916032842
-0.04487680522615317 0.05641084035989765 0.028969759119219007
-0.044877694355360265 0.05652500358209704 0.027346988534144412
-0.04487858709064363 0.05663962982420665 0.025717636362811103
-0.044879483453982516 0.05675472190880412 0.024081662483747657
-0.044880383467538254 0.056870282681456205 0.0224390264487081
-0.04488128715365286 0.05698631501095283 0.020789687479340735
-0.04488219453485115 0.05710282178954455 0.01913360446381346
-0.04488310563383985 0.057219805933182495 0.01747073595339982
-0.04488402047351975 0.05733727038176301 0.015801040159013513
-0.04488627887107849 0.05745539799391475 0.014123512875347133
-0.044887204026234806 0.057573832711486396 0.012440028501757128
-0.04488813300333866 0.05769275670443582 0.01074958934771969
-0.0687670615745073 0.059536971031692004 0.03266966844645652
-0.0663476266947905 0.059335022530319546 0.03259196378168899
-0.06394454970219876 0.05913443941010736 0.03251478448090994
-0.061557665261247285 0.058935207870620565 0.0324381252340627
-0.05918681025711553 0.05873731429678153 0.032361980802411205
-0.05683182375848911 0.058540745255768294 0.032286346017347256
-0.05449390573204821 0.058345668692394 0.03221031769039667
-0.05217017029363058 0.05815170792972754 0.03213568972191322
-0.049861833432380376 0.05795903247679709 0.03206155628665075
-0.047567418596467015 0.057767451973960306 0.031988802360406576
-0.0452894345695653 0.057577310274288813 0.03191564065303465
-0.04488642199623527 0.057638960043753865 0.03057885034013913
-0.044887328774931456 0.05775537598037588 0.028962567378480575
-0.044888239223934145 0.05787226312947297 0.027339742248105592
-0.04489047418659531 0.05798980335262127 0.02570942247050667
-0.04489139473020459 0.05810764227846206 0.02407338636055234
-0.044892319022604155 0.05822596109166983 0.022430687655364323
-0.04489324708674014 0.05834476272966643 0.020781285572762376
-0.04489417894574649 0.05846405015389629 0.01912513899704521
-0.0448951146229436 0.05858382635007202 0.01746220647557606
-0.04489605414185127 0.05870409432842506 0.01579244621531678
-0.044896997526175486 0.05882485712395575 0.014115816079337262
-0.044897944799820066 0.058946117796689984 0.012432273583263709
-0.07050646312628084 0.06103586533340151 0.033190545164120955
-0.0680765927747709 0.060828445447983735 0.03311092507949659
-0.06566318148261235 0.06062243054955033 0.033031844312339576
-0.0632660625827412 0.060417806410978776 0.03295329740143377
-0.06088507165078472 0.06021455899658826 0.03287527895905101
-0.05852004646746728 0.06001267445893064 0.03279778366971825
-0.05617082698176762 0.059812139135645426 0.03272080628901025
-0.0538372552748142 0.05961293954637784 0.032644341642366126
-0.051519175524497474 0.05941506238975804 0.03256838462392997
-0.04921643397078734 0.05921849454044061 0.032492930195413106
-0.046928878881726144 0.05902322304620115 0.03241797338498614
-0.044907793049744016 0.05886382087269426 0.03217357641201607
-0.04489823771685286 0.0589810295565689 0.03057082014846607
-0.04489916838602254 0.05910015942592354 0.028954476247322836
-0.04490010282229906 0.05921977150620629 0.02733158974941874
-0.04490104104860554 0.05933986873117744 0.0257021208497491
-0.04490198308804416 0.059460454058443246 0.02406602941976088
-0.04490292896390807 0.05958153046970005 0.022423275004052
-0.044903878699680266 0.05970310097097962 0.02077381681703877
-0.04490483231903558 0.059825168592897965 0.019117613739580597
-0.04490578984584109 0.05994773639090696 0.01745462431556405
-0.04490675130416638 0.06007080744555041 0.015784806748437963
-0.04490771671827237 0.06019438486272031 0.014108118897721289
-0.0449100288146127 0.06031866103281875 0.012423548834618159
-0.06981203740541625 0.062327464320381526 0.03363183095964706
-0.06738823123913312 0.0621159783716842 0.033550835027123194
-0.06498081808705053 0.0619059227734092 0.033470386897188786
-0.06258963220248631 0.06169728306355253 0.03339048103111525
-0.06021451006569778 0.06149004497441878 0.03331111196459091
-0.05785529034660569 0.061284194429368714 0.03323227430647607
-0.05551181386826515 0.06107971753963192 0.03315396273758159
-0.05318392357106455 0.06087660060118305 0.03307617200947316
-0.05087146447763763 0.060674830091680315 0.03299889694329833
-0.048574283658471995 0.06047439266746473 0.03292213242863584
-0.046292230198185846 0.06027527516061722 0.032845873422375604
-0.04490779305003395 0.0602016349834781 0.03217357641182006
-0.04490874112747606 0.06032298810695935 0.03056368182798147
-0.04490969303483572 0.06044483146051264 0.02894728375482608
-0.04491064879536427 0.06056716802072254 0.027324342704388993
-0.044911608432509575 0.06069000078832131 0.025694818868366942
-0.04491257196990195 0.06081333278843197 0.02405867211487417
-0.044913539431367444 0.06093716707081823 0.02241586198514034
-0.04491451084092607 0.06106150671013538 0.020766347690178044
-0.04491681799803482 0.061186545222853925 0.01910914737705771
-0.04491780010825497 0.061311905681899384 0.017446093933361884
-0.044918786251041454 0.06143778087856706 0.015776211891658787
-0.04491977645128731 0.06156417398969547 0.01409945910746685
-0.04492077073408235 0.061691088218318126 0.012415793088787652
-0.07155399706841314 0.06383211065917192 0.034154692372376616
-0.06911973498948709 0.0636151140606499 0.03407176746139068
-0.06670196733545058 0.06339958781905455 0.03398940444493248
-0.06430052702441114 0.06318551704026147 0.0339075976312348
-0.06191524922350988 0.06297288703063099 0.03382634140514701
-0.059545971311208756 0.06276168329364645 0.033745630226848844
-0.0571925328403321 0.06255189152661966 0.03366545863059123
-0.054854775501846864 0.062343497617462135 0.033585821223462486
-0.05253254308936395 0.06213648764152067 0.03350671268417904
-0.05022568146434819 0.06193084785847619 0.03342812776189835
-0.04793403852200251 0.06172656470930206 0.033350061275064125
-0.04565746415785166 0.06152362481328602 0.03327250811025734
-0.04491958620408876 0.06154114503557526 0.03216560590551004
-0.044920558080738526 0.06166520173940061 0.030555650798579137
-0.04492153388355613 0.06178975960881522 0.02893919177787857
-0.044922513636378114 0.06191482168688643 0.027316189351771214
-0.04492349736324186 0.06204039104136927 0.025686603708243105
-0.044924485088372657 0.062166470764955066 0.02405039471165843
-0.0449254768361958 0.06229306397552685 0.022407521899457272
-0.044926472631335534 0.06242017381641593 0.020757944478822565
-0.044927472498618004 0.06254780345666218 0.019101621323302787
-0.04492847646307002 0.06267595609127692 0.01743851096939658
-0.04492948454993145 0.06280463494151109 0.01576857161308559
-0.04493049678464239 0.06293384325512286 0.014091761106342082
-0.04493285603809705 0.06306378218933868 0.012407067409314243
-0.07330250851988396 0.06534241621305592 0.03467952035028682
-0.07085772902141169 0.06511986903436613 0.034594652532509096
-0.06842954615490404 0.06489883263962898 0.034510360848388266
-0.06601779149019477 0.06467929169672176 0.03442663945106189
-0.0636222988685165 0.06446123108028669 0.034343482572511075
-0.061242904364329664 0.0642446358682555 0.034260884522242574
-0.0588794462479309 0.06402949133844595 0.03417883968598956
-0.056531764948809404 0.0638157829652261 0.03409734252443902
-0.054199703019732925 0.0636034964162451 0.03401638757198511
-0.0518831051015492 0.06339261754922913 0.03393596943550725
-0.04958181788868676 0.06318313240884098 0.03385608279317137
-0.04729569009532686 0.06297502722360025 0.03377672239326168
-0.04506121076676328 0.06277366100749975 0.03367325793498249
-0.04493006955342943 0.06288053637003514 0.032158520642171506
-0.044931062587133086 0.06300729617526103 0.03054851173338713
-0.044932059632573906 0.06313456807868925 0.028931998533507475
-0.04493306071410824 0.06326235518984633 0.027308941547631194
-0.044934065856298167 0.06339066064348635 0.025679300960445184
-0.04493507508389766 0.06351948759984494 0.024043036632979964
-0.044936088421864695 0.06364883924490017 0.022400108099306926
-0.04493710589536115 0.0637787187906349 0.020750474563203947
-0.04493812752975468 0.06390912947530267 0.01909409489477909
-0.044939153350618544 0.06404007456369638 0.017430927627053228
-0.04494018338374306 0.06417155734742225 0.0157609309524937
-0.04494255780167422 0.0643037825086898 0.014083100394067516
-0.0750561484274237 0.06685819982435906 0.035207238379253825
-0.072600802313807 0.06663006325320849 0.03512041077258371
-0.07016359064054656 0.06640368855957535 0.035033266992148204
-0.06774146123735547 0.06617863803248022 0.03494761726200718
-0.06533569418800633 0.06595510780251125 0.03486254612647477
-0.06294612425027035 0.06573308251629766 0.034778047742365925
-0.060572588399479765 0.06551254702651181 0.03469411634491154
-0.058214925791451544 0.06529348638842437 0.034610746246447555
-0.05587297772615479 0.0650758858565285 0.03452793183512959
-0.05354658761209968 0.06485973088123098 0.0344456675736744
-0.05123560093143548 0.06464500710560939 0.0343639479981252
-0.04893986520574145 0.06443170036223375 0.034282767716640516
-0.046659229962480064 0.0642197966700489 0.03420212140831491
-0.04439354670213563 0.06400928223132214 0.03412200382200614
-0.044219676008659614 0.06411181863373919 0.03263864633245672
-0.044853603975691325 0.06433623011943516 0.03060115410000519
-0.04494258589939498 0.06447944270428907 0.02892480493527222
-0.044944926797966245 0.06461015416848659 0.027300787340948263
-0.04494595603492374 0.06474119679940173 0.02567108493803666
-0.044946989455341146 0.06487277207323179 0.024034758359181008
-0.04494802708477663 0.0650048832441037 0.0223917671346619
-0.04494906894899664 0.06513753359270608 0.020742070464426554
-0.044950115073978225 0.06527072642656084 0.019085627214711687
-0.04495116548591166 0.0654044650802982 0.017422395914624023
-0.044952220211199656 0.06553875291593446 0.01575233475268173
-0.04495327927646975 0.06567359332315535 0.01407540157330317
-0.07930083118082376 0.06861529208226198 0.03582544299743118
-0.07681786645114352 0.0683799147511094 0.03573603295198824
-0.07435187856773867 0.06814614677216994 0.03564723423235033
-0.0719026940093988 0.06791397169617266 0.03555904059012549
-0.06947157216975908 0.06768358727876818 0.03547054191598459
-0.06705547063136053 0.06745454810494389 0.03538354280622957
-0.06465566597125394 0.06722705382627198 0.03529713051524214
-0.06227199385722593 0.06700108886455182 0.035211299125740225
-0.0599042921590886 0.06677663785032814 0.035126042799732526
-0.05755240091191993 0.06655368561940643 0.03504135577719453
-0.05521616228003656 0.06633221720943758 0.03495723237477172
-0.05289542052168511 0.06611221785657076 0.03487366698450772
-0.05059002195443468 0.06589367299217287 0.034790654072596794
-0.04829981492124319 0.06567656823961121 0.03470818817816829
-0.04602464975721399 0.06546088941110283 0.034626263912080235
-0.04376437875698419 0.06524662250462261 0.03454487595575101
-0.04224875704134384 0.06514556430778558 0.03397070915403727
-0.04287158304202232 0.06537233901464498 0.03194817376241227
-0.04349876036170741 0.06560069806303788 0.029911508105208595
-0.04413033476041334 0.06583065811446098 0.02786056358355149
-0.044767672705085304 0.06606243991863371 0.02579427735415951
-0.04495758056470872 0.0662259270345915 0.024027399506588998
-0.044958639788831634 0.06636079720343292 0.022384352553149356
-0.044959703335979706 0.06649621782382217 0.020734599759925365
-0.04496077123267189 0.06663219227252315 0.01907809998971194
-0.04496184350564242 0.06676872395397582 0.017414811768139415
-0.04496292018185227 0.06690581630058186 0.01574469328020539
-0.044964001288476996 0.06704347277299 0.014067702366780677
-0.08108002364241151 0.07014847740561901 0.03635823797715837
-0.07858624815120985 0.06990738554542997 0.036266827683477165
-0.07610955555971399 0.06966794521646238 0.03617604356993881
-0.07364977093476949 0.06943013950662455 0.036085879224302675
-0.07120672172357612 0.06919395173395138 0.035996328321580506
-0.06878023771333658 0.06895936544270324 0.0359073846225581
-0.06637156478982126 0.06872658061417015 0.03581814354793722
-0.06397769743959725 0.06849514735069406 0.03573039862482241
-0.061599898433158495 0.06826526753555545 0.0356432426714417
-0.05923800652846112 0.06803692558026628 0.03555666977762284
-0.05689186263363749 0.06781010610421229 0.03547067411200594
-0.054561309771273436 0.06758479393119943 0.03538524992073461
-0.052246193043396616 0.06736097408606903 0.03530039152617237
-0.04994635959716054 0.06713863179138035 0.035216093325643016
-0.04766165859119248 0.0669177524641566 0.035132349790204465
-0.04539194116263051 0.066698321712699 0.03504915546342946
-0.0431370603947791 0.0664803253334593 0.03496650496022791
-0.04089687128541292 0.06626374930797554 0.03488439296568202
-0.040909128337702494 0.06639909498996774 0.033281895837894426
-0.0415265821092658 0.06662996822129931 0.03125928488472196
-0.04214834470284573 0.06686245257190239 0.029222559400052583
-0.042774461379206485 0.06709656496531008 0.027171571121899385
-0.04340497803524618 0.06733232256291305 0.025106169704478265
-0.04404126215086185 0.06756995176649193 0.023025279807808163
-0.044680725716927105 0.06780905371087445 0.020930582787223095
-0.044972760045496385 0.0679939375483273 0.019069631413538846
-0.04497385691474354 0.06813326340398518 0.0174062791509782
-0.04497495828835585 0.06827316141511981 0.015736096166951485
-0.08286598192632477 0.0716874930478358 0.03689305904236234
-0.08036133140717139 0.0714406449264466 0.036799633943586985
-0.07787387068275142 0.07119549096099674 0.03670685003529772
-0.07540342339401784 0.07095201377025906 0.03661470073918788
-0.0729498155861803 0.0707101962099601 0.0365231795666312
-0.07051287566787401 0.07047002136875598 0.036432280117158544
-0.06809243437115947 0.07023147256429027 0.03634199607696437
-0.06568973422358021 0.06999475320954303 0.03625142551719246
-0.06330177924955394 0.06975940585211898 0.03616235642633775
-0.060929828777642026 0.06952563583486056 0.03607388429241737
-0.058573722447663845 0.06929342735330521 0.035986003134106825
-0.056233302034653265 0.06906276481342868 0.0358987070497237
-0.05390841141343855 0.06883363282815408 0.03581199021590653
-0.051598896523924576 0.06860601621393025 0.035725846886319856
-0.04930460533706471 0.06837989998737835 0.03564027139038278
-0.04702538782148963 0.0681552693620021 0.03555525813203231
-0.044761095910818394 0.06793210974496723 0.03547080158849236
-0.04251158347158346 0.06771040673393952 0.03538689630908498
-0.04027670627179397 0.06749014611398678 0.035303536914056466
-0.03896339934084342 0.06741622812092203 0.03460425079992452
-0.03957127511429265 0.06764955837814435 0.03259553193104364
-0.04018466258458153 0.06788471618925856 0.030571974257005086
-0.040801033639716267 0.06812130631641024 0.028535194582892165
-0.04142171604277867 0.06835955132718283 0.026484168188624202
-0.04204675518758694 0.06859946864570632 0.024418745071686343
-0.04267619710746734 0.06884107594158183 0.022338773116328925
-0.04331008848655299 0.06908439113421916 0.020244098056223292
-0.043949805147765586 0.06932964810883346 0.018133619875607798
-0.04459274489528664 0.06957643541314307 0.016009057020587747
-0.08465874469917001 0.07323237232912574 0.03742991777210092
-0.08214315438622305 0.07297972586174431 0.03733446318852318
-0.07964486161284462 0.07272881662568402 0.037239664963510444
-0.07716368857998307 0.07247962676418086 0.03714551635044272
-0.07469945991702936 0.07223213866436488 0.03705201069484765
-0.07225200264049725 0.07198633495311031 0.03695914143283252
-0.06982114611354434 0.07174219849297019 0.03686690208954879
-0.06740672200631753 0.07149971237819384 0.03677528627768506
-0.06500996950098131 0.07125908343349655 0.03668339470751736
-0.06262790211406993 0.07101984670134238 0.03659300985484876
-0.060261775745629576 0.0707822109638545 0.03650322986602317
-0.057911430911114725 0.07054616020361797 0.03641404868958109
-0.05557671024636157 0.0703116786161729 0.03632546035451806
-0.053257458472465824 0.07007875060648702 0.036237458968952474
-0.050953522361358694 0.06984736078549851 0.03615003871881767
-0.04866475070205084 0.06961749396672522 0.03606319386658802
-0.04639099426756538 0.06938913516294457 0.03597691875001369
-0.044132105782493936 0.06916226958293453 0.03589120778089688
-0.04188793989120154 0.06893688262828053 0.0358060554438831
-0.03965835312664562 0.06871295989024385 0.035721456295278564
-0.037443203879803544 0.06849048714669115 0.03563740496188994
-0.037635167580041595 0.06866000741417637 0.03391865816168427
-0.03823775841122701 0.06889737148157617 0.03190985954513392
-0.03884453012176886 0.06913638242192294 0.029887123536357252
-0.03945681647844557 0.06937726928832998 0.027849408197979264
-0.04007208793884648 0.0696196272949318 0.025798349289422318
-0.04069167316662081 0.06986368451259471 0.023732910076106395
-0.04131561768813968 0.07010945887434798 0.021652938792052823
-0.04194396767267444 0.07035696856646026 0.019558281528140486
-0.04257676994377074 0.0706062320329232 0.017448782194151857
-0.0432140719908885 0.0708572679800345 0.01532428247999279
-0.08900253419102222 0.07504343543493265 0.03806700340565994
-0.08645835092275511 0.07478314882408646 0.03796882583383265
-0.0839317555459409 0.07452466156973016 0.037871326961651686
-0.08142256631164385 0.0742679550777572 0.03777449977560249
-0.07893060396653057 0.07401301100937754 0.03767833735847309
-0.07645569171018213 0.07375981127675035 0.03758283288770714
-0.07399765515327988 0.07350833803870613 0.0374879796337903
-0.07155632227664371 0.07325857369655608 0.037393770958669525
-0.06913152339110168 0.0730105008899865 0.037300200314204834
-0.06672309109817715 0.07276410249303697 0.03720726124064977
-0.06433086025155349 0.07251936161015735 0.03711494736517207
-0.06195605680209493 0.07227648716440974 0.03702236480962584
-0.05959573024703596 0.07203501002054247 0.036931285234292066
-0.05725112296717538 0.07179514106334131 0.0368408122295778
-0.05492207845310426 0.07155686428085015 0.036750939756145795
-0.052608442266261324 0.07132016387297438 0.03666166185456782
-0.050310062004798206 0.07108502424798888 0.03657297264400594
-0.04802678727010451 0.07085143001911264 0.03648486632092801
-0.045758469634016474 0.07061936600115495 0.03639733715783139
-0.043504962606642605 0.07038881720722315 0.03631037950200883
-0.04126612160483012 0.07015976884549661 0.036223987774329724
-0.03904180392124257 0.0699322063160633 0.03613815646804669
-0.03683186869403687 0.06970611520781737 0.03605288014762603
-0.035715459958171714 0.06966103039094254 0.03523057677401448
-0.036309950948609115 0.06990096328795012 0.03323462184102932
-0.03690727928766374 0.0701423422273188 0.031225749032670613
-0.037508747257467445 0.07038539398149213 0.029202954246718538
-0.03811439804062583 0.07063013600045699 0.02716609225590294
-0.03872427542245305 0.07087658597775347 0.025115015805985907
-0.03933972109040684 0.07112498031582047 0.02304865921016458
-0.039958191954090894 0.07137490182399069 0.020968694162228962
-0.0405810245543638 0.07162658589182272 0.018874060258739445
-0.041208265195916305 0.07188005123085066 0.01676460177345296
-0.04183996084120323 0.07213531681840792 0.014640160768020272
-0.0908202049316939 0.07660607105046278 0.03861004743816798
-0.08826483985691241 0.0763398563641321 0.038509794984261714
-0.08572717363704929 0.07607548552202313 0.0384102368943296
-0.08320702302916883 0.07581293943411978 0.03831136597935714
-0.08070420731121036 0.07555219927302732 0.03821317514923123
-0.07821854823879065 0.07529324646947234 0.03811565741104295
-0.07574987000288719 0.07503606270789422 0.038018805867428174
-0.07329799918838709 0.07478062992212675 0.03792261371494077
-0.0708627647334798 0.07452693029116786 0.037827074242459624
-0.0684439978898751 0.07427494623503514 0.03773218082962643
-0.06604153218381315 0.07402466041070346 0.037637926945322975
-0.06365520337788694 0.07377605570812855 0.03754430614616222
-0.06128484943360396 0.07352911524634609 0.03745131207502739
-0.058930310474710756 0.07328382236965107 0.037358938459631064
-0.056592789717749115 0.07304038676333872 0.03726629950502475
-0.05426939789177593 0.07279833847590386 0.03717515095020685
-0.05196135416431652 0.072557889135721 0.037084604513731356
-0.0496685069539885 0.07231902295121619 0.03699465424893611
-0.04739070666892281 0.07208172433808023 0.03690529428721445
-0.04512780567424446 0.07184597791588174 0.03681651883672937
-0.042879658260165876 0.07161176850474266 0.036728322181167505
-0.040646120610712044 0.07137908112208007 0.03664069867851205
-0.03842705077305336 0.07114790097941141 0.036553642759838634
-0.03622230862743131 0.07091821347922138 0.036467148928135795
-0.03403675423079916 0.07069085142841101 0.03637779589388246
-0.03439845320549817 0.07089519845191539 0.03454817632604196
-0.03498647879579869 0.07113889084453585 0.03255300746842682
-0.035579827376585604 0.07138448031611146 0.030543195063105544
-0.036176014192598416 0.07163155385401065 0.028520347021628978
-0.0367763423455027 0.07188034365724735 0.026483447519936976
-0.03738085513660472 0.07213086767088041 0.024432349637691253
-0.037989596473000264 0.07238314409101998 0.022366904399143406
-0.03860261087819111 0.07263719136923077 0.020286960737074977
-0.039221248057175806 0.07289325342644168 0.018191428688456746
-0.03984295122925363 0.07315090041475414 0.016082016575548308
-0.04046906490893648 0.0734103752110354 0.013957639799914379
-0.09264641257136014 0.07817496975738977 0.03915426144603834
-0.09007978479838169 0.07790278159078165 0.03905192175397226
-0.08753248807638869 0.07763273305013177 0.038949379763479564
-0.08499827030655172 0.07736380306372087 0.03885027517014128
-0.0824845366579472 0.07709722457083307 0.03875004119502701
-0.07998806705773642 0.07683247690995158 0.03865049561584155
-0.07750868426316004 0.07656954128469044 0.03855163136511197
-0.07504621344942014 0.07630839915508565 0.03845344147178065
-0.07260048216858789 0.0760490322332374 0.03835591905956631
-0.07017132030934625 0.07579142247904076 0.03825905734535928
-0.06775856005755132 0.07553555209600353 0.038162849637646545
-0.06536203585757555 0.07528140352714596 0.03806728933497794
-0.062981584374456 0.07502895945098771 0.03797236992444575
-0.06061704445677529 0.07477820277761069 0.037878084980212
-0.058268257100296594 0.07452911664480275 0.03778442816205663
-0.05593642231787993 0.07428191403395634 0.03769051623250419
-0.053618659851433215 0.07403611777055964 0.03759809959839844
-0.051316185587328866 0.07379194280489282 0.03750629255395305
-0.04902884875893737 0.07354937314831347 0.037415089087622866
-0.0467565005755487 0.07330839302172398 0.03732448326664323
-0.04449899419009723 0.07306898685214791 0.037234469235750856
-0.042256184667530894 0.0728311392693759 0.03714504121592044
-0.04002792895379259 0.07259483510267606 0.037056193503128165
-0.03781408584540458 0.07236005937756855 0.036967920467138704
-0.035614515959640325 0.07212679731266228 0.03688021655031565
-0.033429081705271146 0.07189503431655253 0.03679307626645578
-0.03250554620719359 0.07188062545196801 0.03584895551152406
-0.033084419114309316 0.07212658082951626 0.033867316147678184
-0.03366726710505402 0.07237422516709703 0.03187206899152145
-0.03425413126546689 0.07262357592162065 0.02986307339436678
-0.03484505324975906 0.0728746507914062 0.027840186762519648
-0.035441348741827416 0.07312769025964268 0.02580236499140709
-0.03604051992164409 0.0733822689937111 0.023751251164547127
-0.03664387745318498 0.07363862644506113 0.021685806401383623
-0.03725146536471696 0.07389678132063555 0.019605879982062813
-0.03786332830408057 0.074156752590624 0.017511319065780073
-0.03848081689742344 0.07441878995978576 0.015401021027845518
-0.0391013729225696 0.07468245364145452 0.013276713963986053
-0.09190016699655301 0.07947145933485152 0.03959704872673875
-0.08934014604305757 0.0791951896658652 0.03949332975227887
-0.0867978624259087 0.07892083415623471 0.03939032940402398
-0.08427313243941148 0.07864837298100055 0.03928804023915855
-0.08176577490599796 0.07837778658803099 0.03918645491729339
-0.07927561113288578 0.07810905569334477 0.039085566198710675
-0.07679807609566303 0.07784141831586965 0.03898806237614083
-0.07434471210241378 0.07757683860493765 0.03888674584506885
-0.07190509430027558 0.0773135627812565 0.0387879017515646
-0.0694819793616111 0.07705206789432172 0.038689726291647464
-0.06707520039974857 0.07679233593425248 0.038592212703699114
-0.06468459277065658 0.07653434913318616 0.038495354316970265
-0.06230999403541582 0.07627808996122935 0.038399144550048614
-0.05995124392341428 0.0760235411224853 0.038303576909375636
-0.05760818429629083 0.07577068555116304 0.03820864498778337
-0.05528065911259361 0.0755195064077634 0.03811434246306267
-0.05296985567290713 0.07527021863556231 0.03801979132876687
-0.05067292800681178 0.0750223411934402 0.0379267315495293
-0.048391079019546035 0.07477609099644586 0.03783428268128719
-0.04612416071600822 0.0745314520733985 0.03774243872803379
-0.04387202703151322 0.0742884086614418 0.037651193771974734
-0.04163453380042209 0.07404694520265878 0.03756054197225567
-0.039411538725379835 0.07380704634075196 0.03747047756371491
-0.037202901347148154 0.07356869691778778 0.03738099485566243
-0.03500848301502124 0.07333188197100404 0.037292088230680365
-0.03282814685781371 0.07309658672967913 0.03720375214344651
-0.03073199089052292 0.0728751668824314 0.037067717892503516
-0.031198353206016993 0.07310510455156319 0.035170573252085946
-0.03177334763140405 0.07335518694460652 0.033187991029908825
-0.032351039896508005 0.07360676476514658 0.031192671016967377
-0.0329327082870145 0.07386007413902923 0.029183617666794448
-0.033518393994840634 0.07411513300482407 0.02716068870457805
-0.03410813878286001 0.0743719595497458 0.02512373988344402
-0.034703259162780775 0.07463079985671967 0.023071714992595527
-0.03530125601001516 0.0748912189292873 0.021006276155265735
-0.03590344080896185 0.07515346179493433 0.018926372428582694
-0.036509857708442006 0.07541754767984117 0.01683185132563586
-0.03712055148001003 0.07568349608138032 0.014722558208629999
-0.037735567528982994 0.07595132677291694 0.01259833625081952
-0.08361463780801198 0.07994000087525908 0.039685572847542316
-0.08104774501566209 0.079654145448731 0.039622424271937295
-0.07856387310524665 0.07938145881804161 0.03952019838820364
-0.07609694966255348 0.07911063283908576 0.03941867003315502
-0.07364680180796884 0.07884164853264021 0.03931783209178297
-0.07121325900514769 0.0785744871767326 0.03921767754551703
-0.06879615302143693 0.07830913030229611 0.0391181994706018
-0.06639390947956669 0.07804531510542059 0.03902027595710161
-0.06400919363066188 0.0777835144153077 0.03892212776300891
-0.06164042321028623 0.07752346425837106 0.03882463583781448
-0.05928743882241816 0.07726514713567527 0.03872779362122736
-0.05695008318848355 0.07700854578074408 0.03863159464010513
-0.0546282011123127 0.07675364315571341 0.038536032507010765
-0.05232297674841857 0.07650065744390643 0.03844023173595734
-0.05003157294473476 0.07624910051781948 0.038345927041777694
-0.04775518938524154 0.0759991925575178 0.03825224051859749
-0.04549367886494998 0.07575091740241272 0.038159166108067855
-0.04324689609616961 0.075504259102402 0.038066697830749785
-0.04101469767739735 0.07525920191445444 0.037974829784831965
-0.03879694206280726 0.07501573029926048 0.03788355614487493
-0.036593489532330825 0.0747738289179475 0.037792871160580055
-0.03440420216231421 0.07453348262885841 0.03770276915558146
-0.032228943796742016 0.07429467648439281 0.0376132445262603
-0.030067580019000173 0.07405739572790622 0.03752429174058952
-0.029330534415058507 0.07407501801810439 0.03646122173810157
-0.02989533420951257 0.07432704998334176 0.034492861318555
-0.0304639904613504 0.07458080282481232 0.03251106091859779
-0.03103654280376117 0.07483629422812932 0.03051568241423719
-0.03161428168033559 0.07509376855449665 0.028505702628273233
-0.032194753361596495 0.07535279268001906 0.026482736746370528
-0.03277924339471716 0.07561360991642006 0.02444576675525878
-0.03336779365056314 0.07587623894775486 0.02239464673336833
-0.03396172146077969 0.07614093151008365 0.020328308254035587
-0.03455852640993373 0.07640724286122766 0.01824843263210879
-0.035159520795011445 0.07667542365791508 0.016153956752969045
-0.03576474888472936 0.07694549365410783 0.014044726339359936
-0.03637425557371765 0.07721747288306652 0.011920584932724854
-0.09196252802438748 0.08328029113121103 0.029674579377116483
-0.0910551505626051 0.08328302815184055 0.028565017889357613
-0.07052209593928543 0.07983133077502381 0.03964703574315942
-0.06811098602681975 0.07956213820775354 0.039546260720368986
-0.06571608207268098 0.0792947549829448 0.03944616304357473
-0.0633372212348014 0.07902916291981112 0.03934673590661192
-0.06097424284554093 0.07876534408033378 0.0392479725941986
-0.05862698837551483 0.07850328076522334 0.0391498664804234
-0.056295301398139375 0.07824295550996122 0.03905241102726392
-0.05397768272369152 0.07798411109124367 0.0389564689608034
-0.0516780145212008 0.07772745047156093 0.03885942638145978
-0.04939211197314053 0.07747223689870364 0.038763884539287696
-0.047121171554612706 0.07721869379887424 0.03866896805590936
-0.044865046845289136 0.07696680482472001 0.03857467081152455
-0.04262359332913379 0.0767165538414962 0.03848098676592582
-0.04039666836354566 0.07646792492362102 0.03838790995720753
-0.03818413114909874 0.07622090235129715 0.03829543450050171
-0.03598584269986693 0.07597547060719863 0.03820355458673774
-0.033801665814320425 0.07573161437322153 0.03811226448142557
-0.031631465046782714 0.07548931852729737 0.03802155852346151
-0.029475106679422824 0.07524856814026554 0.03793143112396419
-0.02751109103998617 0.07504200094774988 0.03771844318206352
-0.028035471085082864 0.07529037603781996 0.03578512052380217
-0.028595236407668978 0.07554625597660376 0.03381666872467981
-0.029158819513316225 0.07580388110049678 0.03183479143860479
-0.029726259593472193 0.07606326932469497 0.029839350846254276
-0.030297596377850122 0.07632443881044691 0.027830207235451543
-0.03087412105908144 0.07658763943946244 0.02580632561700036
-0.03145337872224607 0.07685242854086927 0.02376933983135504
-0.032036655656516144 0.07711905492344241 0.021718220096793917
-0.032623993840051546 0.0773875377761546 0.019652818795213467
-0.03321543583762521 0.07765789655613035 0.017572986245654454
-0.03381230669327656 0.077930390651023 0.015477629890581934
-0.03441209277220281 0.07820456244238476 0.013368467550308849
-0.03501611404113142 0.07848067020672465 0.01124441206114185
-0.09192154461934798 0.0853724076867005 0.022980956738390845
-0.08344472288017912 0.08401320383359595 0.02664114115490257
-0.06031280745609052 0.0800040049727073 0.03966829406740002
-0.05796714323607721 0.07973747573074434 0.03957155250688432
-0.05564111323470661 0.07947345149836814 0.039472845901167675
-0.05333043615271804 0.07921116995321796 0.039374790806564475
-0.0510349604851118 0.07895061389818499 0.03927738079386006
-0.04875453671377822 0.07869176636168884 0.03918060951816016
-0.046489017275048505 0.07843461059399537 0.03908447071750265
-0.04423566494040798 0.07817865586094638 0.03899067116398797
-0.042002110722516695 0.07792530845369411 0.038894065900084374
-0.03978043797014902 0.07767312965867416 0.03879978776206583
-0.037573098212638156 0.07742257778075216 0.03870611785400163
-0.035379953193214575 0.07717363712660619 0.038613050308876185
-0.03320086642758763 0.07692629220410593 0.03852057933488834
-0.031035703175621987 0.07668052771909709 0.038428699214256457
-0.02888433041357996 0.0764363285722516 0.038337404302030254
-0.026746616806867962 0.07619367985597354 0.03824668902494083
-0.026191076858664952 0.07624483746283896 0.03706663171991459
-0.02674208195606509 0.07650279460145805 0.03511137784551005
-0.027296828112324534 0.07676250314465215 0.033142848740147335
-0.02785658126396462 0.07702421113848076 0.031160041525507887
-0.028418930632190975 0.07728747800412678 0.02916454417899972
-0.028985137377487147 0.07755255072150502 0.027155358925573025
-0.029555241325356307 0.07781944793513877 0.025132344444377286
-0.03013053440935376 0.07808842509928432 0.023094453828283346
-0.030708560543106223 0.07835902991596738 0.021043339720247023
-0.031290606749708294 0.07863151674286444 0.018977960464376442
-0.03187671511388196 0.07890590528207601 0.0168981667238729
-0.032466928309839715 0.07918221551167276 0.01480380707016088
-0.03306257220181097 0.07946071262987152 0.01269377637172886
-0.03366113186848846 0.07974092903325851 0.010569812128308598
-0.0919786029058196 0.08734297280643667 0.017835911179748032
-0.09073981501768619 0.08728713412829688 0.016915546513666946
-0.07596004275779528 0.08473131477842656 0.02474905275183098
-0.050411038120121654 0.08017335124679069 0.03968290053373896
-0.04811883883773793 0.07990770483799436 0.039596107422246174
-0.04585871834237981 0.07964695872318528 0.03949875389581764
-0.0436132998310334 0.07938790875034495 0.03940203364971051
-0.041382440315130053 0.07913053842313435 0.03930594052476666
-0.03916599865434672 0.0788748314584433 0.03921046844144027
-0.036963835526840016 0.0786207717829564 0.03911561139851549
-0.03477456440282817 0.07836810924949648 0.0390222076175471
-0.03260179650208517 0.07811753103516474 0.03892771881313528
-0.03044165079359845 0.077868318835213 0.038834671648702856
-0.028295243940282433 0.07762069166275395 0.03874221627831903
-0.026162445285821956 0.07737463444419895 0.03865034707403059
-0.02436435967455447 0.07719099920545726 0.03833586065700301
-0.024906744213230192 0.07745098773799122 0.03639363929619249
-0.025452794731506467 0.07771273353423468 0.03443829045205998
-0.026002548522976565 0.07797625447063146 0.03246968058021038
-0.02655604338879719 0.07824156866692339 0.030487674318711022
-0.027114545939911472 0.07850892961190381 0.02849125726106877
-0.027675644325739435 0.07877788729498604 0.026482035665517767
-0.028240600374486058 0.07904869411561281 0.0244590002719825
-0.028809454006680835 0.0793213692093468 0.02242200813014611
-0.029382245695576348 0.0795959319766938 0.020370914310460564
-0.029960274776471618 0.07987264544844992 0.01830464839959256
-0.030541072419231208 0.0801510445468556 0.016224898768480267
-0.031125933007359052 0.08043139117441062 0.014130600336501986
-0.031714899323741774 0.08071370583863163 0.01202159990452506
-0.032308014754054926 0.08099800933597551 0.009897742114920782
-0.032907902662842825 0.0812848268398705 0.007756924413241051
-0.09195631453153691 0.08949975381649075 0.010943535252818604
-0.08303441229369374 0.08799332529013676 0.015063896325923865
-0.06859801913044494 0.08543765755578792 0.022887971274949237
-0.040841229869972406 0.08034678985563355 0.03966566538223326
-0.038553342618802444 0.08007304557272246 0.039619957206936396
-0.03635633540982469 0.07981549946532203 0.03952392029713658
-0.03417341575196542 0.07955960478353073 0.03942849919083696
-0.03200444858090756 0.07930534569431502 0.03933368798402326
-0.02984930055339774 0.07905270656639399 0.03923948084791867
-0.02770662560313769 0.07880143897198048 0.039146706557998234
-0.025578732697069617 0.07855199513661663 0.03905368800441861
-0.023463074576010545 0.07830389547144895 0.038962086291484954
-0.023086579651106443 0.07839049424795425 0.037665299981546496
-0.02362406180279003 0.07865422906428063 0.03572298352782005
-0.02416637849641351 0.07891997817064092 0.03376670189202363
-0.024711160802303234 0.0791872938559834 0.03179801651095865
-0.025259646195880947 0.07945642658534958 0.029815949243928108
-0.0258118725627991 0.07972739494860488 0.027820363183152064
-0.026369107180094886 0.08000045792800431 0.02581023229156587
-0.026928937139635956 0.08027515600277557 0.023787181251901157
-0.027492624929059684 0.0805517470424278 0.02175018921688393
-0.028060210563124743 0.08083025068145461 0.019699111585633755
-0.028631734611913318 0.0811106868268343 0.01763380175052509
-0.029208497150208845 0.08139332423543914 0.015553177034506094
-0.029788028182867077 0.08167768796811167 0.013458945085200902
-0.03037162282585143 0.0819640456292325 0.011350028602687579
-0.03095932396994361 0.08225241826440974 0.009226272593976181
-0.031551175111661334 0.0825428272164742 0.007087519877141402
-0.0919967333180074 0.09151986150032584 0.005664277657507544
-0.09041767799864947 0.09139819683381091 0.004954726741845716
-0.0754564209767506 0.0886874114127317 0.013244233385700743
-0.061355661420469554 0.08613251909396581 0.021057140721748357
-0.048045909999286984 0.08372096553424997 0.028431601342434776
-0.029259866292932923 0.08023394316518721 0.03964229728112928
-0.027122111454235265 0.079979283957345 0.03954837649698262
-0.024999084850096498 0.07972647083960015 0.03945422022935363
-0.0228930104134053 0.07947595048785225 0.039358174934800594
-0.02268801116458824 0.07959738808750898 0.03794376044895331
-0.022688942122180977 0.0797598050621735 0.036379909293097645
-0.022691073918467197 0.07992312201781784 0.03480881751929682
-0.022882823671756036 0.08012453750017128 0.03309660716455781
-0.023422655268970194 0.08039563037968739 0.031127851497025794
-0.023966152193343804 0.08066856391489928 0.029145728450196973
-0.024513351902076375 0.08094335691608172 0.027150101418359718
-0.025064292364497864 0.08122002845069062 0.0251408319280792
-0.02562024151527509 0.08149884304573467 0.023116882208196243
-0.02617878540316565 0.081779331591091 0.021079895510948243
-0.026741187166801128 0.08206175747743436 0.019028839298572853
-0.02730748691435081 0.08234614084621264 0.016963567298208693
-0.027877725311895474 0.08263250211904419 0.014883931202319178
-0.028453203165116125 0.08292111583334874 0.012788835959076872
-0.029031449328563053 0.08321149710525612 0.010680008646474615
-0.029613759642091342 0.08350391929530103 0.00855635963446122
-0.030200177103567594 0.0837984039959737 0.006417732112536767
-0.08402457689037884 0.09217169430353299 0.003979805245719614
-0.08157196927345745 0.09187266306988418 0.0038924670630055003
-0.06801738716975803 0.08937258886547925 0.011445715625132913
-0.05424110865212317 0.08681836769691116 0.01924820563585561
-0.041230388348283076 0.08440608652999651 0.026617105376949002
-0.022701125213057005 0.08088383130636716 0.037934598299436406
-0.022700888303805122 0.08104863994114687 0.036371517046983826
-0.022701847522427765 0.08121436119857686 0.03480120733410713
-0.022704010229706473 0.08138100215820378 0.033223610801197845
-0.02270497979955466 0.08154808677453695 0.03164038536506325
-0.022705953358838404 0.08171585889049054 0.030050645463881365
-0.02276487468828986 0.08189601697630804 0.02841251498409475
-0.023217745818232327 0.08215658961269907 0.026481344080460267
-0.023763642357679915 0.08243709185404312 0.024472053930868543
-0.02431327931035282 0.08271951606086815 0.02244899638211345
-0.024867925259930868 0.08300413235679803 0.020411121824286782
-0.025425165226730384 0.08329046196243942 0.018360092225481295
-0.025986262991772868 0.0835787738412977 0.016294863253034364
-0.026551258755789287 0.08386908864993084 0.014215286940367389
-0.027120193280014193 0.08416142733290335 0.012121213257860364
-0.027694368092269883 0.08445607026326862 0.010011534666622524
-0.028271310911735348 0.08475252252832165 0.007887997830144156
-0.028852318293435653 0.08505106329964167 0.005749500676172137
-0.07501881600709703 0.09257485843186858 0.0031404279271936564
-0.07139907265154577 0.09203008317490206 0.0039117047085910905
-0.06070181307056122 0.09004681656267 0.009675697141451112
-0.04724403802067223 0.08749410157820212 0.01746526150430483
-0.02273520122775663 0.0826791197277894 0.03320145715247097
-0.022715798333576842 0.08284470980850182 0.03163265921957659
-0.02271799874792224 0.08301540053060515 0.030041995973642266
-0.02271900118367165 0.08318654860005001 0.02844563599595651
-0.022720007761255878 0.0833584038196116 0.026842680173194522
-0.02272223057472811 0.08353122011140068 0.02523220282684352
-0.02273053569821848 0.083706007311012 0.02361057696689567
-0.023010494065213105 0.08393767821602097 0.021781722845829965
-0.023558809700663375 0.08422590509842981 0.0197447715990694
-0.024110903945555262 0.08451611823977566 0.0176937831029077
-0.024668052499299098 0.08480859546332191 0.015627684379204088
-0.025227828083916326 0.08510284500503669 0.01354817300462624
-0.025791501556029495 0.08539914349574823 0.01145418136022186
-0.026359113771151077 0.08569751241141128 0.00934555767178219
-0.026931966970333343 0.08599823801642564 0.007221181799805909
-0.027507587752534535 0.0863008152843095 0.0050828201498838155
-0.061507306625856684 0.09218347448938424 0.003929382962636674
-0.05350661657552258 0.0907103681023332 0.007933465686866759
