# .PCD v0.7 - Point Cloud Data file format
VERSION 0.7
FIELDS x y z
SIZE 4 4 4
TYPE F F F
COUNT 1 1 1
WIDTH 769
HEIGHT 1
VIEWPOINT 0 0 0 1 0 0 0
POINTS 769
DATA ascii
0.023169736678358865 0.06573852038339287 0.020033431171846472
0.021995543684376173 0.06568515153395096 0.019271731317659024
0.02089363910955916 0.06564330779683564 0.01845847988363014
0.013850835371694847 0.06463376863407799 0.0221271252454861
0.012580997489646695 0.06456213687898953 0.021469644688407508
0.011411782082775546 0.06450665995328786 0.02073906409756965
0.010264299746523209 0.06445451102580252 0.01999462118727402
0.00911867122309512 0.06440244634741692 0.0192513809602195
0.007980650911352694 0.06435141351423194 0.01850487940310741
0.006831810206921141 0.06429837967156288 0.017769390582143496
0.00566428599078761 0.06424203244936501 0.017051223739715404
0.004489697694806283 0.06418427522867749 0.01634148485795639
0.0033625881418764547 0.06413415228361519 0.015597114930951006
0.0025313039312719887 0.0641330225954852 0.01461992652176669
0.06130529649238642 0.06725387489734734 0.030977318962618683
0.058285317238683854 0.06692966132230553 0.03133099314044224
0.055619123914551705 0.06665791802206102 0.031466586170806776
0.05297990142471881 0.06638919592027775 0.03159748795895184
0.05047701853102726 0.06614019985754249 0.03165037713883945
0.04810563116412864 0.06591030795897607 0.03162706254411546
0.046003393010077165 0.0657207220137341 0.031433105596783806
0.04475780415530045 0.06566186350525552 0.03066626150605195
0.044112603162631714 0.06569510963525943 0.029492010997209883
0.04401871848736727 0.06581345636148724 0.027937264723580824
0.04413892615449588 0.06596534428352561 0.02622873640743273
0.04390632769671349 0.06606325534819205 0.02475782486846928
0.0420703118365095 0.06591294599328963 0.024402287183791616
0.040067178854139074 0.06573605867522837 0.02417162012856877
0.03813280553520543 0.06556915394243107 0.023901192022490914
0.036274839357793354 0.06541348614765012 0.02358482396430256
0.03437478133074051 0.0652505997797777 0.023306300151200998
0.03263707328326321 0.06511247587863703 0.022919358607804308
0.031130443218845172 0.0650100557340984 0.022372512223527596
0.029586012524150884 0.06490126706370812 0.021858260559412535
0.028197332448884782 0.06481657798286469 0.021235808016335234
0.02691887016896799 0.06474894652128663 0.020536744940977014
0.025696171704956194 0.06468986022969062 0.01979995763857184
0.024565527267880916 0.064645128224884 0.018997871541237166
0.023514955710568886 0.06461293606758253 0.018138329344386583
0.022696743611344772 0.0646176165725392 0.017106158452294573
0.02228703922116637 0.06468751466489715 0.01576570867878402
0.02238658576058722 0.06483915322453859 0.014035597566102453
0.01276748332887262 0.06343380701878303 0.01970568963442937
0.0115623911926519 0.06337390619327218 0.018999815364487416
0.010390986922623913 0.06331917442974813 0.01827106858945754
0.009223922480269375 0.0632649110283598 0.017541783644708653
0.008062320757819097 0.0632113004622502 0.01681104968247754
0.006893483702900327 0.06315629013577097 0.016088758577171958
0.005933037527160179 0.06313487136224073 0.01520527674670441
0.06323756097644428 0.06603672699270981 0.031346273247860656
0.060379007012824615 0.06574400400808526 0.031582750177415575
0.05770524547837014 0.06547757032826347 0.03171226297933605
0.055159347557931004 0.06522910857008955 0.03177048293829432
0.052650247512188164 0.06498514301327019 0.031816598117965555
0.05032038179104109 0.06476698907644082 0.031755070444001
0.0480299881272761 0.06455387142107359 0.03167790323401909
0.0459059547533876 0.0643648612269995 0.031498960094755724
0.04458206402892506 0.0642954008517691 0.030785697886203278
0.043766853993313815 0.06430230071219992 0.02972829425475304
0.04356366594990596 0.06440162536615147 0.028249970455854312
0.04370633829811976 0.06455367272507385 0.026527651304639632
0.043623269019793576 0.06467211881963579 0.02495449804084965
0.04230602201253758 0.06460358611458263 0.02423760791784485
0.04054058483910361 0.06446655918408226 0.023839050303113618
0.03873863385911408 0.06432340376372868 0.023473251125927852
0.03668135766813685 0.0641406426644238 0.023296091175634137
0.03501694080598977 0.06401729330872936 0.022847696654533678
0.03353786076580717 0.06392187726463686 0.02227252582527134
0.03209097764343194 0.06383101911283363 0.02167899921781452
0.030740004327859838 0.06375456427016149 0.021020512905691846
0.02948369796732414 0.06369241018019105 0.020296862111680358
0.028309712241052776 0.06364273546840835 0.019516001508467884
0.02717362789382677 0.06359873089211221 0.018709740694057286
0.02615071330572627 0.06357212609389559 0.017821796361965292
0.025621463240746656 0.06362226963322898 0.0165669848043547
0.025426203136721892 0.06372473067589617 0.015059074321299937
0.02630667883018384 0.06399580477141466 0.012734653187803036
0.012916117595628274 0.062293544880416045 0.017962373116364505
0.011690325165885918 0.06223180473860735 0.017269935494781785
0.010436633756069458 0.06216539537597903 0.016602361305224855
0.009440118441563228 0.062139423654867805 0.01573799925569863
0.06246463525578788 0.06454896851313881 0.03184863805280114
0.059813992745780586 0.0642923067698327 0.03195204863283563
0.057338151066981535 0.06406005236437738 0.03195354696636077
0.05491552573163466 0.06383462888048583 0.03193164099652718
0.05258275701227455 0.06362142867483363 0.031861456842846025
0.05035116468891343 0.06342218173813652 0.0317344956840756
0.04813483382274053 0.06322437355180852 0.031607435049336996
0.046062667651825207 0.06304695299598446 0.0313930443117465
0.04448376502921475 0.06294144083327256 0.03085250378272808
0.04351444436563695 0.06292543235541107 0.029900789735162747
0.04319979847899058 0.06300613624275656 0.028500015087135566
0.04321171330800333 0.06313553863739478 0.02686943338635417
0.04336555168646439 0.06328653136011617 0.0251335636892685
0.04261546056649301 0.06330369985451563 0.024021418210723622
0.04085721248691254 0.06317069284216023 0.023616617961929764
0.03921132813677025 0.06305392228869727 0.023139352552689618
0.037607614881480844 0.0629429842639007 0.02263820979261072
0.03606210978865587 0.06284031935608284 0.022101280587289718
0.034640310136831665 0.06275581985103754 0.02148088472447851
0.03330110651056084 0.06268340835732476 0.020805277166359992
0.03208776083166298 0.06262968684190437 0.020042100541566743
0.030945875125081068 0.06258654697913107 0.01922958750389897
0.02978041572961382 0.06253965693051294 0.01843664752770513
0.028994117334716962 0.0625501343808757 0.017366399043239444
0.028669117027888547 0.06263083296563386 0.015953351877653066
0.02879981212939242 0.06278133778651872 0.014196102620957829
0.0619638772721644 0.06310457248337398 0.03217410682689209
0.059500871532192745 0.06287989269167638 0.032156707501260706
0.05714179380540185 0.06266911582067387 0.03208260875941832
0.05486243853609962 0.06246887183807202 0.03196672985415494
0.05262054911536762 0.0622731834681748 0.03183633766966648
0.0504796970655324 0.062091183517111986 0.03164858685240757
0.04839650678998092 0.061916729123777006 0.03143156117201534
0.04635137155292146 0.06174704618557419 0.031197921255206373
0.044557157340011866 0.061612836841119054 0.030802624952472657
0.04346347556750574 0.061579234108093676 0.02993562155754792
0.04288747302563134 0.06162039306807712 0.02871464076562369
0.04276923026421259 0.06172808139989175 0.027175185782314926
0.04293627684381557 0.06187765001100215 0.025431829921717275
0.04277954057291988 0.06198069649171001 0.0239067834695757
0.04167638074715696 0.06194611862165976 0.02304114858895956
0.040089588037311885 0.0618407132250681 0.022518973289421873
0.03862864021390133 0.0617533071404187 0.0219130186166418
0.03714603245479958 0.06166236383140677 0.02132718825669283
0.03593218676789994 0.061610570352899824 0.020553220683673545
0.034744690889936536 0.06156244649927467 0.019762998496991147
0.03355139853203415 0.061513268110464585 0.018979563489360418
0.03247437298117373 0.061481090367240414 0.01811390398962598
0.032027901246342416 0.06154227574127238 0.016787210739082903
0.03181196005004172 0.06163796847649983 0.015287109045765912
0.03262566684876683 0.06188736754519808 0.013017923524895003
0.06172787688381742 0.06169999371652138 0.03232749580838068
0.05937906797267528 0.06149600719444651 0.03223631941377009
0.057107483594168396 0.061301964956827784 0.03210516019116244
0.05495092434617882 0.06112320189805781 0.03190824369830031
0.05281231006816628 0.06094623408058201 0.031708880444791476
0.050746376947124805 0.06077874180295751 0.031470342602517964
0.048762317922192266 0.06062207275276281 0.03118569465065496
0.046803002112714764 0.06046825494705019 0.03089268279144064
0.04491399302600385 0.06032372843715743 0.03056011253642571
0.043502681253545894 0.060246092858406486 0.029908828587285496
0.04271517142062087 0.06025643272304686 0.02883304401608633
0.042446457814844185 0.06034039067722746 0.02739821907393908
0.04250001278700333 0.06047048671099914 0.02573495235902401
0.04264301716888996 0.0606138493958188 0.024002165749369697
0.042379172940877896 0.06069974399751535 0.022547433924125893
0.04120172530695376 0.060655362817586614 0.02173338931870028
0.03989953099385829 0.06059292725284136 0.02101035856504424
0.03860261087604022 0.06053099280738351 0.02028696073861108
0.03749199213225335 0.06049560532595871 0.019433163773929174
0.03622022848593387 0.060436841899706384 0.01869764936733037
0.03546628335549906 0.060452637292801516 0.017589440732121375
0.035218755016302394 0.06054180355862452 0.01611072041873951
0.035343354405365124 0.06068531768792798 0.014353989091716812
0.04369353866790304 0.06202505350111167 0.006519675916884626
0.043933594512823526 0.062189067881626856 0.004628388961005314
0.06166228812237323 0.06031998584600771 0.032370125370922875
0.059402592979599156 0.06013262668248107 0.032220943255631296
0.057268101457831455 0.05996157304458673 0.03199958920634294
0.05517025095968264 0.05979483737821493 0.03176327615504149
0.053163859559839044 0.05963994086121204 0.031475217011434076
0.05115977524257764 0.059484740383374916 0.031194034286200156
0.049211449639815996 0.0593365718983269 0.03088382725701605
0.04727943024457737 0.05919005091756004 0.030570684671713977
0.045406931717080934 0.0590511437457734 0.030225101892510375
0.04372890808726654 0.05893853494938577 0.02975422629765273
0.04268255424139117 0.058912887023705715 0.028855458084959817
0.04220763412429812 0.058966375564829546 0.027563244415861943
0.04208423361279057 0.05906892522593869 0.026023841610157084
0.04217111142770208 0.05920116986091745 0.02433186339910376
0.0422439409750201 0.0593319935965361 0.022642434986025584
0.04204098650098903 0.059424796477175065 0.021140557696849305
0.04122269458222921 0.05943177758608207 0.020070571345098098
0.04013730438978169 0.05940129323376303 0.01919094668160226
0.03917689773295607 0.059388264292894 0.018223275538215677
0.03856327168065138 0.05942406172597194 0.017005954736830198
0.03846123752695807 0.05953226648728054 0.015415234795756183
0.03955841025922313 0.059810650450870244 0.012943112565803438
0.043126238642085424 0.06044060090779702 0.008642105528471389
0.04322961454678875 0.06058078404372599 0.006862006161001355
0.04347761632690783 0.06074214813765663 0.004966686557591415
0.06194431742881523 0.05898646395907371 0.03218681979092752
0.05959503841098951 0.05879153803215455 0.03209515917421879
0.057519559480323335 0.058632276895327524 0.031834310759289774
0.055520811729522224 0.058482613398492325 0.031531567231282975
0.05360409475359956 0.0583433132023651 0.031182607096484682
0.051684366060292086 0.058203052156412464 0.030843406798876594
0.049696278903834046 0.05805305762919144 0.030557967068242597
0.04787645270605412 0.05792507934549757 0.03016718181960798
0.04608311414285243 0.05780015354214221 0.02976555527147534
0.044369658282833235 0.05768550548072344 0.029316340810382868
0.0430233240634304 0.05762004480009341 0.0286212858345819
0.04222589531738191 0.057628705383048845 0.027550626071234208
0.04176575857308801 0.05768320299467425 0.026245122572337187
0.041693718479189734 0.05779073028209222 0.02466539469441703
0.04178243730244097 0.05792061480052943 0.022966643383703633
0.04193721059017147 0.05806005454377968 0.021213862219870594
0.04186238960012767 0.05816863252133936 0.019616222988048493
0.041587083945846315 0.0582501522774908 0.018155574629278193
0.04146520945179427 0.05835309882148681 0.01658009658082299
0.04164417167819923 0.05849790967292839 0.014781522001355907
0.042102696654606364 0.058681907440221115 0.012771694494601082
0.04257478360070216 0.058868541995805816 0.01074139668078189
0.042672525824163865 0.059004063336463006 0.0089750868125682
0.04274257351736138 0.05913630082215642 0.007221394403411019
0.04313290772769168 0.05931366709839575 0.00522243144679746
0.05989442275116963 0.05746313449746515 0.031899478850987484
0.05789935137856056 0.05731810705715159 0.031584680962149225
0.055973139448723785 0.057181470703100735 0.031232593763572125
0.05410365046077492 0.05705169171692536 0.03085056877910164
0.05223722753859872 0.056921794203817294 0.03047388368785231
0.05034441235635717 0.05678791726197211 0.030122347965057195
0.04859773612412238 0.05667269064509706 0.029679696113211917
0.04686078370461716 0.05655827932704501 0.029237036034994113
0.04519010231562831 0.056452142982949746 0.028755653451153274
0.04362655489118411 0.05635972974002218 0.028206754055954686
0.042537882086328804 0.056329799454404195 0.02733504560221478
0.041816630326340254 0.05634848053015749 0.026209776158634013
0.04146260135611857 0.05641604325004059 0.024826865017066768
0.04136244977706355 0.05651769165929114 0.023261686501966194
0.04144529376973016 0.05664417559259576 0.021561339082318942
0.04156923043887406 0.05677667217285735 0.019824441560247485
0.041623949503930335 0.05690043737156404 0.018129246786280417
0.041776594482489326 0.05703785976998437 0.016356498840238543
0.041926006388853576 0.05717541312021547 0.01457803524200918
0.0419832209143558 0.057301103673292 0.012858428664419108
0.042072615678730274 0.05743166165500748 0.011107939865456606
0.04219176345407116 0.05756678871515796 0.009327919849272448
0.04241448298270534 0.05771652787392588 0.007463492858113985
0.043057576984280865 0.0579240385438062 0.0052783205446360615
0.06027616992713741 0.056143312539387355 0.03164996543040888
0.05842056497383419 0.05601953275130759 0.03124209744559986
0.05649220874597771 0.055886008842084396 0.030889506348862672
0.0546097992815357 0.055757805496593246 0.030514148235052385
0.05266429595601557 0.05562103421173748 0.030188438496938474
0.050977004034187645 0.05551674448557856 0.029697174695098305
0.049357553360369955 0.055420731239767054 0.02916616698878527
0.04773172114496865 0.055323511729690675 0.02864513014896075
0.04614069131728693 0.05523037874857693 0.028106025669430046
0.04460239369498098 0.05514366919347524 0.02753617129330349
0.04317109224009358 0.05507043380269933 0.02689750223331716
0.042171767309430896 0.05505283210444088 0.025963021959631738
0.041466516499728545 0.05507331207709549 0.02482412969614578
0.04117170204335463 0.05514723421833311 0.023395687639510554
0.04108004586782554 0.05524792379610966 0.021819340414446164
0.04106405462060181 0.0553589025655183 0.02018324661051535
0.04120038168873896 0.05549026044168832 0.018431741242267596
0.04132154584770503 0.05562017072798435 0.016683257793187245
0.04136667220745227 0.055740628974189244 0.014981878685213779
0.04150334044518761 0.05587363255104949 0.013206800928260098
0.04157030408970769 0.0559979930560187 0.0114745879158068
0.04178130566083027 0.05614190491119927 0.009629156132803018
0.04220985015207673 0.056315224465466364 0.00761449170399231
0.05892917499948125 0.05471617158488835 0.030907798009210563
0.057078490186627306 0.05459566523003764 0.03050199395922859
0.05530972066635237 0.05448485956771667 0.030048933414008716
0.053523668207606734 0.05437145778066367 0.029614048852522334
0.051843593365617224 0.05427082704588858 0.02911472849375224
0.05025030516755585 0.054180644526721805 0.028562792871953513
0.04870773528718175 0.0540964539184472 0.027981812109269477
0.04724308948878503 0.05402170729297779 0.027352652258338217
0.04573748600831079 0.053941505623008465 0.02675615174870749
0.04431668569269215 0.05387166955908816 0.026105905927324924
0.04302678580566738 0.05381808518523505 0.02536894301484005
0.0420048831426546 0.05379820482672909 0.02444799903831324
0.04139905113992681 0.05383101530334076 0.02323597388056836
0.0409898126714589 0.053888945455329886 0.02188307872681783
0.040789010519627356 0.05397365772136917 0.020378598820392613
0.04075011834202785 0.054079379446156636 0.01875330053272689
0.04086615632848439 0.05420534759546092 0.017010261526656023
0.040872038425704194 0.05431771917158849 0.015339007958175443
0.04106550218697519 0.0544546407580657 0.013524652382965185
0.04125596772915202 0.054591742785242876 0.011704028797264732
0.041541794399699794 0.05474170846400433 0.009804934211218863
0.0427184516837576 0.05500739575541965 0.0072391939374518155
0.059584628587829036 0.05342738756439555 0.030476981167003703
0.05785527758467984 0.053324727081439274 0.029988563514417865
0.056153135980359314 0.053224954063189105 0.029488342877867224
0.05443552968071591 0.05312290369686832 0.029004576314485164
0.05288183798288648 0.053040388982351576 0.028416910494540537
0.05134916552538871 0.05296010537987687 0.027820118488555923
0.049856053838159 0.0528843315681426 0.02720139266939514
0.04840865834729574 0.052813848364162266 0.02655610831486871
0.04699706143175386 0.052747471330466346 0.0258905891538061
0.04564864792235851 0.05268859133323921 0.025185530223070074
0.044383769042421584 0.05263976050491455 0.024426091868415267
0.0431554318845882 0.05259524069949056 0.023644166444191483
0.04214158949537372 0.05257706449808913 0.0227143373590461
0.04151737029069785 0.05260709445841633 0.021510426158992624
0.04104701771523095 0.052656352834517646 0.02019534720493593
0.04089966246755811 0.05274600181910378 0.018646502359504213
0.04089376771361736 0.05285365648077965 0.016990434487069828
0.040919473231490144 0.05296570252098685 0.015304759675246693
0.04108400273297702 0.05309559089806599 0.013511221794501926
0.041474760254049226 0.05325439738282212 0.011544327419797384
0.04224379358942709 0.053461416093775374 0.009289734766995239
0.05866389037462383 0.05205272142895428 0.029454097551837366
0.057032856376543206 0.051964093814618445 0.028903621542646973
0.05543339667971442 0.05187884735708397 0.02833761916097205
0.053941413240695124 0.0518060012641721 0.027704755888468047
0.05249839725064337 0.051738679602550526 0.027043400175941812
0.051083445608326505 0.05167442751108356 0.026367233544328905
0.04972581297189416 0.05161675296825338 0.025655971415040002
0.04837924576960578 0.05156016774092891 0.024940771429645514
0.04712369640286557 0.05151425354493747 0.024166283014838974
0.0459182512077666 0.05147416559934826 0.02335991195581405
0.04475841375218953 0.051439398773458656 0.022524240772204107
0.04372434266022751 0.05141964409472658 0.021602446169471323
0.04264362416438061 0.0513941765953348 0.0207148705973908
0.04187949208320274 0.051406907193019574 0.019604075816553934
0.041724045437789514 0.05149348308009056 0.018057762447826642
0.04156543614089808 0.05158003057558019 0.01650812632207338
0.04167723150333047 0.05169985161777324 0.014757652561481371
0.04199251106272345 0.051844988953693466 0.012851684422412635
0.042911112321401046 0.052064474240611246 0.010495903101864157
0.05809872014562112 0.05071916846178161 0.028195176803930466
0.05657625709602815 0.0506452812467861 0.027573750899077043
0.05513086975737613 0.05057999522306497 0.026905306362976833
0.05373151210830984 0.05051977111671078 0.026209988714651133
0.05238712818685659 0.05046567615471727 0.02548122571414585
0.05110247938019474 0.05041830041312118 0.024715164459103545
0.04992006721130238 0.05038263065848603 0.023881940508898414
0.04868420157444259 0.05034058326269906 0.023087985887267126
0.0475736560975647 0.050313008206036375 0.022209713223899974
0.04657256758198253 0.050298136493447526 0.02125677949395549
0.04566541069827568 0.0502942243470359 0.020238837176106805
0.04496210328707462 0.05031426096668347 0.019077159062170446
0.04437933603739669 0.05034857941893614 0.017828542223686905
0.04404467405903029 0.050412325756678866 0.016400466338080122
0.04410659968372094 0.05052324473832611 0.014683380844223937
0.04499060635501134 0.05073206121354088 0.012365371250552037
0.0577984773455702 0.04941349380287541 0.026756839888472606
0.05644539458238218 0.049360614593638205 0.026021796766064587
0.055135038196519215 0.049312331494254145 0.02526140333279331
0.05388608572064629 0.04927077856057313 0.02446250525724819
0.052680147248289344 0.04923391848887115 0.02363699410823905
0.05155756946135409 0.04920634809250422 0.022756671890337032
0.05047013295173719 0.049182653008896064 0.02185392097722827
0.04950946434806397 0.04917327360349906 0.020864686270871846
0.04868815109903801 0.04917973117346742 0.019778723915242602
0.048040513401180374 0.04920604022340181 0.018570316886059646
0.04761189316509057 0.0492575087579794 0.017205418485919555
0.0474536293993329 0.04934017560762824 0.015645001475358078
0.047924500851236784 0.04949543945488562 0.013629655967838217
0.05786636264644873 0.048144654904135255 0.025066745254197664
0.05670251585975289 0.04811405568701966 0.02420200984504617
0.05552360008811036 0.048081681096382466 0.02334961890323528
0.0544191185220424 0.048057353216441334 0.02244858981460912
0.053414457620318934 0.04804391544886662 0.021480644346927313
0.05245823162276658 0.04803576585960903 0.020480160014850923
0.05181917642356637 0.04806263979596985 0.019259865651637398
0.05129003673661087 0.04810179663428701 0.017960912634910786
0.050952670359718955 0.04816239603145164 0.016524513575246536
0.0511360888912476 0.04828115754328548 0.014716021045758365
0.05211647158775673 0.048489214000028015 0.012333181579602337
0.05728182715425273 0.046895181143814996 0.022154693870488018
0.05637444271984304 0.046892960622647084 0.021112331011960972
0.05556405412689591 0.046901103568050904 0.02000347172542777
0.05484879138370008 0.04691947258638666 0.018828301520272206
0.054489633421432315 0.046976151560056405 0.01740439435787372
0.054389969615874334 0.0470609799671032 0.015795139906539357
0.054922363646564054 0.04721429558506833 0.013735786255680671
-0.05682443916208674 -0.02198191164989409 0.018986020847091778
-0.05863495967607707 -0.021909854032611968 0.01909396187827689
-0.060239194679837016 -0.021851431258324307 0.019019037731509536
-0.06068062689071363 -0.02187163918299113 0.017857581888294782
-0.06113476048220445 -0.021891076294464767 0.01670522503435473
-0.061780476797646755 -0.021897543757360267 0.015732340416320933
-0.062055628474927016 -0.021929359158585106 0.01440408776823926
-0.06232988406807993 -0.021961383343335354 0.013070338461099007
-0.06301020946380953 -0.02196568355232114 0.012124351135727407
-0.06311931600833565 -0.022009303607537098 0.010622821491227508
-0.06360137771849583 -0.02202740803395397 0.009479083480102124
-0.06377138574765406 -0.022067166820309913 0.008026380271899225
-0.06393266122681623 -0.022107717014231008 0.00655920067847332
-0.06415153190037176 -0.02214445796311277 0.0051431520716552215
-0.06436006211119355 -0.022182091760097344 0.0037113538224329834
-0.06522769035129727 -0.022173915074615656 0.0029344461224264373
-0.06642099308817379 -0.022142922193182955 0.0024868014060226984
-0.051921779702174986 -0.023274380226720334 0.020780639331731465
-0.05395908312547654 -0.023183546395216203 0.02106587281792166
-0.05581191937296126 -0.023105326071000118 0.021194181572588233
-0.05757853833642479 -0.023032851819099132 0.02125360550252986
-0.05929327853354277 -0.022963727135030112 0.021274804895582644
-0.06090154250730845 -0.022901856702943858 0.021206213957951636
-0.06244921211798099 -0.02284402082532028 0.0210893248478477
-0.06387340347552434 -0.022794738676351983 0.020864092404218382
-0.06502575615049805 -0.02276469010448241 0.020388319740087035
-0.06589289284102179 -0.022754968034135518 0.019645303764354194
-0.06686462629320283 -0.02273767854523158 0.019003672227003665
-0.06713262948558152 -0.02277103764446928 0.01768784569720183
-0.0673371594346227 -0.022809137795342622 0.016306048914332016
-0.0674631677062581 -0.02285310192582228 0.014842674162160785
-0.06758718301787398 -0.022897415861491195 0.013371225882885085
-0.0677398241629516 -0.022939854241956017 0.011921685302747564
-0.06785241459920804 -0.022985412476054966 0.010426685595577911
-0.06800032559741032 -0.023028602793421216 0.008960321908441093
-0.0681579383693584 -0.023071285649522138 0.0074975539130019975
-0.06826951222647304 -0.023117551421026554 0.005982631649726955
-0.06839487911480441 -0.023163020683206966 0.004475063142803937
-0.0686343018560201 -0.02320028886345405 0.003076533627481559
-0.06969024628600812 -0.023177335692534325 0.0025037169477553634
-0.04906568876362366 -0.02453803070857249 0.021341593339814113
-0.05090218131993518 -0.024458098600209064 0.021426817050207547
-0.05265564650362131 -0.024383933469619434 0.02144693271437026
-0.054314028706620554 -0.024316466315483797 0.021389823043011957
-0.055989189089132196 -0.024247448936430875 0.02135681796989719
-0.057708876064494485 -0.024174808703298162 0.02137380938322131
-0.05943104103934593 -0.024101652692675612 0.021402520221823762
-0.06109222794938607 -0.024032714490362872 0.021383915701758405
-0.06280248480318146 -0.023959788957931393 0.021420261552735853
-0.06444433489869372 -0.023891658768744287 0.0214017157806225
-0.06596738107729067 -0.02383214523864649 0.021279632421546957
-0.0673487202210456 -0.023783033515003563 0.0210305233333406
-0.06843141720694146 -0.023756246643865043 0.020502235422349302
-0.06919594828886882 -0.02375341753718813 0.019671583887830746
-0.06990031719313639 -0.02375513952297422 0.018783163551036597
-0.06998391491955402 -0.023804074237520702 0.017291464452552585
-0.07012967981155988 -0.02384849893357623 0.015853976252349467
-0.07020837775292499 -0.023898255159827193 0.014344746520196516
-0.07032168460522209 -0.023945594398269435 0.012863028803235088
-0.07041091672905142 -0.023995003974208378 0.011351106263446764
-0.07052426715421317 -0.024042790666340987 0.009856607671078377
-0.07061920389433352 -0.024092223008345008 0.008337238996738994
-0.07075972167124822 -0.02413836579232825 0.006857128725645811
-0.07086292905623409 -0.02418761844310621 0.0053330152508029305
-0.07095749060910306 -0.024237776790904417 0.003793440643669599
-0.0715710333585095 -0.02424776935336246 0.0027779853098882645
-0.04561895127777804 -0.02585552266805573 0.02140285332232178
-0.04739006057291961 -0.025777516096693567 0.0214103531312847
-0.04914069528907555 -0.025700734688145408 0.02140898496946292
-0.05086499327430449 -0.02562563898726709 0.021393229234831113
-0.052537075869369176 -0.02555424144557359 0.021339279896690322
-0.05413708773409415 -0.02548810594370941 0.02122833330790136
-0.055745285479210094 -0.02542103442479569 0.021133048195424664
-0.05741804527869099 -0.025348631556413776 0.02110559088965186
-0.05920988376458142 -0.025266607021441876 0.021197492203986257
-0.06105512105012706 -0.025180031479677727 0.02134933539697087
-0.06272386114930212 -0.025106894279853867 0.02134660894943219
-0.0644136380944999 -0.025031768527267313 0.021372809823013983
-0.06605629855446027 -0.024960007343348935 0.02136379892218815
-0.0677287545585985 -0.024885563472754817 0.021392125957723496
-0.0691960348140524 -0.0248270070549125 0.02123355687340084
-0.07034945119862712 -0.024793066826388408 0.02078059708125657
-0.0711438328385785 -0.02478750437108203 0.019984935387383496
-0.0717910148961593 -0.024793642396797894 0.019046979187682334
-0.0719834983877039 -0.02483611626705378 0.01766423173281728
-0.07206959945132879 -0.024887303173069853 0.016171668217499158
-0.0721407309390174 -0.024939930944847533 0.014657818829826752
-0.07227841837297827 -0.02498745412781235 0.013203263460344727
-0.07233571132249761 -0.025041681028017793 0.011662482746464142
-0.07242406930387335 -0.025093654149977766 0.010145880280103714
-0.0725290402958853 -0.025144527857043172 0.008639333206593158
-0.07262792880064911 -0.025196136624947216 0.007120074785953889
-0.07271499781328161 -0.02524895250251262 0.005582123887823476
-0.07278364972138152 -0.02530352223063108 0.004018496791830695
-0.07319018257334603 -0.02533072875854937 0.0027952315417733575
-0.04199177221996725 -0.02719956386254784 0.021341431089879404
-0.043879181685894886 -0.02710945650741539 0.0214325365984972
-0.04559807555148376 -0.027032446139347435 0.02138429236022532
-0.04731893790702152 -0.02695493209139829 0.021346784658506368
-0.04875279848670172 -0.026900165703889884 0.021060468657181752
-0.05017017380598737 -0.026846482050605285 0.020765676277260448
-0.051469634974327494 -0.026802087790797763 0.020370127451965203
-0.052858873767090975 -0.02675021859756302 0.020061738414707708
-0.05441648392903692 -0.026684441370630255 0.01991393699286398
-0.05603661188333875 -0.026613276599496253 0.019831564884308872
-0.05780016704675178 -0.02653008722631706 0.01989058776380126
-0.05961231312970433 -0.026442544798382362 0.02000476771186732
-0.06181690625080394 -0.02632244075622247 0.02049699708255137
-0.0641412561891535 -0.02619194883997603 0.021116318633913223
-0.06606123695204541 -0.026094146572902106 0.02136847345476317
-0.06766588736967094 -0.026021912991757268 0.021332307835365993
-0.06935887758093595 -0.025942039198457056 0.021389308464082213
-0.07089610756487275 -0.02587470755479516 0.021306169333660918
-0.0720292272217869 -0.025840641031577335 0.020840607801075772
-0.07276815706570533 -0.025839245687527834 0.01999622798363282
-0.0733668785227502 -0.025849548211789263 0.01901510365915582
-0.07349931540117505 -0.025898914657960154 0.0175750362805267
-0.07358511630296166 -0.025952423876846802 0.016082943851438103
-0.07366086454416593 -0.02600702962447903 0.014574350673904224
-0.07376660811980162 -0.02605936501108819 0.013088980403384909
-0.07386554813053037 -0.02611252213078431 0.011590374756649036
-0.07393833401917033 -0.026168145103768657 0.010058890743396165
-0.07403481455526445 -0.02622202109067714 0.008544544455487357
-0.07409291917908944 -0.026279417733678895 0.006984487902561121
-0.0741448024921158 -0.026337618416783132 0.005410961624462918
-0.07419853853026204 -0.02639593879367027 0.0038321184497418503
-0.07463489416700758 -0.02642175669174258 0.0026415006106125793
-0.04030026005996368 -0.02845949319872286 0.02143219180486089
-0.04209327960059528 -0.028373705675301533 0.021430741390777608
-0.04371258455487126 -0.02830202449824916 0.02128518670964863
-0.045212772790939326 -0.028239980180741354 0.021041713144858254
-0.046293774642157615 -0.02821277892277424 0.020430507656330865
-0.047472811885908184 -0.028177222946395245 0.019910430278035962
-0.04885784095954143 -0.02812416985098065 0.01958039233422576
-0.05073226016382021 -0.02802959560143391 0.01970064907278618
-0.05257826906054597 -0.027936994974848636 0.0198056373032256
-0.0543711027580252 -0.027848479878647452 0.019872301961689876
-0.05610674093691992 -0.027764419631377203 0.019896241356075872
-0.057783852568989325 -0.027684958001503113 0.01987546311985161
-0.05937641085312073 -0.02761234702993433 0.019784927930391938
-0.06101983677491818 -0.027535053672434234 0.019750323034522843
-0.06261381482987949 -0.02746164354995668 0.019677987956169818
-0.06476292364833902 -0.027340206868834715 0.020139530720586385
-0.06760789670235956 -0.02715829371561665 0.021277129722713006
-0.06930704548900374 -0.027074427189201514 0.021339733460406685
-0.07094994502543228 -0.026995037763838204 0.021357930324947483
-0.07245728226906828 -0.026927033338970365 0.02125429338847823
-0.07349243091019592 -0.02689974798923362 0.0206998268009273
-0.07409242069896349 -0.026910241121392127 0.01972359623642439
-0.07464854362246459 -0.026924613417165642 0.018703085654992402
-0.0747649440134931 -0.02697753597715978 0.017247038997678932
-0.07480234937969832 -0.027037636808664292 0.01570645642607671
-0.0749076023952644 -0.027092054970025835 0.01422646681300882
-0.07500052102622923 -0.02714781714698609 0.01272772207562961
-0.07502670338182976 -0.027209738992830686 0.011155186644003279
-0.07508504112904368 -0.02726910706980081 0.009607897251248387
-0.07514604120586216 -0.027328521105477288 0.008056291033074092
-0.07522820990829798 -0.027386334808918795 0.006519291827275342
-0.07527125902864912 -0.02744791373985091 0.004935191063195676
-0.07529189684147741 -0.027511791187388352 0.003320585345853777
-0.07600376883231924 -0.027514029035596056 0.0024165058269727258
-0.0362279049866584 -0.02986472208266576 0.021042273039945325
-0.0384897998224496 -0.029735776077825828 0.021427934810284543
-0.04024816232338785 -0.029649811847656183 0.021386594137825565
-0.04172941891786969 -0.029587487362746967 0.021110602038760196
-0.04288818137923839 -0.029552904658581226 0.020556028196836718
-0.04383432700348994 -0.029536681894643778 0.01981611363027591
-0.04534708333345705 -0.029470934807628982 0.019584367822753246
-0.047485434871470444 -0.0293501697410842 0.01992177173883486
-0.049536722751730045 -0.029236493061938037 0.020193550565903773
-0.051354635956474826 -0.029142808799217067 0.020265717381290016
-0.053114433259793925 -0.029053818336897307 0.020294981366819564
-0.05490006109491574 -0.028962143987224197 0.0203575956717304
-0.056532927921116194 -0.028883566914764496 0.020289292011164695
-0.05826829530256633 -0.02879554295901424 0.020324574882179203
-0.05991329102250326 -0.028715148188237918 0.020285252135926635
-0.061444588806843614 -0.02864451280748866 0.020148219740746154
-0.0629432514971957 -0.028576466781008825 0.019988205341667176
-0.06437492999026206 -0.028514101705495433 0.01977226806862159
-0.06588463434631892 -0.028444450756975465 0.019637445807683174
-0.06919522422854973 -0.02821258088737924 0.021232781585779292
-0.0708985185948342 -0.028124464874605747 0.02130848737205887
-0.07250911182937558 -0.028044312021149678 0.021304383072589472
-0.07399029055996187 -0.027975501455242816 0.02118347461372433
-0.07483035233305713 -0.027964543135642474 0.020444187130279345
-0.07530986960018587 -0.027986324955197383 0.019352224217435043
-0.07567980237816674 -0.028018198915179277 0.01814969806587008
-0.07573650799380627 -0.028078844403442053 0.016632939466019958
-0.07584094208282338 -0.028135403973555562 0.015156937046727048
-0.0759259820066196 -0.028194011112087598 0.01365511916930201
-0.07598834590459713 -0.028254982368652908 0.012123832759677933
-0.07605098011861433 -0.02831621790480397 0.0105859089972265
-0.07606763270077077 -0.028381996207450397 0.00899423044008113
-0.07611074114256727 -0.028445635991607272 0.007422124877203007
-0.07614763554746734 -0.028510157126240943 0.005836364237788549
-0.0762095798411172 -0.028572654415189594 0.004269111951698379
-0.0764703013760637 -0.028616895681858563 0.002901210562581469
-0.034716270281023975 -0.031125776524108802 0.02131660036779004
-0.036690007298669725 -0.031017924533642716 0.021442490510651002
-0.038421316392474925 -0.030931354189077546 0.02136830996399114
-0.03974777689658404 -0.030880818775860595 0.020948640215441294
-0.04066014247269639 -0.03086739290930017 0.020169809354810275
-0.0417709922022364 -0.03083597173148924 0.019567909733795963
-0.04397276925459359 -0.030705611312145203 0.01993920498235896
-0.04613877975925218 -0.03057791225958542 0.02029197533515953
-0.04789606493084081 -0.030486821030478197 0.020290713357140888
-0.04951619110629457 -0.030407824782594874 0.020175006619735925
-0.05115895443478358 -0.03032640296370923 0.0200880539378005
-0.05288084459538267 -0.03023736525575627 0.020081790656934773
-0.05456911700634931 -0.03015100942123426 0.020053970464685766
-0.05624950340708362 -0.030064986291532165 0.020027903946677417
-0.058053260959546826 -0.029967194189567874 0.020125223243562695
-0.05985212057134681 -0.02986940787261113 0.020228246757217516
-0.06157272290978649 -0.029778423238808614 0.02026825245085412
-0.06323774486899986 -0.0296921815648057 0.020265518017853534
-0.06472806781539842 -0.02962180127262094 0.020106537280163483
-0.06609344213942869 -0.02956275143670268 0.019836126396564402
-0.06741239779496316 -0.02950776851027711 0.019527590386599403
-0.07091459117511556 -0.02924793729102095 0.02132394004533228
-0.07256331501092289 -0.029160993269010418 0.02135676669740577
-0.07413585704387299 -0.029080816822096026 0.021324885775671765
-0.07534551815450258 -0.02903451023643815 0.0209472470109075
-0.075986420216268 -0.029041784642613547 0.020016306847088383
-0.07652340067807273 -0.02905894588691329 0.01898204729578873
-0.0765527016692592 -0.029124433602459747 0.01744242683379227
-0.07667502457460446 -0.029181368878120686 0.01598845524038439
-0.07676077743547638 -0.029242064683228628 0.014491661034315373
-0.07683898957836643 -0.02930376941191942 0.01298067162746075
-0.07685817303536596 -0.029371429670766214 0.011403190587862322
-0.0768560221194754 -0.02944146318585046 0.009796604928078878
-0.07686817760053705 -0.029510451479341438 0.008196985461079553
-0.07687799865284967 -0.029579994916077282 0.006587392619026411
-0.07692381867229459 -0.029646384799929478 0.005007356568374366
-0.07686413853867424 -0.029723335855704178 0.0033103883152070246
-0.07752543635044928 -0.029730492693087272 0.0023578428043165567
-0.03283948808077458 -0.0324254505184918 0.021284726748584504
-0.03482694149581178 -0.03231265144508023 0.021411947318641267
-0.036506450242630384 -0.032227993511060475 0.021283515455151947
-0.03769258395338165 -0.0321889484401041 0.020733841747576587
-0.038547260476423095 -0.032180694274028566 0.019897908425639654
-0.040147716131380184 -0.03210257766837159 0.019718955924764525
-0.042413578883731595 -0.03196167227682264 0.020136257312845574
-0.04430146011367675 -0.03185568396101041 0.020231449596552542
-0.04592281823517336 -0.03177434192641814 0.020098951858167846
-0.04754402915131617 -0.031692647914679975 0.019974417345108575
-0.04918018448671546 -0.03160917062507488 0.01987152930297209
-0.05091691118181452 -0.03151577223794344 0.019868297685783354
-0.05257034539508526 -0.031429872980800654 0.01979840556589485
-0.05429951466912564 -0.031336364188041664 0.019806623349909236
-0.055993307323689234 -0.031245810041839097 0.01979162728374917
-0.05772201442833402 -0.031151499514978875 0.019818134906620544
-0.05946757634082123 -0.031055140242141607 0.019869885995165315
-0.06132394829847093 -0.030947679563719584 0.020035206836014452
-0.06320932313233324 -0.030836929022537905 0.02023875440070111
-0.06488485896962087 -0.030745948455691216 0.02025495087895729
-0.06641889720133681 -0.030668254646407534 0.020145796847035935
-0.06770316709358587 -0.0306144517772475 0.019805697800569955
-0.0689910742004648 -0.030560045652384814 0.019474611634783923
-0.07248040836450975 -0.030290656756567308 0.02127664315969996
-0.07416036833461886 -0.030196913348352415 0.021348697370292102
-0.07558439771864989 -0.030127812821096684 0.021180513116735855
-0.07645041258323632 -0.03011320042977482 0.02047174841180055
-0.07691179535313153 -0.03013835792902594 0.019365262872119038
-0.07714870209904434 -0.030185786540058886 0.018033530187821778
-0.07723980634405969 -0.030247861256294313 0.01655150064821359
-0.07730772096494082 -0.03031252835344146 0.01503974879854969
-0.07727278549004524 -0.030387723501722363 0.013417626852396114
-0.07734424208527241 -0.030452676196362365 0.011895334755659404
-0.07741126109695001 -0.030518380861958298 0.010361693169622821
-0.07745717996501528 -0.0305865107667149 0.008799537280763048
-0.07746360268701491 -0.030658929095691942 0.007189566040143092
-0.07753054019180361 -0.030725607798828384 0.00563447018366281
-0.07746297523912993 -0.030806166984015886 0.0039325506669209975
-0.07790793840346749 -0.030835316937421822 0.002757296816024102
-0.032985734795849264 -0.033612349749213545 0.021410061223537835
-0.034657089570231114 -0.033525762425080236 0.021265614207259254
-0.035851062747557394 -0.033484835359047734 0.020715897594794197
-0.036666217303371273 -0.03348034497992224 0.019840239400699233
-0.03840060248833721 -0.03338677999659053 0.019769548490096656
-0.04085353387485324 -0.03322303031881261 0.020339962935868983
-0.0424477206939623 -0.03314211549584339 0.02016645466325412
-0.04401675371840125 -0.033063291596832266 0.019978312314676783
-0.04558834893912572 -0.0329838634841664 0.019800007744185222
-0.04734743212652426 -0.03288571009555071 0.019797779461871057
-0.04908712691843492 -0.03278901795170114 0.019787480776899236
-0.05084414057882525 -0.03269018453487515 0.01980222769716028
-0.052547452670850925 -0.03259620036196984 0.019777511931595382
-0.05426982265564678 -0.03249990557128696 0.019779382362529352
-0.055983778781242166 -0.03240400638383179 0.0197828395919854
-0.05769538243094868 -0.0323079035550012 0.019793445211738092
-0.05939686365600372 -0.0322123690783398 0.0198039881098081
-0.061081550299909526 -0.032118072499536784 0.019808134666905564
-0.06288546050926241 -0.03201142148656743 0.01993378587061062
-0.06481187490281765 -0.03189200197103831 0.020185866445829703
-0.06655053696642199 -0.03179089216958316 0.020271052066957562
-0.06787246711058786 -0.03173127416300008 0.019967625452961824
-0.06924225179166721 -0.03166655045168876 0.01971610150028824
-0.07228412590439676 -0.03143238768025321 0.021086949742172567
-0.07416748378724708 -0.03131459611497074 0.021355609706132817
-0.07572095799755757 -0.031229779673611745 0.021313864349962297
-0.07677093756624437 -0.031195854324610472 0.02078636651800847
-0.07723054418858366 -0.031222048402927693 0.019679761310244848
-0.07765348285062701 -0.03125211824499986 0.01853416337598518
-0.07769623215538551 -0.031321330772710765 0.0170065232268099
-0.0777039165020123 -0.03139447562540976 0.015436773197623876
-0.0776896456332607 -0.03147022951205957 0.013837522966539673
-0.0777060109689739 -0.03154317761144933 0.012261625195748915
-0.07777215259872083 -0.03161131778851137 0.010728986447647637
-0.07783779030597626 -0.03167983503606688 0.009188903210965271
-0.07787203589418878 -0.03175194608138183 0.007609555670187451
-0.07789373750750733 -0.031825710828424905 0.006009874672196991
-0.0779338376418956 -0.0318979060539672 0.004421753916513893
-0.07808011049944696 -0.03195932129336485 0.0029370993396978795
-0.031201055765140984 -0.03491332187063815 0.021466026201372168
-0.032834675257503165 -0.03482781440021616 0.021280602124811143
-0.03401147970286428 -0.034787461907156 0.02070939972627689
-0.034859019294964655 -0.034779822687412254 0.019856708815368496
-0.0366216603694306 -0.03468053248618428 0.019801446070130013
-0.039133582829337155 -0.03450561810637121 0.02041107719612223
-0.040524265956921546 -0.03444267934101029 0.020050259698088047
-0.042127256717577555 -0.03435806134458399 0.01988301442025514
-0.04379488236704815 -0.03426653543797405 0.019781042735420196
-0.04555104359956963 -0.03416563540710441 0.01976666473837807
-0.04732577433648988 -0.034062397311264106 0.019778320438056607
-0.04903699750546986 -0.033965152296600645 0.019742204467293634
-0.050697615236574345 -0.033872625915216774 0.019669194201520135
-0.052362433561721156 -0.033779251394242135 0.01960864947708779
-0.05407931692476481 -0.033680122168514084 0.01960460256140706
-0.055895396752143445 -0.03357036225414042 0.019701329326014094
-0.057629213114402666 -0.03346856315244511 0.019732101700304705
-0.05936788808935639 -0.033365797946742125 0.01977698547832807
-0.06104858300411714 -0.03326855292741386 0.01977725175776579
-0.06276394764743431 -0.033167270914112604 0.019819362049462552
-0.06452542090983704 -0.03306073665755719 0.019914718062504666
-0.06648719899664007 -0.032932870971570605 0.02021078599667636
-0.06815178222481078 -0.03283540633821362 0.020234777468210285
-0.06945004300282959 -0.03277577953911525 0.019915878364921646
-0.0708113148040756 -0.032709274363394575 0.01966357971292315
-0.0741437643371678 -0.03243546533776136 0.021332567348398057
-0.07574762802242657 -0.03234232178250906 0.021339907652853207
-0.07697463018230633 -0.03228850208761753 0.020986305332488797
-0.07757277112531663 -0.032300931451130444 0.02001742477789159
-0.07799945696865512 -0.03233159299849792 0.018877294775483555
-0.0780515022695954 -0.03240220336877907 0.017360701100748277
-0.07808111085173775 -0.03247553655479187 0.01581475665786386
-0.07804974484556676 -0.03255572579076547 0.014200244762840819
-0.0780912692303361 -0.03262849591778786 0.01265169859470644
-0.0781314058560113 -0.032701760894738356 0.01109461242072779
-0.07818749382954343 -0.032773660081973764 0.009546651340994916
-0.07821933436732842 -0.03284851590291712 0.007966680788044966
-0.07832574469866982 -0.03291567459309893 0.0064564017571432375
-0.0783032942911353 -0.032997109618437936 0.004805601495615874
-0.0782672067997664 -0.03308041677604688 0.003132487487679081
-0.07884796046258957 -0.03309700767514984 0.0020986009540502337
-0.0293698789318656 -0.03622553356290833 0.02149165073415954
-0.031078863573647142 -0.03612977351781108 0.02136185727134643
-0.03234307137287151 -0.03607935180141339 0.02085929409930176
-0.03315078683854328 -0.036075776912910675 0.01996788405402411
-0.0348332136245057 -0.03598179367168907 0.019834359045864003
-0.0372425266105571 -0.03581211032518632 0.020342000978224473
-0.03872571387561763 -0.03573780359829995 0.020054096759579143
-0.04023913346819519 -0.03566002051810923 0.019799388596829726
-0.042038491565047964 -0.03555207702530241 0.019804504452655525
-0.043760934289252984 -0.0354516875706388 0.01975085892402506
-0.04545182586298002 -0.03535415195846882 0.019677985273008236
-0.047059335522132095 -0.03526492995058747 0.019538931321002095
-0.048647983651597504 -0.03517729000573142 0.019390851625778138
-0.05033919417685395 -0.03507843978312075 0.019343776046863992
-0.05203505966948957 -0.034978649967160776 0.019309863263901828
-0.05381328863932622 -0.034869683305262675 0.019360534466412782
-0.05552314876571879 -0.034767479000790816 0.01935802387477975
-0.05728848815111881 -0.03465890554820002 0.01941622620435185
-0.05922122625784687 -0.03453198355722529 0.019640309794410282
-0.06104012876380943 -0.03441664808095551 0.019769332044334842
-0.06272537946362039 -0.03431510192556863 0.01978304392724617
-0.06441152650077342 -0.0342129922471242 0.019806909179947152
-0.06626490436481125 -0.03409241265890132 0.019999272682450275
-0.06818360250244576 -0.033964229014327336 0.020265212095135487
-0.06959517109934571 -0.033890286401182884 0.02005540898284347
-0.07087094643752079 -0.03383071754483833 0.01972120956092105
-0.0740836587549007 -0.033560459019277816 0.021274177532284166
-0.07572723371420698 -0.033459794890719284 0.021319992592825243
-0.07711495004983732 -0.033386584262940104 0.02112403927937695
-0.07780153387366051 -0.03338973108710233 0.020243137059956784
-0.07824055108079725 -0.03342003896955386 0.019116407922390832
-0.07834290799245874 -0.03348749214248455 0.01765121092763522
-0.07837548737690442 -0.03356295116106539 0.01610974903427914
-0.07836912072264574 -0.03364306810940638 0.0145219466379643
-0.07840112749623807 -0.033719317432498536 0.012965429613862434
-0.07845605316882209 -0.033793386315846316 0.01142501858196776
-0.0784577075070676 -0.03387373306605981 0.009823081034515457
-0.0784656813455919 -0.033953759133715226 0.008219998036608889
-0.07847685604845783 -0.034033810731680963 0.00661259200560077
-0.07850868993191662 -0.03411193234446604 0.005018997626486055
-0.07849380299955516 -0.03419567618133263 0.0033691261157049457
-0.07906868452996946 -0.03421343878935698 0.0023302975455999353
-0.027291019696118246 -0.037570634389040666 0.02131778952328167
-0.029245704202983946 -0.037446194875120443 0.021386348814572964
-0.030663163448884145 -0.03737819670974679 0.021007472619767986
-0.031542961469877895 -0.03736705950376174 0.020173594221902902
-0.032773862426892786 -0.037318463569259996 0.01964315107425907
-0.03542673044847178 -0.03711780840027461 0.02034839196873578
-0.03691533515098089 -0.03704086384356298 0.02005713293798511
-0.03844009961451489 -0.036959698555053634 0.01980411768497292
-0.04021022101087801 -0.03685179591622263 0.019773950246960714
-0.04195985882560321 -0.03674561804923869 0.019734956283693317
