# .PCD v0.7 - Point Cloud Data file format
VERSION 0.7
FIELDS x y z
SIZE 4 4 4
TYPE F F F
COUNT 1 1 1
WIDTH 776
HEIGHT 1
VIEWPOINT 0 0 0 1 0 0 0
POINTS 776
DATA ascii
0.06356324972188857 -0.010840367558393182 0.046221129272483896
0.06325254037578222 -0.00811787842679973 0.046616141488713625
0.06299272127128222 -0.005717274202025446 0.0467986492912128
0.06277231838338629 -0.0035659670338836214 0.04681654888394082
0.06256803113852578 -0.0015192619067024293 0.04677033488308585
0.06238252913691534 0.00040707688920760265 0.04664752359948965
0.06221479551169958 0.0022199836442329257 0.0464517623181141
0.062066973030159796 0.003907041832901081 0.046172748790396234
0.06193086556374775 0.005518964278664218 0.0458460526394015
0.061807009464627125 0.007052931333035417 0.045468751534124385
0.061692870005180284 0.008524792913660761 0.045051647261815375
0.06159038515579797 0.009923176685205759 0.04458559208168983
0.061494009774339005 0.01128204448994824 0.04409506585740958
0.06140690329153033 0.012582567946948953 0.043565498823855464
0.061336753964476375 0.013778814719388854 0.04296157323670702
0.061267101641308636 0.014970307549666384 0.042357491435463024
0.06120920677695713 0.01608956187648697 0.04170177704021161
0.06116501786934093 0.017125366106123918 0.040984967429450014
0.06112894121632694 0.018111630189482086 0.04023217312508082
0.06110379663213027 0.019031863462459664 0.03943001653782724
0.06108553785710452 0.0199105315087022 0.03859673730467883
0.06107917493638358 0.020718176559172352 0.03770875576935606
0.061085872654705164 0.02144835392473604 0.036760108498809896
0.061105974752419065 0.02209952713829172 0.03574860011872011
0.061136991454828794 0.02268687751013282 0.03468530266793041
0.061194581539373315 0.02311872385782443 0.033496055638705724
0.06126440573442708 0.02348022369281222 0.03224733787877182
0.06136496259941609 0.023663510430891932 0.03085101359710568
0.061501646571047945 0.02363822380542341 0.029280076051341697
0.06169167316328541 0.02330534823278818 0.027450870419420736
0.06201169751583203 0.022220899912402725 0.02499460231545031
0.0636232965604359 -0.022368829683566516 0.04435159355745655
0.06292614846164624 -0.01711782342389706 0.04642317881718233
0.06251414325179437 -0.013694265705700093 0.04726575901546859
0.06218723494119227 -0.010820234294663944 0.04774650553868548
0.061911591756778996 -0.008278619835412004 0.048010897918132345
0.06167231364663719 -0.005973463729826545 0.04812260224785486
0.06145959394014606 -0.00384163439160512 0.048123550858340525
0.06126465454190988 -0.001826965770759137 0.04805168791645492
0.06109092965496751 4.969922730224674e-05 0.047890821336712075
0.06093059067358541 0.0018381548155779193 0.04767514448943
0.06078512604874739 0.003529624585363489 0.04739733275009084
0.060653823692888194 0.00512911873474281 0.04705992318436414
0.06053029843526175 0.00667688305391867 0.046691242438757385
0.060418636019315214 0.0081478670324161 0.04627232828303385
0.06031371195840989 0.009574257757487936 0.04582604875921614
0.06021529225492325 0.010957760956648521 0.04535316685243901
0.060129934635875605 0.012258192248493172 0.04482322103671599
0.060052246372574544 0.013509237878544189 0.04426049767012957
0.059984968929084524 0.014694360130259432 0.04365195075476008
0.05992178653705408 0.01585266024677423 0.04302644173953463
0.05986923611782375 0.016944325363000057 0.04235331492754735
0.05982775362840052 0.017967105416947682 0.04163004304444046
0.05979434712439882 0.018939644947994383 0.04087015400062999
0.0597691531747874 0.019861425623917406 0.04007263380057785
0.059753458571346084 0.020724962105989897 0.039231028596885764
0.059747084955360685 0.021531699888883093 0.038345746737023234
0.05975084348970307 0.022277101071748684 0.03741250454517958
0.059764083992412675 0.022965473530005942 0.03643393643776144
0.05979320110802375 0.023558739788751226 0.035379018475837576
0.05983660225325775 0.024067065944171295 0.034254663285674614
0.05990059038405494 0.024453272993039288 0.0330298716620222
0.05997574571854187 0.024774421238143662 0.03174918888534417
0.06008032222331583 0.024922141289210664 0.03032366704733891
0.060226247658041195 0.02482662752502135 0.02869398494564579
0.06042648944666923 0.024412517650487298 0.026795021704159705
0.06076517314003365 0.023183733034199405 0.02421285275877999
0.06199064838429891 -0.020840206726623012 0.046921118225204395
0.061534510580056434 -0.017061303018451046 0.04797873027132493
0.061171783222808244 -0.013900474654962858 0.048634095548702405
0.06087832913667746 -0.01119774439660115 0.04899083591617687
0.060621474907683784 -0.00873923680628752 0.04919241186249135
0.06039095970862938 -0.006457336377609646 0.049283340185795055
0.06019009991874329 -0.004372351373973071 0.04924739074062767
0.06000570495874736 -0.0023983908056656733 0.04914301936710991
0.05983230057516061 -0.000499717047611592 0.04899437655561256
0.05967619300321893 0.001283762531877286 0.048772137776297575
0.05953596055582953 0.0029618042729399052 0.04848200878168896
0.05940676921660902 0.004565828469374422 0.04814547962293353
0.05928536014969243 0.0061169875956922914 0.04777707279602217
0.05917245917687244 0.007610983047035613 0.047373062113400366
0.059064549754168874 0.00907041372444839 0.04694938820981048
0.05896498996587457 0.010474259293287325 0.04649016109449117
0.058879364543401806 0.011787636615266495 0.04596886501413189
0.058803999942175535 0.013034207576649859 0.0454020879048177
0.05872979468147948 0.014271522033673656 0.044832207836747406
0.05866525966562424 0.015446299299252675 0.04421895912342877
0.0586093690462681 0.016565334084279904 0.043566751068300436
0.05856319520172471 0.01762227557532392 0.04287007806715415
0.058525252498055645 0.018626756159242364 0.042135573221237954
0.058491353818219 0.019605115051170685 0.041382895117332674
0.05846595555174094 0.020529881539171013 0.0405904507204935
0.05844919517917083 0.0214005395675122 0.03975717890795338
0.058440738799187 0.022219490520814456 0.03888428867456478
0.058446961071098556 0.02294778882666748 0.037940475053410305
0.058461484943744244 0.02362521560402292 0.03695607640582482
0.05848128736143705 0.024270642385367636 0.03594545896775153
0.05852061259828303 0.024797082763312772 0.03483862593727294
0.05857216710609982 0.025249855704597035 0.03367048966287872
0.05863890634086827 0.02561142865271332 0.03242591233939096
0.058729310398487465 0.025830823312811224 0.031062260003281772
0.05885330360572795 0.02584874150534 0.02952920618679733
0.05900122728178768 0.02572499572427933 0.02787322571992401
0.05923385256636708 0.025093309729923408 0.025789920789893894
0.05960093132547182 0.02365703702162969 0.023026256734749173
0.06121689556523262 -0.02574762962707411 0.04665416905614761
0.06060024509782269 -0.02081848614934184 0.04845454131000748
0.06020222138469568 -0.01735986098596537 0.04928642800789523
0.05987872403862272 -0.014406544278692923 0.04979297892097828
0.059599306948616815 -0.01175387201560052 0.050109210654286196
0.05936093770983508 -0.00938002777141117 0.05024686405418566
0.059142808807955013 -0.007146094250732371 0.050299349734381105
0.058943832860248395 -0.005044099357043086 0.05027070024839936
0.058765451145922194 -0.0030827432270671418 0.05015334616669054
0.05860189787253869 -0.0012233929140272326 0.049973006335135184
0.05844951351581844 0.0005584933460348052 0.04974597866181485
0.05830926591268289 0.0022570441890911175 0.04946721487730216
0.05817921073640853 0.0038854177981911264 0.049145232337158895
0.05805825180867493 0.0054511524344195705 0.04878469008845754
0.0579445182120914 0.0069667556358753435 0.04839396725880857
0.057840480333914375 0.008416518141048934 0.04796103951342062
0.057746036188440146 0.00980148861501745 0.04748592639338545
0.0576585571801864 0.011139006250286243 0.04698067878188655
0.05757782335694337 0.012430766555841022 0.04644601352711658
0.05750125652715522 0.013693600142474838 0.04589396030023263
0.05743590205830038 0.014882516629538545 0.0452904514346823
0.057377916338744714 0.01602255089645399 0.0446534882784792
0.05732302442072575 0.01714128506474072 0.044003404810782853
0.057276214148357915 0.018207073864679346 0.0433158367700745
0.057240570687194015 0.01920063263937427 0.04257536941421919
0.05721168203080464 0.02015039366213711 0.04180302935337138
0.05718734450828349 0.021070575826466653 0.04100929757970595
0.057171286827335153 0.021937812080136065 0.04017561517442919
0.057164585766398324 0.02274564872715229 0.03929627200171604
0.057167702251130194 0.023491562878037997 0.038368538142994124
0.05718048358760167 0.024176907199430497 0.03739270194799349
0.05720325480317744 0.02480003456095864 0.03636668116972108
0.05723447772778528 0.02537095812990431 0.035297686310705734
0.0572790293596838 0.025859607005381202 0.034160856412161156
0.057340420845435676 0.026244669980536428 0.03293789021214938
0.05742064691442846 0.0265144389052403 0.031617914970475114
0.05752396741062584 0.026643279393118224 0.03017846346405484
0.0576585559081165 0.026581590881007366 0.028576920810295225
0.057830589984525296 0.02629252298474366 0.026780318793694025
0.058100391672298926 0.025406289798077686 0.024478596156515375
0.058609920865136424 0.02305493778862039 0.020939337571763084
0.05977299731329936 -0.02541570778077229 0.048400923242559846
0.059299185905866095 -0.021367089587462085 0.04959838778316994
0.05892635653626583 -0.018018694450028128 0.050346804771309706
0.0586203714267035 -0.015134511336319156 0.05079881837916267
0.0583639576365336 -0.012594714060481682 0.051031174519915956
0.05812902312116426 -0.010207232647918008 0.051172039468442065
0.05791899730714594 -0.007994338193800132 0.05120436485888835
0.05772508433057582 -0.005895747346981117 0.05116810837799901
0.057551653347688976 -0.003940176073607471 0.05104195784282822
0.057390967963223585 -0.002074872334901612 0.05086137994144302
0.057243621460609156 -0.00030328604649398905 0.05062294514223459
0.0571049686371803 0.0014061726066296187 0.05034804941923321
0.05697346607721211 0.0030641534059024367 0.05004361857580736
0.05684964924797471 0.004667385993908757 0.049706743968742084
0.05673577320037925 0.006201208382809631 0.04932623605459846
0.05663297125490445 0.007658516780719937 0.04889615563435573
0.05653863476707746 0.009057019973421288 0.04842855559978804
0.0564515946937307 0.010404781735062985 0.04792868514306864
0.056370082919932604 0.011713747957219578 0.04740478148259342
0.05629575035702635 0.012973293528196095 0.04684852308150417
0.05622423046126677 0.014212355877851413 0.04628092498600772
0.05616195304834217 0.015388961185647532 0.045670282917951055
0.05610671104893889 0.016517905831170854 0.045027016384136864
0.056051424619452395 0.017645629086106562 0.04438577018117251
0.056012590262853275 0.018664820756826794 0.04366475138663434
0.05597915026250313 0.019647934146687307 0.04291816358132955
0.05595230501862452 0.020587414911598323 0.04213975189056335
0.05593035986032231 0.02149448778920049 0.041337679454021614
0.05591726190709306 0.022343894071189196 0.04049187822300854
0.055907975198297245 0.02316841088447441 0.039627295953063024
0.05591025845063706 0.023918361461786386 0.0387045172677995
0.05592274380903149 0.024602987338709414 0.03772991477416987
0.055941634734881944 0.02524698788136326 0.03672230914686797
0.05597335145861909 0.025809653087894124 0.03564861178009604
0.05601472870262102 0.026311666159860136 0.03452440592961287
0.056070248801991 0.02672494056380631 0.033326190712352766
0.056139995755909056 0.02704952394417326 0.03205284166831257
0.05623285144292124 0.027229803265403973 0.030657741942537675
0.05634981780308492 0.027260400958212805 0.029134565025217607
0.05650705030146664 0.02704053051913613 0.02739807814944123
0.056716967088311136 0.026493782350556494 0.025381500747157226
0.05704753803733006 0.025195982512452697 0.022726406641218666
0.05926125986049289 -0.0323781842113931 0.046828066141180236
0.05848165517109625 -0.02609623344821127 0.049466178388503146
0.058038674410266756 -0.022186275904165664 0.05055941971701944
0.057694292548423294 -0.018975708054282447 0.05120566687967376
0.05739918275643077 -0.01611739024648262 0.05163181770233016
0.05714653464457058 -0.013561994389833743 0.05186753112548215
0.056918014838433575 -0.011180767170013928 0.051997458682675524
0.05671099144531873 -0.008954505922061484 0.05203289566377117
0.05652581071264047 -0.006884697861159916 0.051971117780007736
0.05635684436102268 -0.004931682929253722 0.05183795393389051
0.056198626448982325 -0.0030572309041406176 0.0516588287737923
0.05604848359872306 -0.0012425627059270972 0.051446081162388746
0.055909715145072356 0.0004900862681099794 0.0511833620711587
0.055776430302208406 0.0021814150373035135 0.05089867136354759
0.05565518201646807 0.003787001631412046 0.05055984660059987
0.05554566403849927 0.005309433140489372 0.0501677818386031
0.05544315223689421 0.006781259565916409 0.04974503733444774
0.05534650453972418 0.00821050882670471 0.0492968777643667
0.055255205889720126 0.009600907568247552 0.048825550884077085
0.055172688403974435 0.010929533339495423 0.04831380203314162
0.055096458015891116 0.012213539744697965 0.04777357854392178
0.05502902496069242 0.013436331113869715 0.04719205818269018
0.05496310953687032 0.014647066413998933 0.04660519635500271
0.054897651740434955 0.015852898835404083 0.046018234390142465
0.05484895997734397 0.016945000781363018 0.04534907227130247
0.05480513645126064 0.018003318004136293 0.04465694989451657
0.05476779968403233 0.01901729735835983 0.04393342442116449
0.05473558164925798 0.019996284009758225 0.04318512514316131
0.05470801761050019 0.02094356834251543 0.04241416622041966
0.05468717676921415 0.021845679608609503 0.0416097289450344
0.054674233648787214 0.02269515903279984 0.040765448916715796
0.054667987405703264 0.02350023499298798 0.03988711517526905
0.05467066410214345 0.024246579727019046 0.038962893227101114
0.05468077860774715 0.024944292686410907 0.03800003425919102
0.054700423395022076 0.025580012328702106 0.03698728719827621
0.05472768159913163 0.02616663721303536 0.03593417427889084
0.05476406817951807 0.026694629278843973 0.03483238788603882
0.054818290328346106 0.027107838727238653 0.03363576527654766
0.05488116084737936 0.02746653382677766 0.03239179478403398
0.054968520202766526 0.02766867373413051 0.031016365338681906
0.05507743206636377 0.027734226405006945 0.029523813867647963
0.055214825015739794 0.027619498004817722 0.02787623188315469
0.05539867826148475 0.027210206521886326 0.02597632110136122
0.05566026659738534 0.02630786647229777 0.02365446456608028
0.0561551287476947 0.02392109721308755 0.020072177244259914
0.05785679431384196 -0.03237216143110139 0.04836320188045168
0.057215809089479534 -0.026952802965403033 0.050414060833885666
0.05680879035818001 -0.02322488052459426 0.05137467238343596
0.05648044084354203 -0.020070035772744854 0.05197387808520887
0.056199525941362405 -0.01726242723087401 0.05235718555796465
0.055948921833467405 -0.014678301404103977 0.05260443839130896
0.055727855981136616 -0.012310879018158971 0.05271781319767488
0.05552593116857398 -0.01008528504998174 0.052746105646200914
0.05534181606786624 -0.007991292865104194 0.05269480215253325
0.0551720746752231 -0.0060039115360993045 0.052579734359968766
0.055017223746460904 -0.004126161449623689 0.05239764163201954
0.054869364056907094 -0.0023019316552779223 0.05218651970657223
0.054728389994332285 -0.000530182400653223 0.051946531509849014
0.05459874990049834 0.0011582696707756468 0.05165534892118523
0.05448013700483026 0.0027660514192849317 0.05131391390291057
0.05437075769631623 0.004306128665232889 0.05093058547643514
0.05426556085811165 0.005814008157076278 0.050530104453635316
0.05416748506801025 0.007269484606435894 0.05009753946641521
0.05407719904595538 0.008668233899796096 0.04962916619982183
0.05399299562660741 0.010022383452508998 0.049133195238119765
0.05391437588588132 0.011335633507917164 0.04861184026998022
0.05384379886972844 0.012591305772051642 0.048052332644325124
0.05377811310456609 0.013811381161585368 0.04747031391577183
0.053717136716345114 0.014997315326843785 0.046866463776723266
0.05366054531326517 0.016151527902673768 0.046242205082166254
0.05361298948174743 0.017242477743645457 0.04557338823919199
0.05357033422000609 0.018298704410458833 0.04488089534495876
0.05353488856195816 0.019304730273851656 0.04415251833664563
0.053503420658278095 0.02028277537906975 0.04340468081519766
0.05347824385325648 0.021217359355488963 0.04262512076241931
0.05345963115757374 0.022106908650319224 0.04181208911150003
0.05344713300690865 0.022954733215734935 0.04096760940647143
0.05344103135023592 0.02375919964404205 0.04008988525248092
0.05344422718617911 0.024501121217700927 0.03916327027734984
0.053452945154512224 0.02520616874846826 0.03820729099861908
0.05347053510924814 0.025852202684957304 0.03720386131401748
0.0534965778837763 0.026442397154410713 0.03615476309248994
0.053536491449178054 0.02694107846924515 0.03503058429566375
0.05358814689532841 0.027362970385900076 0.03384204018277892
0.0536485377208077 0.02772848697023489 0.03260471503111939
0.053726236566262874 0.02798135172034877 0.03127187045924529
0.053826255902861796 0.028089253865045904 0.029815469874981848
0.05395565456022624 0.028006704478713007 0.02819601536374583
0.05411768458240634 0.027713611316722453 0.026394279412650934
0.05434956367115097 0.026967552368800163 0.02420508566130386
0.054710569634027706 0.025384027218615157 0.02129972122631435
0.05655927079687291 -0.03311165352730949 0.049404937663960036
0.055991273869855376 -0.028114662750925168 0.05116157220358808
0.055603729371941676 -0.024456670070082898 0.052063920838079425
0.055283763808704416 -0.0213042493631167 0.052651252867764675
0.05500992790382072 -0.018497879679168494 0.05302468009408001
0.05476608114106204 -0.01591796477816898 0.053260816551563506
0.0545492959059082 -0.01354190709555575 0.053372480366491726
0.05435157889715661 -0.011310527483067323 0.05339767135737844
0.05416795529810528 -0.009186969547815893 0.05336000994902085
0.0539995193914301 -0.007178522913509844 0.053253326262816536
0.05384298344053641 -0.005260812803812853 0.05309320988303018
0.05369799979682986 -0.003430815735572801 0.052880777662416834
0.05356095685479859 -0.001662086235076965 0.05263354866302972
0.05343664036629549 1.1421522844945464e-05 0.05232701070375595
0.053314673875177916 0.0016644876276797338 0.05201292773855093
0.0532034206848167 0.0032375149071676157 0.05164877452800615
0.05309849668821367 0.0047622041182697195 0.05125629555200645
0.05300012203410044 0.006237267580671557 0.050834036400764726
0.05290924558276321 0.007656260619105071 0.05037679465690342
0.05282492117116595 0.009026210603745477 0.04988904168713576
0.05274419327740461 0.010368286345535493 0.049385677246668036
0.05266760733746668 0.011678799764236969 0.04886369111543443
0.0526010287171254 0.012916663169956044 0.048292414351491286
0.05254093579019531 0.01410704216440084 0.04768966964093502
0.0524867114780676 0.01525454478044913 0.0470583435538543
0.05243460114828846 0.01638568158227327 0.04641781948953294
0.05238430705751679 0.01750262276704989 0.04576955363353935
0.05234422670090597 0.018546975823968692 0.04506912085576775
0.05231374397184865 0.019523469359436163 0.04431925083513438
0.05228642517504719 0.020477134115067352 0.0435536297008664
0.05226268669590135 0.021405227694238305 0.042769872358835836
0.05224507444311584 0.022290328511077262 0.041954174691081036
0.05223414375128035 0.0231288788017171 0.04110323677680883
0.052229176732397124 0.023926107154033593 0.0402205743485195
0.05223229864540806 0.024667693999518736 0.03929439770083448
0.052239253416185384 0.02538313166010281 0.038347344895620195
0.052256293423785634 0.026029874596442015 0.03734522982332528
0.05228244307096789 0.026615015409317322 0.03629284574662056
0.052319295945514835 0.027128113207104898 0.035180999147530534
0.05236575612294665 0.027577075919853256 0.03401514532621286
0.05242759325471938 0.027923246015611025 0.032763018723086346
0.05250290856131169 0.028180130347524368 0.031434302638756406
0.0525993003745052 0.028297077149725736 0.029986197294330885
0.052718445688090254 0.028263725132794182 0.02840828188331246
0.05286951981126019 0.028019462121426697 0.026648216014608206
0.05307240173438733 0.02743249654242802 0.02459316139320733
0.05337299202320212 0.026198231868454547 0.021982920061226263
0.055344337878454504 -0.0344697732166625 0.05004395924468347
0.05480334259499659 -0.029569528303846848 0.05172010254677145
0.05442107325472488 -0.025878066307299386 0.05263164318357477
0.054107448668474716 -0.022712778503338193 0.053216574611597456
0.05383935241201291 -0.019897589224027845 0.05358621370470695
0.053597895858608885 -0.017289381555415317 0.05383241940649347
0.05338270225370993 -0.014884152556077335 0.05395565543365621
0.053184431877134765 -0.012611247278621673 0.054001474909428304
0.05300063395022946 -0.010451712348699238 0.05398133866468313
0.05283592711378438 -0.008439118227288545 0.05387108779778238
0.05268095497762174 -0.006503427179655297 0.053717242594013004
0.05253790604921664 -0.004660351858446321 0.053508123803587715
0.05240060065301366 -0.002863849506425875 0.05327471382560861
0.052273172448658166 -0.0011440416465920977 0.05299548130082821
0.05215070504618545 0.0005355727140969879 0.05269522927690823
0.052041060472419916 0.002117671482810002 0.05233304469338218
0.051934890726744766 0.0036711108244803503 0.051956739421161746
0.05183773374751204 0.005155678284586129 0.05153729840852522
0.05174721025342575 0.006589086028304991 0.05108666839241505
0.051662542349865094 0.007977278671702281 0.05060857211836067
0.05158183298056832 0.00933426215228439 0.05011267369773936
0.05150716446695776 0.010645159615569832 0.049587773054427575
0.051437922124544636 0.011914676709389449 0.04903680200606536
0.0513732201898966 0.013149434018351835 0.04846417632810529
0.05131596843977474 0.014328729091514447 0.04785414281086592
0.05126583783199221 0.01545525520953911 0.04720806309894021
0.051217201309117215 0.016569592588580706 0.04655575209150409
0.05117311698081992 0.017649973568889255 0.04588066526123069
0.05113453580330719 0.018689826759070827 0.04517742248480311
0.05110407413616685 0.019670796570643745 0.0444315501052816
0.05107600922711559 0.020633850489467864 0.043673730977491276
0.051053801450950474 0.021554596105352875 0.04288495997378389
0.051037851518722054 0.022430464989643573 0.04206273096281887
0.05102787052257885 0.023263774645916835 0.041208295838036146
0.0510241286158778 0.024052892149642346 0.040319847411300014
0.05102648446419453 0.024799089511215067 0.03939783331367608
0.0510357715828021 0.025496801092915078 0.03843730641398707
0.05105421728839032 0.026130767816506473 0.037425507737460006
0.051080035937186734 0.026713856140275216 0.03637191152443714
0.05111575311412297 0.027228817275530393 0.03526198621397747
0.05116308225414478 0.027664194309996892 0.03408558092783642
0.05122180847424516 0.028021997266214738 0.032843285576142967
0.051296211444564845 0.028273140365931593 0.03151030592556875
0.051386567919168104 0.028416416833046354 0.030084235220039335
0.05149982098006991 0.02840473346235939 0.02852473694981994
0.05164436262839155 0.0281814569013219 0.02678271432499607
0.05182900844958803 0.027687551538139454 0.024806048613147447
0.052102974672197024 0.02658813006699534 0.022310083548474302
0.05264065515910069 0.02369678519899787 0.018285876180082317
0.05416128798045771 -0.036102102413062 0.05050963098328376
0.053636648345046646 -0.031221328336788756 0.05215529298365151
0.05325249488443703 -0.027439457160861103 0.05311233621926692
0.05294581158119567 -0.024265286052267743 0.05369169203631147
0.05267860766952399 -0.02140359439580758 0.054081901367767915
0.05243925077103269 -0.018763443188108797 0.05434004337311216
0.052224789921035915 -0.01632098898233275 0.05447967632217693
0.05202844522974134 -0.014023349257791973 0.05453421273932069
0.051848802811676226 -0.011858924077585375 0.05450993911099805
0.05168422216841385 -0.009814477641764963 0.054414415664210125
0.05152965297351055 -0.007851009670284348 0.05427299825707238
0.05138319853386288 -0.00595370235706244 0.05409500580471488
0.0512478770127808 -0.00414498471848701 0.05386423856572137
0.05111597159271919 -0.0023661647659515284 0.053620512238428786
0.050998913093568916 -0.0007030932210275731 0.053303550598300276
0.05088648141828759 0.0009216530424538405 0.05296645246633841
0.050783396890662205 0.002472914367296797 0.05258397878200133
0.05068576869226709 0.003980216496676792 0.05217628416499809
0.05059269940578451 0.005450507341952293 0.0517478530567721
0.05050692104338664 0.0068636491215701145 0.05128382527076919
0.05042669828663464 0.00823287408894613 0.05079311395773012
0.0503514269625708 0.009562918501871798 0.050278668270575644
0.050282441668541664 0.010844131346355035 0.049733006859703444
0.05021666823039055 0.012099508443237483 0.04917245065940151
0.05015545302128322 0.013319272958117467 0.0485895007707276
0.050103003781530264 0.014472682740216736 0.04796094441273274
0.050054350276321234 0.015596624414107474 0.047313517198634025
0.05000960700760742 0.016690433502195234 0.04664638237454238
0.04996916146994967 0.0177514569824474 0.04595719006269322
0.04993204191530902 0.01878698070589835 0.045251079225634594
0.04990026901077836 0.019782448316159884 0.044516655987946185
0.04987572024035984 0.020724467240460398 0.043743176131346095
0.049855394239969576 0.021635125155847368 0.0429470072419203
0.0498413112493848 0.022500002746939973 0.04211659820298913
0.04983291937955745 0.02332337023753167 0.04125470989197505
0.049828047951074005 0.024121123870390504 0.04037327310743277
0.0498333252430725 0.024845784631069512 0.03943459214349332
0.04984334169657992 0.025536616809001766 0.03846881786124351
0.04986148990138915 0.02616955765378648 0.03745637177720135
0.04988792325303332 0.02674388503626357 0.036395932631022476
0.04992416212729978 0.027249144752731325 0.035278333810346396
0.04996956885798084 0.027690321427457698 0.034106704876089855
0.050028012013162274 0.02804038595424929 0.032858232312643176
0.05009753124126041 0.02831381685970452 0.03154354483610494
0.050187413225990296 0.028445511814002622 0.03010813690341657
0.05029787645671026 0.028434865445320645 0.02854962222912366
0.05043515099934333 0.02823899768597382 0.02683048837932267
0.05061279164414589 0.02776399663023371 0.024869855239589067
0.05085954123299715 0.02681040562672432 0.022496594956783356
0.05130203230293087 0.02449642290760623 0.018960408248956506
0.05302102801741532 -0.03811683691234802 0.05073537896523039
0.05248323002395164 -0.033022362432281405 0.05250009704927355
0.052099485049301425 -0.029163542637173967 0.05349275525248581
0.05179473876027461 -0.025940515600121117 0.05409205793674804
0.051528345738731426 -0.023029273640643833 0.054504098786335275
0.05129051292276427 -0.02035099558776232 0.05477763386633511
0.051076992838190824 -0.017871000598640774 0.05493322070403167
0.050882002848355916 -0.015542849081436771 0.054999771642786355
0.05070212555379158 -0.013338954183873819 0.054994203753980064
0.05053876752683894 -0.0112695788542444 0.05490825323948201
0.05038453526894151 -0.009276379717087224 0.05478011740527333
0.05023673543858365 -0.007337999193047284 0.054623587071778223
0.05010240899548129 -0.005508735496109307 0.05440078082295724
0.04997102926465738 -0.0037064884273989573 0.05416723616853658
0.04985309773440748 -0.002012226335928513 0.05386643369822769
0.04974331760454926 -0.00038449057276090937 0.05352614285025814
0.0496385586461318 0.0012011800336037548 0.05316282147141227
0.049541089590879016 0.002727606082379097 0.05276388623030326
0.04944782413440735 0.004218773584987956 0.0523457212372096
0.049363205526315235 0.005640911663100323 0.051883831928913327
0.049282400954895576 0.0070312980222312915 0.051404209775377574
0.04920456345944371 0.008396560495647576 0.05091129681815265
0.049130205177767575 0.009732947434749728 0.05040210190615413
0.049066955342598806 0.010982775526422017 0.04983420629325336
0.0490076219896769 0.012200985943667142 0.04924692538501885
0.04894976951752497 0.013406153925377973 0.04865361042188304
0.048896190594171586 0.01457730568912391 0.048038565936555755
0.04884912207892891 0.015697822023268193 0.0473890053922178
0.0488079947695342 0.016772280362888747 0.04670776727282433
0.048769193715473294 0.017828029650660382 0.04601493063307238
0.048734696708888255 0.01885040018196371 0.04529916038672216
0.04870528016499647 0.019833804774398 0.04455580218722749
0.04868343949646696 0.02075991357111112 0.04377034086906445
0.048664923365507116 0.02166065119489896 0.04296667499382778
0.0486526311267296 0.022514690309282104 0.04212797594777923
0.04864364716563525 0.023343882116361292 0.041270684942836755
0.04864259039125038 0.02411430175167867 0.040367931451940176
0.04864827068948738 0.02483508461406425 0.03942616909160873
0.04865897444626925 0.025519137681523307 0.03845498443180989
0.04867814730997803 0.02614143568357935 0.037433996017444016
0.04870554444879478 0.026704168078863555 0.03636416191679909
0.048741856744168775 0.027202678193117558 0.03524096513093594
0.04878752265251997 0.027634191442681366 0.03406132367482756
0.04884419278680935 0.027987149911058218 0.032814961196969916
0.04891488195186334 0.02824020464927396 0.03148339265213157
0.04900172202021689 0.028378585874061668 0.03005315716696938
0.049109865199748345 0.028365845572018544 0.028492620661961676
0.04924135161274764 0.028188284552433718 0.02678838324338345
0.04941290407505829 0.02772675810204528 0.024838773389932955
0.049648599719262936 0.026810405520860503 0.02249659495678341
0.0500444585297714 0.024754838724689476 0.019178394222477857
0.05190820706647619 -0.040419494718492155 0.05078569479207029
0.05135194940101966 -0.035056610679951805 0.05270213061927159
0.05096379811503169 -0.031077530231051587 0.05375706114518841
0.05065418756340992 -0.02774783478385784 0.054412897657594606
0.05038504049552378 -0.024755570152140804 0.05486654897886856
0.05014865218118773 -0.022036553317362095 0.055156594425593175
0.04993629294526928 -0.019518834340130686 0.05532766454775062
0.04974072653788355 -0.017143039045260766 0.05541707289577352
0.049563969508224066 -0.014924548635712576 0.05541303303652462
0.04939879475340242 -0.012804546434852904 0.055353386312193054
0.04924428971192333 -0.010775176493241667 0.055242399414849375
0.04909764383690481 -0.00881349419387889 0.05509470335587047
0.04896188023065291 -0.006943198664130901 0.054893391811051684
0.04883204972769994 -0.005124426346263977 0.054664872718343305
0.04871268003445938 -0.0033928073777848566 0.05438398740942646
0.04860443394273112 -0.0017530844184497352 0.05404648921128313
0.04849989792317737 -0.00014615143337609604 0.05369265889139091
0.04839942935373928 0.0014253527539267452 0.05332030385965997
0.048306184829860994 0.0029367873451836557 0.05291164631973738
0.048221546865194004 0.00437764485620501 0.05245856084804035
0.048141315596577645 0.005781250798253368 0.05198405634059172
0.048064258820911816 0.007157453494003874 0.05149479889964603
0.047990874485101524 0.008502520018600468 0.0509878004456058
0.047925203899800255 0.009785154081780267 0.05044000172174462
0.047864169427964176 0.011029646437566543 0.04986841845175349
0.04780564394792837 0.012252718041037447 0.04928489180667667
0.047749348707769916 0.01345664730272933 0.04869086962502478
0.0476972210343852 0.0146265785553365 0.048075122344855836
0.04765365159265912 0.015728871423969892 0.04741216669651399
0.047614571951701684 0.016795230767126745 0.04672498006283232
0.047578923944060714 0.01783399490818266 0.046019428881810986
0.04754695101681482 0.018843464637454843 0.045293902325468594
0.04751786325281302 0.01982985468160825 0.04455279133432544
0.047497200245592286 0.020751052509236645 0.043763550183191
0.04748377890260112 0.02161646894841901 0.042932632897169254
0.047470107260964074 0.022483355071654387 0.042103702305246016
0.04746430560586717 0.023290155193522066 0.04122884166096791
0.04746366100865704 0.024057766401062775 0.040323664206522336
0.047469978130913866 0.024772817786442025 0.03937715226013816
0.047482746493255804 0.025439489279329264 0.038391948353096284
0.047503913286339745 0.02604345929785773 0.03735603910971663
0.04753039834635357 0.026608229788902038 0.036287418055692855
0.04756713870331099 0.027097115422717477 0.035156070826416586
0.04761405216213762 0.027511224307270155 0.03396190440790314
0.047670418607565816 0.02785641205317807 0.032708695231477014
0.04774178192997109 0.028091919046136893 0.03136222105318914
0.04782618219839476 0.028233007627537887 0.029933564369621357
0.04793282617584356 0.028212155710328424 0.02836569243286874
0.048061084785137854 0.028035082107054188 0.026661185054882686
0.048229928821224996 0.027563012342582405 0.02470209956184871
0.04845565435922244 0.026678061307414902 0.022385545077352687
0.04883313882954272 0.024686765154207424 0.01912097105735233
0.05084867618640614 -0.04325029388315449 0.050510986025786575
0.05024102076774026 -0.03732816678087203 0.0527612638086804
0.049839693915964184 -0.03314895284507857 0.05392814758608405
0.04952635741058669 -0.029716253905126166 0.05463686738570317
0.04925292842489563 -0.02662580349488325 0.05514216435411046
0.049016460033750014 -0.023851166707824945 0.05545767525146894
0.04880362847166376 -0.02128013844089327 0.05565377113644204
0.048606221270292536 -0.018843651073279344 0.055773938060878214
0.048428566346657806 -0.01657665288690202 0.0557935312325466
0.04826245550035991 -0.014410574189840097 0.055756564736612835
0.04810902306450395 -0.012354166514914444 0.055656092659765344
0.04796439266335184 -0.010375009505634358 0.05551285579966048
0.04782948852437524 -0.008480233090967126 0.05532119406468672
0.04770028127904724 -0.006636440880881278 0.05510302858724864
0.04757987322264422 -0.0048686423737497875 0.05484064392630644
0.04746959112550842 -0.0031871970004906935 0.05452606265560073
0.04736613827329174 -0.0015648365868495828 0.054177286518966916
0.047265364088125664 3.240852530628224e-05 0.05381741012575375
0.04717206864576801 0.001565855052822307 0.05341900741180422
0.04708356380803336 0.003057566061231698 0.05299696122905845
0.04700187206865725 0.004491490230029926 0.05253942047069038
0.046926148865242635 0.005874752213546552 0.05205083121306642
0.046854018749299155 0.007226699544407522 0.05154452280988375
0.046786862819476714 0.008536455467092752 0.0510123021637095
0.046723486176600465 0.009813810298632708 0.050460804956316385
0.04666309216315479 0.011065301151720164 0.049894443667774846
0.04660604074887718 0.012288212077074756 0.04931094106528805
0.04655472457825818 0.013463715185195402 0.04869608510131723
0.046508090691514556 0.014600435251366617 0.048055726285028966
0.04646433740596511 0.01571284642485371 0.047400212964234634
0.046426104936637305 0.016780263266958306 0.046713754575250566
0.046393492551945525 0.017802177292289056 0.045995436524852495
0.0463640796240293 0.01879788220707901 0.045259344367500454
0.04633949229590089 0.019754788455590533 0.04449557267997295
0.046319463447327854 0.020675224261829217 0.04370543850955322
0.046303477982444864 0.0215634360100454 0.04289177139136746
0.04629580381334841 0.022386377392781598 0.042028578994777355
0.046292030532595736 0.023178742917133288 0.04114207212912002
0.04629215623304063 0.02394074025647608 0.04023203251207541
0.04629995487208436 0.024643350381409856 0.039275234630792744
0.046313545922306916 0.025301477659315008 0.03828272185399023
0.046334577463099415 0.02590270608385059 0.03724404591091429
0.0463635743712553 0.02644336676468001 0.0361555392119316
0.046400440183343265 0.026924593853262457 0.03501732774315358
0.0464482509138045 0.027323220438050966 0.03380990271854761
0.04650517016123695 0.027653820510429028 0.0325440253163331
0.04657661119736793 0.027875568272640316 0.031185429952836297
0.046659640735790264 0.02801149970490857 0.029751595158980515
0.046763876973834294 0.0279891661448865 0.028181531445829633
0.04689386110977544 0.027775214086876054 0.026445426418544027
0.04705820573210012 0.027305813496153186 0.024487423107099282
0.04728595478042824 0.026363596907646336 0.022121678233964437
0.04765198916940359 0.02438813775903187 0.018869064908617172
0.04992762478916798 -0.04738802452303703 0.049424766660427
0.0491494421412473 -0.03984817751688757 0.05267292410983754
0.04872836829701831 -0.035401095869064814 0.05399279334703866
0.048407420957448315 -0.03182633683612884 0.05477816884201542
0.04812915081434929 -0.028627454491587878 0.055340569139338214
0.04788898361419218 -0.02576323683519366 0.05570279146219331
0.04767309367811672 -0.023113966759783 0.05593951581936879
0.04747882090802819 -0.0206557954112932 0.05606413961660184
0.04730080934651534 -0.01834217860011772 0.05610539457899799
0.04713335853815897 -0.01612401716964429 0.05609438338947753
0.04697612570588119 -0.013997878211998716 0.056032403660653096
0.04683380607740463 -0.012002845609571988 0.05589222013902434
0.046699701001562156 -0.010081775383822933 0.05571104068415006
0.046573415607704026 -0.008230933456059075 0.05549062294976098
0.046451450073175374 -0.0064205809759721455 0.05525054621732545
0.046338009442802926 -0.004685682112177625 0.0549663717081898
0.0462311712453252 -0.0030097515622940496 0.054648676147697195
0.04613353990749312 -0.0014141572667335511 0.05428198069784762
0.04604104363615363 0.00013542983606895653 0.05388938617997446
0.04595158818742568 0.0016566510583104765 0.05348279207597023
0.04586704093501526 0.0031341944316455317 0.05305108952231308
0.04578924384354201 0.004553084355138515 0.05258316824412851
0.04571863341828236 0.00591006284396528 0.05207604866251292
0.04565062520903505 0.007243232061114602 0.051556394466780564
0.04558644862741745 0.008542624802412024 0.051016756544719155
0.045526321900764326 0.009806646526478002 0.05045560444748043
0.04546809678015031 0.011053077308281367 0.04988552129893964
0.04541610709387837 0.012246632440552407 0.04928042571917357
0.04536683929053243 0.013416253413291113 0.048661063077658884
0.04532213179141733 0.014547131746944886 0.04801617963621568
0.04528059947585853 0.015650736642021268 0.04735388239718619
0.04524555408454635 0.016700416382564864 0.04665386980741776
0.04521425658714494 0.017718629834373945 0.04593243669182112
0.04518718348160296 0.01870172543944293 0.04518644378958081
0.04516468825791542 0.019647073547499727 0.04441346778402766
0.04514638899808196 0.020557972750487485 0.04361558169384422
0.04513337973864316 0.021425870861046026 0.042785778284754716
0.045126632574439704 0.022243264616600367 0.04191771730634869
0.04512540598195398 0.023016387589599674 0.04101562735724523
0.0451267551036636 0.023768963869038096 0.04009753123510068
0.04513583347529948 0.024460184162519105 0.03913104489301805
0.045150931327515686 0.025103994290886333 0.038126427609804114
0.045172921081564794 0.025693798668042778 0.03707782437534479
0.045202192070402235 0.026226873905226655 0.03598236009916417
0.04524062165102577 0.026688802685708723 0.034827702764844204
0.04528751527260266 0.027085508585073526 0.0336177119538269
0.04534478301191621 0.027402441215145734 0.03233969985056495
0.04541573311084112 0.027614237872652214 0.03097188371940629
0.045499870021366 0.02772546249112573 0.029516614979030187
0.04560422788537007 0.027681975473384413 0.02792783103425628
0.04573512987215024 0.027435640909828918 0.026163491563768237
0.04589797803698131 0.026945896721738805 0.024187010927157915
0.04612828240062794 0.025939478312553166 0.021765800606232455
0.04651482621518473 0.023734032796781046 0.018317296730267274
0.048083215158803476 -0.042690932834455686 0.05239278006361814
0.04763323881093175 -0.03787947679944381 0.05392397160488005
0.04729557104233267 -0.03407409612149098 0.0548408365708935
0.047012096726858556 -0.03075743424816063 0.05546513310966078
0.046769857075105135 -0.027812834410574916 0.0558670661154938
0.04655086921242382 -0.02508049516999633 0.056146540932101474
0.046356111005975954 -0.022567760477470555 0.056296521214592
0.046175370400313394 -0.020184195244666858 0.05637411321333902
0.04600585120524212 -0.017904700978410293 0.05639455265153703
0.04585005281440664 -0.015750430858956888 0.05634269400377756
0.045706417070862766 -0.013707145074026539 0.056226724732418354
0.04557138514777047 -0.011743381144189602 0.05606660969528182
0.045444429414941846 -0.00985412918957701 0.05586489740167755
0.04532516751715115 -0.008035669402572998 0.05562332821748478
0.04521044923764102 -0.006260476004689819 0.05535996121033199
0.04510373373705482 -0.004558037036992368 0.05505408767490794
0.04500453600982504 -0.0029237761461156087 0.054708084565495196
0.04491363373172018 -0.0013639571316972354 0.05431686052953333
0.04482595660560309 0.00016515756374874124 0.05391015557172679
0.04473812587418933 0.0016925351688740764 0.05350800089441676
0.044659520021882955 0.003138392253937361 0.05305405482554865
0.04458660012074241 0.004533251008492389 0.052569081532755635
0.04451845364589951 0.005885138200716733 0.05205824860064223
0.044453937720533715 0.00720396460529521 0.05152819757682453
0.044390339868841715 0.008512803855428241 0.050995225678304446
0.044332150824313986 0.009773894724067422 0.05043182814923375
0.04427775213043993 0.011001117348024003 0.049847594687223884
0.04422808447119135 0.012186782005054186 0.049236501377666886
0.04418299570830033 0.013332408243248772 0.0485991936991787
0.04414065021068402 0.014453561973870654 0.04794675879591104
0.04410307784483249 0.015533472325782505 0.04726640943719579
0.04407061487761136 0.01656959196548724 0.0465557520927648
0.04404107908064801 0.0175802947599471 0.04582812363309752
0.04401529766757098 0.018558883629436695 0.04507814923652881
0.04399529290959173 0.019488844216256906 0.04429285860373089
0.04397973291208335 0.020381459894660003 0.043480309340568846
0.0439686082626224 0.021237039763761567 0.04264028504855499
0.04396191223790647 0.02205587018854832 0.04177255300446309
0.04396179262193441 0.02282058408954596 0.04086313262878272
0.043966694731447466 0.02354423551896545 0.03992156843372252
0.04397757900816551 0.024219250180138707 0.03894137993922453
0.04399253874989595 0.024861463061090938 0.03793448112218145
0.044016136010255114 0.025434024353175988 0.03687112951229854
0.0440451581943306 0.025963427598103217 0.035771621501484885
0.04408443499386743 0.026410886829415614 0.03460420078950183
0.04413269586159384 0.02678719222827941 0.03337652223991744
0.04419096602002055 0.02708455434029039 0.03208131584445778
0.04426041503033113 0.027294094881710418 0.03071027873636989
0.0443475947098113 0.027363852311080905 0.02921955142389443
0.04445418053213045 0.02728134288307943 0.027596959459967818
0.04458377001583954 0.027018851679015687 0.025817447100070445
0.04474951735947268 0.026472769338228175 0.02379210508039592
0.0449836198699438 0.025389002290657048 0.021303896520447008
0.04540600594637041 0.022819730558657103 0.01754603992487269
0.04706448588925139 -0.046086601954748285 0.05177960021089362
0.04655477401436406 -0.04060808001473715 0.05370889984156485
0.04619693643051137 -0.03652704428451492 0.054783400027999196
0.04590382923151096 -0.03304549640785709 0.05549818186402111
0.04565387283813575 -0.02996475935539661 0.05597457087578189
0.04543233045908878 -0.027149475272911783 0.0562958016682264
0.045236203735897686 -0.02457110595363815 0.05647761960875042
0.045051826043004804 -0.022105393229286008 0.05659872866521004
0.04488162043928486 -0.019773453784633854 0.05664408557764411
0.044726936486016826 -0.017586616184394832 0.056604796078642494
0.044581906172095315 -0.015491595393191226 0.05651473350280645
0.04444471957821581 -0.01347172792339063 0.056384073555158065
0.04431786287112704 -0.011548728455060664 0.056197438403187416
0.044199924440880854 -0.00970950102479512 0.055962645667496536
0.044084836053052696 -0.00789975793047848 0.0557156963327573
0.04397993534057033 -0.006184281857729013 0.05541203197435102
0.043879082295889785 -0.004508299923109471 0.05508826639055947
0.04378649061231386 -0.0029087344728072617 0.05471847831830867
0.043699508918864816 -0.0013618213477299967 0.05431834457592466
0.04361359770963686 0.00017258869528741227 0.05391534741597204
0.04353501143103795 0.0016397618209086917 0.05347092746156806
0.04345874905838237 0.0030838118548718874 0.05301550077502892
0.04338885678144676 0.00446956170695717 0.05252384579391284
0.04332312643530773 0.005816578623840829 0.05200928629553547
0.043260569339400555 0.00713367612293353 0.05147772527349964
0.04320175217606182 0.008416110433257573 0.05092541239504467
0.043145579990475226 0.009673556776502223 0.05035898726936722
0.043093331470049595 0.010895114893961777 0.04977022130162412
0.04304721698911273 0.01206194702626362 0.04914488468055267
0.04300484582001217 0.013194941189737464 0.0484977566660878
0.042964787756084914 0.014306571650271382 0.047837704391123614
0.04293031074115638 0.015368975806777374 0.047143703727988484
0.04289963291207029 0.01639768058068125 0.046426819315719514
0.04287180323920206 0.017401000084920515 0.04569292452147883
0.04284902850162357 0.01836030634674274 0.044927599180792865
0.04283140928122924 0.019275015941968565 0.044129869497511964
0.042817650687537616 0.020156378802052788 0.04330781622224966
0.04280762878788968 0.02100564979950259 0.04246200044079901
0.04280273604394298 0.021811278160563774 0.041583080799018235
0.04280390080241533 0.022565720923872767 0.040664641314842376
0.042810891004313574 0.023271252613136506 0.03970782218978047
0.04282242987182713 0.02393889156031248 0.03872067961566
0.042839341494431624 0.024561985814011922 0.037697465829761245
0.042862806631216006 0.025130964200410444 0.03662999335398259
0.042894367473271855 0.025633328485831886 0.035507565306190425
0.04293417694858143 0.026068240881586713 0.0343286423791907
0.042983572974789885 0.026425043703457107 0.03308372399927223
0.0430428571109017 0.026701754074716977 0.0317701690830387
0.04311388340530735 0.0268835864562062 0.03037483157560744
0.04320080136199374 0.026936967305983606 0.02886886444163983
0.04330594819022767 0.026843525023812875 0.027235377574237996
0.04343954330813849 0.02652036686678011 0.02540357384279346
0.043613716495058415 0.025869686041567752 0.023288728739131903
0.043854489083889524 0.024681032315570672 0.02070983933185022
0.04434484870173411 0.021466023828893566 0.016404124786258578
0.04615419093542553 -0.05065777441640984 0.05045023543245214
0.04549833238308028 -0.04365952284050878 0.05330456291749197
0.04511030832612615 -0.03919218320172646 0.054603581322725636
0.04480761529559993 -0.03553619247028589 0.05541305528115925
0.044545649955017544 -0.03227101849049446 0.05599312603393686
0.04432074457060389 -0.029360290912769815 0.05636305178915285
0.04411972803246278 -0.02667965922354687 0.056599448434907274
0.04393503828953902 -0.0241577239222015 0.056746298211093005
0.04376328265113286 -0.021762205111584887 0.05682303956743395
0.04360591704338887 -0.019505829880430203 0.05681998958395057
0.04346091650777376 -0.017369150120670973 0.056748533907596876
0.04332411776023375 -0.01531320606361064 0.05663330309903436
0.04319488713130219 -0.013331731310937012 0.05647764494096891
0.04307370366154641 -0.011428695739241934 0.056278114044383265
0.04295983507045615 -0.009596963517811752 0.056038705185265936
0.042853411018886754 -0.007837314242568727 0.055758134333142195
0.04275468403858685 -0.006151636414005068 0.055434341776899154
0.042662599253242846 -0.004529923338861652 0.055073407157785415
0.04257411036335593 -0.002944192076594798 0.05469397746318633
0.0424897654215634 -0.0013992029494941938 0.05429237138844428
0.042408223654184944 0.0001173782255693423 0.053876774619534606
0.04233320457530237 0.0015721906468406655 0.05342345849136759
0.04226183731632925 0.002991409360381725 0.05295023021418138
0.04219431915490574 0.0043734652128738505 0.052455592598664724
0.04213200730476394 0.005706415671133169 0.05193061260076476
0.04207242564935474 0.00701267710671144 0.051390839020366674
0.04201635991830089 0.008285392157441451 0.05083103291830188
0.04196401300218975 0.009522948717176294 0.05024965248985458
0.04191524278309816 0.010726813982491978 0.04964737493748583
0.04187162984265899 0.011883175167902826 0.04901368354215824
0.04183119694805475 0.013009805761974025 0.04836114508028988
0.04179495400500156 0.01409796653646972 0.04768293698384907
