# .PCD v0.7 - Point Cloud Data file format
VERSION 0.7
FIELDS x y z
SIZE 4 4 4
TYPE F F F
COUNT 1 1 1
WIDTH 767
HEIGHT 1
VIEWPOINT 0 0 0 1 0 0 0
POINTS 767
DATA ascii
-0.08361544471560182 -0.04314009503301669 0.0421797724054343
-0.08345769366880444 -0.044516196174649525 0.04183075966282329
-0.08336520231318333 -0.04562539925941933 0.041265768792864255
-0.08329596821989481 -0.04663905117408823 0.04062432479620515
-0.08326465474584076 -0.04749867876192665 0.03985611519991905
-0.08325683005615933 -0.04826331123116612 0.03900889513189487
-0.08327943873152299 -0.048905707449396596 0.0380582981031794
-0.0832953156184264 -0.04957545043435224 0.037130200280977854
-0.08332142776911207 -0.050204589461769034 0.036166731750370384
-0.08336302339266556 -0.05077247776278471 0.03514954947914051
-0.08342560386284849 -0.05125764663875193 0.034059218191276164
-0.08353747931236155 -0.05154831676138377 0.03279727439267632
-0.08368257633623799 -0.051709427506755945 0.031417863591025164
-0.08386190159362365 -0.051737879791467045 0.029916441101364488
-0.08413555324016622 -0.05139769785700349 0.028082416630797913
-0.08443490716660225 -0.050961254573405224 0.0261527765073864
-0.08479519734822527 -0.05029097288135154 0.024003140279722113
-0.08566727605785437 -0.047623315045522474 0.02004564584344176
-0.09048931958934887 0.00041174701517904255 0.02754522379334784
-0.08924450276734389 -0.005659704470144633 0.030638035269811847
-0.08852821559554994 -0.00947880677384938 0.032029779305762895
-0.08791832420467305 -0.012837134121367 0.03308786719301876
-0.08738906323997132 -0.01584579256266727 0.03389366802562804
-0.08691966027123006 -0.018594034212577937 0.034513168143596284
-0.08623202617165117 -0.022246924344463126 0.03586525606483093
-0.08463788128597004 -0.029672080075054952 0.04024322814480907
-0.08339262179091644 -0.035615343748994166 0.04349248088237867
-0.0827984492820281 -0.038829810075510285 0.04459159307523464
-0.08244603583315525 -0.041030835332253046 0.044892555648113064
-0.08222407289993704 -0.04268561572738666 0.04476213435112564
-0.08204329550535058 -0.044166328064147053 0.0444974349127481
-0.081904234646466 -0.04547188701901528 0.04409534498555995
-0.08178902916589112 -0.046676861268479364 0.043615194557187764
-0.08170978771273192 -0.04773220278428508 0.04301496898871188
-0.08166460606987835 -0.048646671597665 0.04230002813871464
-0.08163260614646167 -0.049506478838919565 0.04154085913917949
-0.08162519252594107 -0.05026548513710766 0.040697822717170484
-0.08163006418315083 -0.050974386051112375 0.03981256624220714
-0.08164277559062608 -0.05165155406749883 0.03890007963823422
-0.08166269809000784 -0.0522997451352461 0.03796229459305622
-0.0816993893912807 -0.05288053032670964 0.036965706751486194
-0.08175756913672882 -0.05337532913674892 0.035893299712583704
-0.08184243907789315 -0.05376379003781412 0.034726167543963904
-0.08195096284912173 -0.0540588162946849 0.03347412604620448
-0.08210153771351225 -0.05418735629892574 0.032071589086761665
-0.08229139727006517 -0.05416159165016926 0.030526992564234023
-0.08251718742777979 -0.05399594849435968 0.028850973608690766
-0.08279365509313537 -0.05363271948213416 0.026989947226221445
-0.0831305955318941 -0.05303437947794082 0.024907360917481913
-0.08359317125754546 -0.05194446650004214 0.022368188195311223
-0.08892021200709943 -0.0009302618489854253 0.028573685906947976
-0.08773369636321415 -0.006823027517325997 0.03153436914966212
-0.08697215025693071 -0.010875901228660168 0.033112033107366934
-0.08630335292802954 -0.01451896150901344 0.034397700365998984
-0.08572452278915273 -0.01776657922613767 0.03539764882119306
-0.08489426566645546 -0.02207272190907006 0.03725161686601497
-0.082553687214572 -0.032771672554485876 0.044194860078803966
-0.08173236954473072 -0.03699622886933912 0.04607084193209354
-0.08127964972168733 -0.03964873762996357 0.04671891448158688
-0.08097645514567732 -0.04166271939237021 0.04686984019518747
-0.08077130241536555 -0.04325879953603523 0.04669387216400395
-0.08060319360873737 -0.044695675623542874 0.046395946520837505
-0.08046332348870543 -0.04601123345253133 0.046005000480937364
-0.08035181804520662 -0.047205713433578766 0.045519687447657
-0.08026532809727861 -0.0482938529539792 0.044950624280074014
-0.08019560664079509 -0.04931064903785226 0.04432549389684287
-0.08014670798981265 -0.05023972292850215 0.04362970251765774
-0.08011876310666557 -0.051081097582223456 0.042862120859818664
-0.08010283289913185 -0.05187229685154726 0.04205324375267988
-0.0800989030435969 -0.052613706140506866 0.04120273240920269
-0.08011234888634805 -0.05328352670243708 0.04029133710345373
-0.08013552770071977 -0.053913618379089534 0.039345395078683065
-0.08016949231655456 -0.054499931182659334 0.038360874353901175
-0.08021634441648902 -0.05503416470916883 0.03732998329151521
-0.08028194632316622 -0.05549275222886502 0.03623148171978047
-0.08036534894806409 -0.05588006642949467 0.03506814415548509
-0.08048127661643108 -0.05613678596403088 0.033786775740984265
-0.08064070026191957 -0.056219333623978185 0.03234699972906546
-0.08083318134455303 -0.056171099279642256 0.030784936537612273
-0.0810517768248594 -0.05602099228188351 0.029124552461327058
-0.08132610307142399 -0.05565050356774692 0.02725788734011514
-0.08162226094953515 -0.05519729815085955 0.025306107591350047
-0.08204994198280025 -0.05422240064514633 0.022869413168203012
-0.08285400130738653 -0.051750388665993186 0.01905004255641496
-0.08742922989074392 -0.0019701112730107773 0.02937058506686885
-0.08623120374839309 -0.007983429834054256 0.03242845262308791
-0.08537855389032893 -0.012475798879302669 0.03435138761816825
-0.0846774271691671 -0.016296283421474322 0.03578190615138793
-0.08371415061028974 -0.021236818167139848 0.03811485465281783
-0.0809769842820739 -0.03380954967165434 0.04649093461911702
-0.08026652148438793 -0.03761047738623735 0.048024436553707806
-0.0798807736900707 -0.04000398944060146 0.04846403020096357
-0.07958291025540624 -0.04201383743149195 0.048610829253693866
-0.07938522223967244 -0.043589888749536176 0.04841968438239619
-0.07922338565003817 -0.04500934648364735 0.04810919523033641
-0.0790930815945382 -0.046291585508730526 0.047693130250122895
-0.07898584180013399 -0.04747344952458271 0.047199851239874246
-0.07888764119114404 -0.04861502664855827 0.04667744155592807
-0.07880937818572985 -0.04967046722764412 0.0460875327963558
-0.07874728501511798 -0.05065622299901246 0.04544267364740312
-0.07870472864008125 -0.05155855950912991 0.044730497688113546
-0.07867395461456203 -0.0524106014756745 0.043977706844888276
-0.07866322985604918 -0.05317800931510003 0.04315467344946511
-0.07866403917048934 -0.05389696237023328 0.04229095148593642
-0.0786693001166341 -0.05459734582554837 0.041411368545063
-0.0786850871767247 -0.05525397863133463 0.04049409304667234
-0.07872113779583528 -0.05582667816421494 0.039503910927253305
-0.07876614612224563 -0.05636289033072123 0.038480765390192406
-0.07881953344403549 -0.05686525662096931 0.03742644730578282
-0.07888886211248664 -0.05730278412374262 0.036313353545277205
-0.07898951378791493 -0.05761254482714834 0.03508520776558016
-0.07911067626890134 -0.05783984489488336 0.033780290278258185
-0.07925602878909162 -0.05797015974914166 0.032384511279023975
-0.07944770679408221 -0.0579135751225236 0.03081611685879676
-0.07967060373239616 -0.057733046127369014 0.029129003214061533
-0.07992022576702083 -0.05744773952381671 0.027338679845003988
-0.0802263059967611 -0.05693753954395725 0.025334545271329056
-0.08064708024470682 -0.05596783320960097 0.022899200927230356
-0.0813005204641397 -0.05406444252028819 0.019590947292185135
-0.08600175269627738 -0.0027593096774887194 0.029975395274008998
-0.08469557596558373 -0.009323667851221462 0.03346109849455153
-0.0837918464389877 -0.014091738891251593 0.03560316928194468
-0.082819283278542 -0.01914540122743602 0.038000843150148234
-0.07961821806807425 -0.03395138465923819 0.048070392241515936
-0.07897187314475627 -0.03752084358091079 0.04941249267521158
-0.07858076203811278 -0.03996399160683667 0.04988707888088273
-0.07827898411623814 -0.04201068497800764 0.05006069991769524
-0.07807968992036295 -0.04360625430816678 0.049884651614334474
-0.07791321032958344 -0.04505576958319568 0.0495985568466869
-0.07777150747308688 -0.04639493911759912 0.04922945151255004
-0.0776599161310796 -0.0476014139120845 0.04875778190041763
-0.07755941815506884 -0.04875799959163113 0.04824952211399608
-0.07747570239489747 -0.04984054147423722 0.047684204856730306
-0.07740806474358064 -0.050852530006857966 0.04706376649244415
-0.07735979603636989 -0.05178032371357849 0.046375972441934366
-0.0773230885958793 -0.05265782235992733 0.04564802094686582
-0.07729414406567701 -0.053501542220351694 0.04489311462315665
-0.07727769895794775 -0.05429155165348415 0.04409399863350044
-0.07727334118737374 -0.05502994911023734 0.04325173995171433
-0.07728324592445471 -0.055707859993312625 0.0423580824133335
-0.07730365768711425 -0.05634155334668228 0.041426152068464284
-0.07733181586054816 -0.056942963291187476 0.04046562762543082
-0.07736237679404653 -0.057534788710168594 0.0394957226203852
-0.07741363044701179 -0.05804031561984696 0.03844950783167911
-0.07748107869439835 -0.05847896352267412 0.0373427844981295
-0.07756859802704717 -0.058834983754355696 0.03616075871829183
-0.07767452298070948 -0.05911588231042619 0.034908904685914954
-0.07779017068293913 -0.05935830067158021 0.03361873058109699
-0.07792287697484426 -0.059532056442167525 0.03226269310343477
-0.07812197777164377 -0.059433272111624025 0.030656616570022444
-0.07834509886512463 -0.059238926649219814 0.02895645904865085
-0.07860084037554448 -0.05891422903963578 0.027129223523643553
-0.07893196694762274 -0.05828415069260651 0.025013247178932774
-0.07937400185453138 -0.05720498120200562 0.022472239006586514
-0.08001698988745833 -0.05531103988153546 0.019162397795526476
-0.08460980351138027 -0.0034123200065636072 0.03047583636734058
-0.08314132551337466 -0.010786700975053465 0.03458835730663401
-0.08214594525457805 -0.01601966577454983 0.037096630365752836
-0.07847759550494791 -0.033150543384360465 0.048908264401691715
-0.0777703102673601 -0.03703893236079786 0.050487949868736504
-0.07737958588684844 -0.03950863122459963 0.050977293832495274
-0.0770662633335172 -0.04162806254939905 0.051204074948256906
-0.0768416255465111 -0.04334954592221818 0.051125992925372454
-0.07666554645252219 -0.04485259131685815 0.050881634234790085
-0.07650839426151972 -0.046269000698393625 0.05057424649463532
-0.07637799086747457 -0.04756495651472081 0.05017541449424301
-0.07627719931458751 -0.04872866969576839 0.04967403530226039
-0.07619269286483635 -0.049819259966450646 0.04911673167934011
-0.07612358398403579 -0.05084106208528877 0.048506134883031515
-0.07606492045505289 -0.05181607592428733 0.04785953301928514
-0.07601762678231858 -0.05274058090528971 0.0471732380853514
-0.07598340963526563 -0.05360750044680879 0.04644069008183116
-0.07596087426174451 -0.05442323893235135 0.04566650982677839
-0.07594417562901885 -0.055213357401797725 0.04487158501197258
-0.0759393227530181 -0.055952140587339716 0.044033771111615994
-0.07594514628006557 -0.0566449497583017 0.043156951893869366
-0.0759573785939017 -0.05731038758959367 0.04225644968754588
-0.07598399262790737 -0.05791452255615198 0.04130265818850887
-0.0760187938243609 -0.05848420819094985 0.04031799542441378
-0.07606044158440105 -0.05902538725549211 0.039307156602141846
-0.07611344296358911 -0.05951909767575275 0.038253144170532105
-0.07619679649618591 -0.059885091992310124 0.03708468619691235
-0.07629051834485111 -0.060208789962237164 0.035875546656634505
-0.0763929165191999 -0.060497629057517543 0.0346317264971408
-0.07651469951988568 -0.06070674613831262 0.03331261452584472
-0.0766643594877713 -0.06080099835181879 0.031885486667979024
-0.07685713061903049 -0.060717290731049145 0.030291700148300738
-0.07708225918032077 -0.06050184060340724 0.028570649682305715
-0.0773407091587836 -0.06015154125686317 0.026717568823869386
-0.07770826926288364 -0.05935166240009743 0.02444171474828971
-0.07816150473606491 -0.05820268716388066 0.02182921683590988
-0.07885606755076081 -0.056061666032123036 0.018278868877302956
-0.08325505365747789 -0.003915433825669834 0.030861402748902145
-0.08162058419937254 -0.01214114236655578 0.03563194679832038
-0.07751926750918436 -0.031521091016736946 0.04910474931638609
-0.07666536109553433 -0.0361285354068242 0.05122757063284539
-0.07622914285244302 -0.038833656438955644 0.051893223342475925
-0.07591856009269982 -0.040964345477663755 0.05212324287544329
-0.07566991494772486 -0.04281060387517566 0.05213997391489417
-0.0754631408433888 -0.044464241014931793 0.052012923635462005
-0.07529272319901864 -0.04595114973089476 0.0517604042935399
-0.07514409324179405 -0.04733745825228919 0.05143350814853559
-0.07503257256203308 -0.048555495823064454 0.05097626884043471
-0.07493787685318862 -0.04969655564647374 0.05046075009030199
-0.07486753834387454 -0.05072769067836114 0.04985905639202437
-0.07480746244439156 -0.05171202462795421 0.04922163265258578
-0.07475626368228426 -0.05265597561162422 0.04855318346707066
-0.07471161756052573 -0.05357004934886561 0.047861914721225585
-0.07467826320525503 -0.054433582006257086 0.04713019673064617
-0.07465369534236341 -0.05525789789353658 0.04636687170160825
-0.07463979975920544 -0.05603498851013877 0.04556466938375453
-0.07463466160770008 -0.05677353135038676 0.04473032186827297
-0.07464113198947586 -0.057461342866996945 0.043852927416197285
-0.07465007818806255 -0.05813850356145106 0.0429661507791283
-0.0746689293255858 -0.058772823768574955 0.04204211317909162
-0.07469827224849301 -0.059362045820235965 0.041078272650156955
-0.07473565115737625 -0.05991708886071878 0.04008351312045888
-0.07479064318654968 -0.0603968711682093 0.03902140044465907
-0.07485318024411575 -0.06084523394352187 0.03792945771668338
-0.07493557487652316 -0.06120951780045031 0.036760658521375666
-0.07503295722199879 -0.061511161294863226 0.03553287495432178
-0.07514563644938203 -0.061749273994879395 0.0342444115218179
-0.07528168625580306 -0.061889855844000696 0.03286379970589204
-0.07545088702628903 -0.06189195269711134 0.031352641058973396
-0.07564351758027447 -0.06179780022929365 0.02974727887042089
-0.0758630771424893 -0.06159324670212435 0.02803337808359946
-0.07614249423510824 -0.06113986617588413 0.026082304865147565
-0.07653627351600362 -0.06020949307662077 0.0236799917388949
-0.0770057906064335 -0.05896795729316262 0.02097320024351579
-0.07782572907832798 -0.056264155806441285 0.01688457652932729
-0.08201990561032405 -0.003880927885643759 0.030834958771549514
-0.07701139617150254 -0.027783055542375756 0.047683953125482625
-0.07566278561715475 -0.034740839621694275 0.051598915087301245
-0.07513580907836406 -0.03789831471406263 0.052605902120667514
-0.07479922047676187 -0.04017286381235813 0.052941826089038746
-0.07453068759454078 -0.04212957960624358 0.053040523812719065
-0.07430311313713936 -0.04389412575196994 0.05299750589514418
-0.07411405046970437 -0.04547884185714701 0.05282021223960642
-0.07395248992726143 -0.04693488809585167 0.052547326326744415
-0.07382488175621624 -0.04823381679426808 0.05215436647412858
-0.07371674171286247 -0.04944216348668795 0.05169314261420538
-0.07363184880619293 -0.050543433167808516 0.05114910709063719
-0.07356647738379148 -0.051555091668744724 0.05053516761812926
-0.07351134019040341 -0.05251946432956717 0.04988494625937484
-0.07346264822647491 -0.05345384839364781 0.0492121250298202
-0.0734235541200473 -0.05434431954789121 0.04850476231844564
-0.07339103859992747 -0.05520464447363227 0.0477737805170485
-0.07337049766535489 -0.05601096548823026 0.04699877030573307
-0.07335929836508852 -0.05677534184456129 0.04618919214156619
-0.07335127430296175 -0.05752540991288696 0.045367925314994006
-0.07335444639764695 -0.05822574769571326 0.044504582904551504
-0.07336265779822027 -0.05890388346527342 0.04362208662830608
-0.07338020649556445 -0.059541017667800955 0.042703937727742
-0.07340243444476849 -0.06015791176401725 0.0417675558747706
-0.07343626917206138 -0.06072429886303743 0.040786307354850226
-0.07348155552500427 -0.06124119751099005 0.03976038267165327
-0.07354133658016561 -0.0616956460816116 0.03867768453191539
-0.07361869005941994 -0.0620746504577544 0.03752584077204851
-0.07370995816170889 -0.062394634967144924 0.03631838616689226
-0.07381278756252305 -0.06266621986222864 0.035063965070707914
-0.07393656219331197 -0.06284910698156598 0.03372566445977504
-0.07408910515656478 -0.06291010750745296 0.0322722265422003
-0.07425872107407824 -0.06290047956397143 0.030748424789164897
-0.07445755845905773 -0.06276846929818203 0.029105974971694426
-0.07469420671214463 -0.062478069769816624 0.027310041670246032
-0.0750097461659546 -0.061854492869496236 0.02519709128137748
-0.0754114890507255 -0.06086880619272245 0.022735417568796268
-0.07592995538564659 -0.05939344591323381 0.01980079372418697
-0.08792497257968224 0.02966844355489584 0.005124057463027465
-0.07477339790853213 -0.03280012794557907 0.051549579258781286
-0.07410706533025 -0.03665393056678734 0.05308088356911134
-0.07372499158272308 -0.03916877077200204 0.05359535294167678
-0.07342553652537355 -0.04129153761010934 0.05381775049038778
-0.07317711983384222 -0.0431713482243164 0.05386061178557572
-0.07297141759253284 -0.0448482925847577 0.05375266238172122
-0.0727899956481812 -0.04640888564190537 0.05356022123383464
-0.07264717880913237 -0.04778774508617345 0.05322955239493904
-0.07253158686061174 -0.04903841832320316 0.05280143311515961
-0.07243335465292056 -0.05020704121293462 0.052311548815968556
-0.07235529207809402 -0.051281245724945135 0.05174881416261107
-0.07228862024272878 -0.05230179367351723 0.051145335618710985
-0.0722371350808122 -0.053251694128271077 0.05048647475469964
-0.07219526558991353 -0.05415677478776121 0.049792652937364845
-0.07215967799527988 -0.05503247403803363 0.049076111262342625
-0.0721307201968728 -0.055877400364011454 0.048335310615548355
-0.07210965792864618 -0.05668602230394548 0.047565210108164
-0.07209684343904539 -0.05745698345911515 0.04676418881027483
-0.07208677810629703 -0.05821530408068304 0.04595296513551611
-0.0720873270526255 -0.05892570502011496 0.04510129686412462
-0.07209409807121997 -0.05960820460735261 0.044225694698123985
-0.07211130583952237 -0.060244122074106454 0.043309685517233854
-0.072132185860221 -0.0608639787873429 0.04237906609007008
-0.07216462881172149 -0.06143272021128093 0.041403091633582134
-0.0722068299447183 -0.06195871409917586 0.040388376824360306
-0.0722615813936712 -0.06242986249366528 0.03932367767227202
-0.07232912439344481 -0.06284546986058093 0.038207605956309454
-0.0724089766373238 -0.06320804592888968 0.03704160345216584
-0.07251047501822797 -0.0634768092502303 0.03578845866764163
-0.07262284239106422 -0.06369978908357482 0.03448998246969831
-0.07275866574134301 -0.06382208740937606 0.033095916093420774
-0.07291876837724719 -0.06384079629823708 0.03160215826473778
-0.07310177443609862 -0.06376264489348454 0.03001333469513623
-0.07331956910272147 -0.06353652367735374 0.028281121724638092
-0.07357200498368927 -0.06316410552815127 0.02640488034851296
-0.07390687855187938 -0.06243909314396351 0.02419118129193054
-0.07434101857825595 -0.061291101091205835 0.02156923783485104
-0.07497494785601647 -0.05928902843494205 0.018128937480787755
-0.07419699424092441 -0.029324637056258263 0.05033400353212958
-0.07318485807329884 -0.03488453367981964 0.05315560218034271
-0.07268567382095747 -0.03798915762006638 0.054115212028035486
-0.07234997299930927 -0.04030935355158216 0.05448365644547132
-0.07208289347626112 -0.04229844480095041 0.05460616135700902
-0.07185745832734564 -0.044085743447728976 0.054580430478660735
-0.07166629211754907 -0.04570721856347981 0.0544324423761971
-0.07150629930603156 -0.04717844152820028 0.05417253463966798
-0.07137160379927789 -0.04852789086272574 0.053821617358652984
-0.07126156061533158 -0.049759345124144705 0.053381207906455175
-0.0711712339131233 -0.05089658055973323 0.052869043685785766
-0.07109450953071529 -0.051968662007526756 0.05230755825291783
-0.07103166112525648 -0.05297472777073092 0.051695224128445516
-0.07098279573771722 -0.05391469965260648 0.05103113534643111
-0.07094677581780211 -0.05479426173063506 0.05031913617107575
-0.07091277057312184 -0.05566379981858355 0.04960027745342205
-0.07089029823561939 -0.05647953068916345 0.04883789157489421
-0.07086981587837152 -0.05728566367516241 0.0480683688526346
-0.0708549107292718 -0.05806580690789448 0.04727775994121142
-0.07084324239909652 -0.05883083847408843 0.04647494683626524
-0.07083983238268284 -0.0595579270719937 0.04564026647091951
-0.07084485778610787 -0.06024651461840275 0.04477273077399413
-0.07085473118978934 -0.06091316386358214 0.04388608723142878
-0.070873947334377 -0.0615376327126238 0.0429625039837499
-0.07090683649722898 -0.06210060399792039 0.04198458204270167
-0.07094407580402061 -0.06264459103636133 0.040988678912313614
-0.07099703369302704 -0.06311850014055792 0.03992956878118864
-0.07106000139400331 -0.06354847058977187 0.03882938768613481
-0.0711371941971525 -0.06391589508917556 0.0376709639749046
-0.07122308028461746 -0.06424596125216764 0.03647591610135681
-0.07133737219652114 -0.06445090071031806 0.035164838732016424
-0.07146134436410029 -0.06461500406296722 0.033812069115186305
-0.0716029792469285 -0.06470307605244258 0.03238504031357092
-0.0717788795943908 -0.06464200621157051 0.03081590623899022
-0.07199065934637912 -0.06442568444796487 0.02909688354793505
-0.07222364738782587 -0.06411997188900243 0.027286427218611298
-0.07250624668164311 -0.06360038002545998 0.025267773893619117
-0.07287662601386598 -0.06270063675757598 0.022882798421040962
-0.07334341655275409 -0.061385536243629524 0.020092891207354968
-0.07435562347891932 -0.05769344717286057 0.0150446652464587
-0.07234676765562652 -0.032670433545230304 0.05289808862918788
-0.0717287685158114 -0.03639504888718559 0.05431944567134167
-0.07130880516943243 -0.039152071676627875 0.05501605889226763
-0.07102085997019221 -0.04126524479106519 0.0552281193222402
-0.07077724620100884 -0.0431596686929992 0.05528050183372957
-0.07056422992986526 -0.04490250864146622 0.055223394089208844
-0.07039405378221637 -0.04643616361569802 0.05500935153466424
-0.07024727815439934 -0.04785469617771404 0.05471061094449364
-0.07011736350884547 -0.04918995765935219 0.054351224587848856
-0.07001587875553263 -0.050387502032798404 0.05388637644803246
-0.0699239229222007 -0.05153780229297711 0.05338747360332197
-0.06985063833807077 -0.05259790285801058 0.05281901632497138
-0.06979024543667152 -0.053595656166119554 0.05220261614707844
-0.0697440914666694 -0.05452511122904219 0.051532589886729985
-0.06970876573078538 -0.05540273359077408 0.05082165663228544
-0.06967823782157866 -0.05625713506808794 0.05009290152699458
-0.06965795949329062 -0.057062951434388054 0.04932485618303489
-0.06963698825416748 -0.057871589357604 0.04856001877020455
-0.0696218404274456 -0.05865266794502749 0.047772804747956754
-0.06961004377995103 -0.05941785840594355 0.04697274787823158
-0.06960300291112352 -0.060160747920986635 0.04615417153795093
-0.06960581908855769 -0.06085787129356385 0.04529666765536461
-0.06961057190435996 -0.06154610833299773 0.04443138990594081
-0.06963223183468362 -0.06215653427971679 0.043498521979264904
-0.06966589309046656 -0.0627122224922324 0.04251708529490972
-0.06969976339986975 -0.06326763854043399 0.041533990610828686
-0.06974674234800396 -0.06376374230524828 0.04049727879885623
-0.06980918446470574 -0.06419018143424293 0.039396960467150466
-0.06988184979163749 -0.06457130767997554 0.03825370226704139
-0.06997049316818768 -0.06488126793076321 0.03704374443410419
-0.07007434375292808 -0.06512404824508078 0.03576964607772126
-0.07019389411898144 -0.06529788452527596 0.03442883873954994
-0.07032427244830237 -0.0654252593262945 0.03304072580115047
-0.07048526564497627 -0.06541734476876937 0.03152353875598002
-0.0706742066397608 -0.0652870684785351 0.0298871615612733
-0.07090359223483299 -0.06497923062825822 0.028078877798754287
-0.07116279346099781 -0.06454263772086843 0.026141311414729917
-0.07149383583507848 -0.06379055155893781 0.02389850108081165
-0.07187955454751423 -0.0628016396795067 0.021419459898666837
-0.07248222005784907 -0.0608563227468063 0.018023018402015478
-0.07208165405507465 -0.027576854497186276 0.05045788976878779
-0.0708779820423707 -0.03424717119521059 0.05410643753014782
-0.07034969406348257 -0.03757611432807195 0.055229449965980004
-0.06999594669739782 -0.04003884622574588 0.05570299535790457
-0.06973107724428879 -0.04205965867073591 0.05584682113451406
-0.06949725550316957 -0.04392348756652342 0.05587857393560208
-0.06930362811890822 -0.04558676407665463 0.05576204503628557
-0.06914424142894848 -0.04707966467578384 0.05551863773383264
-0.06899999527173244 -0.04849585591299127 0.0552207632390605
-0.06888016150957908 -0.04979095289931296 0.054831978834123385
-0.06877767786684637 -0.05099980787517261 0.05437879744210283
-0.06869152041250079 -0.05212789285940739 0.053864563801350185
-0.0686203507932801 -0.05318214875378269 0.053293901703482804
-0.06856234113465834 -0.054171808884038164 0.052673419693439916
-0.06851863824321136 -0.05509179393895847 0.051998121060721936
-0.0684831273630689 -0.05597175074563243 0.05129159251893478
-0.06845336125350832 -0.05682359585645963 0.05056321274029241
-0.06842794211328178 -0.057654154355499865 0.049818316350790814
-0.06841048820043483 -0.058446394498322674 0.04904233744733694
-0.06839338854868644 -0.05923659560200534 0.048265375110975006
-0.06838423770265471 -0.059988893587001935 0.047456993629874156
-0.06837785082766579 -0.06072797404195385 0.046637732082023986
-0.06838078519049146 -0.06142308369254007 0.045781058574223044
-0.06838682731819656 -0.062103670392134214 0.044911748131259144
-0.0684037509566376 -0.06273343157035072 0.04399816092960085
-0.06843001644219497 -0.06331989891867668 0.043046156401132185
-0.06846581834218528 -0.06386245599937118 0.042054594443954096
-0.06850893406204656 -0.0643717372087676 0.04103221717751038
-0.0685713661402676 -0.06479226794773013 0.03992948679083075
-0.06864139050847798 -0.06517893719369416 0.03879395582647349
-0.06872358622079135 -0.06551082529341479 0.03760643410768599
-0.06882555886599721 -0.0657532509029265 0.036334969977386555
-0.06894169316345652 -0.065932655990798 0.035002156882264324
-0.06906808048165744 -0.0660674178113222 0.03362375508831872
-0.0692202167935221 -0.06608690457945893 0.03213462960102348
-0.06939986226965195 -0.0659838761948871 0.03052644879926969
-0.0696099450545532 -0.0657458420228112 0.028785884450654997
-0.06985227153169983 -0.06536553412372281 0.026904192829637075
-0.07014566300190765 -0.06475855968042377 0.024800597668952762
-0.07050845287213567 -0.06384351500342805 0.02239546147450394
-0.07098087314477154 -0.06244085283330647 0.01951510687431507
-0.0701891447806306 -0.031235114142277476 0.05324637365242263
-0.06947719300996165 -0.03553552364457302 0.0550937795056855
-0.069029117650445 -0.03850394461527179 0.05594433799573528
-0.06871888824360789 -0.040776397825062816 0.05627433684415217
-0.0684597600418723 -0.04278834825123429 0.05641433584639982
-0.06824344406518458 -0.044582518871609134 0.056394597107448874
-0.06806045622997352 -0.04620719756727232 0.056250454875846956
-0.06790906038758926 -0.047672011417241145 0.05598743885827262
-0.06777780837764064 -0.04903437208323641 0.055649245011692605
-0.06765564892964464 -0.050349257119691015 0.0552785832442968
-0.06756217697431263 -0.05152080922820207 0.05479779067459589
-0.06747459977761903 -0.05266153023327991 0.05429601140424317
-0.06740514455677464 -0.05371186995163252 0.05372446844492984
-0.06734757288793404 -0.05470281358208895 0.05310733050771166
-0.0673028439859069 -0.0556300707287295 0.05244031670475657
-0.06726598310018349 -0.05651819445067652 0.051742885603583144
-0.06723662522466162 -0.05736920134168866 0.051016208575145605
-0.06721068266859065 -0.0582030837879739 0.05027649204675222
-0.06719153532938132 -0.05900365083392378 0.04950993093175621
-0.06717883294084312 -0.05977280269552554 0.04871769094077344
-0.06716884376994353 -0.06052866005131646 0.0479147230761387
-0.06716173464476081 -0.06127050944957446 0.047100243780957396
-0.0671637656705594 -0.06196851761372113 0.04624849920138552
-0.06717121381470625 -0.06264073095725692 0.045374443638823536
-0.06718577632125093 -0.06327924339546814 0.04447087739371003
-0.06720712349247004 -0.06388584541735037 0.043538895508798525
-0.06724222330962314 -0.06442773711904642 0.042549347100041546
-0.06728466330147549 -0.06493566805516271 0.041528386225799296
-0.06734263789605244 -0.06537121766006071 0.04044154935160377
-0.06741366944400587 -0.06574653783090045 0.03929861904256704
-0.06749664373436368 -0.0660672735124343 0.038103779838671525
-0.06759370559774809 -0.06632375301554061 0.03684755280749491
-0.06770050422619517 -0.0665367607874146 0.035547777249298695
-0.06782403404585333 -0.06667398087762733 0.034174466541045556
-0.06797418374779524 -0.0666899230732359 0.03268498981538509
-0.0681441601490103 -0.06661697083452273 0.031107282383722346
-0.06834354350918091 -0.06641136906036843 0.029399666147504333
-0.06857619608122836 -0.06605619565809312 0.027544483450345547
-0.06884652160789986 -0.06553219421467127 0.02552155553936969
-0.06917980779898289 -0.0647242062751675 0.023220470042523922
-0.06958948628854275 -0.06357256443200482 0.0205807943262431
-0.07023335153341513 -0.0613569928748493 0.01691557408539024
-0.06873132961827844 -0.03280032284641721 0.054439443491485384
-0.0681222781406439 -0.03663355987487388 0.055935270715155194
-0.06774834147024224 -0.039260752430618995 0.05652745417062305
-0.06746935642042624 -0.04139915664510957 0.0567567545490949
-0.06723108806865219 -0.04332585528290156 0.05683295463329752
-0.06702515764410653 -0.04508440234086669 0.05678757312801913
-0.06684433873046128 -0.04671219499014462 0.056647992587807616
-0.06669281623842595 -0.0481890298333868 0.05639662286804531
-0.066565803520098 -0.0495398286640123 0.056051422223234504
-0.0664532526213791 -0.050815609965944586 0.055651632972799236
-0.06635149240434707 -0.052035151599409024 0.05521142870349366
-0.06627164861618957 -0.05314341999972283 0.0546856208933269
-0.06620002019545439 -0.05420917221782706 0.0541286845063953
-0.06614005864473903 -0.05521556577985126 0.05352632628019233
-0.06609970013337868 -0.05612372703154833 0.05284585651420959
-0.06606138849450774 -0.05702092259615954 0.05215807518929949
-0.06603226807236769 -0.05787203871563784 0.05143369564625139
-0.06600516756249612 -0.05871260626123781 0.05070177588103941
-0.06598589485460647 -0.05951421590001821 0.049938345797637174
-0.06597194578034206 -0.06028936953290598 0.04915343929345223
-0.06596065799147367 -0.06105123386777994 0.04835787291862831
-0.06595153098754383 -0.061802332146822125 0.04755362288908627
-0.06595401992064663 -0.06249678336433273 0.04670122658812309
-0.06596281565425742 -0.06316070548411978 0.04582241895716105
-0.06597858746414877 -0.06379106297497988 0.04491415386877823
-0.06600350568319985 -0.06437760234332696 0.04396704175488764
-0.06603359873732711 -0.06493974854051382 0.042997476361573694
-0.06606987985835805 -0.06547279802031336 0.042000974780441847
-0.06613088193715545 -0.06588807419587245 0.040898692477583765
-0.06620002020505417 -0.06626572705210709 0.039760238859318675
-0.06628354590385506 -0.06657617385796849 0.03855862793719628
-0.06637434027656697 -0.06685378660326646 0.03732377561270789
-0.06648207121644362 -0.06705285029385794 0.03601390323853976
-0.06660453341552809 -0.06718436680377071 0.03463785673153297
-0.06674120826758612 -0.06725126325500097 0.03319731125486697
-0.06691053700880617 -0.06716694344368368 0.031611855542189704
-0.06710012953355747 -0.06699081236436932 0.029934057200440456
-0.06732086794345922 -0.0666723848150495 0.028115733068497684
-0.06757736424309849 -0.0661910387806669 0.02613553947391306
-0.06788395439330444 -0.06548086404442688 0.023929287266821975
-0.06826419300742491 -0.06443354130800022 0.021391541741223874
-0.06877659071309668 -0.06277899556068733 0.01826159696939028
-0.0687779462491054 -0.025873480605806187 0.050623664480002606
-0.06733107029449016 -0.03412034169872796 0.055445619010137226
-0.0668354571843856 -0.03741670466428493 0.056535441672948494
-0.06650645103239931 -0.039842560575087616 0.05697573408111184
-0.06624836124958858 -0.041896084959429314 0.057141698140736386
-0.0660247199181022 -0.043766979007406004 0.05717650861035167
-0.06581720038715316 -0.04555033692762689 0.05715240108304598
-0.06564924581956814 -0.04712673829561309 0.05697432414852582
-0.06549445784408088 -0.0486322563812745 0.056747405761727154
-0.06536823445126001 -0.04998887294893967 0.0564087137992858
-0.06525835261934394 -0.051259661411880764 0.05600684313754545
-0.06516349695208316 -0.05245182880391658 0.055546523665930214
-0.06508222350819473 -0.05357317553606039 0.055033079682873964
-0.06501311994602056 -0.054631279479655515 0.05447178074079995
-0.06495299963297675 -0.0556425998356993 0.0538752774205023
-0.06490933070286946 -0.05656987028176025 0.05321236423961806
-0.06486800567595921 -0.05748442641133078 0.05254087046091499
-0.06483896267087662 -0.0583365790041932 0.05181938607923653
-0.06481059744309037 -0.05918471213384763 0.05109582914900784
-0.06478909554422563 -0.0599980081471681 0.050344295605880884
-0.06477379228157988 -0.06077999813656648 0.04956730752956717
-0.06476370259647449 -0.06153577452194148 0.04876877011210928
-0.06475930968407943 -0.06226311439195453 0.04794643997722653
-0.06475800819524051 -0.06297508010280167 0.047111130187289685
-0.06477069994927566 -0.06361801247191218 0.046216404109992004
-0.06478453637261067 -0.06425558914138935 0.045316470485542715
-0.06480636109626693 -0.06485424859364186 0.044382031950256084
-0.06483358115637566 -0.06542695387253206 0.043423894516516626
-0.06486833215632432 -0.06596344306997015 0.04243266403612289
-0.06493025829896754 -0.06636816081266494 0.04132331378259835
-0.06499754680313496 -0.06674813496392512 0.0401891557989566
-0.06508205920321636 -0.06704595250998652 0.038978509606511336
-0.06517470029794 -0.06730623491633458 0.03773028985982879
-0.06527421631279325 -0.06753530767422683 0.03644965308596626
-0.0653942696733493 -0.0676675103438586 0.035076512982824604
-0.06553258658534666 -0.06771445445327484 0.03362005452029443
-0.06568805721680573 -0.06768206475766009 0.032084454329942946
-0.06587404974382223 -0.06750687267461719 0.030409993345819453
-0.06608514729359106 -0.06721576183734174 0.028619480843012746
-0.0663264309132935 -0.0667853269228344 0.02668936262221383
-0.06662195727737812 -0.06610211712306513 0.024511260915513866
-0.06698203313315093 -0.06511898848625308 0.022036999875313545
-0.06744946119251236 -0.063635371233906 0.019072215166481832
-0.06682591941026417 -0.03002695616630585 0.05377259586804117
-0.06601175417024358 -0.035059208341596204 0.05616126381299685
-0.06558481129228437 -0.038036568328712494 0.057010480483409676
-0.06529230091057608 -0.040298820391271806 0.05732727970917362
-0.06504443360061589 -0.04232074937971436 0.05747066278709717
-0.06482910910642264 -0.04416708637820688 0.057488118416969325
-0.06463762049813306 -0.04588432710052054 0.057413916229674455
-0.06446463821724535 -0.0475010029637013 0.05726894806754168
-0.06431428128678889 -0.04899633649242496 0.0570355497718954
-0.06418997927346491 -0.05035330596278703 0.056698682629205854
-0.06408106158346773 -0.05162796046142587 0.05630145667222036
-0.06398705096857808 -0.052823274273811616 0.055845242924951854
-0.0639036277159036 -0.05396198661114526 0.05534743473845466
-0.06383199640170567 -0.055038260078626666 0.0548025817565842
-0.06377047364160067 -0.056061117703671115 0.05421726955267275
-0.06372573141014774 -0.05699676126351749 0.05356305618138102
-0.06368617326671461 -0.05790494838857252 0.05288816819446013
-0.06365497782785022 -0.058769659857804635 0.05217895691961816
-0.06362764696729098 -0.05961403690116096 0.05145417425207638
-0.06360592689248465 -0.06042935169179048 0.05070623573670813
-0.06358789134167692 -0.0612255389311846 0.049943142084279524
-0.0635792761944028 -0.06197375735199301 0.04914018562516359
-0.06357720252651104 -0.06268882560552647 0.048309358993899876
-0.06357353406039973 -0.06341186560461876 0.04748545837073448
-0.06358741266327708 -0.06404680240310218 0.04658582087177776
-0.0636027340176564 -0.06467482549372439 0.04567956252016325
-0.06362237529634453 -0.06528161376904651 0.044754115770316905
-0.06364762336355498 -0.06586089830592823 0.043803696978591544
-0.06368249222074056 -0.06639290790223812 0.04281052447497291
-0.06373390541539374 -0.0668436152799659 0.0417438380990835
-0.06380901189009457 -0.06717818441472717 0.04057151995553904
-0.06389476571179475 -0.06746183368254693 0.03935021845326553
-0.06398268886298408 -0.0677366939521587 0.03811704725467424
-0.0640789550670567 -0.06797248369971465 0.036844505344748535
-0.0641903044834987 -0.06813641642875645 0.03550224274705105
-0.06432636241900816 -0.06818188330718727 0.03404666539026413
-0.06447726807392391 -0.06815785946708275 0.03252097286798744
-0.06465642151079286 -0.06799955001212232 0.030864364566142888
-0.06486196433953283 -0.06771692807240992 0.029084096322174346
-0.0650953947690553 -0.0673036045818447 0.027172350830189984
-0.06538158464693102 -0.06664015163499898 0.025015277585690665
-0.06572071502113482 -0.0657274492721372 0.022609963009430745
-0.06617586486337364 -0.06426341605854274 0.019666702585217355
-0.06698419149030481 -0.06111218782102179 0.015096454647395618
-0.06539764144068043 -0.0315110263514794 0.05489773435027717
-0.06473887562737703 -0.03578194013050473 0.05671216127274009
-0.06436458391535055 -0.0385153686457923 0.05737741396592655
-0.06409159978948499 -0.040699256163259034 0.05763581322443906
-0.06385561351637802 -0.042679792870175814 0.05774879443464259
-0.063652254691531 -0.044481474863968584 0.05773296903058078
-0.06346603348171385 -0.04618761548360212 0.057651391797548523
-0.06329682160011567 -0.04779947392303413 0.057503906617597245
-0.06315588546614771 -0.049258085217697534 0.05724270562866035
-0.06302673911681192 -0.05065134452995024 0.05693582331434566
-0.0629186191505142 -0.05193104576685492 0.05654390376311236
-0.06281720681869989 -0.05317308710919083 0.05612656505551994
-0.06273492129672792 -0.05431262323243202 0.05563092562036731
-0.06266246741793506 -0.05539889990102337 0.05509571617105674
-0.0626022955881528 -0.0564194657026828 0.05451009383956623
-0.06255370704318117 -0.05737837379708427 0.0538765517718634
-0.06251319570757793 -0.05829422854719757 0.05320966415453182
-0.062481984419469686 -0.0591609649066408 0.052503842871241935
-0.062455972704977526 -0.06000010514583043 0.05177641437298375
-0.06243530414417549 -0.060811084194480225 0.05102654726956174
-0.0624179343489809 -0.06160461027772729 0.050262906542333674
-0.06240854929416177 -0.06235671767624679 0.04946494129034662
-0.062405734328401775 -0.06307492928249597 0.0486385125663511
-0.06240589070928977 -0.06377787714128935 0.047799132778588604
-0.06241511853814384 -0.06443452481048983 0.04691985659834308
-0.06243013914432124 -0.06506187764799609 0.04601478047875879
-0.062452840229481596 -0.06565053874077226 0.04507531885539651
-0.06247477418931745 -0.0662436015453412 0.04413865145982665
-0.06250739025047125 -0.06678311586225155 0.04315384513812204
-0.06256549345398585 -0.06719470795615723 0.04205436837660187
-0.06263646279165587 -0.06754280798389334 0.040895712866922285
-0.0627189639222095 -0.06783455681323919 0.0396833532384141
-0.06280453347174486 -0.06811278094778656 0.03845495264069032
-0.06290002622665604 -0.06834329077462542 0.03717941394578078
-0.06300840107632696 -0.06851165251312202 0.035842927534199875
-0.0631341109444508 -0.06859612512915453 0.03442473375846211
-0.06328234593188466 -0.06857150540836421 0.032900472929632385
-0.06345713909879516 -0.06841856055220769 0.0312507966504581
-0.06364835039945357 -0.0681883463603492 0.029521133413682787
-0.0638755949384721 -0.06778461417809079 0.027620608552419268
-0.06416062030265274 -0.0671015000087905 0.025447456685715464
-0.0644899236735353 -0.06620729294483185 0.02306181256320916
-0.06492503504817386 -0.06480191088452253 0.020176424800163295
-0.06557362591216105 -0.06236241195407943 0.01628604244566445
-0.06407750385934938 -0.03245646676222519 0.055614514054780684
-0.06351625626454648 -0.0362560944456487 0.05707358221996811
-0.06316518260027949 -0.03889780841589907 0.057670500565271454
-0.06289936018506444 -0.04106799192383531 0.05791992205879737
-0.06268117715323603 -0.0429736269129668 0.05797641183642688
-0.06248188986916971 -0.0447719596252531 0.057959203053983166
-0.062304008327614 -0.046450081506735186 0.05785690335475979
-0.062142916194835994 -0.04803361455027849 0.057688223853717746
-0.062001031917002215 -0.04951012774371111 0.05744217970580506
-0.061874499126963904 -0.05090098217762101 0.057134452784916634
-0.061761263052024354 -0.05221771221675986 0.05677321691551812
-0.06166180219985573 -0.05345821825263952 0.056355869679746595
-0.061576450438399585 -0.05462119404288662 0.055880406153425266
-0.06150184529500802 -0.05572501966168131 0.055360792069921894
-0.061439452307536654 -0.05676228277032719 0.054790227016379645
-0.06139058400035014 -0.05772644910426905 0.054162496452291875
-0.06135302219283241 -0.05862971259823718 0.053486731363553475
-0.06131996277257601 -0.05950835995346332 0.052792271989936024
-0.06129476929765813 -0.06034483924693973 0.05206415406656423
-0.06127496702039594 -0.061152420886539216 0.051312962699954
-0.061262232783667124 -0.06192250151741535 0.05053106271110275
-0.06125180385894955 -0.06268023321557953 0.04973928695364155
-0.061250730495207434 -0.06338890405383812 0.04890617621166515
-0.06124689735899637 -0.06411192028434687 0.04808541005293193
-0.06125395070191779 -0.06477828798345903 0.04721601998498565
-0.061270363676298484 -0.0653962972155423 0.046304414429920115
-0.06129093065131918 -0.06599319655086994 0.04537365253884201
-0.06131074325059867 -0.06659446140663483 0.044445735567622824
-0.06133979415414485 -0.06714860778811332 0.04347541963998047
-0.061410152826023856 -0.0674911779308005 0.0423165866162431
-0.06147403080255111 -0.06786858730335926 0.04118536870647116
-0.061548723270607494 -0.06819214550603214 0.04000296107204626
-0.06163120357782538 -0.06847767193448584 0.03878279867404916
-0.06173103290875167 -0.06867674749522279 0.03748058814486249
-0.06183603045498319 -0.06885185665013416 0.03615180607449564
-0.06196083664803875 -0.06892896175742214 0.03472850559957663
-0.062107739019845405 -0.06889717517678906 0.033199259125407
-0.062274988193059724 -0.06876608561477898 0.031571301319037126
-0.062460834907883185 -0.06854520086627103 0.02985196202035717
-0.06268390716201047 -0.06814158714208135 0.027953275278789436
-0.06296443105821446 -0.06745515649493233 0.025778752839731578
-0.06328674028819507 -0.06656622434217258 0.023399803873618008
-0.06369367517779824 -0.06526250455968341 0.020612408243209257
-0.06426837265539295 -0.06313310581867926 0.0170193573715941
-0.06280431013918224 -0.03317478899804671 0.05615910554259773
-0.06231425682397726 -0.03663286974173374 0.05736077666290346
-0.0619796295041171 -0.03921733814378375 0.05791537541526215
-0.061728233005272574 -0.04133327104954915 0.05812431813654245
-0.061513175604650264 -0.04324260191614243 0.05818477227957436
-0.0613237022875945 -0.04500588649466947 0.058141388916731984
-0.06115079451963875 -0.046673626571099414 0.05803193970322118
-0.060992634048197866 -0.04825638266408799 0.05786358856302243
-0.06085208157445516 -0.04973900393976194 0.057623319248840565
-0.06072982032307539 -0.05111837375842199 0.05730742499084779
-0.06061599933476837 -0.052448856294186275 0.05695811604505402
-0.06051586002558334 -0.05370222431717975 0.05655210120416615
-0.0604306366604889 -0.05487225522618461 0.056083389960438934
-0.06035398901839511 -0.05599382651409479 0.05557928302514914
-0.060289936612742775 -0.05704550607601061 0.055021663114103336
-0.06023930592065809 -0.05802327656253381 0.05440634090475355
-0.060202482133490394 -0.05892553489800367 0.05373104300432646
-0.06016525142032087 -0.05982911841863431 0.053058585750794474
-0.06014251361607209 -0.060654148694729515 0.05232232581528934
-0.0601286685431248 -0.061431085760270066 0.05154679024208958
-0.06011287488818266 -0.062218098199921024 0.05078041237534431
-0.060103553006534804 -0.06297027922524706 0.049985249991684244
-0.06010009562462664 -0.06369108238397919 0.049163783385116455
-0.06009784102480555 -0.06440542801787336 0.048336948202117036
-0.06010475566912335 -0.06507121612776323 0.047468387306682014
-0.060120093817926434 -0.06569270440627933 0.046561126638585804
-0.06013844973114272 -0.06629865792074041 0.04563960128694672
-0.06016946959689689 -0.06683849285005522 0.04465931992520844
-0.060209873467536194 -0.06732985062776642 0.04363488438257207
-0.06026226811730833 -0.06775942289496462 0.042553840734068704
-0.06032020449399114 -0.06816129299075868 0.041445618226801095
-0.06039175731303568 -0.06849360097645218 0.04027239780698594
-0.06047200087634739 -0.06878242041195876 0.039056608066863674
-0.0605648197592962 -0.06900791539580176 0.03777969510854806
-0.06067507781060273 -0.06914536576635749 0.0364182892165843
-0.060799887395561664 -0.06921028717105565 0.034985264416346806
-0.06094468068994611 -0.06917521570883978 0.03345434781001044
-0.061108341424735556 -0.06904658743984055 0.03182999386861041
-0.06128835477716914 -0.0688379556877532 0.03012336582241354
-0.06151034140627377 -0.06841885328694836 0.028211662411851524
-0.061775839719776064 -0.06778290144241594 0.026085775741486017
-0.062091253235148976 -0.06689902369821787 0.02371318768814734
-0.062482604226868806 -0.06563678788226279 0.020966693029242922
-0.06303809654470702 -0.06355184867546265 0.017417791044301634
-0.06270404281373393 -0.026518612514927653 0.05256816263003572
-0.06158145710123202 -0.033634103201218846 0.056507331718549214
-0.06113561217183468 -0.036891372109170095 0.05755781835906765
-0.060814297623275004 -0.03943445675861046 0.05808176646935226
-0.06056716104396973 -0.04155168518335839 0.058292605001008635
-0.060358908140687395 -0.04344427127847361 0.05834099466904735
-0.060172486348616466 -0.04520933799090987 0.058299840087658095
-0.06000353678151071 -0.04687208415149319 0.05818733248854341
-0.059851167732005495 -0.04843811858475 0.058006652425942995
-0.05971135572698677 -0.04993047779178145 0.05777485744571964
-0.05958979953100732 -0.05131788823300254 0.05746617289937411
-0.05947923182678711 -0.05264136857085938 0.05711211243024433
-0.05937833756104355 -0.053908600095834924 0.05671807016778635
-0.05929134120431023 -0.055096563752955074 0.05626474415510724
-0.05921500095362561 -0.0562236468608191 0.05576608506027436
-0.05914715951719744 -0.057302110040101994 0.05523134720053979
-0.05909871185109876 -0.0582723885538341 0.05461098698930167
-0.05905758630261035 -0.05920136549686722 0.053958844039735
-0.059026262820214156 -0.06007573396583887 0.05326334141897987
-0.059000873833183684 -0.06091695834478544 0.05254168551290478
-0.05898346843552706 -0.061714088266226264 0.05178425748903748
-0.05897034742790373 -0.06248751591389823 0.05100767885192142
-0.05896415751920049 -0.06322303954077496 0.050199594244084544
-0.05895605365098488 -0.06396877361197906 0.04940051529207973
-0.058953696580654205 -0.06468328311813853 0.04857507193678873
-0.058961799801861656 -0.06534137740017093 0.047701140212366655
-0.05897698091833502 -0.06596161378392662 0.0467940235534518
-0.058999545945007614 -0.06654260352835972 0.04585199157701686
-0.05902980721197338 -0.06708293866298598 0.04487326695263866
-0.059068527806155284 -0.06757881891362677 0.04385393669765486
-0.0591161853471007 -0.06802800142190568 0.042791389877534836
-0.05917920524111708 -0.06839664472684887 0.041654873390137515
-0.059244739851595236 -0.06875344881396095 0.04050464621442723
-0.059326526850512304 -0.06902579435247069 0.03927527387097551
-0.05941691835796877 -0.06925464848366486 0.03800254153968613
-0.059524400798194065 -0.06939560456726257 0.03664548632308556
