# .PCD v0.7 - Point Cloud Data file format
VERSION 0.7
FIELDS x y z
SIZE 4 4 4
TYPE F F F
COUNT 1 1 1
WIDTH 771
HEIGHT 1
VIEWPOINT 0 0 0 1 0 0 0
POINTS 771
DATA ascii
-0.06647956107556814 0.024276293089845524 0.043048044585038914
-0.06645058918339256 0.023277376213389822 0.04219042291038466
-0.06644223286262822 0.022404970794711043 0.04124673134774698
-0.06644126133431029 0.02157774231870835 0.040272039961048944
-0.0664608917293563 0.02087574044602103 0.039209904250665895
-0.06650797415999973 0.020339746194366126 0.038030228164509905
-0.06658340593289114 0.019974172488642805 0.036727962184460894
-0.06669051204135969 0.01979805146352176 0.035287589000443265
-0.06678893034617678 0.01956691430417168 0.033881459289989146
-0.06683608562992761 0.019024975311528802 0.03269386156860621
-0.06690556431243189 0.018615879223631115 0.03140811924264514
-0.06703407595556031 0.018558714132604792 0.029863596414341276
-0.0672089780968433 0.018775709957981335 0.02811285224755533
-0.06740658718207772 0.019123850837017564 0.026257533726177895
-0.06766153513482553 0.01980847984640255 0.024144493065127615
-0.06791577955855065 0.02048262603594997 0.022027041902232092
-0.06832056924411221 0.022043053298100468 0.019236291970728403
-0.06759907165079787 0.05203585492141083 0.04804161519196942
-0.06705712483531245 0.04770279522194393 0.04922586955409386
-0.06671540718382958 0.04466699601695934 0.04961071750923035
-0.06645336832324551 0.0421495993477593 0.04968004132862819
-0.06627942203310523 0.0402013181989751 0.049395722033627354
-0.06611658385209254 0.03832821198649472 0.04907087585374076
-0.06593795424642371 0.03635877328887355 0.04881620085687738
-0.06579562745286666 0.03462427431393189 0.0484162764296871
-0.06569165726540904 0.033136353260914075 0.04786091494264222
-0.06553419641509191 0.03131286226053642 0.04753220951831183
-0.06539571657147977 0.029613107212390688 0.04712862933507933
-0.06533953036433443 0.02843506390131778 0.04638283928913389
-0.06529319675953676 0.027320356708597116 0.04559712001390259
-0.0652278289778846 0.02608743489018256 0.044893478378135176
-0.06517231199898475 0.02491782101088308 0.04414989501026295
-0.06511917304615346 0.023764461630449818 0.04339782755283911
-0.06508892830287699 0.02275516883089701 0.04254927641128542
-0.06507448161791322 0.021844927567831463 0.0416337168220276
-0.06507258121619237 0.021012950251856788 0.04066446536813739
-0.06508702705837821 0.020282308530628623 0.03962450622774788
-0.06512126649211251 0.01967370199456625 0.038498127068939736
-0.06519118861311766 0.019284436728058407 0.03721517291111831
-0.06527980673282979 0.019008549681067022 0.03584833862087139
-0.06538573791310115 0.01883683443591261 0.034402851717987015
-0.06548874124009108 0.018644491335908897 0.03296707744426691
-0.06554846231792985 0.01818463122248104 0.03171948342446251
-0.06558569855275667 0.01758592460019709 0.030569798938476
-0.0657488389822157 0.017753735907724555 0.028858812919287435
-0.06591942281469004 0.017962712771255218 0.027109696422804586
-0.06610775688563178 0.018275139872613144 0.025275946422193274
-0.06635916600510529 0.01896491237273723 0.02315305792785821
-0.06666251513796494 0.019962332435156882 0.02078840058238196
-0.06716425106823694 0.02214888245512997 0.017517052751055917
-0.06648518124164876 0.054279515271725365 0.048187537759337706
-0.06580842617911159 0.048982188114536585 0.049960270098578674
-0.06544096281004151 0.04572865409904675 0.05047329602384426
-0.06515366435151611 0.043008755632392315 0.05066447703018856
-0.06493018969124387 0.04071275872715607 0.050598280170461085
-0.06481268006495176 0.03911267420466663 0.05009537359254318
-0.06464677489867562 0.03720102561962252 0.04979938731585176
-0.06447277259111246 0.03524111297229887 0.049542626476700935
-0.0643580488995657 0.03366947868742881 0.04904033934222879
-0.06421257460795962 0.03190209203582772 0.04867217050823258
-0.06406982340576224 0.030156006608637043 0.0482968521272808
-0.06397432107899159 0.02871768618089482 0.04772378619917095
-0.06393706060438435 0.027655918175641114 0.04690360675464689
-0.06388433359985533 0.026495962983032306 0.04615120583125165
-0.06381416605697687 0.025225788481283318 0.04547582947510587
-0.06377429906031816 0.024150874833278158 0.04467112628121056
-0.06375363999791815 0.023199374190069733 0.043784005382150604
-0.06373615540001444 0.022268590774884744 0.04288364594476074
-0.0637233270636592 0.021367805683789542 0.04196340429921469
-0.06371923795548051 0.020522697470868045 0.04100509983956013
-0.06372202592775596 0.019721159724068682 0.04001655356898853
-0.06375177948095705 0.01908963465307989 0.03890843687912471
-0.06381472529866546 0.018666276786749703 0.03765182441073078
-0.06389386289754914 0.018343013207516745 0.03632104094177574
-0.063967389972613 0.017982543102335713 0.03501295076604505
-0.06407884424164338 0.017857456484627887 0.033532227174207285
-0.06415600078695304 0.017515377259410547 0.032202689635468074
-0.06418333235299319 0.016860888318891987 0.03109614347127504
-0.06427340832012718 0.01659580814148337 0.029704009110037566
-0.06447981367530697 0.017050191079132748 0.027779398819805012
-0.06466093472479105 0.01734271268356996 0.025963985533738132
-0.06486926272245762 0.017798686510080264 0.024018299536128107
-0.06517737988093658 0.01886460867356138 0.02160724492327004
-0.06542097324039081 0.019525581337917375 0.019484517950678792
-0.06593932883618298 0.021867423459074276 0.01608212543645343
-0.06454572869938532 0.05018708456670068 0.05074430202776076
-0.06422063862635531 0.0471627352064774 0.05110345384132814
-0.06390758115814904 0.04422735810982453 0.051421939631013325
-0.06365353233930665 0.041693918522668405 0.05150001458902237
-0.0634640821217483 0.039597318767041756 0.051311122139446885
-0.06332048538964559 0.03781043516535282 0.05093229877533967
-0.06316020295778553 0.03591664347564433 0.05062949593064553
-0.0629894227491626 0.03395756340407802 0.05037687215657499
-0.06283984666838402 0.03214305370638609 0.05003802428443449
-0.06272661368303276 0.030572100240775668 0.04954634788980761
-0.06262496074013778 0.02908031986841636 0.049007844820384006
-0.06257755000752536 0.02794743494128471 0.0482357468257415
-0.06251323030287835 0.02670496829603397 0.047539205131578055
-0.06244940701323471 0.025467436272073207 0.046842492100948374
-0.062406263478441915 0.024366576414257823 0.046056535301295
-0.062387531912634554 0.0234258898628818 0.04516383991428158
-0.06238371423588259 0.022582661516856395 0.0442054636281351
-0.062383896019965454 0.02176548446369836 0.04322937346058542
-0.06238407780510851 0.02094830264807751 0.04225327760442665
-0.06238098761115887 0.02010997115588442 0.04129186784088218
-0.06238844095489849 0.01933971920940858 0.040283047479099
-0.0624226400807932 0.018741412517896572 0.03915306442125999
-0.06248039061676016 0.018293480853174005 0.037915157397175436
-0.06253441196339565 0.017820130119707567 0.036692422615045184
-0.06257114866376269 0.01723479511437037 0.03554696102427257
-0.06264255209222738 0.016869798704740757 0.03424143913180766
-0.0627621046346231 0.0168096674172053 0.03271221725538204
-0.06279413609417882 0.016189986308079884 0.031583188898573145
-0.06285146924394694 0.01572998780105328 0.030335989856108636
-0.06305639809260813 0.01620294889947893 0.028401192387511043
-0.06324603423914013 0.016573912280552827 0.02653128424881529
-0.06340600198505332 0.016752840943423497 0.02479422907865636
-0.06366488990419747 0.017549967088353546 0.022587898581326038
-0.06390529198738727 0.01822423272233531 0.020460524134999603
-0.06419213968013901 0.019183203026260198 0.018106192185795067
-0.06473289258704151 0.021722197865770065 0.014539300026415514
-0.06355016501129675 0.05324220871402602 0.05038149560318189
-0.06298956261670553 0.0485502199317972 0.05176694048212188
-0.06269467486706955 0.04569022906401349 0.052028646835171055
-0.06242798413663216 0.043030572568698466 0.052178168223437515
-0.062212789797719846 0.04072881707579984 0.05211330615265397
-0.062030248725422996 0.03865479958686974 0.051913455973830736
-0.06185917434403143 0.03666346722393349 0.0516694340669831
-0.06169974900537567 0.034755594052007455 0.05137989341419913
-0.06155107743131751 0.032924662012344175 0.05104820853899794
-0.06141714682472736 0.031197130214377977 0.05065628829096985
-0.06131587063230834 0.029692981307324506 0.05012417542994463
-0.06124549774951018 0.02839914024471918 0.0494580816012522
-0.06116690019361504 0.027052044225368888 0.04883088354006565
-0.061088682055832115 0.025709591878437688 0.048204497434597315
-0.06105577985210529 0.024671827208375463 0.0473772313701577
-0.06102699728548665 0.02366239706325629 0.046532460940030884
-0.061006936617999795 0.022711743838733034 0.045649187192459195
-0.061006759149347264 0.021893597244114327 0.04467636658241886
-0.06103054922196076 0.02123421250934432 0.04359445600660433
-0.06105186951792048 0.020557864283233807 0.04252306745018242
-0.06106644695629394 0.019836462037093106 0.04148190579216293
-0.061089393850587634 0.019169771048594852 0.040401781981991736
-0.06112999335609822 0.018618447938665017 0.039239447565086516
-0.06117600003288017 0.018101491637284084 0.03805077339786661
-0.06120349440157704 0.017462168055965177 0.03694666788191103
-0.061224756982903694 0.01678141391590915 0.035870746864906655
-0.061272517584456565 0.01627277012702799 0.034670150184325677
-0.061359464615105115 0.016017688874032487 0.03328403150253045
-0.061423442730761016 0.015611212427513121 0.03200335334498522
-0.061487554402719025 0.015203887448784814 0.030720001732024715
-0.061655489089789475 0.01546586816061829 0.02894213814459179
-0.061833093199819146 0.015785716465500144 0.027112894861080594
-0.061972691592726864 0.015856189625677364 0.025459469023221215
-0.06218640968321425 0.016398992300467985 0.023446465394341975
-0.06247336052096578 0.01740546181398317 0.021074598995897864
-0.06271042252135661 0.01808514779717757 0.01893419313942646
-0.06315497133465559 0.020082829870454677 0.015782176567230743
-0.06260600984024622 0.05676123216854473 0.04974773722264081
-0.06180016026196201 0.05025524503813045 0.05223703017593018
-0.06149626731840503 0.04728362522108975 0.052558251155979896
-0.06121194833182796 0.044457014210772305 0.052803490286901955
-0.06098978436958574 0.042071395349318474 0.0527842561260492
-0.06079171504224769 0.039859461306628485 0.05266575435460963
-0.06062265562761741 0.03785434812923705 0.05242499887487401
-0.0604605857660124 0.03590228899632891 0.0521586293744854
-0.060308411866540165 0.03402309556347766 0.05185331427924533
-0.060178157176692997 0.03229934065902568 0.051454637437775896
-0.06005425912937452 0.030622932214967147 0.05103158920976475
-0.05996342081261678 0.0291771712904072 0.050463207183115144
-0.05988682572647134 0.02783161078844676 0.049833199450569354
-0.05979074727858519 0.026354746128644968 0.049294354615666836
-0.059725707958416654 0.025092604554136033 0.048616881042106874
-0.059685433774693986 0.024001127228699903 0.047828017608468665
-0.05966531704445452 0.023047939097158854 0.04694774761319925
-0.05965127805603842 0.022136581983064396 0.04604007817514455
-0.0596569968470294 0.02135953593100387 0.04504134131708565
-0.059680750223043595 0.020704333284599197 0.04395858148860482
-0.05971667626389481 0.020130659727496114 0.042818262445286914
-0.05973682764838839 0.019449723045516454 0.041750617438649884
-0.059768471898551764 0.0188455102282038 0.04062832722456683
-0.05980746472129762 0.018289741257900394 0.039470365416866826
-0.05985418375057806 0.01778464341390018 0.03827458643175102
-0.05988944561632669 0.017201702749322256 0.03713166533863693
-0.059919328496598964 0.01658192492979138 0.03601321353376408
-0.05995886861069705 0.0160256021009047 0.03484763526390777
-0.06002617160849868 0.015652590033737257 0.03354763551086859
-0.06010382745410949 0.015346355800943678 0.03219562763658268
-0.0601760410061004 0.015002000343179778 0.030867363439372686
-0.06030664074124467 0.015041056680878517 0.029253908559159436
-0.06043887588653367 0.015087313179464712 0.02762824746133774
-0.06054454673933685 0.014955337579801775 0.026127825555128992
-0.06075070978419949 0.015479662757464985 0.024132237006505186
-0.061051072491687564 0.016614975040769586 0.02166746087014293
-0.06131924352542103 0.017531786805410843 0.019351461248306612
-0.06166431526676336 0.01894254807123469 0.016646674045660836
-0.06211853204231181 0.02105385045402175 0.013389461017917714
-0.060890616994005886 0.05400980212001588 0.05144724404072021
-0.06031735086195302 0.04905242887554567 0.05298423275905745
-0.06003322240026129 0.04617823271960003 0.05324885003329788
-0.059787841702990924 0.04358845833140568 0.05334921420015265
-0.05959124509812355 0.04135295443034387 0.053238226821905765
-0.059415603547475916 0.03927188211710014 0.05303914241767027
-0.05926230563481689 0.037354212838899226 0.0527446193276746
-0.059111535257441145 0.035458721543560945 0.05244370205337395
-0.05897191049461566 0.033646193665549495 0.052096909624967935
-0.05882536695938127 0.03178877973173194 0.05178647756179827
-0.058724643234357096 0.030257922493029832 0.05127016281007807
-0.05861520208569555 0.028668652338487477 0.05079744666303093
-0.05852524957561536 0.02721904922967322 0.05023808200241203
-0.05845528824958624 0.02591181182842156 0.04958875845458399
-0.05838719016691133 0.024619538260429785 0.048933070333370854
-0.05834904996302836 0.023537906120490892 0.0481393545805926
-0.058325004893262734 0.022555353958654933 0.04728066549319798
-0.05831908133588646 0.021699233065501033 0.04633730885287085
-0.058326528289334004 0.020935879262777568 0.045330866089391575
-0.058344984617301816 0.020248412271704153 0.04427188393720405
-0.05836904616794771 0.019599093501711184 0.04318557053531252
-0.05839601188974546 0.018969094252631602 0.042084565028880194
-0.058430306183121915 0.0183886880110552 0.04094748665885428
-0.0584654911582841 0.017813429794660662 0.03980497626083812
-0.05851298148646626 0.017321381018689075 0.03860182248518207
-0.05856259667877684 0.016842513565822337 0.03738678217660435
-0.058610586800531064 0.016351186247488048 0.03617799742526634
-0.05866430590831783 0.015897475079283074 0.03493964002271821
-0.05873785858362173 0.01557685454606389 0.03360231708177697
-0.058817447833533584 0.01529505866831049 0.03223286710446305
-0.0589000147809274 0.01503116212631661 0.030846077631448143
-0.05900896373766161 0.01494288221391643 0.029325959093865983
-0.05910666765866948 0.014775876433301305 0.02785805699998123
-0.05918290293605488 0.014461952393416133 0.026493875911097198
-0.05933929359333944 0.014683117268894819 0.024726418155164687
-0.05964642370323565 0.015908094974346587 0.022197618053345802
-0.05994995356246261 0.017100460150583585 0.019676707986416464
-0.06025423997169194 0.0182893813457779 0.01714186829285308
-0.06063508188797302 0.01997861184785321 0.014209054435346757
-0.06031410560036393 0.06035339833407177 0.04908781831667425
-0.059222231456376964 0.0514809707450582 0.05300925582648658
-0.05886935589834183 0.04805108439079181 0.05360627892777581
-0.05862273711542182 0.045407831016117894 0.05373016192096819
-0.058411476022000676 0.043029521186559117 0.05370040100711926
-0.05823345121058705 0.040899196548773165 0.053524948771904224
-0.05807760226992286 0.03893507447363409 0.05325317306385219
-0.057933679259713315 0.03706188111024794 0.05293143917679266
-0.057792336390084575 0.035211471444407894 0.05260260516423382
-0.057647793603695784 0.033341988140926315 0.05229352060079123
-0.057504812980152496 0.031487894673600636 0.05198203842372323
-0.057386147301631836 0.02981280726287522 0.05156109408294568
-0.05728465607102807 0.02826441732286844 0.05106314236792886
-0.057196831639842585 0.02681685512416432 0.05050391875537541
-0.05713217743166954 0.025537495247086428 0.04983755435605258
-0.05708374118274107 0.024375727540809966 0.04909602918219347
-0.05704829550215541 0.023307869727947184 0.04829396505205791
-0.05702331124190547 0.022315387239148 0.047442849053528524
-0.05701289381413979 0.02142695555112667 0.04652235385213144
-0.057015043130981075 0.020627790394141254 0.0455414124261585
-0.05702298047282095 0.019869458703017706 0.04453229545063925
-0.05703819988979247 0.019162247207337668 0.04348742789614124
-0.05706220351354417 0.01851641414011862 0.04239909348609461
-0.05709750066809966 0.017949204991096646 0.04125453204054447
-0.05713699237336348 0.017410384090462916 0.04008811759513087
-0.05717886670763756 0.01688709909965147 0.038908587512370474
-0.0572349613382295 0.016461871544288686 0.03765713605526233
-0.05729817862824963 0.01608465390041247 0.03636834365123892
-0.057360531616319786 0.015699622348183395 0.03508171304193325
-0.057438118591018446 0.015418485652538061 0.03371666057050382
-0.05751170964923646 0.015107470353358576 0.03236904799159629
-0.057572673964938724 0.01470712333988855 0.03108260045776684
-0.05768771195340996 0.014677819498061406 0.02952048941319535
-0.05778554211523681 0.01452684396219417 0.028041818351194292
-0.05787262981580617 0.014299321765018802 0.02661453417376669
-0.05799400233117924 0.014304202524148713 0.0250090686773356
-0.058277812431763804 0.015416182207970197 0.022566550633271676
-0.058603166734480815 0.016803493225119037 0.01990063925232105
-0.0588986309241129 0.01797800819561929 0.017377933889398678
-0.05918568464170767 0.019086941265146762 0.014888724357826066
-0.05838985201903365 0.05596323075749848 0.051784106927559526
-0.05777583300417832 0.05050288862396757 0.0536133988372543
-0.05752205094265288 0.047758288036229335 0.05378816723229374
-0.057223778363000896 0.044688564444424816 0.054179526907825015
-0.05705750362391701 0.04261222600664727 0.05396259249528029
-0.05690701261814079 0.04065825777729848 0.05367719391671211
-0.0567566430991592 0.03870958924718687 0.053396461821269725
-0.05661673551095892 0.036842898991237105 0.05307138363859265
-0.05647253874482965 0.03494855096317723 0.05277157934268489
-0.05632676399374968 0.03304675991636524 0.05248432946066789
-0.056185844923597565 0.03118502459133987 0.05217888945616089
-0.056065243418207 0.029476892746678973 0.05178065079804106
-0.055973338742807306 0.027983001836516308 0.051248111218044456
-0.05589912141343497 0.02662141374824789 0.05063309892001899
-0.05583418034894062 0.02532983753988549 0.04997557759369725
-0.055787839924439225 0.02417592573633537 0.04922957323678068
-0.0557532159016838 0.023108715316660478 0.04842781933955975
-0.05572218791519707 0.022068659105486055 0.047609602373460624
-0.055709108339393305 0.021159729171611297 0.04670396600366533
-0.055704104200640134 0.02030965251206046 0.04575882620665428
-0.055704588433353894 0.019499381060701426 0.04478660755346009
-0.055720734327525806 0.0188020379056979 0.04373632969647556
-0.05574820383845579 0.018185716667464547 0.04262886670343602
-0.05578800182362958 0.017657138138221562 0.04145858492597454
-0.055831910149252706 0.017156857958397054 0.04026622078929365
-0.05588482142656083 0.016719692643241635 0.039026838915205475
-0.055945646978935774 0.016337476268605933 0.03774548874194694
-0.05601329573495581 0.016002089467442193 0.03642730770715147
-0.056079145138948606 0.015651934295510983 0.035115956620912436
-0.056110244498205696 0.01505332007736615 0.033980312761906495
-0.056118925736777465 0.014295078779909098 0.03295880863420503
-0.05613039564118103 0.01355628662048075 0.03192262074208596
-0.056174024069553755 0.013043899417943539 0.030719628243108366
-0.056384255842208686 0.013702473691648231 0.02865012213640722
-0.05658807049084158 0.01430984777614347 0.026606724757867295
-0.05668986267091641 0.0141964084222031 0.02508947742263873
-0.05688663678437621 0.014744133697007222 0.02307058429113218
-0.05720640934475632 0.016144350453435374 0.020397673307693043
-0.057576318870375745 0.01788433023305913 0.01744895524786738
-0.057799631333769884 0.018594881602815028 0.015263793535881753
-0.058241081447369496 0.02081143743008068 0.01191171399983304
-0.05689432338634898 0.05466706000749699 0.052580170032221096
-0.05637836534541786 0.04985500856078401 0.05401358222017072
-0.05619085664329814 0.0475753312261013 0.05390182200796173
-0.05587982429000339 0.04435652912875804 0.05438696744674709
-0.05571873707671766 0.04229159147976752 0.05416405095395732
-0.05556777833095113 0.040308631369254166 0.0538981169453952
-0.05542973468147917 0.03842838224110634 0.053575160014110335
-0.055294002552302164 0.03656980091740342 0.053245911874660046
-0.05515035173771404 0.03465530594775207 0.052960042543932606
-0.05499939367741029 0.032689874008780984 0.052714988278040276
-0.0548665595561712 0.030865673882206512 0.05238645210590609
-0.054767074885702635 0.029296519400142385 0.05189854442140923
-0.054686886912076696 0.0278753276522547 0.051318883336196774
-0.05461360050302926 0.02650828599447863 0.05070787255374498
-0.054548111393487655 0.02520178837156134 0.05006068765788907
-0.05449368333657707 0.02397986140926861 0.049360619226406555
-0.05445151311511128 0.02285092970207231 0.04860108042650224
-0.05442942746161675 0.021872665798020052 0.04774206612706411
-0.05442248995627204 0.021007521264598372 0.04680740940443745
-0.05442532781351813 0.020215009804718687 0.04582350454255363
-0.05443131981700018 0.019445735420990762 0.044823472075608994
-0.05444851472753893 0.018758949298775807 0.04376610358567823
-0.054480251277387585 0.018178735976498772 0.04263371698490204
-0.054518194159786655 0.01764318543941057 0.04146833299708874
-0.05456110157929018 0.017142911713170617 0.04027601808632636
-0.05461487061524653 0.016720854704737664 0.039026018066326496
-0.05467288213654898 0.016328178799754345 0.03775209233961491
-0.05476005105360723 0.016146308781002705 0.03632431232085104
-0.054823650506346716 0.015790377464939664 0.03501654409847155
-0.05482189074797873 0.014958068561572668 0.034049085046538086
-0.054800462753128124 0.013983324431153965 0.03318512861470069
-0.054821890748911785 0.013319053356440513 0.03209578236488464
-0.05488531332169299 0.01295711861883031 0.03078331693092967
-0.05502226669391221 0.013122688929630033 0.029077945989286924
-0.0553246146409142 0.014472487023284075 0.026486060100814335
-0.05539737267162649 0.014167126652210482 0.025111320086966926
-0.05551802318110429 0.014202255716425971 0.02347699057908753
-0.055769846129228244 0.015170339218126272 0.021132137486109093
-0.05618968025010916 0.017327969804153964 0.01787075640983965
-0.05644578176262891 0.018308904951908123 0.015481777320389745
-0.05686556443916416 0.02044351446052084 0.01219367550174244
-0.05618561209768455 0.060366180203787534 0.05063286124690419
-0.055421489695227616 0.05348791650538359 0.053304359061431106
-0.054975843419802425 0.04913654605442008 0.054457363056522656
-0.05477367553529732 0.04670904573610335 0.0544399680488839
-0.054546060931658945 0.04408847871887894 0.0545544331314497
-0.054381663696641144 0.041968920695439504 0.05436678881722934
-0.054227707590898955 0.039935832030548346 0.054133682558011875
-0.05409853339389649 0.03810036716803811 0.053783603258817425
-0.053966322569618724 0.03624526445467802 0.05345331273832743
-0.053820230127445065 0.034286573923324015 0.05319701986348063
-0.053676810594847454 0.03235303930098782 0.052932687810855805
-0.05356196750427314 0.030644594603304876 0.052530143037600285
-0.05347798834330147 0.029177559378396445 0.051976297749541545
-0.05340608229373499 0.02780596751107811 0.051364472389321014
-0.05332987431474918 0.026403549702303464 0.05077709971408351
-0.05326006610919084 0.025052499136117123 0.05015991529503894
-0.053187202861923404 0.0236802245730518 0.04956089128159297
-0.05316470500860684 0.022694534625798013 0.04870619560506262
-0.053156850654508266 0.021821058405597393 0.04777694542474209
-0.05315623472529245 0.021002839762210124 0.04681059104287705
-0.05316408889825218 0.020248889125894565 0.04580035158997442
-0.05317425656798265 0.019512211484553066 0.044777790668307615
-0.053192599015426535 0.018836981399062425 0.04371218401681426
-0.05322360955142542 0.0182567008163389 0.04257954592654528
-0.05326315794802348 0.01773971149397663 0.04140089494391874
-0.05330199101968971 0.017216140346652253 0.04022457465751306
-0.05335328782169258 0.016784778496820196 0.03898086402477752
-0.05341478788439757 0.016428149281928317 0.037681087547505654
-0.05350215607257688 0.016262690637933452 0.03624119727878766
-0.05356400001233904 0.015904461704082717 0.03493462310496387
-0.05354977575141071 0.01497897352578309 0.03403399151089287
-0.05352572112755856 0.013981008387130567 0.03318680996105655
-0.05353602760599623 0.013238111867459212 0.03215486328526257
-0.053600767975462774 0.012896972918300942 0.030827458040298905
-0.0537214389066622 0.012966124467768791 0.02919347508850706
-0.0540593277336081 0.014629402035249817 0.0263696423453329
-0.054139552962999486 0.014390948939392356 0.024944360402175958
-0.054239889400592566 0.014297359439728818 0.023405663172284985
-0.05444362042709788 0.014956505386463315 0.021293381303219727
-0.0548013199591139 0.01673255708772181 0.018322164818123376
-0.055071868006501774 0.017863256831319563 0.015821469611969174
-0.05544560350391867 0.019735230170513318 0.012736476356030757
-0.054658579859328815 0.05883604991673086 0.05156725515913235
-0.0540221462777117 0.05284419478498781 0.05369971060849832
-0.05361725923680966 0.04873685028335267 0.05470424764966353
-0.053410712374802945 0.046236248612078645 0.054733674804209875
-0.053231996708616156 0.043965364538399776 0.054631349262784235
-0.053053216008673944 0.041699563548774965 0.05453602909253208
-0.05290561562143604 0.039688495993954465 0.05428997002672009
-0.05277639876789982 0.03782865096283339 0.05395627034671241
-0.052640230736447365 0.03591753630857064 0.05366275330466619
-0.05249553155755419 0.033942929475135886 0.05341787385720542
-0.05237213536081649 0.03214173258849373 0.053069257384971646
-0.05227539128289014 0.030555263472336613 0.05258820398977049
-0.05219451154106078 0.029097090020889615 0.05202889323722726
-0.05212206995063199 0.027707946567437025 0.05142889962275993
-0.05205285410852057 0.0263464433924242 0.05081484506088019
-0.05198668825566169 0.025011049280124764 0.05018746564894144
-0.05192114186999293 0.023682582194843482 0.04955931548815068
-0.05190128460773287 0.022713342693064797 0.04869355445678469
-0.05189872833740429 0.021879704188986826 0.04773730917031477
-0.05189782618474731 0.021059024951162353 0.04677240651532977
-0.05190354035119486 0.020289785544178818 0.04577240318958348
-0.051915122915445096 0.019565874848179066 0.04474091396653568
-0.05193152785383684 0.01887892161436422 0.04368320365720807
-0.05195412041526127 0.018239243368907754 0.04259167560455773
-0.051986235648815694 0.01767225465832406 0.041448023749606155
-0.052027606636967934 0.017175454463957573 0.0402531566644494
-0.05208509156442164 0.01680105327196446 0.03896936796283995
-0.05215257112992579 0.016501415241011286 0.03762904984517346
-0.052231036346685605 0.016283646579748623 0.036226231423873656
-0.05229706264451837 0.015968517172178454 0.03488862650082797
-0.05231202941371544 0.015262568746904348 0.0338292337062045
-0.052294161916036766 0.014306677600065654 0.032950388399613006
-0.05230057448568023 0.013535445009768998 0.03193783347857626
-0.05235437980997827 0.013122613559526819 0.030661859699356253
-0.052480152128286904 0.013251512485262351 0.02898288693716483
-0.052805647110616694 0.014881427675227765 0.026182660494696364
-0.05290045980859324 0.014766505037546007 0.024664215254172506
-0.05299247808869355 0.014627640488444671 0.023157953725138514
-0.05316753490540676 0.015107701103913573 0.021179370463948577
-0.05346411453127923 0.016490356486109525 0.01850578768179728
-0.053706476201288156 0.017459416771542113 0.01612929398954349
-0.05404088826683939 0.019105841443560423 0.013218814794831668
-0.053228806385694466 0.05803530593637235 0.05205623985986629
-0.05267847909727322 0.05262872941272334 0.05383204196468094
-0.05233333067408216 0.048933371948481685 0.054582859897150726
-0.05212324239118971 0.04636171383804938 0.05465573443073124
-0.05191822710919027 0.04383851698243374 0.054710597837044184
-0.05173364783419955 0.04148960134990659 0.05466795082091269
-0.05160060453106161 0.03956867958935023 0.05436567999136249
-0.05147127543222156 0.037682392107339535 0.054049213241443184
-0.051336560302975905 0.03575632457768452 0.05376577856086795
-0.05120404868757593 0.033852526487629375 0.05347597420173522
-0.05109745523268493 0.0321635819331999 0.053055135941946885
-0.051004995922353275 0.030592681276666145 0.05256388421094371
-0.050921919790976815 0.02910069245445196 0.05202653865461421
-0.05085257552658228 0.02772228817392086 0.051419473167611696
-0.050790651707660464 0.026405929477472223 0.05077552676287661
-0.05073049832603739 0.025105804183649327 0.050124485185834844
-0.05066608028464398 0.023773371425502787 0.049498633543826
-0.05064097515646434 0.022758018842505334 0.048663527031767795
-0.05063393257461214 0.021887915954499904 0.04773175917833983
-0.05063642659889336 0.02109414863032011 0.04674853579211302
-0.05064200236467137 0.02032484621950359 0.045748442905698905
-0.050650221521000946 0.019576375875484442 0.04473369780962577
-0.050662848992486596 0.01886261049034471 0.04369447451588787
-0.05068106713216829 0.018192697601014995 0.04262401625341877
-0.050713569064302105 0.01763504681369421 0.04147401905849729
-0.05076660274323154 0.017238230433088753 0.040209056277133004
-0.05081841748423006 0.016830118666275373 0.03894883695271689
-0.05087700226554746 0.016473501230494403 0.03764887598255506
-0.05094210660107285 0.016166088909820464 0.03631018618227527
-0.05100975983347319 0.01587651667209805 0.03495468972241239
-0.051084460898688774 0.015639771235464006 0.03355689077611179
-0.0511091109635301 0.015010832340612124 0.03243920294932906
-0.05112301512239825 0.014297585758656695 0.03138153067925192
-0.05119159988127306 0.014007982416415654 0.030012084849282472
-0.05139181241033975 0.014734934185138993 0.027888268332706467
-0.05154383866639955 0.015083278315176696 0.026032904278570468
-0.051637195659860885 0.014974539549465982 0.024509032421519306
-0.05175770225848176 0.01507162127568662 0.022824969935184625
-0.05192995173220007 0.015561978330237203 0.020836817588057943
-0.052169454021025255 0.016561912312438032 0.018451538081856067
-0.0523896510353244 0.017406593196090947 0.01616955840571721
-0.052673874710508065 0.018732541978800032 0.013504896628406093
-0.051859861848475554 0.05771045483435494 0.05225461440004325
-0.05135795658061898 0.05259852873949572 0.05385059017038024
-0.05105909339769182 0.04922201389794617 0.054404571170035554
-0.0508121293690931 0.046293851089947435 0.054697891513631525
-0.05060779293335526 0.043733290734021546 0.054776338403331626
-0.05044105321467892 0.041495884628539426 0.054664002962766745
-0.05030583639259233 0.039528755880408606 0.054390907109488296
-0.05017695675671041 0.037619209993060676 0.05408936348449317
-0.05004212149548922 0.03566408362341594 0.053824726801753264
-0.04992116846352182 0.03382932123402266 0.05349088779327277
-0.04981768834814498 0.03214416017972893 0.053067688409252856
-0.049732193318743914 0.030611996340960956 0.05255133034520815
-0.04965726373909101 0.029170351885986046 0.05198100863067767
-0.0495894859202694 0.02779042448460267 0.05137468851413968
-0.049523188231484404 0.026424968676040717 0.05076294249409413
-0.04946955946289376 0.025166233408457306 0.050084319870668914
-0.04941275079381695 0.023883080008476554 0.04942530623313496
-0.04938053122981176 0.022803880911738128 0.04863270253453045
-0.049375236924314135 0.021946581110924845 0.04769210983048067
-0.0493768107889792 0.021145674406382875 0.04671351789056016
-0.049383822858366705 0.020389139958951696 0.045704504897234766
-0.04939255495254134 0.01964639672668822 0.04468558047457283
-0.049403725080913855 0.018923201339861417 0.04365260671441845
-0.04942393006216124 0.018272995804235803 0.0425682239416339
-0.049459220903892355 0.01774436452656364 0.04139764409666907
-0.0495029020349886 0.01728241792217866 0.04017801437669921
-0.04954061022308998 0.016770829743822213 0.03899071704744572
-0.049581549686893205 0.016284021734008836 0.03778345522999249
-0.04963744595965958 0.015916072744713294 0.03648873724364726
-0.04971231569950535 0.0156984590888804 0.03508254834888297
-0.04981346487422261 0.015688720172053083 0.033521549289191876
-0.049874118626884 0.015352185856166156 0.032191395272256396
-0.04990961697197287 0.014813135491723417 0.03100521992547778
-0.04999528356562612 0.014671985086184502 0.029524771305508457
-0.05012721168922143 0.014895241929477054 0.027769977060975837
-0.050255094480752424 0.015082104173041011 0.026033775393388192
-0.05037484328972834 0.015200450280812128 0.024340514866939056
-0.05054639226094679 0.015723485412786786 0.022336074475867496
-0.05068999348073022 0.01602085467084141 0.020490796698073577
-0.05086643241384597 0.016571455025969573 0.018444303333576273
-0.051092775395413806 0.017507450298963168 0.016092680755360522
-0.051378087877565946 0.018897290022785118 0.013378640292808885
-0.05051044452977758 0.05753882617662548 0.052359421666655026
-0.05006628656080145 0.0528179071095225 0.05371585558673153
-0.04977016846765488 0.049398236100134885 0.05429572201565608
-0.04951944332825788 0.046382204921389225 0.05464300514517717
-0.04933125536899317 0.04391588502482807 0.05466226180875938
-0.04917637089860833 0.04174359393047522 0.05450836428388339
-0.049036645400436465 0.03970722344453531 0.05427813646664953
-0.048893103692230724 0.03764274620947583 0.05407440696047788
-0.04875641277213531 0.03564195184039248 0.053838870515760084
-0.04864484392137551 0.03386107644265246 0.05347047930221632
-0.04854357598974112 0.03217207952153961 0.05304964386833094
-0.04846691088443913 0.03069652096246228 0.05249639339374451
-0.04839711735689533 0.029282096346276487 0.05190797145768111
-0.04833315214656705 0.027919586875412683 0.05128979262153621
-0.04827047850245111 0.026570200812525258 0.05066694894505852
-0.048215807250658826 0.025290702882667604 0.05000158911123792
-0.0481655910155628 0.02405070624054545 0.049313267772098435
-0.048140173137585916 0.023021573052490973 0.04848638879632622
-0.048135567274628414 0.02216848906190666 0.04754213144335334
-0.0481398939700683 0.021390601385410435 0.046547060837515586
-0.04813905648492462 0.02056927152179011 0.04558140392036536
-0.04814198781224096 0.019779503468007054 0.04459411141129044
-0.048148968599524 0.01902344938769368 0.04358333610016207
-0.04816125970316087 0.018311410655675542 0.04254153276695344
-0.048183483411654376 0.017681557699112893 0.04144152416809749
-0.048213006938827935 0.01711153621504835 0.04029805950820464
-0.04825139958695936 0.016613973315225017 0.03910151619535851
-0.04830277868625463 0.016222450553166956 0.03782718662750628
-0.04837272299933058 0.015982325587005353 0.03644142224181496
-0.0484516351994591 0.015813654662708565 0.03499982933417434
-0.04853378451698411 0.01566890605923371 0.03353585522222807
-0.04858121771346649 0.015236782505348878 0.03227517304219091
-0.04863415675788059 0.014848096940377531 0.030979700817907296
-0.04871335321778414 0.014671985086140316 0.029524771305540876
-0.04882983209385031 0.01479693572829427 0.027842517321616023
-0.04896534699727955 0.01507271128557125 0.026040744126736404
-0.04910771600528085 0.01539951111486626 0.024192025927225524
-0.0493044462532979 0.01616161968587143 0.02200747554782223
-0.049429952621825736 0.01634162717563975 0.020248914566066756
-0.049576668557393545 0.01668839026821395 0.018355649614706926
-0.049811978881896576 0.017742981235309097 0.015913148878507755
-0.05012357277279237 0.01940206502256897 0.012991800848575041
-0.04918690870893687 0.05758976448146974 0.052328315529910796
-0.04880644688427202 0.05333372421568072 0.053399058616143025
-0.048484990480045884 0.049617418419799275 0.05416033720117702
-0.048253576004369546 0.04671417661392263 0.05443678069134783
-0.04807834943561301 0.04431839717966368 0.054410790551389976
-0.04793805826916434 0.04223861970910808 0.054197333742851905
-0.04779547438693911 0.040143417729478936 0.054002512657043644
-0.04761710037662688 0.037736917419817495 0.05401456412320216
-0.04749538684428596 0.035836299619874945 0.05371466907171274
-0.04738943151055711 0.034078607497400604 0.05333067607695369
-0.047290449017772226 0.03238584755295859 0.05291148351996389
-0.0472113120568857 0.030870508854708323 0.052383309605591455
-0.047144397952227565 0.029464862946726178 0.05178851358227199
-0.04708219796968701 0.028102706022400115 0.051169432017038274
-0.04702166635601836 0.026757249579829 0.05054331601194301
-0.046967702910807395 0.025471021805475946 0.049881737063028064
-0.04692094388901093 0.024249203041427803 0.04918059595923807
-0.046895898680056926 0.023217106518154507 0.04835496819378943
-0.04689440225945511 0.02238946429632599 0.04739278344069431
-0.04689821151933031 0.02160765058888431 0.0463995500532019
-0.046893994162000595 0.020756591664816637 0.04545339030503592
-0.046890185587956254 0.019909191984278096 0.04450499130374169
-0.04689154572248941 0.01910625000168814 0.04352612152575164
-0.046897939410425145 0.01834633963061144 0.042517263627896984
-0.04691277403723632 0.01765830090654047 0.041457772556381
-0.04694833365214918 0.017146398182968703 0.0402735688263533
-0.04700238923400102 0.016790590764149016 0.03897675839599818
-0.04706437838763647 0.016500252079136746 0.0376298759897043
-0.04713381374387315 0.016270839909238277 0.03623537741093924
-0.04719367017714647 0.015958033960480178 0.03489615422879394
-0.047247878236189186 0.015595494457285919 0.03358885893080271
-0.047293769452464454 0.01516104898231646 0.032330152257473765
-0.04735819487359845 0.014880733170184957 0.030955878937201198
-0.04744896444867365 0.01481906447548792 0.029416829302138958
-0.04756554091741151 0.01497017450894128 0.027714684223094088
-0.04769493095142176 0.015224225665983582 0.02592833318612725
-0.04783493297334704 0.015562205492825887 0.02407066445601813
-0.04801608673575125 0.016237502767463163 0.021950563544357482
-0.048177933034696085 0.01674629725963106 0.019943768516417826
-0.04832035593367176 0.01708863523561388 0.01805220640855537
-0.048559851046645806 0.018228133058498186 0.015543345154517274
-0.048871073070585094 0.019950743429831497 0.012571315582427967
-0.047892214199639745 0.05790906724021033 0.05213332915754193
-0.047553108428374784 0.05393793681573755 0.05302797220003902
-0.04722855405968246 0.05011236738956781 0.05385461649089662
-0.046999789869061996 0.04717517244228214 0.05415040503023194
-0.04683283799488138 0.04481082219472621 0.054103145835049715
-0.0466827192792523 0.042605909638043504 0.053966561144245584
-0.04653507428570992 0.04042886779437077 0.0538221415768772
-0.046365387326958725 0.03805691864967764 0.05381121342337497
-0.04625249514751832 0.036205811382513 0.0534785259337035
-0.046146107607832845 0.034417576814551765 0.053112826704331095
-0.04604762166003821 0.03270447847150609 0.05270554927238347
-0.04596325129110056 0.031122083209332685 0.05221979833675644
-0.04589538802369982 0.029691140639664715 0.05164061646986523
-0.04583533701914172 0.02833273362859029 0.05101823940726624
-0.04577877369802974 0.02700770944328834 0.050377770480723894
-0.04572553990046575 0.025714467485918102 0.04971992673844078
-0.04568052108645941 0.024496412889503605 0.04901536519201477
-0.04565559309171213 0.023458838608590438 0.04819249689063032
-0.04565055775978617 0.022598907776671173 0.047251229272682105
-0.04564870291770853 0.021767359733849356 0.046291008667844136
-0.045640357991952 0.020878443030615312 0.04537011771290195
-0.0456381067095706 0.020043642068916956 0.044412599113997586
-0.045642344603148526 0.01926611663487604 0.04341565493693028
-0.04564923285885618 0.018511752643628754 0.042402332358885186
-0.04566407616541319 0.017826973841711002 0.04133992899153721
-0.045703749816148005 0.017359187806280207 0.04012408320415073
-0.045764654678752126 0.017075599042328138 0.03877543624010854
-0.04582705724921393 0.016802902320949165 0.037414916363278705
-0.045877985146961134 0.01642806952804099 0.03612309061018659
-0.04592473506892499 0.01601511588889809 0.03485516514631898
-0.04597305841784056 0.015614136112355181 0.03357539952075822
-0.04602983375482924 0.015284567699936136 0.032240483087262795
-0.04609687958754858 0.015041661413874086 0.030838413977368972
-0.04619313452744746 0.01504807099578942 0.029248760732483448
-0.0463068273904526 0.015201003589275397 0.027544355175187663
-0.04644424660955524 0.015553491263602837 0.025684045776325715
-0.04658469130843939 0.015926981714901978 0.023798560530069235
-0.04673570671339369 0.01638579514318733 0.021839344863935184
-0.046912177399995876 0.01705630463271307 0.01971000395362882
-0.04707913275920098 0.017639533132943253 0.017634546630560632
-0.04731891923972854 0.018835320421192348 0.015080520658860841
-0.04760924416063592 0.0204508419242162 0.01218806002557038
-0.04667485958819164 0.05897900869221656 0.05147995552808565
-0.04628830634316667 0.05446832818741948 0.05270222422121268
-0.04601377954695424 0.05102859852619018 0.05328867767502199
-0.04576165398212037 0.047809853234212385 0.053756134366149344
-0.045573584604274346 0.04520226186498172 0.053858592161624363
-0.045428853594834846 0.0430080041720291 0.05371392040138018
-0.04525890334902047 0.04058302056689195 0.05372473504063818
-0.04512481467703495 0.038499270761360116 0.05353011259285628
-0.04501125045166259 0.03661179287859523 0.0532190761565865
-0.04490458489172578 0.034792674956415304 0.05287175799768934
-0.044806036860147794 0.033052855436459805 0.05248038986701514
-0.044723611100613764 0.03146607323052397 0.0519962213154993
-0.04465582802285599 0.03001775472966156 0.05142713859604303
-0.044595401844778 0.028639837809415813 0.0508163858848133
-0.044539549260559134 0.027306275433293448 0.050180428420656065
-0.04449030748114449 0.02603554636851585 0.04950651618165092
-0.04445073396075341 0.024855341424343924 0.048775463595651936
-0.04442800459458154 0.02383084176559841 0.047942468697892704
-0.04441316557231635 0.022879288534248365 0.04706173153897353
-0.04440529846169837 0.021991870119373147 0.04613842712170102
-0.044399496641764694 0.02112353994827082 0.04520261974910461
-0.04439782084296031 0.020292904155142122 0.04424130974643492
-0.04440555635669452 0.01954765057001151 0.04322111719736771
-0.04441471353071692 0.018814975168646775 0.042191649118446084
-0.04443161907780717 0.018151923667154957 0.04111290237468862
-0.04446288304238431 0.017617630017068064 0.0399425264436199
-0.04450688202463076 0.017196705038055315 0.038689890233140845
-0.04456005557685897 0.01685649587832394 0.03737685113325245
-0.044607500024645946 0.01646302626045132 0.03609812597771461
-0.044653741642076535 0.01605706404149687 0.03482504324374486
-0.04471118841910441 0.015749340273593593 0.033477781136603324
-0.044776910753483966 0.015513162768668709 0.03207453309585595
-0.04484585128472866 0.015303155586693318 0.030647543799440957
-0.04494008387183151 0.015314798280088637 0.02905300878139816
-0.045059528322881515 0.015545988028711655 0.027289790754506105
-0.045212603618971045 0.016069650149917125 0.025301099248369374
-0.04533982041289532 0.016359911466908572 0.023475617646044
-0.04545869918379422 0.016572206506862863 0.021699537097133514
-0.04564541086069081 0.017375159149237984 0.019469568102353063
-0.04584204403197146 0.018258101976073526 0.017165582550376812
-0.046082001375652576 0.019512266712499393 0.014564522887644982
-0.04642898672612951 0.0216905607984178 0.01123798888395744
-0.0454801094228092 0.06033224316667812 0.05065358533892589
-0.04504350051459888 0.0552244708465206 0.05223782763398027
-0.04476955504618709 0.051712751348050257 0.052866089288309714
-0.04453988207055369 0.048640461290061554 0.05324015153834705
-0.044322998627861515 0.04570056464551864 0.05354727528518505
-0.04418181309875099 0.04349964025181935 0.05340501964815059
-0.04400981782358606 0.04100720592360313 0.053456699470179336
-0.043876966737399097 0.03889768456192583 0.05327693317476073
-0.04376656777200745 0.03700866106048989 0.05296545040681455
-0.043662882283349386 0.03518811465672239 0.05261761614394883
-0.043565180048470015 0.03342868419349343 0.052237488102642615
-0.043485473907414564 0.03184463708747942 0.05175017295862966
-0.043415827151755265 0.030359383689029407 0.05120384687007179
-0.04335475265804409 0.02895822200766196 0.05060711822933367
-0.04330382003857166 0.027655551490758323 0.049949568714527826
-0.043264596452342916 0.026465629668687707 0.04922065397915065
-0.04323236279114298 0.02534321656076427 0.04844937633121915
-0.04320545429896255 0.024272222196640103 0.047645811130869076
-0.04318611096043856 0.02327341836472052 0.04679535552120828
-0.04317431249799272 0.02234618560717916 0.045897627548773634
-0.04316941928343273 0.021484102556786455 0.044956213130345146
-0.04316590689037705 0.020635117000672 0.04400614593644547
-0.043170799309398995 0.01986470127765627 0.0430020376467542
-0.04318284691256437 0.019160740299252577 0.04195140668216091
-0.043199297723455495 0.018497249772338242 0.040871639843582
-0.04322330572921924 0.01790323533268795 0.03974188748554769
-0.043256533535592535 0.017393658726046368 0.03855076746333885
-0.04329725680790765 0.016952067862179954 0.03730897040788639
-0.043343494211366775 0.01655977177419643 0.0360290343885577
-0.0434023810823981 0.016282103216886612 0.03466344832963081
-0.04347745571362386 0.016150830354430545 0.0331879023888893
-0.043539642318992204 0.01589863558813448 0.031794696739662565
-0.043603670871747297 0.015660931033080694 0.030386395864961335
-0.04369961763682175 0.0157120411236098 0.028761471071342637
-0.043830102062992045 0.01607400703519829 0.026900164913077507
-0.04397281966182834 0.016542197427530436 0.024950508869989174
-0.044102586225830444 0.016887555191943293 0.023082023106720362
-0.044191539293528155 0.01685869268415513 0.021484673625953188
-0.04438696619907821 0.017787915593087622 0.0191583244416762
-0.04458131941000972 0.018700074145845347 0.01683050412803827
-0.04484239816072918 0.020204886442104497 0.014036578143186262
-0.04517101801536938 0.022305886251803853 0.010766427977587867
-0.04432770883323315 0.062192839125691624 0.049517388276541896
-0.043823935528841326 0.05627946063522704 0.051589889508094455
-0.043514046528886886 0.05232547406616367 0.05248762193909157
-0.04331638303295608 0.0495041633831364 0.05270361033190768
-0.04309151032808528 0.046419391338488214 0.05309818511451536
-0.04292613927674423 0.04393520256824951 0.05313135070245173
-0.04277649575348546 0.04161358093031009 0.05307354133361647
-0.042633059878664815 0.039359290403888914 0.05298359720524415
-0.042519779336121444 0.03740876036813229 0.052709759748018004
-0.042413211835167504 0.03552889045650737 0.052398605778019414
-0.04232183109025507 0.033802745459889594 0.05199572868458158
-0.04224334016789053 0.032206860326980724 0.051514745219658264
-0.042175500476745495 0.030718521304338053 0.05096911133087195
-0.04211734959570767 0.029327683400449722 0.05036427854104253
-0.04207543772204802 0.028097782569690533 0.049657268871062754
-0.04204010493124306 0.02693367070603392 0.04890956251909434
-0.04200801341429725 0.025802479584270843 0.04814241290592708
-0.04198183758919505 0.02472999531679121 0.0473381358228534
-0.04196338735234781 0.023733415740984865 0.046484462359112466
-0.04195117757608231 0.022797922834662143 0.04559061830080968
-0.0419461736215285 0.02193247167780671 0.04464979999582308
-0.041940682850196316 0.02106252513852669 0.04371243713085471
-0.04193958486870763 0.020235030032339063 0.04274614338378957
-0.04194812624344751 0.01950007422867267 0.041715632734176944
-0.04196289882695113 0.01882445721830822 0.0406430359372259
-0.04198428254888968 0.018211445775660973 0.039525368328644506
-0.04201486855588665 0.017685366071249486 0.03834471326729816
-0.04205150799364923 0.017215710193353828 0.0371217164454255
-0.04209767381280764 0.016835111619908805 0.03583239821637718
-0.04216020801059743 0.01660786791237534 0.03442952497873991
-0.04224235005123872 0.016563665863471466 0.03288983215979868
-0.042307053045063166 0.016351641153563246 0.03146583457256963
-0.042370211303227705 0.016122543776459275 0.03004945487116184
-0.042465553202833795 0.0161935421890137 0.028408096000434258
-0.042587222461644585 0.016507815290972616 0.026580057294604775
