# .PCD v0.7 - Point Cloud Data file format
VERSION 0.7
FIELDS x y z
SIZE 4 4 4
TYPE F F F
COUNT 1 1 1
WIDTH 758
HEIGHT 1
VIEWPOINT 0 0 0 1 0 0 0
POINTS 758
DATA ascii
-0.005572371098643767 0.06951506815052882 0.029233239819925594
-0.005564862129141682 0.07065294039767295 0.028774356862412254
-0.005558589462040138 0.07171964378634804 0.028252576007424923
-0.005554632108186746 0.07265536468203682 0.02761025997632166
-0.005550172706373145 0.07361805577685732 0.026995786876955252
-0.005547579415848532 0.07447580986857022 0.02628340953071251
-0.0055466780106362325 0.07523901446931813 0.02548156513841371
-0.005545776898329936 0.07600197107126921 0.02467998130071314
-0.005546480979002897 0.07667603655063976 0.02379254505906686
-0.00554953855215306 0.07722059546398524 0.022778253076740973
-0.005552585384973873 0.07776653097455583 0.02176360379412773
-0.005561094590933913 0.07801365402641058 0.020452420138379224
-0.005570751938407081 0.07820014019175325 0.019076320605471375
-0.005583166944690784 0.07823856860973555 0.017547183949236045
-0.005598735023217987 0.07810846802816834 0.015842162811407212
-0.00794892093540555 -0.05011897524894887 0.04614615823275231
-0.007911043780317527 -0.047207494249205284 0.04644770449643831
-0.007886553756614503 -0.045030736087642353 0.04629194554380989
-0.007868161548079247 -0.043189540284756356 0.04592895430259103
-0.007853758849397846 -0.04156796725223383 0.04543047656190058
-0.007842363765621228 -0.040111756497626216 0.044829611323583374
-0.007832405541278913 -0.038735359334892416 0.04418080071971159
-0.007823663209398837 -0.037426439004051626 0.0434913433478013
-0.007816571522488245 -0.036207922124149694 0.04274527518171195
-0.007810981912827707 -0.03507132585705375 0.04194727918347907
-0.007806306774313821 -0.033984777829934254 0.041117877392872315
-0.007802171280450732 -0.0329280012557831 0.040270225147357674
-0.0077993161895814475 -0.031940234898621744 0.03937733046127939
-0.0077968573907691964 -0.03097412264870847 0.03847078460518083
-0.007794724605078174 -0.030025812991699485 0.03755299497152015
-0.007793148967260698 -0.029107424435375395 0.03661539049331308
-0.0077922919360122 -0.02822729916846367 0.035651837083206184
-0.0077920835530797304 -0.02738152156344359 0.034664633797888034
-0.007792662699789007 -0.026577183085110256 0.0336484039517605
-0.007794307810632665 -0.02582863598480134 0.03259252906921095
-0.007797136190707251 -0.025141678370302956 0.0314922393787595
-0.007801034342615773 -0.024510000722875958 0.030351316061805633
-0.007806168185389179 -0.02394190922568279 0.02916313802233189
-0.007812845283912647 -0.02345300833515873 0.02791567868774475
-0.007821376898832692 -0.023058962589840637 0.02659661511462086
-0.007831354017265889 -0.022737983977557608 0.025220705458387338
-0.007842646862256716 -0.022482897754134146 0.023792320668184153
-0.007856161277072395 -0.022340020956527318 0.02227646735544131
-0.00787106920668964 -0.022266002119479822 0.020703928024371154
-0.007890021316975365 -0.022396595089217375 0.018972569581408416
-0.007913505711779314 -0.022755528498206612 0.0170620717988072
-0.007944346331909533 -0.02348584588569591 0.014861736689033123
-0.007985802474227295 -0.024751611048216826 0.012242570248511664
-0.007426970967800799 0.006966416899944761 0.030083568901282554
-0.007392205611193082 0.009518666999419445 0.030503396447536135
-0.0073663651547419395 0.011613476663573818 0.030579756829511695
-0.007342246718255547 0.013616110250498636 0.03059451238985439
-0.007318490008898793 0.015595415405612933 0.03060105365082383
-0.007296307799580998 0.017490750433004354 0.030550898707863094
-0.00727365414967166 0.019404900489835064 0.030525260654979625
-0.007260479258623019 0.020841357191015597 0.03012514607845801
-0.007280906760924741 0.020602365305894377 0.02837607213797444
-0.007583028878257588 0.00637602163583767 0.015249056973823505
-0.007633973145433285 0.004663468316045527 0.01221765035697897
-0.0076526481991958635 0.004557723298802108 0.010484264991194758
-0.007649588956328745 0.005528533542420111 0.009631904332184249
-0.007643232590445487 0.006661042970347475 0.008915121902675016
-0.007632239825041393 0.008019996160708087 0.008390105515975299
-0.007612912512122518 0.009785212294737222 0.008210767569336253
-0.007593748829664344 0.011538282469720884 0.008029612424808152
-0.007565543735609777 0.013728583064036848 0.008227610245285621
-0.007541710853810227 0.015699888821486818 0.00825126895833661
-0.007515462817545268 0.017783460974016285 0.008381602812186473
-0.0074898676128875435 0.01982975237865986 0.008491365766381653
-0.0069295131969431935 0.0477444892294735 0.03101654796311093
-0.006907602139440872 0.04954466236295624 0.031052804139130086
-0.006885991997956534 0.05132564560072589 0.031081968675052973
-0.006863869603216222 0.05312661890143283 0.03113831332777084
-0.006840585594982195 0.05497855817499553 0.031249577124382588
-0.006819693683312885 0.056711050028969756 0.0312650195204624
-0.006797941673647119 0.05848012781968803 0.03132249760639755
-0.006781744843310717 0.05997992763573984 0.03114777757823528
-0.006763774651999915 0.06156053992502997 0.031053316725236757
-0.006748938695442269 0.0629886761918605 0.030828504171588833
-0.006735482661560592 0.06434834543043771 0.03054789302598815
-0.0067224421742619845 0.06568551529570293 0.030252720949565937
-0.0067133008761718245 0.06683624438834473 0.029791510789382136
-0.0067031729855922305 0.0680313763178314 0.02937561515936854
-0.006693246497437656 0.06921489555448479 0.028953505998492057
-0.006685531056413365 0.07029286111657146 0.028437044063010397
-0.006680505143992828 0.07124365282594325 0.027804354449982083
-0.00667587777855097 0.0721748100994648 0.027155382219440916
-0.0066713417067810355 0.07310073475238904 0.026503556162844333
-0.006671324792035613 0.07381623019093303 0.025652552210727653
-0.00667130787737582 0.07453172198790442 0.024801552589911124
-0.006671715426457197 0.07522762773050967 0.023931632256413427
-0.006674943179227723 0.07579381426808102 0.022935506818272222
-0.006679007774013726 0.07632226441286194 0.021901032253026975
-0.006687646495828141 0.07664203054735252 0.02065982679283046
-0.006700500950620609 0.07677096352272855 0.019226300753782177
-0.0067167591268805366 0.07674744503168979 0.017635561947963285
-0.0067346012635776656 0.076655353029489 0.01596883616076794
-0.009264022373357083 -0.05051570461486227 0.04744844144225935
-0.009219507773777244 -0.04758590003033719 0.04775584796594429
-0.00919138480834004 -0.04542835926707123 0.04758469289540718
-0.009169861907511807 -0.04358303634678412 0.047222355823493045
-0.009152792736200054 -0.041948456829943304 0.046731078710220364
-0.009139144865914165 -0.04047555202897951 0.04614049422708083
-0.009127335074357004 -0.03909015979042152 0.04549733615804835
-0.009116697006651093 -0.03776101787846531 0.04482121628547758
-0.009108497366765883 -0.036546152415705524 0.044073183257199444
-0.009100908223274796 -0.03536085845733106 0.043308290629969715
-0.0090955763151527 -0.03428052007304577 0.04247584015774619
-0.009091358539317428 -0.03325217492521504 0.04161026952266733
-0.009087738710352306 -0.032251928344698144 0.04072715493000484
-0.00908479636173058 -0.031283242686754864 0.03982383503803161
-0.00908236834810727 -0.03033850614704997 0.038905161749730466
-0.009080885229408092 -0.029437133403512117 0.03795752734617169
-0.009079510412006754 -0.028540942240136036 0.03700682536075345
-0.009079052281045002 -0.027686471842607363 0.03602761156930068
-0.00907967228926942 -0.026880758512285052 0.03501449266602341
-0.009081128194486835 -0.026112591388921857 0.033974781720444824
-0.009083636628432566 -0.025391480316404036 0.032901324145361066
-0.009087496347940741 -0.024730540505705112 0.03178425326967549
-0.009092467507309578 -0.024118659893107686 0.030630795380583165
-0.009099257566707465 -0.02358714597552708 0.02941788460458128
-0.009108145909749557 -0.023147956603972786 0.02813592835138995
-0.009118519478417686 -0.022773231119703696 0.02680404372934525
-0.009130579177433675 -0.02247148268410787 0.02541523054229894
-0.009144557037417522 -0.022252530128317682 0.02396138825713212
-0.009160744931758176 -0.022128753723870076 0.022432361792313893
-0.009179248784731536 -0.0221042196337079 0.020823957132883153
-0.00920184022905874 -0.022256318524970398 0.01907720863520551
-0.009230194590402169 -0.022657557482729462 0.017135549756494006
-0.009268263959327583 -0.023479686485075646 0.014866381342392987
-0.009318189214437706 -0.02481373094867939 0.012195474520260874
-0.008655505474307735 0.007369776826604724 0.030396030217115566
-0.008621322427208613 0.009645012103173811 0.030601796060822528
-0.008591702380762404 0.011716770640271101 0.03066063636496541
-0.008564778880612703 0.013666800483842445 0.0306344162049218
-0.008537761411793987 0.0156159294587907 0.030617289178767437
-0.008511956094840921 0.01750804498352071 0.030564659568364072
-0.00848484660862642 0.019451304366942312 0.03056238060615374
-0.008464276167957047 0.021109989850229827 0.03034118260164964
-0.008481999436190142 0.021131059745186143 0.028803523486632343
-0.008846406318790861 0.006395631720073958 0.015264996487756533
-0.008911440215156137 0.004445182241012535 0.012039277831664696
-0.008928089499320583 0.004557723187290252 0.010484264991187209
-0.008922853981315934 0.005599019353155654 0.009690116755262712
-0.008915207075912016 0.006741130968484943 0.00898161607164144
-0.008900418652793922 0.008182603136434874 0.008525829012619057
-0.00888242758818797 0.009755944452802534 0.008186209030131342
-0.008858372709116349 0.01158024545332853 0.008065010265950467
-0.008823666344479866 0.01384578157053612 0.008326996306363577
-0.00879592949869778 0.015813982425476936 0.00834853391370427
-0.008766858418237886 0.01783266794409677 0.008423773622110331
-0.00810976988899783 0.04594894840471819 0.030993922435843202
-0.008083726216782938 0.047773733277088504 0.031041875724659662
-0.0080581677422796 0.04957365742726494 0.031078048668470692
-0.008030829846418392 0.05144235734356983 0.031184118733816046
-0.008004724216530127 0.05325527119668966 0.03125150689157852
-0.007978558799085383 0.05506584817171195 0.031326782438313716
-0.007953887532457907 0.056810340027561246 0.03135330001446135
-0.007930026288632638 0.05851715373946825 0.03135559095348267
-0.007911645896754887 0.05999580527016213 0.03116204335216438
-0.00789400246514477 0.06144105916257847 0.03094540318130301
-0.007878791267538664 0.06278421276024798 0.03064286756494905
-0.007863456615184965 0.06412957930993068 0.030348230616064675
-0.00785059900266999 0.0653719033372554 0.029964997273075833
-0.007840134134870457 0.06651527023987175 0.02949549274072122
-0.007829697129606628 0.06765559294728074 0.02902723825625597
-0.007819647735793316 0.06877842204405837 0.02854675196115891
-0.007810900597451459 0.06984719185271532 0.028019552797599545
-0.00780428338929825 0.07082915168301018 0.02741403539447479
-0.007800143401703993 0.07171102754104969 0.02671638033323087
-0.007797041308166046 0.07255081483853831 0.0259803076151518
-0.007798194449045838 0.07322098267936816 0.02508322562837828
-0.007799367820569419 0.07389056043391218 0.024185120339697275
-0.007803925257877656 0.07442653477437405 0.023157431564423625
-0.007809265610406237 0.07493245853113822 0.022098739466502426
-0.007816890224545172 0.07534945413730071 0.020951082413583677
-0.00782887608583654 0.07559659109077271 0.0196336537543767
-0.007843010034154241 0.07576177473461582 0.018230569387947204
-0.007864974260929991 0.07562351016225471 0.016520862246893198
-0.007932619240557501 0.07370805629123961 0.013030601167835831
-0.01058033994181074 -0.05107448110124402 0.048645659695850774
-0.010528202190787836 -0.04808940638618453 0.0489815785877768
-0.010495608370141206 -0.045911432445056355 0.04881991954272469
-0.010470706998846436 -0.04405245360430249 0.04846399031864679
-0.010450577108961898 -0.04239171075092568 0.04798799911804352
-0.010433949491793389 -0.04087648958771817 0.04742390166089705
-0.010420200828263834 -0.0394806723990877 0.04678711842616673
-0.010408812597710444 -0.038182582606368476 0.04609053681039965
-0.010397913191994098 -0.03690606455000267 0.04538316038072021
-0.010389691857651966 -0.03573923931089806 0.0446065257609603
-0.010382624509615064 -0.034620154632639066 0.0438006121874035
-0.010377630726499413 -0.03358544875013597 0.04294041387498554
-0.010373257418097123 -0.0325764044168152 0.04206446385072099
-0.010369749133260237 -0.03160265016198627 0.04116597526422161
-0.010366858134507733 -0.03065409179201789 0.040251418121798443
-0.010364952212671193 -0.029745227234901195 0.03931060560187827
-0.010363569341327712 -0.02885745664886935 0.03835587310057542
-0.010362678379220648 -0.027989418804256316 0.037387923841661175
-0.010363139314062679 -0.027175035562219507 0.0363829647448044
-0.010364522217614582 -0.026396997976433134 0.03535247270345521
-0.010366858575603516 -0.025656325032138494 0.03429531090177795
-0.010370211212091501 -0.02495525848975938 0.03320945958066479
-0.010375013223399406 -0.02431055720340486 0.032082549700151675
-0.010381422802692955 -0.023728069927941853 0.030909738463139935
-0.01038972384601569 -0.023218509604886306 0.02968259312297422
-0.01040008013717632 -0.022787811150549064 0.028395956085382035
-0.010413186397938092 -0.022462531392681007 0.027029598204812322
-0.010427663260057037 -0.022188406140509154 0.025621854256103638
-0.010444083729941867 -0.021987325616571074 0.024156022743097916
-0.010463092383018187 -0.02188376550416321 0.02261313898716283
-0.010484968847011859 -0.021887900670908567 0.020984447729142652
-0.010511739953607723 -0.02207714973550129 0.01921085925144339
-0.01054583416415499 -0.02254372560615564 0.01722092329675534
-0.010590312174479807 -0.02340332410213647 0.01492396335281776
-0.01064919718402263 -0.024807518235021864 0.01220018473873613
-0.009954406724804818 0.0042002613594163685 0.029513545274718445
-0.009885879003733984 0.0076024586204655464 0.03057627636683241
-0.009849691244735649 0.009768116304850583 0.030697671609171917
-0.009816826918952555 0.011802283755910581 0.03072759344009368
-0.009786317924914346 0.013742292843281712 0.03069384443914308
-0.009754064981006434 0.0157430660326196 0.030717909001688137
-0.009723917198074765 0.017659557455030894 0.030685213764248154
-0.009666716332976557 0.02058551600356434 0.031469670922463666
-0.009667571983781388 0.021330211531887078 0.03051828664649492
-0.009688769223306281 0.021315638235189727 0.02895275591286489
-0.01010480058115801 0.0065959743140913685 0.015427838589718024
-0.01018871868533721 0.004288478455658773 0.01191122731676758
-0.010215817530721361 0.00410198797035044 0.010109877500217135
-0.010204126632520068 0.005355510981893463 0.009489009847688745
-0.010190501206638307 0.006678599222968262 0.008929698389064655
-0.010173949874124403 0.008107319291525972 0.008462991827752397
-0.010147543888788108 0.00989573764790469 0.008303509526863317
-0.010119545744740117 0.011738328753969907 0.008198361049002956
-0.010082648209811688 0.013902223333544461 0.008374859801792034
-0.01004948481520095 0.015923783368345268 0.008442139372989654
-0.009299155056565213 0.04407990749180862 0.030917840809801367
-0.009265285974039155 0.04605885017333988 0.031088606554070197
-0.009236541752987418 0.04784637837118344 0.031104792248704938
-0.009207393191262668 0.049643927712152425 0.03113922931053137
-0.009174621499806102 0.05156768740419926 0.031293811828802254
-0.00914320624455291 0.05343728513725138 0.031411650182047224
-0.009114428985075956 0.05520695432785794 0.031451586433538015
-0.009093349067664243 0.05669576906563223 0.0312514331359649
-0.009066130470174205 0.058400998267521986 0.031251772876578154
-0.009046630966564365 0.05982608333800876 0.031009552233393967
-0.009026772212596955 0.061260840479675005 0.030782631855170328
-0.009010785276936273 0.06255470506603622 0.030434492740040786
-0.00899466969327485 0.06385056560702962 0.030093581708091677
-0.00898202641285128 0.06502090186455739 0.02964297053028514
-0.008971214291209464 0.06612452256471302 0.029135126115873988
-0.008959073107479495 0.06727324673093849 0.02867277714457006
-0.008953519408657152 0.06818838229684832 0.02799688797752997
-0.008942867290122768 0.0692814928546831 0.027489620804291015
-0.008934797767199345 0.07028249413368032 0.02689926993731162
-0.008931510168539982 0.07111520320846454 0.02615239185819951
-0.008931669992842678 0.07182726927668925 0.025291854313605533
-0.008932263504073928 0.07252428539797445 0.024416867040324808
-0.00893534619968796 0.07313506903601646 0.023458767878393738
-0.00894300495678117 0.07358801252094638 0.02234705805284065
-0.008954896240573832 0.07389607788358643 0.02109194347186588
-0.00896493330812759 0.07426991359240592 0.019896910389930245
-0.008981681032054337 0.0744147855277335 0.018473627690534677
-0.00900428672258154 0.07436154099475106 0.016849007575518937
-0.009063968821930734 0.07304394986501728 0.013962497602832358
-0.011900109231963949 -0.051823241047615376 0.049722108070383075
-0.011837417705797224 -0.04868696325829808 0.050145765569066136
-0.011798631812024792 -0.04642977115704372 0.050030274268344055
-0.011769920174932044 -0.044544088289884154 0.04968882383540346
-0.011746679321910383 -0.04286085389335892 0.049225503696077755
-0.011727620958695483 -0.041332279751466694 0.04866887616193449
-0.011711902455586594 -0.03992703992456054 0.048037540305728266
-0.011698592232199458 -0.03861084328766262 0.04735246577530261
-0.011686597199435012 -0.03734385538040452 0.04663873651305711
-0.011676533442226104 -0.03614791099984688 0.0458814798838002
-0.011667906322472391 -0.03500487484906406 0.045091916051000214
-0.011661228220097242 -0.03393275964773668 0.04425750111128118
-0.011655835973899601 -0.03290748331564808 0.04339355431223785
-0.011651933185667596 -0.03193602119618133 0.04249487391673418
-0.011648930181336406 -0.030997096247337264 0.04157524417466946
-0.011646308142959477 -0.030072113160838188 0.04064694203090097
-0.011644238961797497 -0.02916707503052246 0.03970571193907191
-0.011643377062838328 -0.02830498242982432 0.038735525656603376
-0.01164320475714254 -0.027467325132712994 0.03774868658421354
-0.011644446074634898 -0.02667942994328959 0.03672731855462624
-0.011646687953594588 -0.025926490145512626 0.035681193720325965
-0.011649897034858962 -0.02520712239820916 0.03461087778688299
-0.011654213077659369 -0.024526006864362404 0.033512671453276466
-0.011660053428776384 -0.02389747122876562 0.0323759472507843
-0.011667665006017356 -0.02332978836644678 0.031194174561636867
-0.011678129796431697 -0.022860184172271925 0.02993989761789595
-0.011690455137722865 -0.022453617358341615 0.02863724652999733
-0.011705419295475743 -0.022136627406376952 0.027266190306423133
-0.011722483286877375 -0.02189003157981345 0.02583964432003799
-0.011742051011282503 -0.021727302446998942 0.024346854626088987
-0.01176337307928188 -0.02162212547715142 0.022806203571118455
-0.011789365955594837 -0.021674239269812545 0.021142966637620608
-0.01181987797469497 -0.02187744759710042 0.019359826670187374
-0.011859626680566806 -0.022392049066308206 0.01733468018360257
-0.011911106052305788 -0.023301141902333067 0.015001015089697534
-0.011978996726558604 -0.024761549291206164 0.012235035896004609
-0.011179763130182607 0.004841100620815719 0.03000730845901506
-0.011116551740642735 0.007773333132143845 0.03070864374056803
-0.011075222363738608 0.00995945052210806 0.030846685753429304
-0.01104166632267585 0.011878378140013968 0.030787175623988694
-0.0110067723216641 0.013837389985200177 0.030768705704732724
-0.010778502925489913 0.022263748077558154 0.035878574522150264
-0.01082106709478764 0.021611964812371653 0.033830030586135096
-0.010830187072229764 0.022080871066758267 0.032665850800333185
-0.010858928636200253 0.021898544030789724 0.03097534407145225
-0.010888215083185444 0.021702240774594428 0.029265325474000847
-0.011359329480512359 0.006879790654892248 0.015658529632800844
-0.011470165764846003 0.00402885960922339 0.011699079689115266
-0.01149921401679499 0.0038903400414627143 0.00993600830668534
-0.011488866022798472 0.005052063740563051 0.009238401043221878
-0.011467891275681392 0.006561159023085128 0.00883219226570231
-0.011449892823035426 0.007969766477049167 0.00834818051045072
-0.011410156601331408 0.010086294490757597 0.008463405776242494
-0.011376353475907954 0.012003649008587414 0.008422171239863607
-0.011341376015593358 0.013954389981027326 0.008419097939621034
-0.01130329784557317 0.016000815937532886 0.008507809775209096
-0.010455373751186891 0.044279977705145857 0.031089302463077284
-0.010422451621694204 0.04609100291699003 0.03111630729992243
-0.010388308873350315 0.04793669787973226 0.031183016223134075
-0.010350573342219367 0.04989314846210546 0.03135621248963488
-0.010318171509198185 0.05167292622269598 0.03138592040524152
-0.010284008125268652 0.053504518992639305 0.03147080532633584
-0.010251032191414317 0.05529326846471477 0.031527928630353474
-0.0102275691490891 0.056773855619899505 0.03132086129139516
-0.010204266229498866 0.0582459949242467 0.031113233105931504
-0.010181095618159332 0.05971060396808908 0.03090579679494382
-0.010159447211343226 0.06112367257181772 0.030658743487683382
-0.010143984286369423 0.06233810512740379 0.030237837140929036
-0.010128490093444012 0.06355131516265305 0.029820463220192772
-0.010116217275851195 0.06466093368263431 0.029312717266736565
-0.010104441512149101 0.06575319208208624 0.028792666980744563
-0.010094869587610864 0.0667747272850428 0.028210615470487477
-0.010088627811541349 0.06769080730969879 0.027533192849734267
-0.010080997947927038 0.06864928298164474 0.02689738315625889
-0.010073534452096796 0.06960149251049297 0.02625799803966461
-0.01007072240929285 0.07040824567038595 0.025483208187736306
-0.01007154788256248 0.07110194128059588 0.024601705026820297
-0.010074954191868478 0.07171600921781796 0.023643788403980404
-0.010081825361144346 0.07222375003306158 0.022582597988327124
-0.010091113708215992 0.07265812892946266 0.021448390144545415
-0.010104546010792956 0.07296667788494277 0.020189074253400996
-0.010122155339015285 0.07314927240782448 0.01880260356272634
-0.010148488238598303 0.07306794679547457 0.017151609841760784
-0.010195562795661035 0.072358371919234 0.014872550448003452
-0.013224945506655563 -0.05275888026137998 0.05068174668858144
-0.01315149900995295 -0.04949334086127627 0.05117772378552832
-0.013104597577510703 -0.04710853160605594 0.05113751298414215
-0.013069747983373473 -0.04512455443288771 0.05085501885180971
-0.01304372246795462 -0.04343355557954598 0.05039453252890613
-0.0130209040592839 -0.04185055086505601 0.04987115615558557
-0.013002226928204172 -0.04040534391487477 0.04926460098212493
-0.0129867292801515 -0.039065876293462753 0.04859411882724202
-0.012972732068520182 -0.03777707113865608 0.04789437782497058
-0.012961417593572116 -0.03657691374165839 0.0471400165125615
-0.012950967347838094 -0.03540613308179169 0.04636903600546688
-0.012942373920796366 -0.03429656801801639 0.04556008312306481
-0.012936587486326633 -0.03327843725642998 0.044692407769209797
-0.01293164821602984 -0.032288257841861234 0.043807433976256305
-0.01292812796028887 -0.03134419514377568 0.042892648070758654
-0.012925183144288508 -0.03041899180325519 0.041965961123566764
-0.012923233445014698 -0.029525934230714812 0.04101813577680902
-0.012921437189857034 -0.028638015861005228 0.04006726834709651
-0.012920481972813728 -0.027777068818028605 0.03909830051010743
-0.012921551981167682 -0.026980505453109593 0.03808507527263216
-0.012923501320011556 -0.026211649375281088 0.03705233912884803
-0.012926751476368039 -0.025483650711356276 0.03599058417388751
-0.01293073034621553 -0.024778215945967685 0.03491218651584088
-0.012935898858201827 -0.024109711415642 0.03380673143130314
-0.012942873295790506 -0.02349726445826883 0.03266019724809682
-0.012952081838443789 -0.022953947918850026 0.031462584155912854
-0.012963610941165871 -0.022482035314969673 0.030211436811623638
-0.012978629472746313 -0.022117566560853175 0.02887987774587375
-0.012995460662550674 -0.0218076344783929 0.02750502484426015
-0.013015010138552557 -0.02158004317379314 0.026065911578229906
-0.013037846927327347 -0.02145192146246705 0.024548957656328363
-0.013062521169020753 -0.02137774938959741 0.022986529072687056
-0.013091720276283244 -0.021440199168967278 0.021316604830496466
-0.013127160719345382 -0.021691317568516666 0.019498670005955177
-0.013171841204490177 -0.02222215935359173 0.017462096877448763
-0.013230474692742444 -0.023175638918025154 0.015095652129250403
-0.013307726342436519 -0.02469199432187036 0.012287768651900843
-0.01252013350698512 0.00104743105218702 0.02866348248341577
-0.012403480316191862 0.005403677123902828 0.030440770621363078
-0.012346837364675572 0.007921793261143395 0.030823647898009177
-0.012302233609019645 0.010067646132036201 0.03093095025882442
-0.012266106990804939 0.011951316059312656 0.030844286287730116
-0.012224135309161206 0.014006789641452189 0.03090205846529559
-0.01196375096177508 0.022636167273742624 0.03617331844617566
-0.011963488957671423 0.02341305977816932 0.03526311007688293
-0.011978609689927335 0.023728518117595465 0.03398385364968204
-0.012026154680150907 0.02307544884070689 0.03192182000049271
-0.012068042242722342 0.022597457356767103 0.029989111228192922
-0.012608219344389479 0.007274897286370596 0.01597967939695022
-0.012704678712180938 0.005216872054688737 0.012669864965446698
-0.012774326807209448 0.003966826361969766 0.009998842095630844
-0.01276574232569253 0.005042124391273772 0.009230192494748601
-0.012743587968899583 0.006517237250987851 0.00879572574971682
-0.012713810502422991 0.008214234769358675 0.008552231312555725
-0.012674237200776577 0.010195560216078148 0.008555090687435651
-0.012634544115476584 0.01217531406044503 0.008566978867849295
-0.012593174816832487 0.014199057331735654 0.00862657935763067
-0.011662043412698069 0.04221930735249119 0.030859088553262082
-0.011617205071760008 0.044276374822617315 0.03108621485469698
-0.011577156622170473 0.04618831708085108 0.0312001467776718
-0.011539485906519379 0.048026083951535736 0.03126043176696053
-0.011497942934566217 0.04997117259789652 0.03142414399216675
-0.011462529061701445 0.05173377763390169 0.03143917965720666
-0.011424912264452919 0.053555357127064995 0.03151553485432723
-0.011392292354440194 0.05522832327254712 0.03147048676163189
-0.011365827587048629 0.056720387172201236 0.031273321684742006
-0.011341251575686866 0.05815494570002805 0.031031854648533697
-0.011317074747221855 0.05957493590445667 0.03078390228494693
-0.011298315737538067 0.06083732196050878 0.030400115040306652
-0.011280026512126834 0.062083930084404604 0.030007066305966335
-0.011266210425875126 0.0632012047620345 0.02950092609161198
-0.011251529835730275 0.06434118898347146 0.029019367098548743
-0.011240154102431942 0.06538589341228501 0.02845392618181597
-0.011229609442050648 0.06640570338869045 0.02786850506488331
-0.011224878041543773 0.06726062726199744 0.02713230375549347
-0.011220726935026822 0.06809865614929128 0.026381570375793806
-0.011218854212253987 0.06887235197109592 0.025571395650516526
-0.011218998314375773 0.06958946145389722 0.024708172902295766
-0.01121655022975338 0.07037884273121775 0.02391367705837566
-0.011223523127238217 0.07090591925213324 0.022868974966273325
-0.01123220812006741 0.07138639022834853 0.021777534735792192
-0.011244812209272882 0.07175949459831216 0.02057992247975049
-0.011261652032287085 0.07201724373364554 0.01926674277848811
-0.011290608723525278 0.07194331272301308 0.01762498315939559
-0.01134555250433588 0.07115877613843896 0.01527762324090759
-0.014562780379521552 -0.054069382175633174 0.05141044476301332
-0.014472138159784624 -0.05050312807323354 0.0520830448855939
-0.014415100908722164 -0.047952171849882264 0.052140576143451633
-0.014372810583428094 -0.045847916049702286 0.051929572773271204
-0.014341159055198125 -0.04406543279890768 0.05152426008354655
-0.014315784527811057 -0.04247321491261907 0.051004798900699144
-0.014292752071418155 -0.040953437200605625 0.050444472908686144
-0.014274625316966797 -0.039581586192526885 0.0497940151108357
-0.014259463118785294 -0.03829944708277172 0.049089469569248534
-0.014245895333697875 -0.03706609677026396 0.048356477196531356
-0.014233407096894064 -0.03586610326643447 0.047604608680506866
-0.014223087111574604 -0.0347312542483077 0.04681262067338415
-0.014215556679808967 -0.033679381922008644 0.0459680224531393
-0.014209672527662231 -0.032676551118555275 0.04509246177309817
-0.014205178654767205 -0.0317149989785267 0.044190590353279546
-0.014202366208725647 -0.03080296518729414 0.043256415922685865
-0.014199554876154541 -0.029891292477148 0.0423226113387295
-0.014197415670089312 -0.028999454097345778 0.04137594184269433
-0.014196157644908752 -0.028133386962862605 0.04041212923241155
-0.014196367386008135 -0.02730989131506789 0.03941933836749789
-0.014197625595319887 -0.026516614916880565 0.03840562010122828
-0.014200310437397827 -0.025764260271456285 0.03736319142774808
-0.014204003726090915 -0.02504056330051868 0.03630014787652419
-0.01420895908157877 -0.02435261859601534 0.03521117058587181
-0.014215053009497857 -0.023696671499197408 0.03409849178880825
-0.01422380374470662 -0.02311587329762732 0.032931083314578335
-0.014234841630583708 -0.022599224854122857 0.031715912599264595
-0.014247670426549099 -0.022132213817449453 0.030462634845950964
-0.014264924382039336 -0.02178928141342429 0.029116902105469633
-0.014284300180883707 -0.021504422575120474 0.027725143487278336
-0.014306411150449368 -0.021294598758918648 0.026274263651622276
-0.01433158162680688 -0.021168477678083997 0.024756977999915164
-0.014359929395173603 -0.0211288379788514 0.023170201194745554
-0.014392913955669408 -0.02121611417358732 0.02148285717072007
-0.014433718928077774 -0.021518722493777287 0.019627416975164458
-0.014483829354946891 -0.022076827308481095 0.01757109541839741
-0.014548544083292479 -0.0230366917765365 0.015200426888330953
-0.014634442916617267 -0.024579018016855192 0.012373421023515074
-0.013707921830203765 0.002828736325897474 0.030028604068615017
-0.013633494314163748 0.005689690198745823 0.030661142194360114
-0.013577223782133892 0.008040476790412698 0.030915585725758976
-0.013530285322880758 0.010127494353963373 0.030977561067428883
-0.013487605698610683 0.012091901219360546 0.030954364916173926
-0.013191370695359566 0.02100969202917846 0.036414795684478474
-0.013154902754591878 0.02277920070265521 0.036286519520394134
-0.013121393753885513 0.024463590341562813 0.03609898708224718
-0.0131080808467533 0.025593358734792127 0.03547559620836355
-0.013128419136363608 0.025805940273302796 0.03411770216594806
-0.013154506960614827 0.025864792994235886 0.03263076335119203
-0.0138453483149168 0.007916799229736926 0.016501428765508863
-0.013912239818139013 0.006917501972995732 0.014059535960887382
-0.014050978897150762 0.003987882312952662 0.010016139701998716
-0.014045271222498714 0.004962591555902673 0.009164508562197304
-0.014021504754377238 0.006421672131817047 0.008716381689713726
-0.013981367117688166 0.008316729171594761 0.00863778055883524
-0.013939517687793791 0.010252872012565584 0.00860318108159247
-0.013895908856197391 0.012231070929628163 0.008614012499201351
-0.012860790225188845 0.04060322749494649 0.031017683873365176
-0.01281688940574113 0.04252105094832992 0.031116325225344188
-0.012771963434795135 0.04446091861857415 0.031244370260001375
-0.01272839624361925 0.04635959628416958 0.03134770959820782
-0.012688172804059894 0.048164936032127736 0.03138068881355843
-0.01264474191908049 0.05005003625196508 0.03149280641803048
-0.012606400239918686 0.05179634434669128 0.03149394019772023
-0.012565267306260198 0.05361134709381715 0.031564797172056236
-0.012537078383542736 0.05508295803134006 0.03134191591747265
-0.012510318116504646 0.05651398774168481 0.03108980857247917
-0.012482407347491073 0.05797184988171189 0.030868206209722082
-0.012457235711066453 0.05935528104568899 0.030586547593573876
-0.012437828005019061 0.06058634692427195 0.030173437400402736
-0.012421305110662926 0.06174052765865001 0.029695284033699976
-0.012405850718465441 0.06286520249288435 0.029194265110513373
-0.012391904322084825 0.0639492424072769 0.02865977520916585
-0.012384400369295874 0.06486614511530214 0.027974588842631543
-0.01237422865927307 0.06585054998331175 0.02735383982128714
-0.012367764471287812 0.066738952612307 0.02664614990629155
-0.012362992331733115 0.0675834274259785 0.025898917622034612
-0.012359876544582014 0.06838517974361957 0.025112645142648327
-0.012365664439949497 0.06896043252489131 0.024112754002171777
-0.012371139306912724 0.06954429372713877 0.02311960401483809
-0.01238031734557741 0.07003517455692077 0.022036148089618235
-0.012394749221124619 0.07039461231161903 0.0208240091843917
-0.012418706072866596 0.07051604813644702 0.01937821780447102
-0.012444012189528316 0.07060640946122276 0.017896182327435395
-0.012495617247502271 0.07004100958530768 0.015767382874582958
-0.015926725380955922 -0.056024561748615476 0.05174644177964821
-0.01580282464516485 -0.05176253310704104 0.05283534245170013
-0.0157307550066144 -0.04893703926941573 0.0530559165852405
-0.015681024458583555 -0.046731492218421655 0.05290320131632059
-0.015642007174283726 -0.04482430708068269 0.052572718510006
-0.01561256921250151 -0.043182806911631566 0.05208197661903052
-0.01558671639671154 -0.04164213899277791 0.05153292158968564
-0.015563766828870087 -0.040183185185780124 0.05093671643442943
-0.015545999703121779 -0.038867332177935865 0.05025305320460449
-0.01553043496589371 -0.03761303349449724 0.049533105434387714
-0.015516554360230129 -0.036405926176291736 0.048785556546974584
-0.015504715743264362 -0.03525539367989744 0.0480037740106925
-0.01549486403234986 -0.034159624820691126 0.04718834153581797
-0.015487357669521029 -0.03312793177875811 0.0463325125287406
-0.015481504112481451 -0.03214136588885336 0.04544818187592453
-0.015477299621415972 -0.031199561459392622 0.044535099944496226
-0.015473782412376638 -0.0302765645521596 0.04361021679239635
-0.0154717733277816 -0.029394145188061938 0.042658612696096054
-0.015470129932678833 -0.02852166933922462 0.041700653598083504
-0.015469490973770239 -0.02767603631228205 0.04072468040496202
-0.01547003878606435 -0.026861915737886655 0.039727180932603745
-0.015472001908878373 -0.026085159906175492 0.03870375223392997
-0.015475472776640936 -0.025347980565707084 0.037652428480638434
-0.015480133469569042 -0.024641763098756486 0.036578770259996896
-0.015486123360068212 -0.02396997917013205 0.035479976527126256
-0.01549330817874695 -0.02332889361938123 0.03435828026197496
-0.015503478959188887 -0.022765192967428405 0.033180156778926995
-0.015516417850020671 -0.022272707001218695 0.03194909806099666
-0.015532460791236637 -0.02185974780120592 0.030658285869224478
-0.01555038159745348 -0.021493919402193473 0.02933015571978914
-0.015572181714319677 -0.021226877070969985 0.027926629448650653
-0.015596176868878523 -0.021014364320740886 0.02647881285135173
-0.015624575248106865 -0.020913115836360296 0.02494438891981743
-0.01565564797550361 -0.020877820649097267 0.023355427276940066
-0.015693371205766835 -0.02101041704773443 0.021635467255270657
-0.015739257713090083 -0.021348702391835117 0.019754243149495754
-0.015795685773005715 -0.021952339941914478 0.01766446053346077
-0.0158666243120035 -0.022921179855060647 0.015287530053248732
-0.01596207654079262 -0.02450828456829901 0.01242704723603727
-0.015049172530473446 -0.0003946054831454049 0.029136834889641305
-0.014928803750957106 0.003471781957365805 0.030521408743519274
-0.01486122520918484 0.0059859578330325736 0.030889414848462027
-0.014808211922512709 0.008124145872959787 0.030980399745605902
-0.014759646342347476 0.010144290325071748 0.030990642114359368
-0.01443734576231273 0.019060044962697864 0.03641043959935725
-0.014394497469602216 0.020911295118468953 0.03633733698299946
-0.014354299640587131 0.022691421061914296 0.0362170481345932
-0.014312098424517333 0.02451742364489612 0.03614182077468936
-0.014269329025251559 0.02635310719289652 0.03608334208746283
-0.01424184757317753 0.027802896768358176 0.03572366992666809
-0.014249821482395007 0.02836731371474005 0.034654059996671205
-0.01429266879397404 0.02806650849758613 0.03287946974957573
-0.014286865746743406 0.028975912919080582 0.03208458168655576
-0.014319212908331158 0.02894132726312093 0.030515455127323066
-0.01436165298516028 0.02866117267608398 0.028736527939347944
-0.015262079412640437 0.00726142037112959 0.009413593410503684
-0.01522715071311394 0.008937039783246115 0.00915553622227755
-0.0151960803296208 0.010514336482947306 0.008822575887268091
-0.015148792501291912 0.012484981776249848 0.00882819831817172
-0.014025523892986481 0.0407113171618948 0.03110934550456068
-0.013975203238980745 0.04268805228102013 0.031258694042187285
-0.01392831283884265 0.04457604399110204 0.03134303359293228
-0.01388096424195163 0.046470121521225594 0.031442930855017925
-0.013835360196601578 0.048316922178058 0.03151232100658985
-0.013790961651425477 0.05012973820575284 0.031562198706292066
-0.013749190398493797 0.05187451953725247 0.031562361793289584
-0.013708388234063874 0.05359153729989741 0.03154736780464945
-0.013679702831615716 0.05501365035724437 0.03128061557233486
-0.01365092397132794 0.05643492620026619 0.03101951371641265
-0.0136246377209071 0.0577936186040533 0.03070890563063
-0.013604027429106397 0.059014309929799225 0.030280193067790284
-0.01358678827229615 0.06015268308841293 0.029781757365016037
-0.013568679685600117 0.061309823551228604 0.029304238709155606
-0.013552440701897551 0.062420795887650815 0.028788666137675223
-0.013539036947993471 0.06346310898857699 0.028213771458802495
-0.013529010262909553 0.06442445854456502 0.02756724386510534
-0.013521334366871461 0.06532950042824898 0.026870791189488707
-0.013517325462817307 0.06614775776877296 0.02609520947786087
-0.013518161984993223 0.06685225792510369 0.025213977173744184
-0.013518336324324079 0.06757229974663831 0.02434718865659652
-0.013525380862581019 0.0681324119757431 0.0233289758957565
-0.013534703460529856 0.06864036436153381 0.02225951557782463
-0.013550619884931678 0.06899650798589557 0.021042711716996065
-0.013573282094035317 0.06919838906991116 0.019673923640490087
-0.013600922751799461 0.06928785913287416 0.018191258405254873
-0.013647123079901274 0.0689531649753829 0.016290131514551998
-0.013756551152880861 0.06717170719025284 0.012965507121442177
-0.017336265373677558 -0.05897629925373532 0.05148161224982267
-0.017144841786130353 -0.053248097733754884 0.053451649894803055
-0.017058182946865313 -0.05019951162730202 0.05380079172009239
-0.016997537590470017 -0.047818867276202326 0.053750537424233635
-0.016949401724915998 -0.04576068368862335 0.0535097183919061
-0.01691326433394233 -0.0440102028974837 0.05308422990278472
-0.016883601931924893 -0.04242645888895652 0.052559900294007755
-0.01685644429225429 -0.040908641835080306 0.05199903604309852
-0.01683431199685859 -0.039519647020533066 0.05136076254816535
-0.01681612022026178 -0.03823155342779794 0.050661656677760236
-0.016799756367595415 -0.036990959131274426 0.04993515823109801
-0.016785904368625898 -0.035814658230290786 0.049169852475103026
-0.016774403256052152 -0.0346982696686271 0.048367915328679845
-0.016765738288411235 -0.033653504788243915 0.04752100436011775
-0.01675851608865826 -0.03264538237427844 0.04665146153277272
-0.016752041197470015 -0.031656473031685284 0.04577047429192438
-0.016747892017321887 -0.030725659592676258 0.04485184782442364
-0.016744386586101598 -0.029811128158425182 0.04392304279304382
-0.016741770830798905 -0.02891883442745391 0.042979855647264587
-0.016741228098832255 -0.02807770493248224 0.04200238039431309
-0.016741524243657196 -0.027257187255045334 0.0410109197853768
-0.016742659354304443 -0.02645715913677532 0.040005324027797384
-0.016745769230936392 -0.025705218572785793 0.03896628881634151
-0.016750411476564857 -0.02499029654730517 0.037900952428485735
-0.016755748287883537 -0.024291799625074606 0.03682327279667752
-0.016762523007058303 -0.023627657899074894 0.035720458789010257
-0.016771135276477264 -0.023007333446492917 0.03458542179105806
-0.01678312795517601 -0.02246783013315412 0.03339136108427021
-0.01679846585476728 -0.02200779808835912 0.032138284996877264
-0.016816171483494194 -0.02160322094631112 0.030842491384526383
-0.01683645936414966 -0.021258898670649895 0.029499842488715067
-0.016859197941156253 -0.02097129577401291 0.028112170357568633
-0.016885711985011456 -0.020771728495675157 0.026655918018211155
-0.016916389539697242 -0.020668897061021985 0.025123621909130534
-0.016951326183094386 -0.020664460010948793 0.023512866439743707
-0.01699382750802694 -0.020836343191375284 0.02176461552846226
-0.01704405758923505 -0.021187315620029235 0.019874629311772085
-0.01710699378483028 -0.021834025858586847 0.01775319571064926
-0.017184370762260377 -0.0228155562981599 0.015367176784383096
-0.017289986280409446 -0.02445494051943753 0.012467489783246466
-0.01625246779621499 0.000800158066400658 0.030047535560733696
-0.016156401316286546 0.003858291899797528 0.0308176146711846
-0.016093319860943093 0.006134451139958197 0.03100382820204245
-0.016038107391283474 0.00822047793543168 0.03105502309460234
-0.015689537250854077 0.017142161667259515 0.03644069309230569
-0.01564153456143332 0.019034987272040504 0.03639081944503186
-0.01559540892264664 0.02087947854535993 0.03631229082125531
-0.015547256113549176 0.02276638143079973 0.03627637412554674
-0.015500795617500437 0.024609392315390166 0.036214997680735495
-0.015455200714493467 0.026427836998805243 0.03614312080506343
-0.015407574152531838 0.028288548420442705 0.03611423478061865
-0.015365351248070735 0.030020406720120463 0.03599059142851274
-0.015375500336946384 0.03054748823608122 0.0348960541463591
-0.015422049238125025 0.03024292600907219 0.03311992238688333
-0.015430261023812269 0.03081803472703004 0.032057174929760124
-0.015435125208576095 0.031470200987220365 0.031056428781947143
-0.015429925815992293 0.032351560267911084 0.03024500042552508
-0.015248201719666874 0.03723550278783955 0.03277545605058391
-0.015245418682456501 0.03805242852532875 0.03192977590593227
-0.015234745967308028 0.03904721513744125 0.03123468992441325
-0.015188303928303533 0.04084679084724219 0.03122422916507489
-0.015136414092621106 0.04276423751393965 0.03132364208285765
-0.015084076385023744 0.04468659853157658 0.03143777969090611
-0.015034446957999296 0.04654317090266574 0.03150586541508815
-0.014981862335351759 0.04846082828198345 0.03163695523971888
-0.014936593504633092 0.0502102772286408 0.03163231978551723
-0.014890621401912498 0.05197088482217904 0.03164670395998148
-0.014853627453501049 0.05352778549479886 0.03149127648442407
-0.014822771669243534 0.05494516957114587 0.03122004658336669
-0.014800562276013472 0.05616855608157478 0.030782679658174217
-0.014776343223533014 0.05743402806711101 0.030387508636915084
-0.014752164988589273 0.058696207630707486 0.029994385642024612
-0.014736854777020839 0.0597614709140602 0.029428419175997977
-0.01471985945905275 0.060862100624278714 0.02889774163685438
-0.014705453757599653 0.06190450098727479 0.028317456472569225
-0.014691038226580785 0.06294569091222452 0.02773906555221267
-0.014683860067389032 0.06382813071056387 0.027017281112920177
-0.014680823842857557 0.06462002889204693 0.02621306244079874
-0.014676764833084738 0.06543375877193958 0.025429826603598327
-0.014677751008183594 0.0661381643993944 0.024545033054555354
-0.014685189096722017 0.06670369319528241 0.023529256703805956
-0.014694915492324882 0.06722078050790803 0.022466054324915496
-0.014711243678346468 0.06759727981894581 0.02126702103064304
-0.014735555580555304 0.06780460869245764 0.0199027153434157
-0.014764321839384401 0.06791927583803226 0.01844414512368897
-0.014803495009272282 0.06781519548368858 0.016768031216681745
-0.01492784069280838 0.06590563960744805 0.013329601013502168
-0.01850881864412799 -0.05516455781989932 0.053809301920134445
-0.018398919044145014 -0.05171797750059526 0.05439139682170602
-0.018323629905288987 -0.049097697209111724 0.05448136199366255
-0.018264429786543267 -0.04686301440343538 0.05434432383601889
-0.018217702514772702 -0.04492676589285444 0.0540307123641704
-0.018182016472373056 -0.04325366943616349 0.05355956892741803
-0.018154494887353184 -0.04177489047608218 0.052971615494412094
-0.018128775684328056 -0.04034073002349903 0.05235992621513286
-0.01810602291848042 -0.038978070709762 0.051706866737197266
-0.018086107579066243 -0.0376835029768145 0.05101387877380159
-0.01806933139682944 -0.036463640793802266 0.05027596928468914
-0.018055783621704194 -0.03532011964553239 0.04949127894969019
-0.018045077150520235 -0.03424354364232807 0.04866512840628984
-0.018036085024975487 -0.03320751386672077 0.04781414550140828
-0.018028270766288962 -0.032199438143256986 0.04694621574792124
-0.018022480909556098 -0.03123861254104432 0.04604821249745733
-0.018017756182598363 -0.030302752596577553 0.04513451161537835
-0.018014466285787362 -0.02940017551838353 0.04419924954572513
-0.018012026189845366 -0.02851731687239978 0.04325122482416083
-0.018011230698837068 -0.02767218286606321 0.042277981039132995
-0.018012026336847717 -0.026863330058488843 0.041280079855878116
-0.018014572689155108 -0.026094163523208203 0.040254769562218906
-0.01801834045368979 -0.025352445784736888 0.03921005214521889
-0.0180241277969076 -0.024656061947605612 0.038133183391404035
-0.018030184589915194 -0.02396522886548741 0.03705143198164079
-0.018037894269536437 -0.023311073678503047 0.035942860660797826
-0.018048272835486226 -0.02271620918064432 0.03479106421465833
-0.018062396172501737 -0.02220440508552085 0.033578460817230205
-0.018078785574897355 -0.021742038917069773 0.03232807915162672
-0.018098470725952012 -0.021351804797438922 0.03102302703123816
-0.018120506771858454 -0.02101218124582932 0.029677974355639958
-0.018146740994410635 -0.020763948703198754 0.02826269533097925
-0.018175049233117486 -0.020559361296559497 0.026810929466798028
-0.018207726627407786 -0.02044899222246782 0.025285010825816412
-0.01824754128999609 -0.02049345224542204 0.02363905336540384
-0.01829414852053759 -0.020684151578932664 0.02187752901355705
-0.018349797884256922 -0.021069693729861616 0.019962369165121674
-0.01841803492664151 -0.0217267491730726 0.017833652883425977
-0.01850271885648001 -0.02273821580691482 0.015425496348255407
-0.01760415904340487 -0.0022246971565551 0.02932121068432908
-0.01746732077384966 0.0015718435977081224 0.030635747819423242
-0.017387825629221705 0.0041061932481141206 0.031007596486101685
-0.01732498415180252 0.006271089758813242 0.031109107584090134
-0.01726576252858153 0.008351663979530133 0.031156645947714667
-0.016891338767965378 0.0172522922197208 0.03652646455928893
-0.016841575603001917 0.019103135729820808 0.036444179946316047
-0.016785699520516457 0.021081219446945854 0.03647110285024657
-0.016738021489983906 0.02287777807208058 0.03636453688691449
-0.016687972460280313 0.024720865516270396 0.036303693779974444
-0.016640620846786656 0.02650156558511685 0.036202098616758493
-0.016588137165742946 0.028387635197232364 0.03619392120715026
-0.016539202759468328 0.030193168916866853 0.036130270338875836
-0.016501054949890813 0.03176459457187575 0.035885339835672436
-0.01651838934428267 0.03215401354733882 0.03468156896349639
-0.016404976825705634 0.035316230956909445 0.03575245408682992
-0.01638739670370186 0.0364412474270408 0.035161882111296505
-0.016391349027191922 0.037110242381913905 0.034195956700484864
-0.01639358955252735 0.037815646377359347 0.033259685439133435
-0.01639679761612208 0.038500926635598676 0.03230611054270821
-0.016390778228652425 0.03937996079893419 0.031515376605847134
-0.016353136377537245 0.04091997518213203 0.03128629058794874
-0.016296670980625642 0.04284945199831558 0.03139628756542745
-0.01624007675243587 0.04477642703671825 0.03151476343222637
-0.016186657994838205 0.046632212631147196 0.031582577914263665
-0.016132355538401977 0.04850141736243818 0.03167210870291526
-0.016083193392299334 0.050259281865006555 0.03167498557188381
