# .PCD v0.7 - Point Cloud Data file format
VERSION 0.7
FIELDS x y z
SIZE 4 4 4
TYPE F F F
COUNT 1 1 1
WIDTH 791
HEIGHT 1
VIEWPOINT 0 0 0 1 0 0 0
POINTS 791
DATA ascii
0.007851011705308941 0.11471144719706484 0.0692362655395109
0.009254293808335423 0.11451203481114809 0.06877949651289372
0.010651711343084791 0.11431361972593454 0.06832363716384066
0.012045283362708381 0.11411558690042664 0.06787003050518109
0.013434035383646625 0.11391823901832779 0.06741799275246901
0.014817014426104946 0.11372187457450501 0.06696684002878522
0.016196206510229738 0.11352588492121969 0.06651791574151172
0.017569685645418776 0.11333086961645643 0.06606986035304996
0.018939416154073685 0.11313622421825204 0.06562401749117175
0.020304449714331263 0.11294224627937345 0.06517970347079721
0.021664810444327276 0.1127489323725156 0.06473691044155161
0.023020522297355628 0.11255627909379828 0.06429563060671556
0.02437066786334141 0.11236457793800432 0.0638551803708236
0.025717158300249954 0.11217323479321281 0.06341690374967829
0.02705907071559227 0.1119825422085957 0.06298011725405289
0.028395502515477622 0.11179278875397446 0.062544137461505
0.029728333696594167 0.1116033863873836 0.062110308522576374
0.031056656278981187 0.11141462471654714 0.06167794710674546
0.032379582236291726 0.11122678942995277 0.06124636999496247
0.033698960939361866 0.11103929846287336 0.060816921399606816
0.035013899069996746 0.11085243852555639 0.06038891817966441
0.03632352292592539 0.110666492467922 0.05996167734893254
0.037629651776072304 0.11048088411164972 0.05953654311092155
0.038931406718475614 0.11029589731261176 0.059112832543998406
0.040227928136506 0.1101118121240897 0.0586898629233677
0.041521005709951986 0.10992805816516917 0.058268978375106584
0.04280890271239107 0.10974519776735707 0.05784882073413611
0.04409338938006241 0.10956266436514285 0.05743073404014348
0.04537361030475834 0.10938073715107074 0.057014035799898
0.04664872882795551 0.10919969160878269 0.05659804378425315
0.04792048642726482 0.1090189668258076 0.05618410184574635
0.0491880414805318 0.10883883925116049 0.05577152778584116
0.05045057080276444 0.10865958167970055 0.05535963970880503
0.05170978759731415 0.10848063876766612 0.05494978121684496
0.05296486380060311 0.10830228426063755 0.05454127043280188
0.054214989480157794 0.10812478830371484 0.05413342581986702
0.05546102421751048 0.10794787318895875 0.053726915847697565
0.05591918585549199 0.10803039782134582 0.05267783845718815
0.05633102977391391 0.1081286110531881 0.05158832428677945
0.05674362320969667 0.10822700302390555 0.05049682730267091
0.05715779263139181 0.10832530016431277 0.049404030207614136
0.05757189095613563 0.10842405057979465 0.04830855472447759
0.05817282213874847 0.10846085367698728 0.047368044992619596
0.05858754301222607 0.10856012674952498 0.04626864152131982
0.05900384603826564 0.10865930596552448 0.0451679246539316
0.059420910418684414 0.10875866656508723 0.04406519474428955
0.05983873824399466 0.10885820904625261 0.04296044626502166
0.06025733161236768 0.1089579339088855 0.04185367366850007
0.0606758715968132 0.10905811943136798 0.040744156557513844
0.061096002694202844 0.10915821107397987 0.039633315514104095
0.06151690567804352 0.10925848661009221 0.03852043357648849
0.06193858267751384 0.10935894654695934 0.03740550511504098
0.06236103582963548 0.10945959139370118 0.03628852447941572
0.06278426727929926 0.10956042166131534 0.03516948599844294
0.06320746008609807 0.10966171872267105 0.0340476480437194
0.06363225493025737 0.10976292189119907 0.03292447321634606
0.06405783455687325 0.10986431202637108 0.031799223392340925
0.06448420114271586 0.10996588964677904 0.030671892816247215
0.06491135687260863 0.11006765527293626 0.02954247571129892
0.06533848653374774 0.1101698928963189 0.028410212427457116
0.06576722748495911 0.11027203662911458 0.02727660123035469
0.06619676418611203 0.11037436994226903 0.02614088603314585
0.06662709885464951 0.11047689336406911 0.025003060972802915
0.06705823371626252 0.1105796074247658 0.02386312016449571
0.06748935535369294 0.1106827987711913 0.022720285631561032
0.06792209767163682 0.11078589624159912 0.021576091905461725
0.06835564691235424 0.11088918595502827 0.020429764632677705
0.06879000533492197 0.11099266844968586 0.019281297840091527
0.06922517520685717 0.11109634426578993 0.018130685532268098
0.06966034497608281 0.11120050274296778 0.01697713109470711
0.07009714495713204 0.11130456737149154 0.01582220593820327
0.0705217534283687 0.11141346524852914 0.014652347071686944
0.07086426230812592 0.11155221258833115 0.01339837143400302
0.07100007383963447 0.11176565042361711 0.011935422526845318
-0.009476531775805985 0.11838503366731716 0.07478214677214995
-0.00801328944235935 0.11817512067617639 0.07430500520445688
-0.006554164504504245 0.11796562905246441 0.07383022789058827
-0.0050991470211566026 0.11775655827023028 0.07335780615697987
-0.00365137953534167 0.11754886615529156 0.07288570531073449
-0.0022076649641279977 0.11734158705134717 0.07241594229828488
-0.0007690329618996183 0.11713503766945356 0.07194783307730412
0.0006645432638103799 0.1169292141629233 0.07148136892992688
0.0020920623539568695 0.11672442770012785 0.07101586553910377
0.003515612288513048 0.11652004340986333 0.07055266556476136
0.004934185669538571 0.11631637362166775 0.07009108487987159
0.006346797383965763 0.11611372629602836 0.06963043916359124
0.007755501164469714 0.11591147323256917 0.06917207163625971
0.009158305839123138 0.1157102330723737 0.0687146222043975
0.01055724264835567 0.11550938200281373 0.06825943441647281
0.011951331293854672 0.11530922700392422 0.06780582413000608
0.0133396131208674 0.11511007079895354 0.06735310709555126
0.014724086119464685 0.11491129607269356 0.06690262728028212
0.016102812784297704 0.11471351088900619 0.06645302445974871
0.01747776926549044 0.11451610220686691 0.06600564283715754
0.018848001594259034 0.11431937179253313 0.06555979835333403
0.020212576826995676 0.11412361726392899 0.06511480692465593
0.021573438824237512 0.11392823191001274 0.06467201303840292
0.02292964905756556 0.11373351443171573 0.06423073273145641
0.024281231337609455 0.11353946141043388 0.06379095825637338
0.025628209312772487 0.11334606945085467 0.06335268191849597
0.026969675034175244 0.11315363119160554 0.06291521989332716
0.028307519777764134 0.11296155025755628 0.06247991696579658
0.029640830173021104 0.11277012034215249 0.06204608940755152
0.03096871293024711 0.11257963115654311 0.06161305358931363
0.032293028502027754 0.11238949239940464 0.06118215437855473
0.03361287827203624 0.11219999482026498 0.060752708228110575
0.03492738336436446 0.11201142524632776 0.06032403173367207
0.036238373936446744 0.11182319935759431 0.059897469773822654
0.03754407422730632 0.11163589312683078 0.05947166301270013
0.03884629448861876 0.11144892617013079 0.05904795629999682
0.040144160145494434 0.11126258442805251 0.05862566645595396
0.04143681581201997 0.11107715001612842 0.05820411051372082
0.04272604230006605 0.11089204838179091 0.057784633219803316
0.04401097914039348 0.11070756263676329 0.05736655165408561
0.04529078473105996 0.11052397212458889 0.056949183149696325
0.04656721094289357 0.11034070803644278 0.05653387228413703
0.047839411178255686 0.11015805069683067 0.05611993642473179
0.04910655739182024 0.10997627671780463 0.05570669323116284
0.050370373001614066 0.10979482294843385 0.05529548704810139
0.05163002505235481 0.10961396696681486 0.054885635557263446
0.052884698832618315 0.10943398269322302 0.05447645677065466
0.054136089785609465 0.1092543125504813 0.05406929473821237
0.05538337837384821 0.10907523141029424 0.05366346748218109
0.05662576300161609 0.10889701054011339 0.053258293391871436
0.05786409432275591 0.10871937111936894 0.05285444119072985
0.058662114403386034 0.1086885008299609 0.052089679231054786
0.05907476381305127 0.10878690976282 0.05100407164251447
0.05948816114342059 0.10888549706034532 0.04991649640698842
0.059902308429729156 0.10898426320790196 0.04882694817012878
0.06031720771460508 0.10908320869261699 0.047735421558144475
0.0609174251310875 0.10911980901812243 0.04679925218952957
0.061333763662582585 0.10921900088866275 0.04570452357888527
0.06175085980121048 0.1093183732576655 0.044607802901406035
0.06216790396800337 0.1094182034078946 0.04350838176213534
0.06258652185794494 0.10951793875981518 0.04240765717631506
0.06300590358961122 0.10961785609635831 0.041304924125594056
0.06342605125555612 0.10971795591607303 0.04020017710775853
0.06384696695598246 0.10981823871933154 0.03909341060047722
0.06426865279878313 0.10991870500833552 0.037984619061214586
0.06469030120532554 0.11001963512794805 0.03687307323341482
0.06511353402286141 0.1101204704156126 0.035760211424780086
0.06553754335549761 0.11022149070811517 0.034645307822751825
0.06596233134223506 0.11032269651507104 0.033528356802985104
0.06638790012993356 0.11042408834797057 0.032409352720454754
0.06681344387806126 0.11052594914260297 0.03128754861273414
0.06724058108839742 0.11062771508971174 0.030164417831349932
0.06766850559047743 0.11072966861000053 0.02903921691526612
0.0680972195629958 0.11083181022254383 0.027911940135753266
0.0685267251926886 0.1109341404483348 0.02678258174292042
0.0689562184441394 0.11103694485019523 0.025650376770727235
0.06938731434267786 0.11113965440074136 0.024516834201632587
0.0698192085099788 0.11124255414056951 0.023381192629535585
0.0702519031653504 0.11134564459843556 0.022243446218884577
0.07068540053633698 0.11144892630505655 0.021103589112478227
0.07111889846130409 0.11155268748706804 0.01996083803687959
0.07155400835494369 0.1116563538262012 0.018816738204442574
0.07198992769941043 0.11176021301959654 0.01767050996138947
0.07242665875558374 0.11186426560591578 0.016522147362851125
0.07286420379277098 0.11196851212582838 0.015371644441798615
0.07330176259348542 0.11207324350725387 0.014218199307432344
0.07370002992574742 0.112192719381747 0.01302260689692436
0.07398279324610002 0.11235475208948138 0.011707865155196895
-0.009578612418448762 0.11961194254185864 0.07471800828049441
-0.00811480915144347 0.11939979901017213 0.07424085659436686
-0.0066551260578834315 0.11918808151844842 0.07376606998562901
-0.005200610367189662 0.11897711352474352 0.07329296416199818
-0.0037512346882737635 0.11876689105615901 0.0728215302140599
-0.002306971823296422 0.11855741016782596 0.0723517592952578
-0.0008677947659666008 0.11834866694265832 0.07188364262133956
0.0005652891374087199 0.1181409769440616 0.07141649553165683
0.0019943805124564284 0.11793369628389155 0.07095166117247237
0.0034184659328281852 0.11772714170577654 0.07048845507842227
0.004836554403299109 0.1175216255135911 0.07002619257476828
0.006250712074650666 0.11731651059845721 0.06956621739409741
0.007658935836401093 0.11711242434019692 0.06910716879649992
0.009063269198242019 0.11690873408888446 0.06865039085947416
0.010462726008906409 0.11670575115249697 0.06819519908494831
0.01185634190164031 0.1165037825135627 0.0677409088532211
0.013246126916595047 0.1163022021248407 0.067288864684933
0.014631110894144206 0.1161013180992162 0.06683838211133009
0.01601034508236071 0.1159014342908387 0.06638877659255538
0.017385806637440493 0.11570193115213397 0.06594139300994606
0.018755578131667006 0.11550341899792943 0.06549487045677505
0.02012161512106969 0.1153052825564952 0.06505055401264986
0.02148297349211581 0.11510782472391999 0.06460775933332569
0.022838729928931267 0.11491134424572136 0.0641658020842999
0.02419175019538322 0.1147149309877066 0.06372670410394338
0.025538279020478283 0.11451978836417645 0.0632877515779302
0.02688116634471721 0.11432500937991072 0.06285096645002797
0.028219493372256488 0.11413089184352163 0.062415664596024434
0.029552361516306358 0.11393772951761802 0.06198116197823589
0.030881642383990326 0.11374492380422274 0.06154880411402475
0.03220552025754386 0.11355306464445682 0.061117230595565175
0.03352584636221945 0.11336155750113185 0.060687786971319435
0.03484172650734091 0.1131706952235109 0.06025978942082827
0.0361522861434741 0.11298076671591109 0.05983255428313766
0.037459346354487 0.112791183456679 0.05940742709113095
0.03876202738425599 0.11260223537817933 0.05898372424741005
0.040059468786736496 0.11241420852686025 0.05856076235610541
0.041353462018087705 0.11222652030560848 0.058139886865948565
0.04264314151588783 0.11203945777309005 0.05772041443156256
0.04392766070356152 0.11185330415991529 0.05730166194984532
0.04520878191233729 0.11166748270434157 0.05688497471888554
0.046485653537613525 0.11148227763369259 0.056469669673404166
0.047757442643167225 0.11129796940395398 0.05605506402991128
0.04902588292744153 0.11111398700136936 0.05564250287136868
0.050290136512628814 0.11093061186345031 0.05523130343982169
0.051549383878420674 0.11074812171197404 0.05482078329742057
0.05280533057226705 0.11056595119552502 0.05441228724946684
0.05405715221685886 0.1103843790025275 0.054005132871729256
0.055304042487929084 0.11020368016018878 0.05359863809723342
0.05654767925363863 0.11002329489548439 0.053194147392979896
0.057787251415494234 0.10984349918769054 0.05279097869405536
0.05902196562985068 0.10966456540832331 0.05238845032882733
0.06025266371628685 0.1094862136429525 0.05198723125877458
0.061381997206693406 0.10934154130292349 0.051505613623435476
0.061795425824590466 0.1094401400303873 0.05042388189383873
0.062209600733928394 0.10953891674113356 0.04934019750041352
0.06262452395725837 0.1096378719175219 0.04825455515117144
0.0630401975244515 0.10973700604365483 0.04716694953498818
0.06345662347272213 0.10983631960538905 0.046077375321508685
0.06405679269125275 0.10987277963485656 0.045144310100110885
0.06447465550758003 0.10997233921418072 0.04405155379017617
0.06489327629105435 0.11007207938599334 0.042956815314507624
0.06531265710587708 0.11017200064210969 0.04186008927499185
0.06573199921408696 0.11027238179290255 0.04076066196309697
0.0661529066492772 0.11037266720667777 0.039659941098208584
0.06657458035612346 0.11047313519234139 0.03855721634576503
0.06699702242905531 0.11057378624891194 0.03745248222859643
0.06742023497014021 0.1106746208772288 0.03634573324955226
0.06784422008912527 0.11077563957995834 0.03523696389141612
0.06826818113828148 0.11087712423936574 0.03412543960319353
0.06869371812365155 0.11097851312111263 0.03301260936118572
0.06912003406517214 0.1110800875977449 0.03189774205551177
0.0695471311036539 0.11118184817933233 0.0307808320877066
0.06997501138775525 0.11128379537781713 0.029661873838767172
0.07040288008353551 0.1113862136745867 0.028540115069009164
0.07083233370016045 0.1114885361721777 0.02741703976654919
0.07126257705854183 0.1115910468352431 0.026291899189994528
0.07169361233912563 0.1116937461832984 0.025164687637216132
0.07212544173038737 0.11179663473777501 0.024035399385070433
0.07255727227988973 0.11189999961531918 0.02290326420860428
0.07299069686753529 0.11200326868385231 0.021769801692602564
0.07342492218262009 0.11210672853613987 0.020634245168730136
0.07385995044614241 0.11221037970136444 0.019496588828779082
0.0742957838873235 0.11231422271066685 0.01835682684304285
0.07473163150460177 0.11241854735276251 0.01721417069872022
0.07516908241300663 0.11252277618813875 0.01607017617389661
0.07560734523926405 0.1126271984743544 0.014924058371878324
0.0760464222458781 0.11273181475048268 0.013775811375906444
0.07647523207066331 0.11284070547041147 0.01261426489258577
0.07683283934366442 0.11297638470725353 0.011377540263855734
0.07701543381166837 0.11317743802267599 0.009958844389783394
-0.009681821547725289 0.12083982067456779 0.07465316074715703
-0.008217451050931412 0.12062544313833162 0.07417599889088686
-0.006756139954676277 0.12041116776357927 0.07370187881806983
-0.005301069040316353 0.12019797970354668 0.07322876422149327
-0.003852193352409272 0.11998587145414952 0.07275664591073872
-0.002406329895503212 0.11977386029022215 0.07228754319273864
-0.0009676478159456603 0.11956324493950295 0.07181874290764798
0.0004670181678038676 0.11935304618316817 0.07135226473359652
0.001896648561035219 0.11914358521171775 0.0708874238695687
0.0033202464476311255 0.1189351787044493 0.07042353528942952
0.004739890480419229 0.11872718057697558 0.06996194323111415
0.006154577732443101 0.11851990868868977 0.06950196285186089
0.007563327461267533 0.11831367645809829 0.06904290913751993
0.008968184228224818 0.11810784458102566 0.0685861268508815
0.010367165715856386 0.11790304265443745 0.06813025446630316
0.01176229409522811 0.117698635833927 0.0676766370514762
0.013152593418340297 0.11749493654116978 0.06722458977455226
0.014537109283916994 0.11729225287092679 0.06677342771826472
0.015917830762928686 0.11708995658296914 0.06632449633486709
0.01729282896521933 0.11688866652263263 0.06587643402061077
0.018664071220180933 0.11668775879417069 0.06543058644147443
0.020030607792829502 0.11648754051934242 0.0649862688742634
0.021391509879884696 0.11628831460310117 0.06454279659204382
0.022748712666117554 0.11608946358389746 0.06410151551207299
0.024101281788917295 0.11589129146744599 0.0636617410219516
0.025449240937722106 0.11569379478288071 0.0632234654192933
0.02679168127283027 0.11549727237582906 0.06278600419572478
0.028130495980152492 0.11530111521077742 0.06235070348221722
0.02946477079093973 0.11510562321114345 0.061916878865536595
0.03079361154340038 0.11491109223153509 0.06148384603623269
0.03211888055931361 0.11471691944229925 0.06105295120109944
0.03343967834302758 0.11452340175902809 0.06062351013179107
0.03475512516484941 0.11433083208980922 0.06019483874752135
0.03606705301158153 0.11413861371631029 0.05976828325947253
0.03737457691276641 0.11394704059114688 0.05934315965435211
0.038676831330096084 0.11375640271951075 0.0589187841088783
0.03997561843323827 0.11356610940176447 0.05849650276934709
0.04127006753418083 0.11337645167151203 0.05807563186677067
0.04255932705025578 0.11318771667382072 0.05765548786333663
0.04384516984082154 0.11299931963698752 0.05723741677327632
0.045126739262585425 0.11281154871870792 0.05682073510027025
0.04640319745762028 0.11262468824586318 0.05640475961909108
0.04767628847106781 0.11243815928574317 0.05599083614675976
0.048945169471527494 0.11225224716239657 0.05557828148712701
0.050209016099638404 0.11206723342564452 0.055166412753841876
0.05146954407196258 0.11188254489460168 0.05475657550354035
0.05272592414094007 0.11169846410111067 0.05434808686690923
0.05397734522420827 0.11151526985826583 0.053940264321963804
0.05522549518520198 0.11133239465156677 0.05353445310369481
0.05646955813680593 0.11115011826129031 0.05312997069547809
0.057708736056586996 0.11096871680336157 0.0527261349644112
0.058944689420368845 0.11078762834591484 0.05232429076442785
0.06017661548263176 0.11060712995751787 0.05192375595666088
0.061403729068182866 0.11042749509573002 0.051523848821248
0.06262766372108419 0.11024816732921212 0.051125913773461096
0.06384683349725173 0.11006969560302642 0.05072859395064744
0.06449411038240338 0.11008809351687635 0.04984837890633259
0.06490903682793298 0.11018705336601331 0.04876855810961134
0.06532550391001735 0.11028591565803283 0.04768747828769776
0.06574192532296397 0.11038523163774303 0.04660376940627975
0.06615909741342696 0.11048472665308086 0.045518106936878855
0.06675772495639443 0.11052125311472359 0.04458864262667661
0.06717632828205145 0.11062099359606363 0.043499822587876213
0.06759568783169467 0.11072091426264145 0.042409035551318586
0.06801580565640114 0.11082101560316637 0.041316276181992795
0.0684366838146721 0.11092129810811659 0.04022153912557719
0.06885832437246497 0.11102176226974778 0.03912481900835074
0.06927993934285182 0.11112268840933083 0.03802539686365458
0.06970311127728546 0.11122351787627982 0.03692469100385082
0.07012705185677909 0.11132453048880205 0.03582198583354862
0.07055176317747475 0.11142572674634657 0.03471727590050683
0.07097724734314187 0.11152710715018058 0.03361055573264049
0.07140350646521759 0.11162867220339563 0.032501819837935375
0.07182975473561559 0.11173070530871995 0.03139032842679235
0.07225757050098192 0.11183264169375448 0.030277541032154465
0.07268616760603624 0.11193476424990377 0.02916272130258496
0.07311554819323329 0.11203707348765214 0.0280458636653777
0.07354571441286323 0.11213956991935356 0.02692696252742982
0.07397588234522445 0.11224253955486087 0.025805260427952448
0.07440762669085266 0.11234541244260957 0.02468225187903983
0.074840163169901 0.11244847407410784 0.023557182915028285
0.07527349396439836 0.11255172496927152 0.022430047860263036
0.07570762126439068 0.11265516564992943 0.021300841018220107
0.07614176310695825 0.11275908476922324 0.020168786961503038
0.07657749041276557 0.11286290712487526 0.019035415763960284
0.07701402084549003 0.11296692084453021 0.01789995555142504
0.07745135662764824 0.11307112645775598 0.016762400542901013
0.0778894999899663 0.11317552449607575 0.015622744936042876
0.07832767099636911 0.11328040629275639 0.01448019503546849
0.07876743665065095 0.11338519132193307 0.013336317071086179
0.07920801662974736 0.11349017038409433 0.012190320960003609
0.07961504754154963 0.11360821194372071 0.01100704460720403
0.07991668800843443 0.11376637425400872 0.009712060241187925
0.07984111554898116 0.11406721453235312 0.00802270468506705
-0.009784009015279371 0.12206801020215169 0.07458895513612893
-0.008319076809376824 0.1218513975282605 0.07411178326997506
-0.006858270369930031 0.12163522027031946 0.07363697813799919
-0.005401579717379312 0.12141947788197584 0.07316453104692797
-0.0039521522625931005 0.12120515874629251 0.07269240413115935
-0.002506785907041509 0.12099126638725964 0.07222261748119524
-0.001066511879587062 0.12077812761577122 0.07175448598784379
0.0003686966844521633 0.12056573845626051 0.0712880009192926
0.0017978369090114188 0.12035441999576173 0.07082247690054616
0.0032230000336230247 0.12014351710677414 0.07035925866789111
0.004643177130474796 0.1199333520755471 0.06989766103490902
0.00605738160171021 0.11972424267650586 0.06943699862842106
0.007467670369108614 0.11951554067115827 0.06897861673517997
0.008872049231292811 0.11930788442044807 0.06852115317241497
0.010272552571762628 0.11910063021709494 0.06806595354836054
0.011668198616154535 0.11889409482319536 0.06761233267047234
0.013058027277003503 0.11868859060504088 0.06715960524630415
0.014444039619758264 0.11848348056514384 0.06670911729279849
0.015824295216468387 0.1182793921418929 0.0662595065141951
0.01720077324840269 0.118075692751645 0.06581211915679364
0.018572518322496123 0.11787269377260245 0.06536627012066315
0.01993859611252924 0.1176707022992418 0.06492127428849048
0.021300953445134163 0.11746909228466967 0.06447847818061653
0.022658650397724023 0.11726817194179458 0.06403719679873932
0.024010767753122608 0.11706824526523173 0.0635967451746891
0.025359220544668326 0.11686869264385417 0.06315847002530828
0.02670308405771238 0.11666981917310869 0.06272168648666254
0.02804238168094758 0.11647162139178761 0.062286386956941886
0.029376213948655916 0.11627439923302675 0.06185188671655062
0.03070645435205932 0.11607754151428161 0.06141953262541744
0.0320321980564412 0.11588134924662255 0.06098864004917687
0.033352560118766805 0.1156861193704189 0.06055852448893517
0.03466938350010601 0.1154912469112195 0.06013053282921432
0.03598177798229818 0.11529702987057519 0.059703980642597854
0.03728887290238381 0.11510376224048097 0.059278183680024965
0.03859248121332809 0.11491084516030199 0.058854488780625214
0.039891727068862404 0.11471857366680897 0.05843221175347796
0.041185753848516915 0.11452723884714314 0.0580106686276064
0.04247634500806213 0.11433624786211463 0.05759120612887242
0.043762638833534595 0.11414589282757309 0.05717314033150506
0.04504379251425461 0.11395646196847925 0.056755787570000715
0.04632156050887981 0.11376736837656838 0.056340494391140195
0.04759509500110515 0.11357890128977183 0.055926577162082436
0.04886356676211279 0.11339134611271447 0.05551335254935402
0.050128701742967574 0.11320412177934606 0.055102166856831836
0.05138966579519805 0.11301751469184558 0.05469233677154012
0.05264564304857272 0.11283180747553778 0.05428317931778509
0.0538983314257952 0.11264642481963988 0.053876040494648836
0.05514691022110535 0.1124616503319274 0.05347023733513684
0.056390576704118456 0.11227776389867199 0.05306508724629877
0.057631001238384494 0.11209419587913076 0.05266193586240592
0.05886737634031741 0.11191122712722777 0.052260100587764924
0.060098912205065025 0.1117291348296581 0.051858899236370104
0.061327252096462004 0.11154735493216864 0.05145967701948534
0.06255080069038449 0.11136644387537803 0.05106107618538325
0.06377118343745553 0.11118584128281316 0.05066444163410827
0.06498761441177142 0.11100582350711272 0.050269091441840885
0.06619932488520475 0.11082666332181686 0.049874344151466576
0.06717186751129534 0.11073055877056823 0.049278182247007085
0.06758751967119497 0.11082969512320227 0.04820220136127851
0.06800391675941908 0.11092900914716794 0.047124292111666743
0.06842106078034532 0.11102850132052519 0.046044449309526225
0.06883895374554899 0.11112817212305041 0.04496266774758034
0.06925759767383322 0.11122802203624502 0.04387894219983551
0.0698569284351595 0.11126412306225872 0.04295324965202535
0.07027700076258697 0.11136421754180266 0.04186638941809345
0.07069704839576019 0.11146477106820044 0.04077687004867869
0.07111863608851482 0.11156522704670416 0.03968608663046702
0.07154098436611711 0.11166586425746726 0.03859333533386422
0.07196409528867814 0.11176668319137308 0.037498610828699375
0.07238797092375421 0.11186768434107995 0.03640190776553304
0.07281183394636537 0.11196914952222618 0.035302501974438516
0.0732372456033119 0.1120705170982443 0.034201822250764846
0.0736634282230671 0.112172068380149 0.033099147793084704
0.07409038390332617 0.11227380386778146 0.03199447317397136
0.0745181147494004 0.11237572406279826 0.030887792946289405
0.07494662287425713 0.1124778294686776 0.029779101643110317
0.075375133219098 0.11258040499185477 0.02866765429146756
0.07580520265118557 0.11268288285522778 0.027554920870181077
0.07623605574987935 0.11278554745234141 0.026440159841429445
0.0766676946591156 0.11288839929405538 0.025323365658144747
0.07710012153065376 0.11299143889309608 0.024204532753002272
0.07753256326759972 0.1130949537708356 0.0230828984996575
0.07796657294401405 0.11319837095534437 0.021959967822776927
0.07840137708807499 0.11330197744807731 0.020834981587909807
0.07883697788322908 0.11340577376931092 0.019707934145748895
0.07927260385096524 0.11351004955868661 0.01857804853486672
0.07970980493524282 0.11361422763633656 0.017446858055468972
0.08014780927193182 0.1137185971162695 0.016313589284238705
0.08058661907674691 0.11382315852645303 0.01517823648836708
0.08102623657355512 0.1139279123968 0.014040793913936922
0.08146589237126639 0.11403315104751394 0.01290046641220055
0.08190713237511571 0.11413829197406179 0.01175882328225103
0.08234070792069942 0.11424684859396035 0.010606309120663793
0.08271346053264256 0.11437909205834901 0.009387550795279531
0.08292822937715821 0.11457228817824135 0.008000080099292484
-0.009886249678098813 0.12329683908269308 0.07452471610187786
-0.008420755376779387 0.12307798897483446 0.0740475342799645
-0.006959389627796131 0.12285957898197583 0.07357272001677795
-0.005502142438773727 0.12264160855090538 0.07310026461248692
-0.004052162840020634 0.12242507626945644 0.07262812914597902
-0.002606247064371514 0.12220897536903959 0.0721583347537437
-0.001165426864475183 0.12199363603339707 0.07169019597166107
0.0002692888842773522 0.12177938378989438 0.07122302707844902
0.001700004093506291 0.12156555439970931 0.07075817330165002
0.003125703794807755 0.12135247460875084 0.07029494911382445
0.004545395496385829 0.12114046657941781 0.06983266878522093
0.00596114856392288 0.12092887307185571 0.06937267811975517
0.007370956833291198 0.1207183412758515 0.06891361428302345
0.008776866982637466 0.12050821855496129 0.06845682341720394
0.010177891372930181 0.12029882604360724 0.06800161997149046
0.01157306419337334 0.12009048041079554 0.06754731828052146
0.012964398584272507 0.11988253583660681 0.06709526491961226
0.014350922929813437 0.11967531015706488 0.06664477437287397
0.015731687064583666 0.1194691168117013 0.06619516106039153
0.01710867117824777 0.11926331669068493 0.06574777190814757
0.018479954959910505 0.119058539366864 0.06530124394373182
0.01984749695549587 0.11885415014463432 0.0648569242847048
0.02121035164630264 0.11865046147463058 0.06441412754899828
0.022567594352349896 0.11844778152274224 0.06397216837136138
0.023921151619140046 0.11824548213095482 0.06353239408808203
0.025270093232703517 0.11804387258353087 0.06309411944251841
0.026613509461210494 0.11784325794522986 0.06265665924139852
0.02795329540343594 0.11764301649495609 0.06222136096376074
0.029288535891079104 0.11744345439830095 0.06178753951046373
0.030619254016824415 0.11724456820388261 0.061355187378663856
0.031944559590947996 0.1170466589131019 0.06092361965311277
0.0332663066207064 0.1168491132354398 0.06049418388663763
0.03458359960660079 0.11665223325030688 0.060066195239498577
0.03589556272837868 0.11645631696479343 0.05963896903851951
0.037204019792655085 0.11626075729829773 0.059213852810854506
0.03850808976198322 0.11606585331922023 0.058790161945359576
0.0398069109461302 0.11587190008462228 0.058367212039465655
0.0411022774661195 0.11567829662981176 0.057946350526084156
0.04239332250508304 0.11548533905680579 0.05752689305160924
0.043679198268294805 0.115293319516053 0.05710815551174697
0.04496166969529003 0.11510164306665437 0.05669148517867312
0.046239883953298755 0.11491060288799618 0.056276197984382714
0.04751300691340399 0.1147204882664864 0.05586161014968355
0.04878277482709287 0.11453071019474635 0.055449068721536376
0.050048348614080584 0.11434155897243103 0.05503788994474662
0.0513089075862565 0.11415332106365582 0.05462739039123321
0.05256615979011148 0.1139654133060875 0.05421891682021579
0.05381927967097877 0.11377812316171698 0.05381178581569096
0.055067459761129756 0.11359173431331136 0.05340531432590395
0.05631238037499203 0.11340566935686001 0.05300084876170508
0.057552410411159216 0.11322049780961334 0.05259702980550146
0.05878921195668235 0.11303564605814373 0.052195203605379215
0.06002198150663435 0.11285139692675757 0.051794687365955716
0.06124993314822669 0.11266802955196352 0.051394798715506895
0.06247470200280386 0.1124849759379146 0.05099688335674124
0.06369549750842407 0.11230251617950684 0.05060025889995218
0.06491154640645636 0.11212092673728959 0.050204243413288496
0.06612445729971783 0.11193964515074137 0.04981018209823179
0.06733345235880561 0.11175894882453025 0.04941739299429493
0.06853777077467416 0.11157911158140153 0.049025194631999
0.06973821955227338 0.11139985217971028 0.04863425645615799
0.07024373212646146 0.11146745558083337 0.04763971172623516
0.07066082856116201 0.11156694018211731 0.04656562693118382
0.07107867017732106 0.11166660252185584 0.04548962318410815
0.07149725897372783 0.11176644307679412 0.04441169533783201
0.07191659695632663 0.11186646232538373 0.04333183822675479
0.07251514657106473 0.11190234613823122 0.04241038924126933
0.07293590691832447 0.11200260888177616 0.041327424756348874
0.07335742193108968 0.11210305145412285 0.040242517892787044
0.0737796936415076 0.1122036743395102 0.03915566342018961
0.07420195341165942 0.11230475828640414 0.038066149030126506
0.07462574500861435 0.11240574376181343 0.03697538021269425
0.07505029944617597 0.11250691101481469 0.03588264797097157
0.07547561878591219 0.1126082605366595 0.034787946998828756
0.0759017050968242 0.1127097928203718 0.033691271970997416
0.07632779162767239 0.11281179115960417 0.032591893568560515
0.07675541849635048 0.11291369096436578 0.03149125096102656
0.07718381859078827 0.11301577502216183 0.03038861819514399
0.07761299401007915 0.11311804383318795 0.02928398986818631
0.07804294686091978 0.11322049789945254 0.028177360557852027
0.07847291234492332 0.11332342309458521 0.02706798365409102
0.07890442680130083 0.11342624970274642 0.025957332559487567
0.07933672505798761 0.11352926308453666 0.024844664084881896
0.07976980925245858 0.11363246374930078 0.02372997272874089
0.08020368152997281 0.11373585220823551 0.02261325296951394
0.08063757911275299 0.11383971695037497 0.021493740619789536
0.08107303442872987 0.1139434830639279 0.02037294387984817
0.08150928431329918 0.11404743851789088 0.019250102039487682
0.08194633094320103 0.11415158383096738 0.01812520949610097
0.0823841765031384 0.1142559195237555 0.01699826062660237
0.08282206030533334 0.11436073673677007 0.01586847337428199
0.08326151073066701 0.11446545529088233 0.014737391312956039
0.08370176669106638 0.1145703657994353 0.013604235920553431
0.08414283040344661 0.11467546879070536 0.012469001491065723
0.08458470409286101 0.11478076479491083 0.011331682297522627
0.0850266292325857 0.1148865476407914 0.010191478116121033
0.08544275567479254 0.11500281092077766 0.00902123331930954
0.08576163062824932 0.11515731111236088 0.007745115019365922
0.0857949974701509 0.1154234326576612 0.006161850442015004
-0.009989620638902075 0.12452664908471452 0.07445976688785197
-0.008523557932560433 0.12430555803316265 0.0739825750604538
-0.007060561351778127 0.12408457295682954 0.07350842855498335
-0.005604876011455373 0.12386504750490447 0.07303461085608404
-0.004152225124757103 0.1236456245124016 0.07256382092944857
-0.002705759554155862 0.12342731281714615 0.07209401884962038
-0.0012654348279229621 0.12321010476719844 0.07162519557161323
0.00017086572376606712 0.12299332694359695 0.0711586968070303
0.0016021210518482043 0.12277731058499992 0.07069383669008455
0.003027332731747434 0.1225623822741142 0.07022992913694254
0.004448582657228473 0.12234787570207703 0.06976832046179443
0.005864866380103528 0.1221341186696462 0.06930832476272597
0.007275201681520627 0.12192143439425483 0.06884925597351593
0.008681636293718487 0.12170916356491317 0.0683924609232171
0.010082184886936074 0.12149795546810105 0.0679365759973003
0.01147887275739845 0.12128715539571826 0.06748294832304991
0.012870722489374875 0.12107708553656099 0.06703089201881512
0.014256778256940272 0.12086806361381663 0.06657972112461547
0.01563903218893692 0.12065944173543439 0.06613078314225729
0.0170155524891199 0.12045185809173317 0.06568271439714019
0.018388309500786237 0.1202446692744769 0.06523686259809464
0.019756352072687444 0.12003819200281968 0.06479254198145667
0.02111875002670116 0.11983273864403061 0.06434906678690921
0.022477441496844497 0.1196276724303531 0.06390778496449306
0.02383149073417945 0.11942330686515745 0.06346801086692577
0.02517998260341503 0.11921995116632317 0.06302905889730015
0.026524823587552426 0.11901697510411276 0.06259227717010785
0.027865093078826175 0.11881468901465103 0.06215698018684607
0.029200814347371484 0.11861308938579003 0.06172316038976683
0.03053109192316228 0.11841248130895261 0.06129013244905013
0.031857790932155294 0.11821224311708746 0.0608592445807184
0.03318001055960762 0.11801268099663287 0.06042981153453769
0.03449686979506761 0.1178140969983039 0.06000114821490521
0.03581020336974139 0.117615875762055 0.059574602832125345
0.03711912502181325 0.1174183204166192 0.05914949035656447
0.038422767959073734 0.11722173001705524 0.05872512595566082
0.0397229370372027 0.11702549541465973 0.05830285776472455
0.04101876030393736 0.1168299167258639 0.05788200100395818
0.04230938494896325 0.11663529005423971 0.05746187113178869
0.04359658646060549 0.11644101236869002 0.057043816141356174
0.04487950695781917 0.11624738081785682 0.056627151531046194
0.04615730738070323 0.11605468859713297 0.05621119307737521
0.04743173434762182 0.11586233870117443 0.055797288566166114
0.04870194381533105 0.11567062535447581 0.05538475380147484
0.049967110247596924 0.11547983888672034 0.054972904904179554
0.05122895187973531 0.1152893882282936 0.054563089389619956
0.05248580100556771 0.1150998562784078 0.05415394645669025
0.053739357206721516 0.11491065587447599 0.05374682340854009
0.05498879899583564 0.11472207646258827 0.05334103661633466
0.05623332288342198 0.11453440368887849 0.05293590282995897
0.057474600856929126 0.11434705618041649 0.052532768981015
0.05871182466747327 0.11416032057142728 0.05213095181561095
0.05994420376690024 0.11397447975162495 0.051729768494207296
0.06117338300870878 0.11378895805238211 0.051330565518669824
0.06239856716606834 0.11360403933668918 0.0509326600345838
0.06361897842181441 0.11342000377739901 0.050535369636431515
0.0648362349461834 0.11323628132650482 0.05014004033992181
0.0660495543223445 0.11305315311561723 0.04974598971389871
0.06725817125799982 0.11287089663953546 0.04935253580959409
0.06846367768150868 0.11268894738882297 0.048961024101853046
0.06966530377825153 0.11250758380280729 0.04857077260583054
0.07086229657879073 0.1123270807363097 0.04818109985153579
0.07205545470827662 0.11214715592716645 0.04779267544793858
0.07287872585318916 0.11210012139105761 0.04708171544962736
0.07329649718079617 0.11219977067702774 0.04601142852522211
0.07371577634451565 0.11229931974116857 0.044939920327126126
0.07413503610321881 0.11239932364696882 0.0438658225487733
0.07455504323928663 0.11249950582089324 0.042789810071185874
0.07497579975292762 0.11259986674004115 0.04171187777004931
0.07557345813337346 0.11263587299713647 0.0407927887762119
0.07599563475715593 0.11273647747910749 0.03971176497769513
0.07641856621739529 0.1128372618382229 0.038628808347993426
0.07684225454033333 0.11293822655733489 0.0375439136987214
0.07726670175947059 0.11303937212102542 0.03645707582290686
0.07769114965325213 0.1131409807322034 0.03536757730082579
0.07811712117399067 0.1132424899514887 0.03427683391892883
0.07854385773789796 0.11334418148091759 0.03318413156630262
0.07897136140784833 0.1134460558120738 0.03208946496074888
0.07939963425413787 0.11354811343831057 0.030992828801060246
0.07982792001192651 0.11365063911511727 0.02989348867303132
0.08025773784422541 0.1137530653312897 0.028792894012651393
0.08068833111128265 0.11385567633468154 0.0276903137684838
0.08111970191343693 0.11395847262580634 0.026585742562387382
0.0815518523586175 0.11406145470698735 0.025479174996779375
0.08198402820549561 0.11416490992110627 0.024369859383401693
0.0824177446970199 0.11426826561624004 0.02325927935936306
0.0828522472039755 0.11437180862074824 0.022146686654193226
0.08328753786501814 0.11447553944427848 0.021032075791618476
0.08372361882657381 0.11457945859832729 0.019915441275484447
0.08415973793920917 0.1146838560486167 0.018796013858361826
0.08459740639194868 0.11478815393235793 0.017675311940947958
0.0850358716341959 0.11489264169373808 0.016552569749707535
0.08547513584380317 0.11499731985174753 0.01542778170798731
0.0859152012065717 0.11510218892726806 0.01430094221879663
0.08635531773498617 0.11520754154495785 0.01317126418474368
0.0867969924271022 0.1153127945597349 0.012040301343731963
0.08723947488064432 0.11541824006758375 0.010907270129474234
0.08768276731356783 0.1155238785970511 0.00977216486263116
0.08812011791488844 0.11563235896507171 0.008627816675490063
0.08850652776517431 0.11576138901341837 0.007426135616899365
0.08874894698336494 0.11594778182726613 0.006066552097389932
-0.011563821725325829 0.125980890797409 0.07487436322947019
-0.010091968377982485 0.1257567616307047 0.07439546057630236
-0.008625342798405877 0.12553342853192995 0.073918258902231
-0.007161785582724067 0.1253102026894233 0.07344410372665777
-0.0057055440406590385 0.1250884514760507 0.07297027712277393
-0.004252339156917417 0.1248668039643964 0.07249947945578683
-0.002806371730161794 0.12464661788882822 0.07202899220744055
-0.0013644523104479611 0.12442686950500466 0.07156083893686166
7.239193210062389e-05 0.12420789457771245 0.0710943334426295
0.0015031566009666708 0.12399002414258092 0.07062878928935712
0.00292993620289439 0.12377258275349133 0.07016555329452107
0.004351720276728088 0.1235559026835146 0.06970393920985973
0.005767520736483067 0.12334031155047943 0.06924326060744157
0.007179397700482648 0.12312514101645376 0.06878486484520913
0.008585353930999684 0.12291104922177626 0.06832738764629476
0.009987426961918122 0.12269737250383951 0.06787217668344853
0.011384633539502087 0.12248443743613473 0.06741854571165157
0.012776012140375437 0.12227256605670869 0.06696580839308042
0.014163566912483383 0.12206110162607921 0.06651531279914774
0.015545354498668618 0.12185069101516119 0.06606569455805694
0.016923357118340032 0.12164068203860552 0.06561830196387342
0.018296617950971372 0.12143139571514253 0.06517244887354084
0.019664201284669947 0.1212231486437841 0.06472744913371925
0.02102805691896914 0.1210152953836252 0.06428465130243488
0.02238724353401894 0.12080815368769597 0.06384336934385926
0.023740840556200626 0.12060203695686797 0.06340291725939295
0.025090765928045378 0.12039630639040921 0.06296464379346672
0.02643515933202223 0.12019159141926244 0.06252718483630482
0.027775917782679793 0.119987257611493 0.06209188921704567
0.029112125210841833 0.11978361738709477 0.06165807114961186
0.0304438047489905 0.11958066722063909 0.061225723123726206
0.03177097937309942 0.11937840361054942 0.06079483767992444
0.0330927628493492 0.11917713267993375 0.06036472930189396
0.034411000905060274 0.11897623072931666 0.05993674687814021
0.03572480202059325 0.1187760049767068 0.059510204962303415
0.03703329426929186 0.11857675850347128 0.059084418293455565
0.03833829331146571 0.11837787391788744 0.058660735704584355
0.039638922026707546 0.11817965537928302 0.05823847199137144
0.040934322557327596 0.11798240297221589 0.05781694217650568
0.04222628100889886 0.11778550551734172 0.057397494969586293
0.04351393442004209 0.11758926416058853 0.05697944543697259
0.04479643876874517 0.11739397603375978 0.05656210891234337
0.046075551107243484 0.11719903607643117 0.05614683391609632
0.04734956627311626 0.1170050408839989 0.05573225824977435
0.04862022222600265 0.11681138942329375 0.05531973027436077
0.04988667908112843 0.11661837791663875 0.054908565567459044
0.05114811536910241 0.11642629867065372 0.054498080038483276
0.05240624080842082 0.1162345566194699 0.05408962175391957
0.05366022905673945 0.11604344508848038 0.05368250663422647
0.05490927188134248 0.11585325354489479 0.05327605096879917
0.05615505123333364 0.11566339280156597 0.05287160246900219
0.057396754090187296 0.11547415332909336 0.05246847742371291
0.05863358523954654 0.11528582179629294 0.05206599252673921
0.059867199328990095 0.11509781480790669 0.051665495075542356
0.06109679643772187 0.11491042002106695 0.05126630175219915
0.062321594161798055 0.11472392134642807 0.05086772967861741
0.06354322029949566 0.11453774109549633 0.050471125681350704
0.06476088781807637 0.11435216415247097 0.05007580685970131
0.06597382691431902 0.11416747170931373 0.049681090786633186
0.06718363898203994 0.11398309170082979 0.0492883237625284
0.06838954966718663 0.11379930627804885 0.04889682332719936
0.0695908015637281 0.11361639395296197 0.04850590752691847
0.07078897009670249 0.11343378820183124 0.04811692208231033
0.07198329338557236 0.11325176848152582 0.04772918499626844
0.07317302622202027 0.11307061066205899 0.047342014809939936
0.07435971848906225 0.11288975368089071 0.046956756612237915
0.07549350976699998 0.11272747635861492 0.04652883431463373
0.07591193169026095 0.11282728407014253 0.045462322168039804
0.0763310952027989 0.11292726867566086 0.044393919790795155
0.07675100227789433 0.11302743064586343 0.04332362215322333
0.07717165489583289 0.11312777045311585 0.04225142420778599
0.07759305504394332 0.11322828857146082 0.04117732088900955
0.07819066325589424 0.11326379176854426 0.040263123631404774
0.0786127248143555 0.11336483199838042 0.03918526151922347
0.07903629192973755 0.11346577202157075 0.038106175280387455
0.07946061400550403 0.11356689195890017 0.03702516569269082
0.07988569306190113 0.11366819229181298 0.035942227609319144
0.08031153112639117 0.1137696735034722 0.034857355865079265
0.08073813023368276 0.113871336078768 0.03377054527631551
0.0811647424930999 0.11397346365922408 0.0326810733648471
0.08159287021253486 0.11407549093058755 0.03159036610754451
0.08202176512531839 0.11417770103206093 0.030497704332276665
0.0824514292954846 0.11428009445552476 0.029403082780667278
0.08288186479447707 0.11438267169462611 0.02830649617545944
0.0833123257573718 0.11448571895068675 0.027207205060294448
0.08374431056462017 0.11458866582315547 0.026106669031097873
0.0841770729625042 0.11469179800426525 0.025004151991320167
0.08461061505245865 0.11479511599481156 0.023899648587291433
0.08504493894349568 0.11489862029739661 0.022793153446031778
0.08547930086384725 0.11500259970797115 0.021683909854505523
0.08591519513453966 0.11510647867074995 0.020573411577195222
0.08635187758191276 0.11521054546570436 0.01946090531568817
0.08678935034565138 0.11531480060274829 0.018346385618850436
0.08722761557319647 0.11541924459364132 0.01722984701580349
0.0876659316549323 0.11552416886442937 0.0161105152528227
0.08810578871736441 0.11562899263390762 0.014989918823269999
0.08854644473558326 0.11573400680512556 0.013867286943938517
0.08898790188839967 0.11583921189732342 0.012742614064003677
0.08943016236255824 0.11594460843162942 0.011615894612443889
0.08987248678123538 0.11605049050029705 0.010486336505198313
0.09031636093812728 0.11615627202523805 0.009355503535908305
0.0907610450273933 0.1162622465685672 0.008222607148021754
0.09118433294780887 0.11637727075280968 0.007063721753354402
0.09152111428299331 0.11652743887673189 0.005807979307912714
0.09163050339279583 0.11676946671787414 0.004300596137621904
-0.011666789418007528 0.12721389676096123 0.07481003368709405
-0.010195447627155907 0.12698786322932587 0.0743304433233952
-0.00872718059728711 0.12676193758250393 0.07385390929650618
-0.007263062361516082 0.12653646867481075 0.0733797455058218
-0.0058062642364689054 0.1263124894203751 0.07290591005144623
-0.0043535596292707535 0.12608895839958367 0.07243442689306998
-0.0029059875455398343 0.12586621713206883 0.07196460952296643
-0.001463520832807652 0.12564426143981727 0.07149644912865513
-2.716989901813127e-05 0.12542342684427898 0.07102925892576234
0.0014051724611773286 0.12520302869322186 0.0705643862279644
0.0028324897338103394 0.12498340376513954 0.07010114444328003
0.004253787927138486 0.12476488411060944 0.06963884678451449
0.005671139629267352 0.1245467922970737 0.0691788411317143
0.007083544852821921 0.12432946161184073 0.068720440872996
0.008490025739678608 0.12411322068796268 0.06826295925445669
0.009892620871800373 0.12389739919874235 0.0678077446356658
0.011289353753746234 0.12368265730091905 0.06735343198136895
0.012682240633169972 0.12346832934179207 0.06690136992628126
0.014070308434801115 0.12325474290958689 0.06645087190498211
0.015452605576595502 0.12304222105766625 0.0660012512951354
0.01683111528868564 0.1228301050547879 0.06555385707204464
0.018203914370503005 0.12261904378928476 0.0651073241929187
0.019572964364740986 0.12240838308314478 0.06466300181791507
0.02093731834440371 0.1221984449698699 0.0642202035247888
0.022296050262396117 0.12198954706344875 0.06377824291522166
0.023651089596710806 0.12178104192926083 0.06333846935798804
0.02500150475484919 0.12157324833492321 0.06290019656187129
0.026346384666677714 0.12136648069588535 0.06246273830612736
0.02768762730069474 0.12116009821699647 0.06202744409216354
0.029023391601394388 0.12095473234636633 0.061592949270640684
0.030355554836755505 0.12074974665736116 0.06116060339266732
0.03168321039571126 0.12054545458392765 0.06072972045497299
0.03300638111873716 0.12034185261150349 0.06030029304481377
0.03432508969225834 0.12013893724923065 0.059872313799442356
0.03563845902244245 0.11993701563333176 0.059445097031217864
0.036948315644776686 0.11973546206955304 0.059019992266012955
0.038253777237698905 0.11953458478883881 0.05859631387668757
0.03955398086410011 0.11933468788482839 0.058173376451755854
0.04085072331582784 0.11913515197138468 0.057752529412708975
0.042142261097921074 0.11893658766351792 0.05733240925387717
0.0434303714576717 0.11873837972650024 0.05691436529241117
0.0447141956859376 0.11854083131782339 0.05649771235409856
0.04599289391866479 0.11834424155980613 0.056081765547572715
