# .PCD v0.7 - Point Cloud Data file format
VERSION 0.7
FIELDS x y z
SIZE 4 4 4
TYPE F F F
COUNT 1 1 1
WIDTH 785
HEIGHT 1
VIEWPOINT 0 0 0 1 0 0 0
POINTS 785
DATA ascii
0.007284181698787973 0.07104332004651709 0.02866552052226662
0.006474376379977886 0.07104435148326461 0.027689429010401168
0.005732277608588909 0.07105776286253788 0.026661960020893716
0.005097001501538023 0.07109079706762977 0.02555246455122534
0.004460008066931975 0.07112365525035894 0.02444280022522194
0.0037234467854055375 0.0711383375852846 0.023408372233111208
0.0032044808894620136 0.07119319142098211 0.022204721983343
0.0029859617196337784 0.07130377665706795 0.020764597650133443
0.002699211663749479 0.07140220138478007 0.01937288502821638
0.0029372721703118665 0.07159840159248046 0.017563566057065605
0.004666939494371636 0.0720727339129649 0.014564811549751755
0.08355660779916191 0.077575091026636 0.03483720546322644
0.08085745555883778 0.07727647848802852 0.03486394498543316
0.07824845424267035 0.07699174823326714 0.03484733587588951
0.07558980112226077 0.07669760125900311 0.03487383638924518
0.07294123704169142 0.0764039927784136 0.034906511551454356
0.07142986760523923 0.07630016117851406 0.034233127708782396
0.07776729290655404 0.07751628426225211 0.028576515254948753
0.08068166858851183 0.07816022203461387 0.025055422332798172
0.08054170055155818 0.07829085671212967 0.023469689815685202
0.07809732728890817 0.07803204965777152 0.023367704668940392
0.07668229587609432 0.07794675041140413 0.022607837658469965
0.07811524260529645 0.07834496980427819 0.01999018554443066
0.076832303460807 0.07828244018031648 0.01914042133075733
0.07575151907194799 0.07825414327662052 0.018159747482792588
0.07450321410879607 0.0781971018635255 0.017291646937658334
0.07313954470555029 0.07812007535675135 0.01650313410550347
0.07264280618552355 0.07819150407042016 0.015135301262682033
0.07260963044544139 0.07834292645601985 0.013451047329790744
0.0719179954692925 0.07838151289310044 0.012207671531948794
0.06994406601340958 0.07819888315990502 0.011838918145162192
0.03360337885346232 0.07221653563472695 0.03350871894066687
0.03136584459699204 0.07197449424903869 0.03347112990204837
0.02907436880973041 0.07172208013406277 0.03348192215755086
0.02681475565992336 0.0714741938244368 0.03348150679780543
0.024599705813866668 0.0712330825394806 0.03346061108474713
0.022404341340876266 0.07099443148906422 0.03343645295799025
0.020247386726794547 0.07076154138629635 0.03339549576986711
0.01817872314926061 0.07054321836081509 0.033301535346763
0.016284052857221676 0.07035465246894988 0.03309171659572718
0.014790944146404805 0.07023620640871248 0.032598834088841455
0.013301698007565255 0.07011795390029898 0.03210845249834998
0.011988908559302291 0.07003049490897528 0.031493891382367634
0.011063650478099984 0.07001151981746827 0.030597315084874732
0.009988934750640888 0.06996585855156691 0.02981248146625759
0.009002310983499628 0.06993572216394794 0.02896400393923504
0.007786883664220978 0.06986455686471998 0.028288495984445106
0.006966971741928063 0.06986394750445012 0.027317981810676795
0.006284026743496485 0.06988792377210007 0.026243654769310842
0.00563453494868571 0.06991801897479186 0.025142733174961296
0.0050601701761254225 0.06996178456083686 0.023982859777557708
0.0046070458951947835 0.07002763780370369 0.02272756389407915
0.004341761934043398 0.07012777603280791 0.02132373139566468
0.004283988847155973 0.07026598600799536 0.019753673782578973
0.0041307062134886 0.07038741893935092 0.018252020889829246
0.005220882873281041 0.07073592097683272 0.015765890315363185
0.006468240994788987 0.07111460909925549 0.013139206688083938
0.08606083421303184 0.07642492275869757 0.034942080465196534
0.08340151756943659 0.07613931779495546 0.03493245652964483
0.0806710613500285 0.0758409652541027 0.03497907723168947
0.07798553843834566 0.07554881227295993 0.03501066210301612
0.07535718046772583 0.07526490361078024 0.035019167219370095
0.07297893341875095 0.0750210310582802 0.03488282646579183
0.07240886394226237 0.07507426543885182 0.03361451626013018
0.08100198257171554 0.07664115898895243 0.02652097128633868
0.08210831583765471 0.07697522531307877 0.024143697484502347
0.08025793683166088 0.076820333369078 0.023652059614563015
0.07835951705536132 0.07665684696599644 0.023198248835628876
0.08031336801674854 0.07713402130042048 0.020247814180255896
0.07899643505888931 0.07706750403522737 0.019414230155300083
0.07776899675458288 0.07701568004415119 0.01852475112295804
0.07666467211429867 0.07698426741231026 0.017556183915863166
0.07573781338191693 0.076982509064603 0.016471049235737778
0.07491409481760325 0.07699808581801124 0.015317055306736604
0.0742213871716681 0.07703579759533953 0.014074316012171073
0.07342213264479969 0.07705567398719716 0.012901910612266754
0.07167476171893589 0.07691524974652285 0.012372977881001723
0.07030106601533342 0.07683759623288734 0.011594946124740824
0.03572216904895009 0.0711200198459602 0.03363853733257982
0.033424410469943155 0.07087304994522932 0.033632384723638886
0.031157433452425 0.07063032659229379 0.03361593691311565
0.028865379154492332 0.07038233067975608 0.03362793309180495
0.02665147437212767 0.07014670505882702 0.03359621263403678
0.024446306363755776 0.06991161599685235 0.03356896834640366
0.022260657455754784 0.06967892055715039 0.033538505553856846
0.020094256185209824 0.06944858669826066 0.03350485521175661
0.01810335985453193 0.06924760418164887 0.03335565182881334
0.016396315831335218 0.0690948971966197 0.03301066189262142
0.014909579502234094 0.06897974939781416 0.03251271000141304
0.013512282253051955 0.06887966135416501 0.03195474252085889
0.012264230801915021 0.06880513687160694 0.03129183151043019
0.011361250012228319 0.06879049200954658 0.03037771598120559
0.010527487060425 0.06878788467595433 0.02941292079063018
0.009639981935865516 0.06877585338231292 0.028488334730849885
0.008661460316870484 0.06874779672149156 0.02763256686355814
0.0074642248055935 0.06868115383609726 0.026943022417389606
0.006860054772015456 0.06871876216074953 0.025806942622170315
0.006315357892630269 0.06876703311456686 0.024623780311107457
0.005862906139979807 0.06883183466147856 0.02336767475851753
0.005458381758668973 0.06890541079700352 0.022071614211978896
0.005277774699970039 0.06901909887572964 0.020598652541447382
0.005260406964371023 0.06916234585363652 0.018993224052002378
0.005344502328507805 0.06932431295905687 0.017301615219834476
0.006329170514206117 0.06964806634873805 0.014893437841599078
0.08569643980959885 0.07495137720893766 0.03516460270126204
0.08312471963398149 0.07468498250446391 0.03510245626838532
0.08047737020618906 0.07440540977017907 0.03509871665939829
0.07778486083831232 0.07411748265472132 0.0351353252641618
0.0751145703147616 0.07383201074317051 0.03517073903485446
0.07309351066303665 0.0736502538062196 0.0348108362094976
0.07260458940722342 0.07371566760381762 0.03349084060493224
0.08295313470263199 0.07553817497644495 0.025281075219107774
0.08250321019709056 0.07561389968445482 0.023891333068445153
0.08006945635101226 0.07536705985665464 0.02377319260281363
0.07907568773517148 0.07535406129995481 0.022735380658192916
0.08127118172475695 0.07586211318566229 0.01962528101344091
0.07985221898989348 0.07578043444955898 0.018854882007249607
0.0787140447921374 0.0757444920373788 0.017903589505246342
0.07774567358618306 0.07573631680395854 0.016841678160566254
0.07698962891043165 0.07576307868770991 0.01563900845271432
0.07646163911694603 0.07582758307957656 0.014282703292028298
0.07575682851059251 0.07586310733625892 0.013042325491619822
0.07390564823740714 0.0757088312393286 0.012575122370209246
0.07170441044501358 0.0754958156882055 0.012352828034794983
0.03820674100739235 0.07007547889564289 0.03352804773272505
0.0355152581941493 0.06976849124539469 0.03378072357491302
0.03322184873894918 0.06952675143912136 0.033772353329104055
0.030938084086953532 0.06928564449061579 0.0337683439547804
0.02870079546567078 0.06905135134172535 0.03374291973140903
0.026501711252623683 0.06882252356863812 0.033701421896477346
0.02427492552811683 0.06858809622123113 0.03369002717703723
0.02207880400461487 0.06835788371466162 0.03366766838057489
0.01995547088080929 0.06813903471169183 0.033603969883948315
0.018155169077413047 0.06797401950521323 0.03331844893196306
0.01649693836277316 0.06783244628154894 0.0329380116757903
0.015117944054646837 0.06773779684956266 0.032361446435812846
0.013764815273711706 0.06764716575261923 0.031770413228647876
0.012582654060352583 0.06758536728550905 0.03105813966551707
0.011615541915340588 0.06756012758654481 0.03019007363775461
0.010893856758645348 0.06757688622410067 0.02914110518146673
0.010027251269207615 0.06756880161100168 0.028199452045290452
0.009253557833435233 0.0675766890192178 0.027188496006712026
0.008419132754031222 0.06757412541213974 0.02622296309316552
0.0074594313636783816 0.06754987935173397 0.025352528903858917
0.0069211480857983565 0.06759858622558797 0.024162020673840046
0.006592654463096981 0.06768394302376328 0.022808424573816988
0.0063225822385272745 0.06777983065628601 0.021405752412476386
0.00629823878471536 0.06791899271881446 0.019808153783020144
0.006438627044486778 0.06808754415323588 0.018075607790395687
0.006810682150383218 0.06829739910652598 0.016153592418723217
0.009042091756207127 0.0688345939763885 0.01275780557312467
0.0855857154409635 0.07351982875082942 0.035232217993548476
0.08287678334047621 0.07323685761791383 0.03525473018275138
0.08027044860222188 0.07296894380578686 0.0352265282969802
0.07755636031941399 0.07268298037789139 0.03527727233251704
0.07493351095720474 0.07241032547731531 0.035283856706147365
0.07408358816849325 0.07241748047249745 0.034188758642408945
0.08395609669838328 0.07412670949793652 0.026318012572579208
0.08360462968524096 0.07421654603476767 0.024867070563110993
0.08235580583364116 0.07416373162743779 0.02398553450540497
0.0804526096217466 0.07400622058315165 0.023526946941287652
0.08013372780602257 0.07410156523419453 0.022051558919806757
0.08190785989097993 0.07453281826836058 0.019211470611953885
0.08074463060367476 0.07449396126235211 0.018271593673146902
0.07967965999390209 0.0744707641424816 0.01726890949218879
0.07877726905661608 0.07447369351010566 0.01615982811694161
0.078081889508413 0.07451008567320618 0.014913018606360295
0.07750822802318952 0.07456633137144467 0.013583181253011944
0.0763045816710457 0.07452059472720557 0.01267417331617715
0.07368614853240385 0.07424467981156072 0.01272347316556488
0.07198923507009636 0.07411776201111463 0.012159255724933427
0.03762118413323817 0.0686577250257245 0.0339282143794733
0.03531485072596935 0.06841932783294258 0.033918440781018355
0.03301074424414541 0.06818032970552028 0.03391822491896512
0.030747426669902544 0.06794705942837306 0.03390081542485607
0.02856210693436989 0.06772567463551239 0.03383981468059921
0.026325301798729828 0.06749489827374681 0.03382535032821127
0.024091635299081426 0.06726369783039733 0.03381949848408772
0.021891139791523906 0.0670370428280394 0.033800958346119736
0.019932942115019947 0.06684965505896559 0.033620058988235946
0.018206991685347285 0.06670010579488331 0.03328123642364361
0.016651480913506156 0.06657833276861055 0.0328264308035946
0.015318365950251323 0.06649318072567281 0.03221594889219315
0.013990977595593368 0.06640863444126781 0.031605332477590675
0.01290159074451519 0.06636363094271237 0.03082407101582685
0.011870161956418268 0.06632817550280301 0.03000218916084968
0.011196424190229926 0.06635277716955965 0.02891662550662283
0.010476200323089768 0.06636964081624248 0.027864559511338427
0.009717739643038237 0.06638011222008873 0.026840361437395266
0.009132078617714756 0.06641989486641306 0.025685358062594532
0.008250416609657751 0.06640960502950932 0.024752848249401382
0.007600778453115242 0.06643873547750041 0.023643976843769232
0.007305714990654522 0.06652842323058884 0.022261963254062433
0.007168887710338079 0.06664551680104173 0.02075367861996802
0.00715311403265706 0.06678382583972149 0.0191459278093577
0.00733734900806482 0.0669570281825877 0.017375669041803543
0.009778840288838686 0.06751896861847632 0.013829516497468053
0.08823758574352147 0.07237367763408419 0.03525693717410783
0.08542199995987715 0.07208079454091647 0.0353321930057513
0.08265911755971261 0.07179489859927699 0.03538841299292739
0.08002060276382394 0.07152710072708936 0.035380853438175874
0.0773280863014274 0.0712499000499479 0.0354190786959821
0.07504446583973867 0.0710350256275655 0.035214537129958756
0.07442916157983609 0.07107853161455983 0.03397163072485304
0.08391039274062256 0.07269408046471523 0.02634689214081687
0.08381202835962925 0.07282165696526625 0.02473527520146368
0.08241050171234304 0.0727460548582143 0.023950580110236985
0.08097859034591798 0.0726653958672642 0.02318890866452883
0.08343363022885575 0.07319434231285493 0.019918799420942546
0.08247135638932446 0.07318809162327036 0.01884522479956835
0.08168170948278652 0.0732090115929122 0.017659110408833556
0.08079100764879932 0.07321406303420969 0.01653844238393215
0.07980437084264341 0.07320396085472032 0.01548094824815388
0.07895306423707055 0.07321526586466896 0.014333977296461742
0.07816514960634452 0.07323668279113334 0.013144106156208368
0.07603054169215417 0.07304390146816865 0.012858359226311789
0.07353396650571187 0.07279263383327629 0.01282632671927808
0.03989234541026909 0.06756463611734423 0.03397292113050682
0.03744964479147972 0.06730992382058856 0.03404544350990757
0.03515239695304212 0.06707751304796457 0.03403007673915892
0.032831037110491845 0.0668402851086309 0.03404240117262475
0.030637321594060685 0.06662265204536119 0.033977317988906186
0.028396539537968724 0.06639653783340894 0.03395548858897052
0.02613203432795902 0.06616566554926324 0.03396112159233089
0.023945844518668546 0.06594654072742599 0.03392248118532226
0.021836188302493842 0.06573894617101368 0.033839988068189886
0.01996258575071802 0.06556890803019812 0.033598888740798916
0.01831656990173819 0.06543527735844062 0.03320255106889941
0.016874138545177997 0.06533435762432176 0.0326656703358455
0.015524824839768636 0.06524826619974698 0.03206606875463325
0.014312687669168822 0.06518432309511057 0.03137050936414437
0.013248844839347906 0.06514449368015178 0.03056922012813329
0.012188610737397354 0.0651050933562237 0.029767205369385263
0.011457949519525168 0.06511993426054138 0.02872259563177415
0.010819055396284194 0.06515001734697258 0.02760880754294137
0.01019337340532045 0.06518241628133847 0.02648363794767844
0.0096279754889812 0.06522496495047267 0.025311421321788097
0.008748561657075493 0.06521542006200727 0.024375182610795965
0.008316027504888968 0.06528038046206291 0.023098782902983117
0.008058103554010487 0.06537480324318555 0.021685362486792314
0.00797175296330116 0.06549836629619815 0.020135075281326464
0.008016359801473416 0.06564443630805103 0.018477217642417165
0.009647218418731451 0.06605797763957016 0.015576706548134867
0.011824130475351746 0.06656533299526782 0.012228048700698935
0.08786592947282346 0.07089862799929016 0.03548259734044129
0.08520389051392474 0.07063454259146498 0.035465384408152334
0.08243565898216759 0.07035338000309722 0.035525653538957924
0.07977845024318009 0.07008793624419886 0.03553042655966093
0.07714121746647812 0.06982448799828195 0.035535163698396544
0.07574061854148001 0.06974802158443706 0.03477961250884115
0.08153329127584447 0.07076702665544127 0.029508020862777262
0.08201549208108627 0.0709794844775312 0.027544248246981817
0.0834248300859754 0.07133456642647214 0.024981327576947376
0.08247280990234718 0.07132920929785654 0.023910760929207298
0.08166809857294988 0.07134644815604632 0.022745774226011095
0.08364824155983203 0.07179217474936594 0.019780093999977266
0.08288453704799953 0.07181672031318372 0.018576677104164663
0.08282962629210361 0.07195083657557713 0.016908821558873355
0.08222337084428322 0.07200016186403206 0.015596978030480046
0.08103315674025446 0.07195913177778214 0.01466876193878619
0.07973917926736268 0.0719018154863513 0.013811472382237844
0.0781833399634102 0.07180350139697084 0.013131948034151908
0.07585003479708669 0.071583509251622 0.012979680308323416
0.07397437856730765 0.07143416909039456 0.01252867037563532
0.039536150478989285 0.06618404958734614 0.03421499807729039
0.037260478535713015 0.06596043307049851 0.03417471878544326
0.03498881144160376 0.06573654218663899 0.03414249041215822
0.03271630547590654 0.06551161200023091 0.03412167985382891
0.0304024617834196 0.06527924146348471 0.034140501907258536
0.02818088863585494 0.06506052466524812 0.03410615341328688
0.025987506967410978 0.06484538584269088 0.0340626527106469
0.023825435054213362 0.06463434230688098 0.03400753520498445
0.0217597588638469 0.06443778032269938 0.03389427267086437
0.02010968267476393 0.06430670774226775 0.03349383825674229
0.01849107590868765 0.06418012671878053 0.03307724270457235
0.017063005858568403 0.06408354355980947 0.03252930672946386
0.015812123379213283 0.06401500135180192 0.03185750256156017
0.014664027560683135 0.06396270760654428 0.03111405880825613
0.013599029744452928 0.06392359009462059 0.030312218309433592
0.012579295434009374 0.06389162042806026 0.0294789185968789
0.011779859450718355 0.06389517103604092 0.028483765443393205
0.011035660751304632 0.06390769474641712 0.027447231267007377
0.010469631000540769 0.0639492263213602 0.026276445815322458
0.009832668401354494 0.06397937985290271 0.02515707027633063
0.009346862459518324 0.06403432856038345 0.02392158449554016
0.009002834123069237 0.06411269496427077 0.02257526902233542
0.008835284323789383 0.06422031410843136 0.02108976195538176
0.008862193122941564 0.06436032419821323 0.019448995950353765
0.009852016415550113 0.06465940362039624 0.017055232982674307
0.011175784527784005 0.06501482862240648 0.014386235309120032
0.08761695749328596 0.06944391903728936 0.03563376674815577
0.08498900916799623 0.06919008400099604 0.03559660452880814
0.08222888855220262 0.06891568437129235 0.03565264480070818
0.07956621815643605 0.06865467927016361 0.03566151838397563
0.07710003844727076 0.06842187476645648 0.03556074456395608
0.076121764306752 0.0684098497103059 0.03454148992864159
0.08140992284768267 0.0693332689292972 0.02958553472530162
0.08151137270167591 0.06948448909471934 0.027862792870487707
0.08177805948808314 0.0696610684485874 0.026027798713464556
0.08216750727406152 0.06985677831687845 0.024105870121493844
0.08283201231938131 0.0700946472006868 0.02199774795991677
0.08264586283306491 0.07020521029063295 0.02042794126242342
0.082801842246708 0.07036789393947686 0.018630424775655186
0.08290328609086361 0.07052296906782211 0.016860676845553257
0.08298671619640102 0.0706759292440658 0.015095246039140087
0.08256526573047535 0.07075277533869438 0.013656089227668866
0.0805600710885726 0.07058877477963131 0.013265852474081352
0.07819091970216235 0.07036858783112547 0.013126881867029871
0.07563211160744271 0.07011852323107283 0.013126149378954566
0.04170335520206464 0.06506201637575909 0.0343393237571607
0.03936723194938507 0.0648344405371685 0.03432979836867811
0.03698655296751219 0.06459909351901931 0.034361918152274795
0.03474116025657592 0.06438364455600099 0.034312672838993086
0.03250073148292887 0.06416808924954065 0.03427063983271328
0.03019008171888382 0.06394079277785138 0.03428806658005751
0.02799972073928758 0.06373122308843182 0.034232726634361
0.025788493642589172 0.0635175571156067 0.034202460462980644
0.023678631960914354 0.06331879985161062 0.0341112329769197
0.02178602822800696 0.06315312293409495 0.03387561465085026
0.020189207160299094 0.06303300544576097 0.033437045188131176
0.018672817663217434 0.06292499378878834 0.03294673853231972
0.017343703319440962 0.06284593411630157 0.032326641072926376
0.016304763151610502 0.06281219116378556 0.03149986760078416
0.015452726970831776 0.06280776854753081 0.030538370117485503
0.014147579888697748 0.06273176011736432 0.029909635609083884
0.012976549927817216 0.06267666343266391 0.029185783962027312
0.012220306432472738 0.06268712435629549 0.028156990698562256
0.011462655163535007 0.06269740515610542 0.027128715748467702
0.010908988068243142 0.06274021684948926 0.025946929706813893
0.010390329765037232 0.06278879522558854 0.024736559309450346
0.009972375295628222 0.0628536835328076 0.023447355742429232
0.009808701979909129 0.06295959871062404 0.02196100148638569
0.009723149039066126 0.06307850704005105 0.020409337636094982
0.009817018583761272 0.0632267952192291 0.018713308092767222
0.010901373153846261 0.06353546504128986 0.016242352636201995
0.012318241561659005 0.06389918827515405 0.013496471868347848
0.09023344357498142 0.0682727366278685 0.03568980584282622
0.08742315559261948 0.06799868386321041 0.035751438297348226
0.08472597261236464 0.0677399481480135 0.035757231261750955
0.08196694371764385 0.06747123290223014 0.035813522277508
0.07940605996020567 0.0672302787176702 0.035760445131786944
0.07810661970951899 0.06717213757557838 0.03493544506824248
0.08147552896136906 0.06779513170558103 0.031196700691828894
0.08146558097549228 0.06792644367166265 0.029550564056292694
0.08162296954644915 0.06808279018160891 0.02779227668651496
0.08155584260621446 0.06820678933315133 0.026169010581845065
0.08134473325010994 0.06831009667687507 0.024631678812198354
0.08130263147127909 0.06843872255171073 0.022980653307284327
0.08161433186896433 0.06862010867003943 0.021094629903528506
0.08138376802634173 0.06872197037521793 0.019552105294321942
0.0816282781764529 0.06889467677751684 0.017694033595823666
0.08222643764423127 0.06912061101482997 0.015594962282770686
0.08216400956193448 0.0692491088723054 0.01392130611148229
0.08065944669857611 0.06916301045948693 0.0131998007608079
0.046786897949605666 0.06423887781072968 0.03411679031972947
0.043803403554069975 0.06392090308773947 0.034518646871227854
0.04150982883513632 0.06370517960192354 0.034470120244817326
0.03917416492214815 0.06348225876062857 0.03446101044491445
0.03686238964067717 0.0632620375676781 0.0344467707504455
0.03453521750402894 0.0630386014709857 0.03445419381501247
0.03226174332555398 0.0628223833004638 0.03443577881995585
0.030066705216857503 0.06261717688356486 0.03437379031873511
0.02781871241035183 0.062403092323360214 0.0343591883732714
0.02564784501875156 0.06219987361946271 0.03430126675137957
0.023592043770182813 0.062013373746808244 0.03417239655496829
0.021897113677328106 0.06188126017706055 0.033796715347308715
0.020374490277423607 0.06177499129374727 0.03330472371868043
0.018868905460778407 0.06167090025967573 0.03280593282822747
0.017617733405192237 0.06160550101995308 0.032128789310864936
0.016628389884584982 0.06158017574607594 0.03126492872569048
0.015818969342180633 0.06158252650358042 0.030271041920515218
0.01484124424953931 0.06155884632544314 0.029400553122361783
0.013891057090282821 0.06153933742773422 0.028510967874815885
0.01263970028093836 0.06147295541085854 0.027845835614083825
0.01207359268668784 0.06151298393782553 0.026672988281295662
0.01155075482624529 0.0615599305229392 0.02546560711020035
0.011051428699280108 0.06161074958858161 0.02423805005249524
0.010746940744542355 0.06169230743645382 0.022860123657272025
0.010536705108470379 0.061789005903582196 0.02140608583346637
0.01052439622820417 0.06191725193630331 0.019795293554976445
0.010795162887229148 0.06209067022194143 0.01795965319293774
0.011618143485508492 0.06235207060000147 0.015687109129128574
0.08982859470754068 0.06679320045731596 0.03593421273485037
0.08717769902302264 0.06654730519432744 0.03590047323820589
0.08449945415470944 0.06629657793967521 0.03589555773776887
0.0828182187469646 0.06618653123010941 0.03529069853482758
0.07957066857791956 0.06585308100941911 0.03565876944115465
0.07892484375361158 0.06588942473042318 0.03442715517517503
0.0817910745191851 0.06642782866791605 0.03099956214473254
0.08197615149364396 0.0665844194514656 0.029229766478316654
0.08160788575805539 0.06666223459144642 0.027801807880694696
0.08166919201031603 0.06680210919541492 0.02609698058575116
0.08147787648541022 0.06690614748647151 0.02454659120832242
0.08161043485347735 0.06705733904577264 0.022782833653222423
0.08147298658770524 0.06717008330457745 0.02118598275358219
0.0812438041182808 0.0672699825412386 0.019643075150147127
0.08128508438078846 0.06740954509327039 0.017918348176961085
0.08115552105563278 0.0675248100323333 0.01629885484079291
0.08110654094401892 0.06765228049060043 0.014620257438744955
0.04895180963641166 0.06309111779170119 0.03427482864477155
0.0459629997719313 0.06277999418492405 0.03466746970277129
0.043561564789064255 0.06255375464882745 0.034681189917751876
0.04129328857287512 0.06234617133714504 0.03461647087491265
0.03896339933962123 0.06212868081714036 0.03460425080075513
0.03671551564586445 0.06192241065517308 0.034547143705820016
0.034486273192947225 0.061718062096216025 0.03448782766028852
0.032123703662021164 0.06149313664063388 0.03453116317073501
0.029915053124268065 0.06129014342945461 0.03447916033767334
0.027673287517715972 0.06108139933134562 0.0344607896913528
0.025539999168222804 0.06088797066691922 0.03437702894456163
0.023619699878326073 0.06072555846407371 0.03415286102114262
0.02199391520662075 0.060606552622803844 0.033727961308957
0.02048027297724181 0.060503874077043454 0.03322917812931614
0.019127892674600022 0.060425003922063784 0.032619960639000745
0.017889781856051556 0.06036301385241851 0.03193236830394869
0.016991334064454744 0.060352014593754486 0.031001447101176194
0.01621639460156976 0.0603596426887436 0.029980952661777527
0.015253925938447654 0.06033889169396009 0.02909768471470814
0.014477767300539401 0.060346339129547615 0.028078033607417785
0.013661776713516594 0.060347757898552214 0.027087540565442214
0.012660852806204381 0.060320989916944144 0.02623492291995183
0.012166729931655795 0.060371532174852624 0.02500362815368906
0.01168687654600098 0.06042447052918529 0.02375888329318815
0.011472240726840277 0.06051831732033163 0.022310241886059068
0.011381502082629336 0.060631605417703745 0.02076214483086919
0.011579912723235053 0.06078991540104954 0.018986387558071915
0.011958729641601773 0.06097674480816211 0.017063131296728096
0.015660159470643087 0.06167839158691989 0.012555976279324033
-0.06264031385993118 0.05389832827885376 0.018130334735680764
-0.06515619854410049 0.053598395872805585 0.018944339233491148
-0.06716872215341801 0.05338214958056806 0.01929452588206354
-0.0689658529594091 0.05320138900356061 0.019450363157516415
-0.07059516079014566 0.053048284274283326 0.01945468181348259
-0.07216306913336012 0.052904916361071745 0.019408412812899067
-0.07352133130005228 0.05279664228081068 0.019165926932901478
-0.0746683376737301 0.052723983449991525 0.01872251492651089
-0.07559936767348124 0.05268799934978404 0.018070335928095316
-0.07631207671589774 0.05268935124847182 0.01720377899079245
-0.0768417694906155 0.052722223690636304 0.01615468751684307
0.08964102917798727 0.06534613742229042 0.036047445873969186
0.08695533242515308 0.06510060318782991 0.036035488539758576
0.08452813435647066 0.0648899928957896 0.03587804379527526
0.08323449687860135 0.06483619349003619 0.03503503487351711
0.08151625295190945 0.0647230252059253 0.03445701805258117
0.08079107540983654 0.06474804685279659 0.033267831276262205
0.08202124209094591 0.0650466646620544 0.030855763889419796
0.08216469832090578 0.06519415378714985 0.02911130024618952
0.08175574912187822 0.06526465231678118 0.027708375488521342
0.08155886453852912 0.06536526495506634 0.026167090238508883
0.08159595365223654 0.0654992582888188 0.024471131849271577
0.08177435868583588 0.06565374182461646 0.022677482777679503
0.08185009859408549 0.06579430601015626 0.02094225154256879
0.08198260877140989 0.06594347802146863 0.019162887409541085
0.05571097091667637 0.06234137041081623 0.034633820956869676
0.05291426759163648 0.062067214433344765 0.03486127917352361
0.05052596987675112 0.06185022877697366 0.0348329903499599
0.04804987648227804 0.061619826276634204 0.03487431407270081
0.045706097101888055 0.061407453041110276 0.03483917903248551
0.04336153997994685 0.06119411636376136 0.03481562924907067
0.04107568214299634 0.06098836366558171 0.0347635420837169
0.03877835474296576 0.06078012964966306 0.0347300106784047
0.03646884680693818 0.0605692966412792 0.03471571595983547
0.0342354569150326 0.06036862387000462 0.03466018509463881
0.03198451337885838 0.060164593257952766 0.03462734259087025
0.02973272496632895 0.059959611586932755 0.03460584452070686
0.027535290236936127 0.0597617078844454 0.03455720169733578
0.02550971562902954 0.05958806480218487 0.03439830326652532
0.02373276830874893 0.05945005103738748 0.03407299251123874
0.022085979334726002 0.059330534849061325 0.033662572046609385
0.020725331273849512 0.05925252147130712 0.03305416772139835
0.01940972785294126 0.059180811640477365 0.03241758190244537
0.01824836587497919 0.059131535619868385 0.03167346797263143
0.01721718502911279 0.0591012794188383 0.030837489163931975
0.01650411275127034 0.05911796866788586 0.02977094098587063
0.015767170244567474 0.059131187676509905 0.028721013081559166
0.01501701318679044 0.05914249809882917 0.027680123329685558
0.01430866954569665 0.05916008134173019 0.026607600302651357
0.013326817801772084 0.05913692935447366 0.02573814783386924
0.012821929992753611 0.05918499431731074 0.024512230631494658
0.012428107129823784 0.059249901285772226 0.023199949843995593
0.012266742758932303 0.05934998269150549 0.021707895001594923
0.012288419400527828 0.05947802509075942 0.020070853000022204
0.012513133228561513 0.0596372201579118 0.01827120435937557
0.01493069002393993 0.06012841351247957 0.014773251882916338
-0.05560108404305325 0.05341895617463561 0.017851886437840137
-0.05887878282895581 0.05300503897054633 0.01932118320663273
-0.061455551641148354 0.05270410678007787 0.02015848944008336
-0.0636517942102231 0.05246430362830696 0.020655411787565137
-0.06559883036914643 0.052264429363421044 0.020930773857395668
-0.0673781749515262 0.05209130768444799 0.02105854950568825
-0.06901760502786375 0.05194052940525141 0.021062897018157167
-0.07053805845855621 0.051808778396277885 0.020961929904839194
-0.07197403738012914 0.051690453593863296 0.020787270637526722
-0.07331684690986784 0.051587097040981224 0.02052925499869196
-0.07464955749403862 0.051484944315860266 0.020267640809951526
-0.0757735493570148 0.05141724235152697 0.019807358933023878
-0.07678348350858172 0.05136835500136383 0.019238662018356778
-0.07769326301630253 0.05133607730304583 0.018573616685378103
-0.07861821797312096 0.051301090065878435 0.017925674496972688
-0.07926374788387636 0.05131314020880886 0.016999867829176674
-0.07946150360491333 0.05140106769868197 0.0156222852884359
0.08934614525978746 0.06388568749955643 0.036225467026432145
0.0867438225902103 0.06365671156445403 0.03616391189299489
0.08478943711878972 0.06351481796879191 0.035718475826026774
0.08027666360659952 0.06302434548080893 0.03685163398453123
0.07985567383592779 0.06308966809725747 0.03548272697846783
0.08002728677509008 0.06323617412155096 0.03374230528650951
0.08040587130714438 0.06341157308415536 0.03186497426000667
0.08058713983709037 0.06356060710923973 0.030102499155510665
0.08066558621093028 0.06369610147589784 0.028397231240177234
0.08068113768886626 0.0638234718565046 0.02672485816021819
0.08095935114962705 0.06398756769759696 0.024877964246323547
0.08107545242461012 0.06412991035387998 0.02312665716241169
0.06024718219545622 0.0613729586525779 0.034904429585636
0.057351157631152616 0.061092813295600755 0.03517215429869075
0.054909507139635494 0.06087471572610311 0.03515766495904826
0.05259946613271138 0.060674081115191604 0.0350681920242078
0.050272615998264714 0.06047030070977113 0.03500044877533076
0.047921713646396136 0.060262342799660876 0.03495949971219209
0.045452118712678014 0.06003692149296117 0.035008933823145405
0.04322007731256827 0.059843948283810094 0.03491070818699277
0.0409213041587827 0.059640811618976844 0.034867879794526824
0.03864063384229183 0.05943940875304825 0.03482360845932664
0.0362641422953901 0.059223658552621156 0.034855610001859605
0.0340087278127566 0.059024172542500725 0.03481599015914949
0.03174735941884349 0.05882303390720897 0.03479121416177827
0.029550557747537676 0.05863025419084212 0.03473241688094414
0.027410805930400628 0.05844481401390855 0.034644172843713905
0.025520617185631367 0.058294227612201086 0.03439064487416987
0.023809787055868392 0.05816867073190845 0.034018588531771754
0.022392363790282366 0.05808463698654769 0.033444960106368105
0.021000483935690595 0.058003925747127226 0.032857665173820605
0.01975011376468455 0.0579432405230616 0.03217315936028692
0.018608774644087445 0.05789802299434022 0.03141325015809848
0.01757884170441787 0.05786871200861631 0.030574942211505196
0.016731056369838904 0.05786564629667459 0.029605289949529878
0.01609361484398575 0.05789307894958307 0.02848143434891781
0.015461438228496827 0.05792139079596939 0.027352181482959592
0.014752435737460157 0.05793863023268524 0.026278362982189996
0.013940037959571883 0.057940849917004426 0.02528071764053169
0.01353896327523224 0.05800324127684191 0.02397445843142726
0.013216599611691082 0.05807743070356492 0.022605378016859745
0.013173479445963365 0.05819294652562338 0.02102045809595937
0.013188939882910033 0.05831757045044887 0.019384437115469777
0.014946984197475532 0.058699747526301596 0.016405997464367383
0.017194896688710493 0.059155945648221436 0.013028692883716442
-0.04962302908490068 0.05285032924077025 0.01710846143694056
-0.05351875631089775 0.0523513200843476 0.019090315289548798
-0.05667704367311699 0.051967471336925204 0.02042220266501621
-0.059317948343698745 0.05166444865707651 0.02129767550782946
-0.061562910731484455 0.051423379465689166 0.021822549874600083
-0.06352334945021326 0.05122682513556903 0.02209554889011861
-0.06535672282933552 0.051049788198480175 0.022260875147152026
-0.06704092526232447 0.05089596398068192 0.02229581574359152
-0.06860627065334052 0.05076061907159914 0.022227082411501176
-0.0700859566475141 0.05063850965768481 0.0220847260336674
-0.07146968480448307 0.05053139805711098 0.021857624142136323
-0.07278153033801765 0.05043547487185238 0.02156765671340427
-0.07404805889798582 0.05034648942766998 0.021239593904265996
-0.07525898998351543 0.05026616936926005 0.02086275217535022
-0.07641049547958112 0.05019520218556116 0.02043256693072082
-0.07749254522097992 0.050135299524624984 0.019938268656190472
-0.07843004759659589 0.050098890334933976 0.019304347427914093
-0.07936309648436007 0.05006304388835638 0.018668262958261572
-0.08015532484232296 0.050050299519457254 0.01789331001374067
-0.08082024697182438 0.0500585826233876 0.016990924313226075
-0.08120178029817315 0.05011395860647128 0.015801086281905907
0.09193008413439141 0.06268660337482655 0.03630977903653937
0.08909455645899611 0.06243273544514238 0.03637735095600364
0.08678032867470742 0.0622469548840351 0.03614174633371525
0.08190868080358865 0.061720948669284785 0.037477647566259265
0.08021132716513862 0.06161511401080091 0.03689176137189892
0.07955286740075346 0.06164732049935816 0.03566976489818213
0.07963295358316702 0.06177827056022791 0.033987269459100855
0.0797640532936818 0.06191655765341489 0.032265953033246364
0.07981655678451771 0.06204485033018566 0.030586665726251128
0.07986478715921769 0.06217307253012787 0.028903242797856388
0.0673037766148859 0.06060484795711814 0.03522575213088208
0.06448843938904741 0.06034460069642804 0.03540399970128999
0.06212571336579692 0.06014447892681056 0.035305310945895785
0.059519174406993725 0.059910558576300815 0.03537494820320092
0.05716787148638125 0.05971033306170358 0.03529128153938882
0.05474821069961433 0.0595000214927679 0.03526308977686077
0.05237507801308927 0.05929520958144286 0.03521567795279662
0.05006082627340369 0.059097615862107204 0.03514043468771083
0.04773555093492071 0.05889772550560505 0.035083235969410154
0.04532524232699303 0.05868538508907464 0.035093735818931826
0.043046297656565646 0.0584902264826216 0.03502750780226488
0.04074647825654926 0.058291412110240214 0.03498603740956646
0.03848389453539969 0.0580969293484961 0.034930131516005436
0.03607099361642313 0.057880901516006285 0.03498760684554403
0.03385103970512576 0.05769070195344742 0.03492435121882542
0.0316543102301855 0.05750295229924905 0.034855510438830284
0.02940789040186159 0.05730753589683398 0.03483154417064438
0.0273839662701566 0.057142303388417984 0.03466292441236368
0.02562360503594935 0.05701316892047875 0.03431829544790138
0.024048248613359913 0.0569093710690323 0.03385014567645861
0.022664428555875582 0.056831980384749375 0.03325172399259552
0.02137510289873301 0.05676753699993439 0.03259012794515559
0.020165998621342884 0.05671411303039023 0.03187452292909898
0.01896983141112152 0.05666229257144223 0.03115256448423881
0.018030946370471257 0.05664659797794386 0.030246733967733364
0.017193972660074663 0.05664526267079292 0.02926739737647477
0.016412354457542855 0.056651772897375254 0.02824751032997347
0.015832747264894698 0.05668702085051688 0.02707819203665207
0.015119671430916248 0.056703406859683614 0.02600590487714416
0.014690153888975543 0.05676032979417235 0.02472117035519167
0.014285606735219891 0.05682106173006377 0.023414478712277365
0.014164598947677687 0.0569226833099439 0.021890528211334304
0.014142119125813368 0.057038881428689285 0.02028608981273461
0.015586717239958914 0.05736670598824464 0.01755674690997372
0.01661501397224696 0.05763587274376187 0.01512768557234101
-0.04685259019006438 0.051870384740622125 0.017769272887466436
-0.05047091254903763 0.05142800851860956 0.01946336597733228
-0.05398527235890366 0.05099974281660689 0.021089775096226726
-0.05684945350809739 0.050670537705150134 0.022146068998531276
-0.05914167835662576 0.05042888977264974 0.02269521031853372
-0.06123151807608285 0.05021772365452852 0.02307168637698237
-0.06306755280017601 0.050045291076460434 0.02322474144464448
-0.06480268554016871 0.0498878872683777 0.023293997815809264
-0.06646879559686386 0.049740606474640604 0.023308069769523154
-0.06798042884408112 0.049616977021956624 0.0231851204262416
-0.06941755220155166 0.04950453923796896 0.022999016702585362
-0.07076072663428151 0.049406446399900106 0.02273011238268613
-0.0721089557993545 0.049307097422906704 0.022472238948470336
-0.07340105102302552 0.04921620987628307 0.022166380592758494
-0.07457331187721988 0.04914399199073272 0.02174985308010219
-0.07573272475762366 0.0490734889315831 0.021325354601581914
-0.07685447652087551 0.04900868460236738 0.02086836595360314
-0.07790957115552632 0.04895427138538099 0.020349733704797757
-0.0788160765488849 0.04892349913033042 0.019687204548558823
-0.07972838534002658 0.04889164641888655 0.019032428772098986
-0.08061491184978525 0.048863809301116806 0.018353858501512
-0.08143300878112752 0.0488469236544309 0.017608148835189963
-0.08192856327003983 0.048882322427781955 0.016536952926628934
-0.08223119149275965 0.04894928540575599 0.015267123267704408
0.09097951420250783 0.06113929821059492 0.03688034646704297
0.08888765693679612 0.06098707106826879 0.036502256008849265
0.08437400125667327 0.060520668731835085 0.03760280669571703
0.08198034190197351 0.060327496848534466 0.037433886773828695
0.08028111903423935 0.06022384261126298 0.03684889761464649
0.07921638638600248 0.0602024214072843 0.035877602981233936
0.0792882770042801 0.060329240362422334 0.03420138639038661
0.07935303159133544 0.06045562202213861 0.03252274074335215
0.07223341428532803 0.05964130156203946 0.03535124507562981
0.0691984995981299 0.059359956690872843 0.03564309191717907
0.06673662215017162 0.05915287215059571 0.03558616102938317
0.06429186211319421 0.05894722746720491 0.03552962598144671
0.0618362222592857 0.05873933439854393 0.03549136163232769
0.05936062895860872 0.05852797914843196 0.03547741769099699
0.056968345254203134 0.05832683007798994 0.03542096406130507
0.054562663549333756 0.058123102599157615 0.0353843650791017
0.052176412202518785 0.057921150491365966 0.035346257110018375
0.04986653494890264 0.05772857819582997 0.03526885474371527
0.047525815627012524 0.05753111537623826 0.035222640159440155
0.04519713421969429 0.05733447388731055 0.03517936107627739
0.04285711687478211 0.057135522859164595 0.035154658718761556
0.0405525389297805 0.0569405363089943 0.035117112999743016
0.0383183617169891 0.05675424744909861 0.03504263081275094
0.0359221507787037 0.056545337016148625 0.03508932529833947
0.033715973352758555 0.056361282741147406 0.03501716692502527
0.03149684210446796 0.05617472727964918 0.0349643197082502
0.029330448611900706 0.05599457585181614 0.034885351821666244
0.027458393955795413 0.05585374198585965 0.034610925398813885
0.02589283012975846 0.055754122972224936 0.03412916361328178
0.024429403250521398 0.05566805149963125 0.03358090825272164
0.02300171977685528 0.055586521166873085 0.033012160282059166
0.02199821904079763 0.05556284807595768 0.032145124402274294
0.021100704515225 0.05555364731945062 0.031203334190460785
0.020166534218633292 0.055539359328831694 0.03028853614778454
0.01864759111539488 0.05544429354897467 0.029799076812302427
0.01775254495457973 0.0554351320106865 0.028859683425143445
0.017014759824268977 0.055447729910361496 0.02780540311008456
0.016418138549022743 0.05547998697744789 0.026646231006649923
0.01590333476340744 0.05552376589820573 0.02542449236640748
0.0155952231933989 0.05559655544986267 0.02404603594931748
0.015259158711423138 0.055665742322388904 0.022684318479947563
0.01516914785805884 0.05576968055384679 0.021133036548664053
0.015192494064249051 0.05588996473437377 0.019489754440224605
0.016191896173700537 0.05614803346226917 0.017095453201231126
0.017974738224628917 0.056517609806583796 0.014085646810212349
-0.040235005297167004 0.0513421942808032 0.016615895691884874
-0.04332703459794551 0.050993246916066666 0.01777887569963399
-0.04651611905621322 0.05062812778043738 0.019050863880606006
-0.05100661747279256 0.05006512048136236 0.021521142583085406
-0.054000491859771904 0.04972575727345165 0.02266794660913929
-0.056511982965907925 0.04945792590466216 0.023395842598853245
-0.05861771791922543 0.049250480004885584 0.023768366137193242
-0.06055770387115261 0.049067311321753085 0.02400113888215899
-0.06234145958083537 0.04890713418820544 0.024100678558574673
-0.06406146701968402 0.04875596952597022 0.0241509804279485
-0.06569780794226271 0.0486169309104245 0.024132525306414576
-0.06727677213832106 0.04848606477163063 0.024068909090403712
-0.06866358827492347 0.04838417070387369 0.023831777759584227
-0.06999229652884459 0.04829077091829258 0.023545885857716276
-0.07127589622256275 0.04820391429056348 0.02322284831674737
-0.07255011574368009 0.048118108980902526 0.022896383694469002
-0.07375655175883716 0.0480424348959957 0.022509947457932222
-0.07487422936006072 0.04798022868030283 0.02204218061151947
-0.07599528109841919 0.0479172056146565 0.021581741100764162
-0.07707208818978567 0.04786080913530456 0.021081967310098815
-0.07812929574304794 0.04780722148509803 0.0205665283465582
-0.0791153879262183 0.047764559123933834 0.019984056614764156
-0.08004200092198838 0.047731066090668975 0.0193450801762291
-0.08088753989969405 0.04771021736779107 0.01862705690370975
-0.0817101598693945 0.04769289769763664 0.017887318400541807
-0.08230782760755151 0.047711186674730476 0.016920957486877553
-0.0827075842895778 0.04776103772524833 0.015751966693255293
-0.08239591002930452 0.047924539597968656 0.0138518782672023
0.09068352978791938 0.05968016425381263 0.03705800732211145
0.08867175540280414 0.0595415140298717 0.0366325955680033
0.08423702618879558 0.0590958876104101 0.03768597444785199
0.08244967039488577 0.0589840045139485 0.03714728515561455
0.08025587273861107 0.05882008273710618 0.036864403018087855
0.07908163493420889 0.05878522307408469 0.035960836454153544
0.07883740844529585 0.05886876693055039 0.03448147096292897
0.0742820072940959 0.058402059727401756 0.03569088663381348
0.07159983547717857 0.05817322210567307 0.03574933023700394
0.06901996554538486 0.05795660262260503 0.0357559046058743
0.06656392423502466 0.057755038724850605 0.03569590514539378
0.06408984843468485 0.057550359372595714 0.03565872649350621
0.061631856965734144 0.057346946415361956 0.035622703501880626
0.05922423297207696 0.05714923760147319 0.03556557176302949
0.056773094141088665 0.05694511087139275 0.0355478679600017
0.054378626261219254 0.05674752590269536 0.03550465352172094
0.051994014206902694 0.05655043595417723 0.03546614375019114
0.04964982651564137 0.05635782570021384 0.035412091757552666
0.04732550481018516 0.0561670387985391 0.0353557801989145
0.04501033838709223 0.05597668548684065 0.03530421220065111
0.04267069210045343 0.05578236085889242 0.03527995728603728
0.04034466885811028 0.05558904397271943 0.035257603805698534
0.03813006716392431 0.05540960794019574 0.03517059942347239
0.03580365669534885 0.05521470785100242 0.0351703035637968
0.03354601424784731 0.05502810386615279 0.03513396044221856
0.03129367428308372 0.054841445708249496 0.03510470711753533
0.029426333210265665 0.05470509406253726 0.03481872984650525
0.027573138665366148 0.05457006786903684 0.034530758836377795
0.02605064921624961 0.05447853311603988 0.03401829499793935
0.024661339673477056 0.05440439701239038 0.03341707457762222
0.023458736195657415 0.054354923934560644 0.03268756081947527
0.022482726567589817 0.05433561037479951 0.03179910934758351
0.021639166892889472 0.054334001532427775 0.03081667793159454
0.02069763812573705 0.05431920463890005 0.02990507517279667
0.01975662203602535 0.05430441580251928 0.028993968796217906
0.018561865921408405 0.0542552847260318 0.02826894261589269
0.017776548520205437 0.05426138113751693 0.027246323956567675
0.01723015628334723 0.05429991645476201 0.026047042008779442
0.016756384134342217 0.05434848456788096 0.02479160123066826
0.016483092184313652 0.054424566599299784 0.023383732078502584
0.016271887553365005 0.05450944236476505 0.021924775749211034
0.01621205864616626 0.054615381780859694 0.020346617670761513
0.016399746239249835 0.054755697109171865 0.01857448354474367
0.01760714666663654 0.05503668608050552 0.01601668771174214
-0.037237205486484404 0.05036123915124933 0.01715817088770827
-0.03978268735816465 0.05010218435470909 0.01780931703792582
-0.042326177386923625 0.04984226092221887 0.018475192242717098
-0.04596639578868472 0.04942036460657139 0.020137900883617776
-0.050893700224439176 0.048807428841898925 0.022984019390331234
-0.053530130372673235 0.04852914053555523 0.02380035042915135
-0.05574508852900717 0.04831181142339724 0.02425190328056004
-0.05776468016256242 0.0481224029125895 0.024539148954487444
-0.05962911146804928 0.04795514302268715 0.024696270838544587
-0.061426188203736465 0.04779713278323869 0.02480209796470867
-0.06309019457122167 0.04765822471815948 0.024794807436441857
-0.0647049897754991 0.047526029260800455 0.024750685967300012
-0.06627731016263899 0.047399584465103055 0.024675387982530828
-0.06767555800893926 0.04729866820166075 0.024444429857913452
-0.0690444449951706 0.04720170151512325 0.024192284809595954
-0.07024715204301091 0.04712932779505761 0.0237883808473911
-0.07147413909118538 0.04705295250553321 0.023412458470886355
-0.07272654709147303 0.046972375117662966 0.023066010221442557
-0.073931231336884 0.04689866467240994 0.022678763184578732
-0.07510071117363254 0.04682996512607099 0.022262197304625198
-0.07618779813848386 0.04677350490781028 0.0217697341607892
-0.07725202734190961 0.04672027319092788 0.021258590407439326
-0.07825648253079648 0.04667594653185498 0.02069201914573371
-0.07927833039238136 0.04662874157969683 0.020145660253703734
-0.08020433272834426 0.04659606251245714 0.01950691291066997
-0.08107004080656638 0.046572528836733074 0.018809939612124515
-0.08185007288296148 0.046562129564542254 0.018028250393372136
-0.08242462567473224 0.046583524030478114 0.017039215350825143
-0.0828106166152075 0.04663431106815082 0.01585682668701338
-0.0825859742909325 0.04678042083572131 0.014046314781565317
0.0912249064219599 0.05832578974619626 0.03673305292932194
0.08662063889248 0.05787111284601961 0.03787085273452745
