# .PCD v0.7 - Point Cloud Data file format
VERSION 0.7
FIELDS x y z
SIZE 4 4 4
TYPE F F F
COUNT 1 1 1
WIDTH 768
HEIGHT 1
VIEWPOINT 0 0 0 1 0 0 0
POINTS 768
DATA ascii
-0.014836246538658294 0.06491707725158691 0.01871680906191281
-0.014813262706372043 0.06614232237127038 0.018312815470672705
-0.014792352978504035 0.06732102856336009 0.01786897188283232
-0.01478411339325776 0.06822788423633652 0.017166866275203474
-0.01478711563181858 0.06889511110450847 0.016233734948177092
-0.014844311967293237 0.06841405042664683 0.014178656281776392
-0.014920155027628315 0.06754437104797001 0.011729828039735435
-0.014983998252115206 0.0669353285249602 0.009521822628615673
-0.015062037985626659 0.06603382592059737 0.007009974470758129
-0.01727956590443792 0.008845492363254714 0.029979118256180715
-0.017222981285417934 0.010861561610886195 0.029991006068385007
-0.01716074582333185 0.012994281187414192 0.030105004574818184
-0.017104265838588817 0.014997447591205415 0.03012780447174096
-0.017060138667819604 0.016730204287896788 0.029945754715274886
-0.01701907932185199 0.0183931814792353 0.029715956663643073
-0.016974118153145683 0.02013580479288385 0.029557736128017986
-0.01693281506184603 0.02179626190472278 0.029341342306763663
-0.0168947917638247 0.02338310922461101 0.02907271996756755
-0.016858750801578518 0.024924357952856024 0.0287738509388355
-0.01682850983503119 0.026339365080891908 0.02837793707890368
-0.016795932467674073 0.027801008466026622 0.028026141679655836
-0.0167614597985011 0.029299657615270425 0.02771111962108025
-0.016728546486890716 0.030762305127064904 0.027372462725867908
-0.016696081186151318 0.03221251689775678 0.02702950892627609
-0.016667328754411407 0.033581904829541875 0.026624444052636198
-0.01663048713655773 0.035117875980652136 0.026366029577285233
-0.016601329164837763 0.03649007715168462 0.02597491693672843
-0.016569849037186595 0.037907966430159146 0.025628444866927835
-0.01639156912135938 0.042373754593270585 0.02791377460866784
-0.016508983144443455 0.04069164394751967 0.024908223003294983
-0.01708386867312555 0.029555161701575516 0.013649022669706745
-0.016235206195663578 0.04785952902228785 0.02804830970959371
-0.016197202376451468 0.04938775853118149 0.02784871395770272
-0.016149520666427056 0.051111402211362345 0.027829201384687363
-0.01613205804109609 0.05221097992469792 0.02726393231253571
-0.016091190224689963 0.053787837889954115 0.027128594031995856
-0.016066169552241043 0.05503742890644148 0.02670705817302277
-0.01604333025164385 0.05624029051495799 0.02624813015028188
-0.01601036605730883 0.057646821445817176 0.025978521418432543
-0.015980751268884243 0.058982409706418715 0.02565053516626159
-0.015964234821171566 0.06005028582067057 0.025082671861232975
-0.015962235204400963 0.06082362159676785 0.02424637520301215
-0.015995628842243762 0.060883982418441285 0.022749490863604727
-0.01605200363534623 0.06048564306751636 0.020818627075874896
-0.016048718650039175 0.06128850142003994 0.02000199521194551
-0.016025928903827393 0.06248118152012844 0.01955308645217163
-0.01599859953470719 0.06376235948572184 0.019192421894760336
-0.015970487514099508 0.0650566101604037 0.018849574679241865
-0.01594288964330316 0.06633806646357648 0.018500035723744424
-0.015915759694391626 0.06760771534999044 0.01814460142988089
-0.015895782575364885 0.06873344809079357 0.01765545877445096
-0.01588393587497092 0.06969696604138326 0.0170127002011346
-0.01589334586460237 0.07024106341124192 0.015962735870131528
-0.01598563860361043 0.06915869364141514 0.013314400502551227
-0.01603336480161074 0.06895777818841964 0.011517303434692816
-0.016099280744626243 0.06840577566104922 0.009362434631713712
-0.016182934112834144 0.06751401013315772 0.006855599695873904
-0.018468847061882714 0.011337313867673393 0.028800627593954686
-0.01838264539719168 0.01385986638439518 0.029227488306519722
-0.01832594784433525 0.01578378926474222 0.029192719616415452
-0.018267358320250872 0.017740685557218472 0.02919400550442136
-0.018211520434425324 0.019637655341466498 0.029157120617237964
-0.018156877986305147 0.021506037467256933 0.029106694942222122
-0.018116423862042264 0.02308784441845302 0.02883272358481137
-0.018073108834602437 0.02472290173563546 0.028609230938917152
-0.01803387028981644 0.026273604997126998 0.028323915097538677
-0.01799583941399458 0.027797106725814813 0.02802291942421936
-0.01795639411015046 0.02934520824965481 0.02774893869997519
-0.017916435604930708 0.030900015362921973 0.02748740561808921
-0.017884508781727836 0.032293890333846664 0.027097789425211294
-0.017854154623027547 0.033654255229621954 0.026685475101283274
-0.01781639282177291 0.03515665331855483 0.026398913388481993
-0.01778129874271536 0.03660384188168492 0.026071901521300178
-0.017751678280862944 0.037941619070251176 0.025657285502477922
-0.017533170568926792 0.04294061072624472 0.028402140118168606
-0.01749175618332351 0.04449347186155184 0.028200908819321746
-0.017524590960881044 0.044608972600203356 0.02675556554591435
-0.01737894951696727 0.048166158412243254 0.028316681964116575
-0.017331886100192463 0.04981568977762396 0.02822522520788534
-0.01730698722081543 0.05103602196664003 0.027762530045108924
-0.01727906134732768 0.05231215501219921 0.027353888871749943
-0.017244598088235356 0.053710736100732126 0.027059681601742935
-0.017200560592816928 0.055288788002715084 0.02693289856294201
-0.017187659161482977 0.05627114309415743 0.026275995930861662
-0.017146468294948407 0.057788985950118 0.026107595684387308
-0.017114140148055002 0.05913557041174278 0.025790321295061813
-0.01709507819979805 0.06022888814420929 0.025246530924574517
-0.017091155069978888 0.06103536554457811 0.024441655972497922
-0.017117492862751157 0.06127270512100175 0.023109863598426927
-0.017166859508915822 0.06108042534539826 0.02137291085555304
-0.01719640887314726 0.06126317505156964 0.019978270223655115
-0.017167489204619645 0.06253995796705908 0.019608433975414785
-0.017133782689926817 0.06390341808710354 0.019325943623077713
-0.017103599973044562 0.06519850907900143 0.018984591554109476
-0.017074635471591618 0.06646842819647075 0.01862472077832844
-0.01704532556628279 0.06774225369544135 0.01827395080858074
-0.017017750968491594 0.06898154424396857 0.01789522659623416
-0.016992247783317715 0.07018033493311748 0.01748227092291449
-0.01698476143315603 0.07104600582741583 0.01674876281397203
-0.017002960548859237 0.07144034400028887 0.01555400259660561
-0.0171235762321965 0.0699638274722093 0.012509937353433254
-0.017149385835322745 0.07022686259027505 0.011168558273275786
-0.01727573777660566 0.0686625775752826 0.00800063589363037
-0.017305663479935136 0.06885962244175264 0.006573970721379885
-0.019636189911400755 0.014120922701140237 0.027869624656345737
-0.019554184487429183 0.016447120866606935 0.02815924402743153
-0.019483498650658324 0.018554980238914442 0.02828642511085
-0.019416988727158524 0.020579211170034917 0.028357352797678814
-0.019350984910066215 0.022588671299220653 0.02842698691076173
-0.01929948441370936 0.02432326984533112 0.028282671552089134
-0.01925504360083885 0.025922802954004565 0.028035730457985075
-0.019205370832281767 0.027615585875930937 0.027873006334504624
-0.01915621615346775 0.029294810892106615 0.027707095741497045
-0.019113686125299074 0.030848025406863544 0.027444011172197413
-0.019074102483804655 0.032343653080767976 0.027139545409893606
-0.019036444823954855 0.03380076827202061 0.026809065822178457
-0.019001517669215914 0.035204876506849 0.02643980741247204
-0.018966409690051617 0.036609481065698835 0.026076709017183508
-0.018931379937327384 0.03800983910877859 0.025715750639146773
-0.018897960768015427 0.039378095340921015 0.02533291465606402
-0.01864980924180061 0.044639781045777704 0.02832762431224084
-0.018674670044979982 0.0449389467737043 0.027042856384683234
-0.018530126045793238 0.048300187813500206 0.02843398900983779
-0.018494290113419513 0.04969051213119424 0.028115088957360257
-0.018457569044350156 0.05109387479860755 0.02781369912400894
-0.018428083278961935 0.05236446262554695 0.027400396538867944
-0.01839264057059302 0.05373932847910351 0.02708523716658051
-0.018343701636062425 0.055352427342384436 0.026990077119029343
-0.01832884006943557 0.056354244835309764 0.02635105254577602
-0.018286456045141466 0.057844285797925166 0.02615780368233417
-0.018250745455577942 0.05921251912845754 0.02586055060181658
-0.018226999961461186 0.06036607545113648 0.025372393718192443
-0.018223958973977106 0.06115204172216426 0.024549260570856712
-0.01824864936785091 0.06144908724531606 0.023273382033789036
-0.018306617081772343 0.06116304776355247 0.021449907625040843
-0.0183260056083619 0.0615584002129968 0.02025482955735458
-0.018300818253898902 0.06273544461251784 0.01979251602410853
-0.01826958641549081 0.06401600849165812 0.01943251825193626
-0.018236986005519956 0.06531790469299514 0.019098196541081247
-0.018207915686921497 0.0665558258970782 0.018708312725990606
-0.01817629093637266 0.0678357066228295 0.018363799408779746
-0.018144163617114 0.06912174097032797 0.018030717105020355
-0.018113135198502755 0.0703862266637642 0.017682285356725946
-0.018088810030075057 0.07153278902155791 0.0172241070488241
-0.01808123062158551 0.07238970696907376 0.016485869923638596
-0.01811764202991215 0.07249202688525253 0.015004423836032954
-0.01820331708880876 0.07175488776517464 0.012684028170008466
-0.01827527069625369 0.07125871146310053 0.010588787898939023
-0.018357962020514703 0.07058556952174616 0.008303528377834046
-0.018426384762537457 0.07016133788895607 0.0062543812520598485
-0.020712069903425726 0.019147052438181045 0.02719944765257476
-0.02063605305494983 0.02126281058650631 0.027349303906941624
-0.02056002302059779 0.0233730508171085 0.02750619950869526
-0.020498514953643278 0.02522406252491266 0.027461713594057413
-0.02043602425603252 0.027087537375373782 0.027436905400241574
-0.020381684586739807 0.028804627847331787 0.02730011513788727
-0.02032501872658381 0.030557948498657672 0.027201892340054323
-0.020274421008238085 0.032201983131992074 0.027020670310896555
-0.02022759951196415 0.03377699192210615 0.0267890094419746
-0.02018933184225032 0.035201094667243915 0.026436600447809877
-0.020149623350166436 0.036647071521425933 0.02610875499012144
-0.02011072415078282 0.03807616423236976 0.025772591820487245
-0.020073331000795374 0.0394765399148046 0.025417728021224273
-0.019816109337441677 0.04462804474253179 0.028317459827286506
-0.019840246639567946 0.0449660392289401 0.02706644441585898
-0.019683771502557925 0.04837647445161597 0.028500757682777378
-0.019647324133640516 0.0497390074486419 0.02815775718145541
-0.019599678350920482 0.05128832303804315 0.027985682495903108
-0.01956534513646224 0.05260921693592996 0.027618011796548103
-0.019527794267047194 0.05398173158757741 0.02730189382473991
-0.0194946843384856 0.055276745127452676 0.026922078499860724
-0.01946694028635318 0.05647924619471223 0.026463952407688562
-0.01942051977146917 0.057992226896624643 0.02629212264098818
-0.019385697637452435 0.05930801998030677 0.025947711989473154
-0.01936002874010973 0.06046867921910126 0.025466527791620563
-0.019359120522192942 0.06121580009719968 0.024608061770338474
-0.019389797012759037 0.06143901337117352 0.023264042953041908
-0.019453276536257124 0.06112174170625617 0.021411414181140787
-0.01946842047992941 0.061607270836985195 0.020300610378481854
-0.019433680744324607 0.06291561783596422 0.019962178035726363
-0.01940327097899805 0.06415017916447546 0.01955952008364409
-0.01937037955034202 0.06542313055880472 0.019198319016694165
-0.019339160287409653 0.0666662407682162 0.01881391953107986
-0.019305983846740635 0.06793893227623155 0.0184630438068209
-0.01927122086837892 0.06923494804636154 0.018140123988508172
-0.019237479677100155 0.07051173612040879 0.017804212111832807
-0.01920152308595359 0.07182187780046362 0.01750640254517616
-0.019185056927572358 0.07281415401144092 0.01690249496010432
-0.01919373295604539 0.07339960450149063 0.0158998991853207
-0.01927332144941142 0.07284446985815424 0.013764657554424686
-0.019358162850790818 0.07221101396652141 0.011538162585473966
-0.019413871325158146 0.0720506263473365 0.009771650027569856
-0.01952779578224691 0.07096414682383895 0.0070630369652773806
-0.019592597045976386 0.07066942496882445 0.005137087096732718
-0.021905138258302915 0.021131133352095155 0.025674215203969952
-0.02177715208451928 0.024023246999571535 0.0264752408262226
-0.021702453154076207 0.02602967461039657 0.02656324514866676
-0.021629097694218755 0.028008715782583238 0.02663929913782742
-0.02155570470111559 0.029983132546376967 0.026722109951712314
-0.021491614236339884 0.03180028274656832 0.0266836037966669
-0.021431465766381868 0.033548575023376825 0.026596329146802045
-0.021385891566114 0.03505543517906812 0.026313079259370875
-0.0213326381139271 0.036683714359218966 0.02613999311822013
-0.021285639099922253 0.03820687157858271 0.025884609014811488
-0.021247798374659965 0.03957863976371284 0.025505690527397762
-0.020974208284967207 0.044749880923075636 0.028422979750051702
-0.020963920857881024 0.04566442831606121 0.027674494287108053
-0.020845120416352274 0.04832059328547722 0.028451848729834417
-0.02080134308337875 0.049766334911354515 0.028181801073636714
-0.02075731093769379 0.05121302314199305 0.0279190822221827
-0.020713028377301886 0.05266056053301371 0.027663662340506157
-0.020674802717135794 0.054008547043259636 0.02732586120039948
-0.02064202615361011 0.05526728230467698 0.02691357646384429
-0.020601794928324646 0.056641776042918424 0.026610747563376447
-0.020562580402152687 0.05799732581656475 0.02629675214945032
-0.020519391620062024 0.05941275258157358 0.026043298969452455
-0.020497411115382315 0.060491377714581296 0.025487352651953676
-0.020498372847396844 0.06120825097061622 0.024601099686524575
-0.020534983228969846 0.0613667994132962 0.023197095747035212
-0.020598503744175062 0.06110740849074159 0.021398057004288595
-0.02060546592924425 0.061734433466795524 0.020419733110870752
-0.0205707561877882 0.0630102322392988 0.020051272728780323
-0.020536699456756166 0.0642734166509466 0.019676172905092326
-0.02050035028236209 0.06556966775524986 0.019337749211350563
-0.020467538126446597 0.06680867744404334 0.018950153709059725
-0.02043307876519402 0.06807073339556213 0.01858976153232994
-0.020398523602661926 0.06933180146300094 0.018233726194311295
-0.02036429604326732 0.07058537533871762 0.017875749318321865
-0.020325611876098913 0.07190472059990666 0.017587298694617337
-0.020298174985554505 0.07304954595182539 0.01713354897675018
-0.020286498822475654 0.07395229265053987 0.016445217446490412
-0.020317525418301577 0.07420514191950711 0.01511414943203404
-0.020437380302924437 0.07311322759462247 0.012437602397625536
-0.020484758692579083 0.07312630851576468 0.01084958249412038
-0.020615945879141537 0.07187789427678892 0.007983439136282633
-0.020667632309726118 0.07183587067773844 0.006318111487059741
-0.02076789196572939 0.07106791938802864 0.0039058228847534404
-0.02293656449671552 0.026362758419139154 0.02527272224717636
-0.022838565636531596 0.028659276211238316 0.025617124926763934
-0.022743892903686766 0.030897667486357472 0.02592621985036797
-0.022671033369562055 0.032792675047581044 0.02595869210026258
-0.022604300423314447 0.03458831436619242 0.02591695438653341
-0.022538571104920635 0.036364001905273 0.025867438160388778
-0.02246677583439266 0.03822833536907966 0.025903003721291173
-0.022423566517386483 0.039650073525714924 0.025567233179232818
-0.022382212686929977 0.04104053770440935 0.025210393226479555
-0.0220904249321863 0.046246160465631125 0.028180977242380667
-0.022108250991183534 0.04672233911318774 0.02705300400045102
-0.02195093475809045 0.04985798165146921 0.028262435658802987
-0.02190939590547153 0.05122966198429152 0.02793379883809921
-0.021865882736700787 0.052628363708284 0.027635035692336274
-0.021829944937471348 0.053909913374539487 0.027237703872081187
-0.021777373134743136 0.05543924640135256 0.02706808229360863
-0.021735008249226105 0.05681183129963069 0.02676433958025659
-0.02169932884881508 0.0580814364504994 0.026373118072363755
-0.02165591082497305 0.05946424934870376 0.026090298902885167
-0.02163671981212874 0.060482971100604244 0.025479640082588573
-0.021649077289185772 0.06103116658198077 0.024437783850245587
-0.02169224128082369 0.061123048208419406 0.02297112173235294
-0.021738651357012747 0.06116979028694247 0.02145619133116644
-0.021740814861512636 0.06187327102259638 0.020549792609679818
-0.02170420842614366 0.0631482856435634 0.020181272191336697
-0.02167015724119992 0.06438325081578311 0.019780138563950722
-0.02163502857280845 0.0656317189503613 0.019396791000203473
-0.02159770952881796 0.0669098694328556 0.019046939254262485
-0.021560239024112793 0.06818770654565626 0.01870222319431175
-0.02152468414189865 0.06943510010826887 0.018333557266521527
-0.021486854587829507 0.07071315011134943 0.01799987672348058
-0.021447329039974084 0.07201323423283118 0.017693262431288492
-0.021410378073114713 0.07327339685936335 0.017353274649243022
-0.02138781670645259 0.07432336814613161 0.016811344822105667
-0.021394541609060288 0.07495010260964075 0.015852989075062995
-0.02146218983973549 0.07470208223890029 0.014021572102152102
-0.021573687052182013 0.07383019862911616 0.011554945160635766
-0.021646707394130948 0.07351600516863499 0.009633480121138294
-0.02175437560748654 0.0727125259532933 0.007205723557824395
-0.021834482611552262 0.07230853977937435 0.005168450257370838
-0.024078752676659657 0.028870704981692696 0.02422539666880341
-0.023967468835345125 0.031277776220887066 0.024680803873246726
-0.023869656205402108 0.03348042461400469 0.024977448521327106
-0.02376908214129642 0.03571713483289479 0.02531598370725069
-0.023665505873457972 0.03799115092803729 0.0256997350927472
-0.023599164323238806 0.03971684184654517 0.02562475639821965
-0.023554317478294652 0.04112626768681654 0.025284642307311478
-0.023239720664929946 0.04643962553686176 0.02834941695366655
-0.02321477748064686 0.047546989399359585 0.027774765245574595
-0.023228106878586865 0.04810090456989019 0.02671648850313335
-0.02306800120178673 0.051150831064762536 0.027864075486486894
-0.02301738533974018 0.052618790398399506 0.0276265239911897
-0.022982938512779553 0.053851916825953305 0.027185867443506206
-0.022939437519903506 0.05521221542386262 0.0268641003328694
-0.02290246189554535 0.05647667833415149 0.026461633417201536
-0.022886026595855438 0.057446558230107136 0.025796698733166423
-0.022892142179633236 0.05809529802456681 0.024840890532713045
-0.023084516579725094 0.056106689153796685 0.021464613688514655
-0.023156334918133913 0.055833850253594 0.01964456334230008
-0.02294028102902521 0.059623884204765165 0.021581293835097104
-0.023212619877180218 0.05653064830012483 0.01713292757944873
-0.023237991132533952 0.056920649756167896 0.015910306135935637
-0.022840981043278134 0.06322604504321816 0.02025449520152872
-0.022799740319251045 0.06453622679050242 0.019924940902486643
-0.02276481448826793 0.06575574869488698 0.019514805360756615
-0.022726448519255642 0.06702085929534424 0.019153096011739146
-0.02268650343777998 0.06830540992195189 0.018815386918041743
-0.022650279365712126 0.06953589300565388 0.018430966707124574
-0.0226095483006354 0.07082628095572963 0.018109778226450546
-0.022569837857741613 0.0720999906333617 0.01777798021488286
-0.0225288144807296 0.07338919258312687 0.0174669364788424
-0.022498941201121572 0.07452287025234777 0.017008186704846717
-0.02248799790116948 0.07539567296262994 0.016294898391791268
-0.0225394489755283 0.07541624687965098 0.014733541094692826
-0.022672435717098014 0.07432999293269943 0.01205578507310684
-0.022731060459478012 0.07426236048620782 0.01038527107623416
-0.022859086711342312 0.07325803291566063 0.0077580485266389165
-0.022921026530477173 0.0731553514242892 0.006030283263948444
-0.023027516810209276 0.0724558094056228 0.0036831094852788904
-0.025105726904288944 0.033654932124609294 0.023557954832389705
-0.02491172837544584 0.037117110727431235 0.024950676645062064
-0.024783472958859416 0.0396565658337078 0.025572826696375117
-0.02472503518665603 0.0412230079706537 0.025368427185909592
-0.024465667870768218 0.045557379059134984 0.027581292527813384
-0.024335754830344034 0.048094216942727475 0.028253716946786966
-0.024292778022180793 0.049429275550925966 0.027885242928151643
-0.024290655737151928 0.05020193098753223 0.02702480364136639
-0.024283198357986882 0.05104739250615187 0.02622936782379015
-0.024234260315702683 0.052458209461921035 0.025940191038922256
-0.02426136681622449 0.052831081785503775 0.02472470725323822
-0.02425392740738121 0.05367471797672063 0.02393093556065351
-0.024244954870490637 0.05453867040325322 0.023156565663238593
-0.024269324607216546 0.05495135459058276 0.02197149018794292
-0.024337433771455547 0.05477560237281287 0.020243406202753667
-0.02439307892737027 0.054771744390782584 0.01866503719988294
-0.024442596175467905 0.05485356689147547 0.017158882167932543
-0.024527867886042293 0.054459471583395036 0.015202776917990324
-0.02480578645402691 0.05149589083878853 0.01082853341482043
-0.02485753395047536 0.05156515413830881 0.0092739007883606
-0.024874718776129352 0.052097396023822184 0.008150735194772163
-0.023897638476911117 0.06582764149867643 0.019583211437308012
-0.023855635608301534 0.06711534474432346 0.01924346706211527
-0.023813347483805345 0.06840424541306706 0.018910410479430706
-0.023773241566895732 0.06966179307270709 0.01855264048584926
-0.02373167446511352 0.07093610103312892 0.01821646347165312
-0.023691904127652673 0.07218429074010074 0.01786029942577827
-0.02364995014460267 0.07345862843013556 0.017535092794382312
-0.023604439620442685 0.07477684196457657 0.017258771852186605
-0.023583689666913106 0.07576968379118931 0.01666583616953976
-0.023612822907406985 0.07611289404145877 0.015428046466493484
-0.02375422359318181 0.0750021179415083 0.012729316185481288
-0.02382528253159926 0.07480996511307242 0.010936863883814152
-0.02391227554373377 0.07441652098864765 0.00893101582219874
-0.02403278392074496 0.07359688691600902 0.006479651082286653
-0.024109005505213884 0.0733534738191165 0.004601423783045844
-0.025983008980885992 0.03940038902311288 0.025352121938834682
-0.025895090566980306 0.04131969352413384 0.02545216466360989
-0.02584961608877834 0.04267502453996641 0.02507178170282187
-0.02553469454450348 0.047567486805918435 0.02779270543012957
-0.025434694026464113 0.04962435866050113 0.028056885000673326
-0.025375939700669727 0.05113593639122116 0.02785090179990307
-0.025341084478356146 0.05233220755403317 0.02737171855023457
-0.02534308896899007 0.053046515163038155 0.026466010682091146
-0.025432271603524348 0.05262839613185882 0.024542599000340393
-0.025422518285488704 0.05349788898563124 0.023771225767519444
-0.025437992718519414 0.05404054875777131 0.022704310526260874
-0.02554385590418102 0.05341778238197531 0.020571836356598816
-0.025608780283761713 0.05332825950888087 0.01891553939882884
-0.025690778985915912 0.05302320989929782 0.017052452834686038
-0.02601430279892743 0.0496276053820191 0.012314057041554305
-0.026072163979034547 0.04964783312999471 0.010718761950308797
-0.026096585050994592 0.050098050914070935 0.00951907349003367
-0.026142649116984523 0.050274219732349246 0.008058279595941131
-0.02619958354197733 0.05031503799139919 0.006463611263712921
-0.026284481287418848 0.050004894981699244 0.004527872833580582
-0.02498492694222282 0.06719992287796311 0.0193243622242244
-0.024939548698363286 0.06850220278986424 0.019004589794779814
-0.024896269360763834 0.06977542236416062 0.018662455410920098
-0.024853846863565794 0.0710353570778085 0.018312886245361037
-0.024810351879799603 0.07230624427145532 0.0179793872326926
-0.024766370720379453 0.07358066431021831 0.017654879780785837
-0.02472330828610378 0.07484106217459208 0.017322135795496463
-0.024687938747590253 0.07600327475732066 0.01689750787762956
-0.024709262753363236 0.07646003561886766 0.015774120831824334
-0.02479691114904072 0.07609710763473854 0.013826596563501325
-0.024896979227433762 0.0755859387685005 0.011718488879507438
-0.02500071905628374 0.07503538461672671 0.009557614288765115
-0.025108081328421985 0.0744463730005685 0.007344205968361106
-0.025191124585413626 0.07416180331614025 0.005428348112401782
-0.027073088135404676 0.04130772578321934 0.025441799736089177
-0.02701304776373245 0.04282049395258236 0.025198434178707152
-0.02696332570572504 0.044200245763411916 0.024845584992547687
-0.02665160750451506 0.04886215217856593 0.027386265102693652
-0.026547473394792905 0.05090972655227349 0.02765082648227779
-0.026479408622407594 0.05250125550925844 0.02752202201574505
-0.02645654250377052 0.05352606431602103 0.026894625216439483
-0.026533033972494156 0.05331494679569304 0.025159448887522806
-0.026596094861186467 0.05327462194714694 0.023569573671188504
-0.026669007691316613 0.05311594925205343 0.021864847076349503
-0.026832006521966354 0.05184946837527227 0.019140474534978247
-0.027334519308630893 0.046411146491354305 0.012569423707194993
-0.02742418545626078 0.04607338307782932 0.01064298101100769
-0.027399061614688393 0.047147799114537314 0.010015106423399756
-0.027346123584663047 0.04856099727034696 0.009705928599130886
-0.027325748685456286 0.04957387731854146 0.009028041420094779
-0.027368243342586262 0.04982019522269027 0.007630742975136162
-0.02745033059782798 0.04958796351225164 0.00577538553894047
-0.027538646138406262 0.04928484013685236 0.003842740958210633
-0.026137590239453428 0.0669945573143585 0.019127939670299243
-0.026066536289602496 0.06858215605838736 0.019081459409364676
-0.026021784360430705 0.06984923718844088 0.018733792414744987
-0.025974030044058228 0.07114986688405167 0.018424127346090724
-0.025928390651677565 0.07242249236549897 0.018092903675917815
-0.025882778034439 0.07369224684857684 0.017764406069263272
-0.025835266407050295 0.07498209421359353 0.017461287297345973
-0.025800707506198037 0.07611520921805448 0.01700852269965869
-0.025803092548699575 0.07680796535217066 0.016120980929589135
-0.025887579090676315 0.07652882096801283 0.01425921308733713
-0.026022997839984182 0.07565281474654117 0.011785851999780883
-0.026096389451176153 0.07551527582874168 0.010043503421215294
-0.02622805039601544 0.07469684963274392 0.007599125808504692
-0.026306047553292834 0.07451513145698102 0.00578980428020065
-0.028250787654164854 0.0413003605633373 0.025435420958293264
-0.028185027682142552 0.04285067005484161 0.025224706975849054
-0.0281269649860856 0.04430476291260854 0.024937061941723015
-0.028058400555253125 0.0458819310640281 0.024764146525069086
-0.02789189243224439 0.04862966320926937 0.025634183074077443
-0.02769359034539108 0.05174879919991887 0.026853000564074914
-0.02764117544225327 0.05311610132619493 0.02652820601866862
-0.02769110394959579 0.05326183449143229 0.02511172880862117
-0.027811700903817876 0.052570576293186344 0.022933687931815827
-0.028605143472101673 0.04390920580890456 0.013505849128660097
-0.028570616240961362 0.045083727711322685 0.012965548265241877
-0.02861060702757633 0.04537698204201357 0.01162062806684061
-0.028634670948059816 0.045859911503226214 0.01044610712777555
-0.028584245935757306 0.04721921475531343 0.010081313723492191
-0.028518012043023747 0.04876111389601118 0.00989241942507596
-0.028514367292519948 0.049567529958517875 0.009022095475903269
-0.028615604323636808 0.04915004247381116 0.0069996870374586795
-0.02871009311590482 0.048816532169450755 0.005045173003242032
-0.02719732394645043 0.06861151637629714 0.01910968741281499
-0.02714585543352223 0.06993355441548554 0.018815279262395457
-0.027096191677607254 0.07123206851722697 0.018503982544078035
-0.027049151230200116 0.07249780670283612 0.01816644827639191
-0.02700116133523389 0.07377189937783729 0.017842590784397983
-0.026950085564154794 0.07507868206093177 0.017556587261881085
-0.0269108693837166 0.07624753338026469 0.017139759686276235
-0.026899616754804692 0.07709625766799899 0.016408386968937316
-0.026982332636568452 0.07687820244455285 0.014609325525950512
-0.027131246579403658 0.07591526066184406 0.012050209348698881
-0.027196054905790044 0.07591006168323866 0.010443223524367884
-0.02735362165236241 0.0748633402799882 0.0077685698692386285
-0.027420430116842184 0.0748450891399311 0.006127352378250017
-0.02753889291158359 0.07425125835175922 0.0038863248432343678
-0.02943369251991977 0.04123313909833781 0.025377201905818103
-0.029357352026689883 0.04287444137380164 0.02524540347295101
-0.02929742855700587 0.04432202467140672 0.02495217009256584
-0.029230316161215537 0.04584945114283112 0.024735569471095453
-0.02917098755596193 0.04728384019638732 0.024443845520404184
-0.02910964935626536 0.04873825581978286 0.024176275977146
-0.029026413841982575 0.05044041483458894 0.024136714285586225
-0.028965451061237792 0.05188366716919762 0.023873477629005657
-0.029037139744628224 0.05181069659463977 0.022247373534391712
-0.029844081412046627 0.04337365888041733 0.013019614785248046
-0.029819068982215525 0.044425013614360354 0.012364356082296024
-0.029836255544231312 0.04499699462367096 0.011272008131808509
-0.0298312849708841 0.04582031585004942 0.010409590166284788
-0.0297707925166472 0.0472695536527416 0.010127981434998379
-0.029702465680351457 0.048803834962143855 0.009932231720101048
-0.0297714418069247 0.04879316929892841 0.008296694683519235
-0.02989112428426696 0.04821809887125461 0.006122113125710538
-0.028341277846554182 0.06849240949052965 0.01899517450292887
-0.02827071157292667 0.07000243380506094 0.01888184651078645
-0.028217470333543486 0.07131744784543459 0.018586924726437137
-0.028167334432347275 0.07259550068013926 0.018261846611233867
-0.028117738277791203 0.07386504079517109 0.017934015801810754
-0.02806745097168023 0.07513961203431552 0.017616704843054387
-0.028019355595564267 0.076387609549119 0.017278684983250858
-0.02800936848698434 0.07721706878847445 0.016528826745083436
-0.02808058364896856 0.07716153804700643 0.01489325393035451
-0.028196128476034484 0.07662795886304186 0.012768098068310474
-0.028300964181358426 0.0762164172133552 0.010753408075043824
-0.028413824082727763 0.07572348383522409 0.008643971273406048
-0.028526023165636544 0.07524348390525365 0.006534911878077643
-0.028643392656752618 0.07471360085192263 0.004361749124148162
-0.030626720770385165 0.04105805522684319 0.025225565420192497
-0.030523032048896566 0.04297040745176389 0.025328956060157892
-0.030463360734518805 0.0443883300940317 0.025010202877067678
-0.03039822707541493 0.04586388728840768 0.024748271063808447
-0.03033329034917971 0.04733404453519541 0.024488249751262348
-0.03027500336844232 0.048727564810323976 0.024166770511606928
-0.030208904357454974 0.05020426997363975 0.023925651344215038
-0.030162221897478827 0.05146427033307399 0.023496659421878896
-0.031138407517764054 0.04150336894774559 0.012937915408557876
-0.03111154414774791 0.04256715938444794 0.012287376847809062
-0.031040049646003993 0.044116919248096964 0.012083165969652088
-0.031026061378040377 0.045036693358994795 0.011308429892177563
-0.03098763731607858 0.0462213657897656 0.010779458230414263
-0.030931442607418667 0.04759684620972765 0.0104314042088125
-0.03090384200916164 0.0486601756425738 0.009798354228563344
-0.029391118061927568 0.07011338746784723 0.018989075626079377
-0.02933805929436768 0.07140358522937162 0.018670603324983603
-0.029285946740906607 0.07268113250598468 0.018345466246503517
-0.02923439516370529 0.07395017229528156 0.01801757851613156
-0.02918294978797088 0.07521554293923705 0.017691623321285488
-0.029130788694655785 0.07648590118282694 0.01737616907755768
-0.029124440396242304 0.07727273523874256 0.016584322142688512
-0.02918827387178637 0.07732421862422251 0.015056274913807954
-0.02931799450357895 0.07669042934406617 0.012831023606933722
-0.029420424804038923 0.07634752536157391 0.010886154951079585
-0.029533014281052764 0.0759040391632933 0.00882772950234284
-0.02965057004730531 0.0754145975214352 0.006709961876328718
-0.029768987400288403 0.07492205127766277 0.004576097620802744
-0.03169120427730168 0.04303252799110702 0.025383041158894448
-0.03162586869264436 0.04448637823606172 0.025096017937477344
-0.03156139302826018 0.04592793312439725 0.024804621261823867
-0.03149583421105124 0.04737796100390668 0.024527092561016872
-0.03142862122297387 0.04884245614271909 0.024268922415105976
-0.03136528007671803 0.05026267393012135 0.023977852088819918
-0.03133270648762583 0.05135418969361322 0.023397754619988664
-0.03238032901143192 0.04103559097334658 0.012515423887874577
-0.032288510257981115 0.04277403235139687 0.01247520130590507
-0.03224508737314206 0.04399926998529713 0.011975790454484325
-0.032222539548412865 0.04500345765255853 0.011277937838859498
-0.03218175183260635 0.04619747660730478 0.010757426548180682
-0.03212391237354736 0.047567616867175866 0.010404306697355314
-0.032133187803153614 0.04823575159080157 0.009402829213392139
-0.030512545652403033 0.0702056539162168 0.019078244844651926
-0.030459916580945517 0.07147036927633993 0.0187354810476546
-0.030405587755528464 0.07274992382873263 0.018412641118425277
-0.030351608572151197 0.07402333198156857 0.018089390044276732
-0.030298287607997302 0.07528748453506212 0.01776260568701782
-0.030240114071733715 0.0765982695749029 0.0174876142651339
-0.030228490721012427 0.07743569801514283 0.016746783976463786
-0.03029533101650399 0.07748123363354958 0.01521361847759567
-0.030474080665385695 0.07640396237918312 0.01254247046779755
-0.030554828162974217 0.0763189293850855 0.01085720167396309
-0.03071569411697338 0.07543543438254147 0.008350812427444565
-0.030799095761957794 0.0753334827195023 0.006626981219855332
-0.03089395107915253 0.07512135034838546 0.004781035830722646
-0.03286080331032266 0.043075450951354455 0.02542041195897582
-0.03279148276420544 0.04454536128683695 0.02514764194032676
-0.0327242046953601 0.0459910530889846 0.024860156840825265
-0.032659120156109014 0.047411114780598895 0.02455641611203263
-0.03258778211897834 0.048892306813465014 0.024313245574067666
-0.03252540031803108 0.05027859865079798 0.02399208547611703
-0.03249101946605346 0.05137621154717231 0.02341754083411529
-0.0331762733646833 0.045143220943568096 0.01622538750245134
-0.03334137848859096 0.044227138218875806 0.013794507098636832
-0.0334345974055687 0.044047451064097354 0.012019764244314668
-0.033422083403474155 0.044941584993851924 0.011221172770489285
-0.03337330424132509 0.04620115196666841 0.010760816241344062
-0.03330371075163903 0.04766807093621778 0.01049743461445879
-0.03333265769624242 0.048141795603982906 0.009315270765910877
-0.03164550455370798 0.07017733215787841 0.019050873925005873
-0.031581700758395004 0.07153310409650965 0.01879642513288049
-0.03152505746152019 0.07281548715412844 0.018476663848586927
-0.031467969419216486 0.07409963561068944 0.01816428757571137
-0.03141052320982068 0.07538467087932993 0.017858496167426907
-0.03135778690261252 0.07662104744581993 0.017510205073353935
-0.03134324522966747 0.07748267416108573 0.016793615788578797
-0.031419477990873135 0.07746083069359988 0.015193172955506207
-0.031593038006632684 0.07649819142426978 0.012637385860881478
-0.03167582241063285 0.07642216704536414 0.010961729728526326
-0.031844771770635244 0.07551790350992249 0.00843474454330978
-0.03193913566411421 0.07533990910699956 0.006633555541322944
-0.03204026898917251 0.07510118999643417 0.004760305157725908
-0.03403202652058363 0.043099190866153714 0.02544108111408161
-0.03395605372212895 0.04461067238153754 0.0252048044560923
-0.033889934557000206 0.04602080139192011 0.024886330686732905
-0.033818023750822594 0.04748546307246221 0.02462217490123525
-0.033747136529680394 0.04893680376380877 0.02435280865029127
-0.03368021610855186 0.050345819886567944 0.024052166983741352
-0.033634529495715264 0.05154260284790774 0.023567039637004517
-0.03426366689352789 0.04610169294616373 0.017091068338710158
-0.034353593912634366 0.045978875182314305 0.015384946408864952
-0.034592102553612725 0.044405600379947396 0.01234663847779699
-0.03459550284760095 0.045139128355750235 0.011402409321619011
-0.034526213893879866 0.04658112902771977 0.011111249860502437
-0.03447182631163506 0.04787518165060245 0.010689440566341968
-0.03451558604218937 0.048214775515409536 0.009383281588262127
-0.03278409666315045 0.07009719444612433 0.018973426480209277
-0.03270235800442138 0.07160224398911064 0.018863591451036388
-0.03264329724038605 0.0728882140357508 0.01854768179647187
-0.03258285735289885 0.07418463797840219 0.01824772353725318
-0.0325233921973998 0.07546916517148089 0.017941863841663297
-0.032470549785765634 0.07668857589947847 0.017577178760456003
-0.03245516286371926 0.0775531113547937 0.016863836515810693
-0.032532578160194385 0.07754556301946386 0.015278082629237466
-0.03266938950077303 0.07698504132378575 0.013127781476188816
-0.03278952709168714 0.0765864098606957 0.011128025398114305
-0.032923036750189434 0.07606843119679507 0.008995037924311222
-0.03304436113059491 0.07566970899094183 0.006970942209552078
-0.03317882886277538 0.0751544072484085 0.004815028259714194
-0.03519231112520157 0.04322696465217257 0.025552326960158023
-0.035120269446694274 0.04467505169928149 0.0252611514498709
-0.03505339614942923 0.04607037029651384 0.024929943496883544
-0.03497930755847271 0.04753202590581068 0.02466335833624944
-0.03490590331852204 0.04898395759954943 0.024394734007911867
-0.03483206598181902 0.05043687905093702 0.02413355450435245
-0.03476591584858692 0.05181340165546555 0.023810346155064555
-0.035317861228616576 0.0473118386825615 0.018184057957730537
-0.03539320146489844 0.047354043098710996 0.016633490677846863
-0.03559079194250014 0.046242676185974885 0.014023292817881838
-0.035738879501003504 0.045607140049902795 0.011831787452021625
-0.0357081129234545 0.0466627029006656 0.011186481391774306
-0.03564518729243048 0.04801918704343733 0.010822943551313524
-0.03567594272562696 0.04849454121879754 0.009643998203537618
-0.03390028496051912 0.07022911625424327 0.01910091985350404
-0.03382452534276744 0.07165287347904781 0.01891277576521222
-0.03375970846730585 0.0729728858967657 0.018630364025203405
-0.03369773833989719 0.07426403716017255 0.018325659573518005
-0.033637635397012165 0.07553546460437183 0.018007279281442634
-0.03357783248885498 0.0768015802425655 0.01768925467342869
-0.0335646769210301 0.07764072121142046 0.016951177107367932
-0.0336584527701027 0.07750869440224417 0.015241136985712112
-0.03379165065803496 0.07702370153622562 0.01316672334129998
-0.03390791527764583 0.0766973922111957 0.011240394938115794
-0.034044690471629065 0.07619121142139396 0.009119996199731473
-0.03416858359846384 0.07580671676243783 0.007111101795452379
-0.034314569556288366 0.07522936402092312 0.004892105987636619
-0.036368122121400934 0.0432014174571867 0.025530084482117688
-0.0362853059674756 0.04472762506059602 0.025307165480811966
-0.03621022197382794 0.046178470155347984 0.025025054199772245
-0.03613390561946474 0.04763763992803438 0.024756770669253136
-0.03606107837021924 0.04906133227918075 0.024463529225272507
-0.03598835284527553 0.05048106450633377 0.0241730469479417
-0.03592516071070448 0.05180988752111526 0.02380718887815325
-0.03639372575683432 0.04824457102762464 0.019026491034159265
-0.03644405979788875 0.048537230223104244 0.017707731505276048
-0.03654682303645831 0.04835186622048293 0.015948299170849223
-0.036871061512300046 0.04614723812750876 0.012327301343368846
-0.03689556882741234 0.04668835834037788 0.011210142195293815
-0.036815038499553414 0.048185823520327686 0.010977427105289872
-0.03681223687722247 0.048974609873588426 0.010091379186185745
-0.03502132706482747 0.07030918622350096 0.01917830202078774
-0.03494136938004825 0.07174765912305825 0.019004855750001104
-0.034876408304361214 0.07304952994998831 0.01870520709385326
-0.034813567372203875 0.07432990746602769 0.01839031605652197
-0.0347492584998654 0.07562066477027346 0.018091343416641814
-0.03468749636838883 0.07688627877704163 0.017773257359169903
-0.03467275586722054 0.07773531469769934 0.017045479856863277
-0.03477388235397064 0.07756595435252195 0.015298516814987562
-0.03495137840876067 0.07673153482708794 0.012872428948242975
-0.03505649808375523 0.07653723459625655 0.011078235727220054
-0.035173940311298675 0.07623981793248963 0.009169465023443901
-0.03533922656054219 0.07553097408001364 0.00682901605904912
-0.03545662466265578 0.0752446732008929 0.004907848433600426
-0.037582359069491186 0.0428296378989273 0.02520639612507103
-0.03744155604488149 0.04485627036081663 0.02541976018391101
-0.03737319778962006 0.046224391536305365 0.025065457771538235
-0.03729324732216938 0.04769399980443484 0.02480661927711314
-0.0372198794800473 0.0491013395525135 0.024499100454195233
-0.03714443119617163 0.05052435486145079 0.024211739363177
-0.03707086079465048 0.051927566953457904 0.02391292120061267
-0.03702158344730389 0.053111340205359625 0.023422100326770612
-0.037514090595600756 0.04947600122521273 0.018560061740678147
-0.037572764855060725 0.04970904348852323 0.017186961827824532
-0.03775835574075316 0.04882109635046178 0.014780436696985255
-0.038064284512905965 0.04687790465637354 0.011384951220644535
-0.03802111924103414 0.04802283093870596 0.010826321885062995
-0.03794012586471476 0.049498562307582594 0.010579655910880503
-0.03613619058159673 0.07043769775330272 0.019302499596474065
-0.036057719640647405 0.0718407819962898 0.01909532042947787
-0.03599209289889529 0.0731301249921692 0.01878390830598725
-0.03592892040465416 0.074395749672375 0.018454944957820796
-0.0358629333007257 0.07568295719334156 0.018152805279196438
-0.035796821522225804 0.07696857966388232 0.017854882098068348
-0.03578628462544735 0.07777751100904551 0.01708754653016331
-0.03588797267892792 0.07763103207526956 0.01536373077050307
-0.03610343784728872 0.07652272861054282 0.012662102143282283
-0.0361747124963967 0.07664428901693515 0.011186628244946706
-0.03638578374091708 0.07558752714224864 0.008505603606412282
-0.03648834099766613 0.07545393419709057 0.006750204060690934
-0.03658257385149317 0.07539446250193865 0.005061876027079637
-0.038606228401268886 0.0449033553710842 0.025460970628762125
-0.03853297286730605 0.04629549999796062 0.025128021952087132
-0.038454353112489195 0.04773156249924565 0.024839842375815768
-0.038376257813806255 0.04915999959813139 0.024551256176138514
-0.03829654627173564 0.05059942372158244 0.02427883496947425
-0.03822060969353987 0.05200304847696757 0.023980739683923447
-0.03816082432118398 0.053264147876153356 0.02356011452539003
-0.038591245603977004 0.05029645343175321 0.019304967826769437
-0.03862670767083909 0.05074309387983422 0.018130714471486176
-0.0386864059285549 0.05098310034104414 0.016763970611983647
-0.03921962463924624 0.047170503121527596 0.011654800003139676
-0.03918104307584117 0.048264076154972746 0.011049972863985569
-0.03910347082778646 0.049688518748285004 0.010756678355833993
-0.03904469991025919 0.05095003533797032 0.010317191366216338
-0.03727758630376668 0.07033586694023725 0.01920408727387718
-0.03717915357858845 0.07188571787613807 0.019138973663480996
-0.03711082687304696 0.07318037588935444 0.018832978438880932
-0.03704294118523692 0.07446869859234351 0.018526549603569142
-0.03697397592523828 0.07576334808204954 0.018232124267868355
-0.03690706189812209 0.07703830480584689 0.01792403442366408
-0.03688883751885049 0.07790793342627456 0.017217568051926257
-0.03700472228037542 0.07767022210170554 0.015403002875834348
-0.03719469178590057 0.07682714238325106 0.012968732990807197
-0.03729793423470191 0.07670373134190717 0.011246813597241834
-0.037450715229301317 0.07617845930004252 0.00910701817646642
-0.03759965358542971 0.07569054807702214 0.0069922610834015075
-0.03772479198633278 0.0754025114659943 0.0050701528340389435
-0.039770257047352445 0.04495314256381916 0.025504546112885773
-0.0396879104589196 0.04640345547720509 0.025223005623846884
-0.039610022845625176 0.04781291959423545 0.024911800228226977
-0.03953128312617904 0.04922663374276648 0.02461050180337937
-0.03945034124022642 0.05065592376654382 0.024329334023906912
-0.039370460537399794 0.052073232949138404 0.024043798889835655
-0.039292981242782486 0.05346738084188013 0.023743672262581783
-0.039246888752499605 0.05459594748625157 0.023208569935314505
-0.039687062685190455 0.051662780268411035 0.018970089881039265
-0.03971794126139636 0.052155854001735724 0.017839915319594446
-0.03978154720225002 0.0523780816986294 0.016457485028193608
-0.039969613585223024 0.05157061406833968 0.01411536067639213
-0.04013841534216676 0.05092964700897301 0.011913298561921914
-0.04013082502304696 0.05175114141429321 0.011067646760228034
-0.03836634151409374 0.07066859116324209 0.01952564225352965
-0.03830055993147473 0.07192823451945063 0.019180276720550782
-0.03823057549123515 0.07321944863307106 0.018871133096927062
-0.03815594541992555 0.07454557479453411 0.018602009155882115
-0.038084339830505715 0.07584448445265185 0.018312178797529277
-0.038019910128324085 0.07708294351227479 0.017968306442404436
-0.03800823678633394 0.07789544258626396 0.0172051157133139
-0.03811081841774801 0.07779243057029944 0.015525467087494693
-0.03826484616510308 0.07728223721788297 0.013427142275514004
-0.038396290547486917 0.07695788440895857 0.011504143242324683
-0.038554440247505664 0.07642613301959206 0.00935908538275343
-0.03869221826983482 0.07606197794533864 0.007372235387109072
-0.038848146357048766 0.07555938396182443 0.005231464036476063
-0.04095575969791047 0.044822759199752815 0.02539043037809785
-0.040839162721832925 0.04653560666307155 0.025339277653472436
-0.04076024223855615 0.04793443470108205 0.025019276564525794
-0.04068151796392504 0.0493287545076358 0.024701299180480196
-0.040605900438793356 0.05069475637610632 0.02436404216734267
-0.04052379688284126 0.05211094475990646 0.024077682165139558
-0.04044277338224073 0.05351531767127221 0.02378696833940408
-0.04038232471910342 0.05474945904991313 0.023347946437641043
-0.04035163573586165 0.055740006419274124 0.02269127475073507
-0.040746883690395835 0.05328257592125085 0.018873628136232334
-0.04077719854424028 0.053786144435715944 0.01775606978805161
-0.04086939724824226 0.05379231081739677 0.01617502622839695
-0.04120950104828924 0.05180937598260832 0.012733127078557394
-0.04132319983356986 0.05165446053471834 0.010977078728238887
-0.04128916939341991 0.05268563929221248 0.01032901819585108
-0.041300767008981026 0.05335135562008564 0.009337695258439804
-0.03952487728699918 0.0704304260350449 0.019295472271362912
-0.03942481052924781 0.0719458794674725 0.01919741807079295
-0.039352168262155485 0.07324177144900285 0.018892931438553084
-0.039267487659234206 0.07462954005738093 0.01868442712499363
-0.03919482068472987 0.07592006812253099 0.018386754670592642
-0.03912412376466832 0.07719252732176035 0.018076989927109044
-0.039106714435281964 0.07804682380141004 0.017356031593555254
-0.03921391769857227 0.07793097178616493 0.015664298212406946
-0.03938095004112365 0.07735467490089398 0.013500107604561828
-0.03952692118133411 0.07694759969763226 0.011493730089687959
-0.03966626008332737 0.07659712075412933 0.009533106301652994
-0.03980451253143479 0.07626013283286948 0.007574948710470764
-0.03998686953950991 0.07558913137417095 0.005262053234946662
-0.04200902498280776 0.04651134165503801 0.02531792841113084
-0.04192124478200368 0.04796301361082861 0.025044553791049806
-0.04183616735972179 0.049389996938524916 0.024755750944418342
-0.041750547960951644 0.050818254553105346 0.02447442323139859
-0.0416690312258977 0.052210883491761007 0.02416747488086307
-0.041588931823074035 0.053589374492851505 0.023853855688690084
-0.04151341246096289 0.05492880758546759 0.023510780875681092
-0.041446247055363906 0.05619966902968032 0.023110797686044293
-0.04140042835600824 0.057300184453607905 0.02255958923071072
-0.04139672371716432 0.058068478718837746 0.02170544904280952
-0.04179303669752304 0.05570374381472826 0.017947055974653348
-0.04191409592129526 0.05550400583647813 0.016176190489551767
-0.042548819497202996 0.051303967730230826 0.010648746299015133
