# .PCD v0.7 - Point Cloud Data file format
VERSION 0.7
FIELDS x y z
SIZE 4 4 4
TYPE F F F
COUNT 1 1 1
WIDTH 766
HEIGHT 1
VIEWPOINT 0 0 0 1 0 0 0
POINTS 766
DATA ascii
-0.07681670784730803 -0.03990312119333106 0.03500203671270613
-0.07705708222667454 -0.0395799095925734 0.033211480349395694
-0.07729875847506104 -0.03925559036957038 0.0314104601515639
-0.07754216395985412 -0.03892830511579365 0.02959732257533093
-0.0777868973677134 -0.038599881277939785 0.0277735222356566
-0.07803339165463054 -0.038268444842534055 0.025937373600742164
-0.07828124059979577 -0.03793583799739836 0.024090358137639045
-0.07853088285921335 -0.03760017087169537 0.022230757619044084
-0.07878190721536976 -0.03726330061798233 0.020360080905316102
-0.07903454151892336 -0.03692426984330083 0.018477406586431266
-0.07928901932360105 -0.036582105112422825 0.016581780749564123
-0.0795449217459309 -0.03623868644991779 0.01467475438557092
-0.07980270219804741 -0.035892083202774594 0.012754524304572579
-0.08006193656721151 -0.03554419094084765 0.01082267030390377
-0.08032308437983149 -0.035193062221825056 0.0088773538591434
-0.08058571619690143 -0.03484060840208886 0.006920184164594223
-0.06865240453361966 -0.03634997962905784 0.10357547853071314
-0.06831747832110047 -0.03871684203906606 0.10383298035041191
-0.06803222056066871 -0.04082725310287061 0.10393961929913303
-0.06778410188540077 -0.04274558384967719 0.10393383508877452
-0.06756719186909696 -0.044502648223768926 0.10383341007844032
-0.06737243714000149 -0.04614464102721594 0.10366649860640667
-0.06718770218088431 -0.04773277989895236 0.10347167868005483
-0.0670136222009567 -0.04926419846841512 0.1032465282658481
-0.06684720721729945 -0.05075407473296323 0.10300043907784506
-0.06668960267979894 -0.05219695388889112 0.10272938436910312
-0.06654022219133927 -0.05359600044201979 0.10243498225012224
-0.06639771837915796 -0.0549581156030744 0.10212139152704558
-0.06625937907633186 -0.05629687709359227 0.1017973577146567
-0.06612854352240191 -0.05759597567543007 0.10145162733321611
-0.06598825569493856 -0.05893890884781405 0.1011405302830766
-0.06582597273352397 -0.06038687299395945 0.10090641368786887
-0.06563716816045904 -0.061961356618663366 0.10076527021168813
-0.0654209479366967 -0.06366593720783725 0.10072105325092426
-0.07077214669615936 -0.03824360552512296 0.08183674697093968
-0.07054063065438218 -0.040069054633858014 0.08178906434903394
-0.07032490140410087 -0.04181332897208806 0.08169302980149834
-0.07012347141230278 -0.043484099529615405 0.08155317292349193
-0.06993627875209113 -0.04508208976210526 0.08136920068785217
-0.06976190524529904 -0.04661456082605436 0.08114549368791235
-0.06960255489117327 -0.04807128664127647 0.08087398251359015
-0.06945480036958189 -0.049469172428553865 0.0805660199056927
-0.06931968313020234 -0.050803570993675495 0.08021757248426994
-0.06919537342221983 -0.052083608342790744 0.07983458105744215
-0.06908091765691053 -0.053314156374347665 0.07942000370598423
-0.08153764943437074 0.004526438629896101 0.03386519237989033
-0.08134613453499424 0.002811732675415679 0.03358184830340849
-0.08149342765935531 0.0027044690785863468 0.03210028393043374
-0.0816412551574594 0.002596816333577223 0.030613344499357875
-0.0817896199426215 0.0024887723188153354 0.02912100070627266
-0.08183109842458698 0.0018750480346018117 0.028008374556690585
-0.08095286653984082 -0.0030563123813384663 0.03020300631049533
-0.08068881963034792 -0.005093595959814068 0.03020185183932772
-0.08042671739178156 -0.00711656801884103 0.030199880214759445
-0.0794308699957966 -0.012556544780429946 0.03286933987598045
-0.07565846164130345 -0.030899252801759147 0.04568056530941572
-0.07541495477718745 -0.03277834256299317 0.04567916074470174
-0.07517301033876922 -0.03464537542333257 0.0456777651921515
-0.0749326133365281 -0.0365004670536625 0.045676378565305986
-0.07469374897207304 -0.03834373164996191 0.045675000778808816
-0.07445640263510725 -0.04017528195673076 0.04567363174838418
-0.07422036592760631 -0.04199612055219126 0.04567299197930197
-0.07401455167876154 -0.04367372416865123 0.04556528633650686
-0.07424093269375738 -0.04336996373848978 0.04384668531623542
-0.07446889804900922 -0.043063448000126625 0.042116806688323294
-0.07469807122639058 -0.04275593908008318 0.040377010911308464
-0.07492865928900125 -0.04244653164019224 0.03862647386265472
-0.07516087429931534 -0.04213430585852418 0.036864342732964184
-0.07539433296397961 -0.04182104461709518 0.03509201551467089
-0.07562944785543617 -0.04150492177219012 0.033307876676191284
-0.0758658310621712 -0.04118773430204725 0.03151334985503823
-0.07610390049613965 -0.04086764094860845 0.0297067884581389
-0.07634326354488989 -0.04054645299639653 0.027889642278526194
-0.07658434356521088 -0.04022231383173647 0.026060232981198084
-0.07682674315897657 -0.03989704926000598 0.024220037037783915
-0.07707089123594471 -0.03956878706496103 0.022367343671820306
-0.07731638552556445 -0.039239367792025304 0.02050365656961145
-0.07756344876109132 -0.038907843211397286 0.01862805870458989
-0.07781230923226061 -0.03857324930707401 0.016739600795302623
-0.07806255719375384 -0.03823744915098781 0.014839828380634523
-0.07831463592889826 -0.03789853040662794 0.01292694639388714
-0.07856813059389116 -0.037558371454950945 0.011002528988191873
-0.07882349042702136 -0.03721504344539406 0.009064746047041328
-0.07908029539172577 -0.036870440304338004 0.007115200922549858
-0.07933900080327519 -0.036522616392432594 0.005152027654361013
-0.07959918133577168 -0.03617348142312676 0.0031768593931822964
-0.06771915585304406 -0.03571946151725702 0.1031793165571182
-0.06739533112847412 -0.038057109699983216 0.10341610661571426
-0.06712047514100514 -0.04013809696674586 0.10350168228672707
-0.06687774961337659 -0.042049747801815196 0.10348914854697408
-0.06666536983760091 -0.04380211162728659 0.10338318803673627
-0.06647582054481627 -0.04543426800270545 0.10320737764297067
-0.06629441816390177 -0.047021325773737965 0.10300926760915916
-0.06612322728057274 -0.04855308717949791 0.10278173960345308
-0.06596038592174808 -0.05003925956164057 0.1025306051607475
-0.06580624196053884 -0.05147834184840461 0.10225440602191524
-0.06565852067966035 -0.05288203369446848 0.10196043207138847
-0.0655185221200781 -0.05424400488889192 0.10164409233324259
-0.06538355266194276 -0.05557797791228902 0.10131417616182395
-0.06525446756160529 -0.05687982971585348 0.10096761395969861
-0.06511178777490434 -0.05824689839923264 0.10067022676484333
-0.06494709512403994 -0.059720679377402275 0.10045114042154005
-0.06475622854495561 -0.06132118104828943 0.10032535064654677
-0.0645366767810647 -0.06306006516939167 0.10030240042753844
-0.069831612511938 -0.03751000604981253 0.08132703182153364
-0.06960303526815738 -0.03934002045101059 0.08127972367198422
-0.06939178867808288 -0.041080043061638316 0.0811778933071991
-0.06919448889589393 -0.042747236671097255 0.0810326728867223
-0.06901295305947835 -0.04433310368910287 0.08083722765691584
-0.06884270457855551 -0.045860043523725746 0.08060664906921938
-0.06868763278939602 -0.04730938702302484 0.08032688175585911
-0.06854283362891993 -0.04870551097171433 0.08001465080007328
-0.06841052475654245 -0.05003793056050776 0.07966175111852758
-0.06828973124381284 -0.051311757746839326 0.07927119083350437
-0.0803339667720149 0.004771387338218469 0.033683461017965655
-0.08026202338226505 0.0036179812281676993 0.032980429177880355
-0.08040742653000332 0.00351084450692718 0.031495505629276555
-0.08055358951770793 0.003404432113809752 0.030004352694128766
-0.08070028485733312 0.0032976321475844395 0.02850776871146876
-0.07996912961243628 -0.0010056513716729665 0.030204168362297668
-0.0797074378238335 -0.00305631238138504 0.030203006310531022
-0.07944767890391655 -0.005092522173150871 0.030201024492729267
-0.07821323176265797 -0.0117502813362092 0.03378936826690704
-0.07806257134637865 -0.013249480030692706 0.0334090085626651
-0.07449448530835331 -0.030899252801792232 0.045680565309441645
-0.07425472470368581 -0.03277834256302353 0.04567916074472561
-0.07401650248739765 -0.03464537542336027 0.045677765192173425
-0.07377980390057617 -0.03650046705368759 0.04567637856532597
-0.0735446143724979 -0.038343731649984336 0.0456750007788268
-0.07331091951763984 -0.04017528195675052 0.045673631748400056
-0.07307870513274367 -0.04199522929000765 0.045672271390843455
-0.07284795719394124 -0.04380368355983749 0.04567091962399972
-0.07263224302390922 -0.04553764859507958 0.0456180103245829
-0.07285365118838918 -0.04524058861375985 0.04390533280368675
-0.07307660431506327 -0.04494082847332875 0.04218145199973439
-0.07330073408006983 -0.04464011503783982 0.04044772414227815
-0.07352624291014587 -0.04433755131980455 0.03870332869887644
-0.07375333810377435 -0.0440322260722259 0.036947416656360255
-0.07398164473022646 -0.04372590660933323 0.035181381543475054
-0.07421156616756178 -0.043416783501901146 0.03340361448502266
-0.0744427229819468 -0.0431066379518103 0.03161553449261301
-0.0746755237529432 -0.042793645655464896 0.029815501865028016
-0.07490958446314373 -0.04247960190834771 0.02800496160242555
-0.07514531899583139 -0.04216266729641033 0.026182242504769915
-0.07538233866765878 -0.04184465141908228 0.02434881607892475
-0.07562085826206341 -0.04152462305398158 0.022503787250325258
-0.07586109787094862 -0.04120163568820051 0.02064622961590451
-0.0761026616543712 -0.04087752077652396 0.01877765543844756
-0.07634597721898236 -0.040550400064537084 0.016896311707439104
-0.07659064384433821 -0.04022211985676888 0.015003738544694833
-0.07683709482056823 -0.03989078591757317 0.013098148933854192
-0.07708492445727617 -0.039558259627912984 0.011181111420577983
-0.07733457184326722 -0.03922263050861574 0.00925080421995872
-0.07758562622658034 -0.03888577524873804 0.007308824880563114
-0.07783853261305684 -0.03854576685694061 0.005353316064273195
-0.07809287509533334 -0.03820449756714295 0.003385904916302418
-0.06678396454202619 -0.035079048025574155 0.10277693719951767
-0.06646964325211673 -0.03739484424733386 0.1029976322492902
-0.06620234298358715 -0.039460207314300555 0.10307090476974493
-0.06596784102257447 -0.04135024121960451 0.10304211628417936
-0.0657616928860761 -0.04308892416945648 0.1029248355181179
-0.06557525834844277 -0.04472169867729936 0.10274683718900163
-0.06539733514895289 -0.04630684594479767 0.10254488997590827
-0.06522949381196107 -0.047836556260676066 0.10231340862275529
-0.06507050985688831 -0.049317417793994234 0.10205615280043961
-0.06491903525037983 -0.05075660110261199 0.10177735970593277
-0.06477359873997163 -0.052161851125806735 0.10148175044111435
-0.06463548994576712 -0.05352677852432158 0.10116471069285429
-0.06450401471873247 -0.05485513910649614 0.1008283467357873
-0.06437563269140649 -0.05616511157696974 0.1004845655910116
-0.06422932060316343 -0.05756331841054135 0.10020565274817295
-0.06406174756788707 -0.05906605486704669 0.10000377342245548
-0.06387028674353581 -0.06068592714362997 0.09988881318022497
-0.06364551189376033 -0.062469679588598614 0.09989444862484523
-0.06888706736812546 -0.036773278099319906 0.08081514296392778
-0.06866350054917639 -0.03859757026071675 0.08076100988393797
-0.06845533762662169 -0.040340189629126 0.08065814310050834
-0.06826265048298277 -0.042001248596467866 0.0805057270435634
-0.06808552549148969 -0.04358079024466932 0.08030289133522006
-0.06791953894812805 -0.045101300225558916 0.0800647864215043
-0.06776853892451651 -0.04654401337708247 0.07977728638711046
-0.06762684760681546 -0.04793752145898611 0.07946015680673951
-0.06749733167488389 -0.04926793451792333 0.07910276777142985
-0.06737903002695954 -0.05054036778688048 0.07870813683760916
-0.07917815463657657 0.005258864086209569 0.03332179422688192
-0.07917337196932431 0.004427606351868563 0.032376491307555266
-0.07931710379965505 0.004321714677390898 0.030887356289754753
-0.07946135844241217 0.004215437830853597 0.02939280466874039
-0.0795743798647194 0.003954327680691816 0.028009899120937765
-0.0787196119622319 -0.0010056513717218163 0.030204168362334916
-0.07846200910782662 -0.0030563123814310034 0.030203006310566216
-0.07703855653169855 -0.01073565182978814 0.03454902422667
-0.0768900676680727 -0.012237727520781505 0.03416696656351059
-0.07368404877192489 -0.028449806816563894 0.04524725808251334
-0.07333050897540351 -0.030899252801824872 0.04568056530946718
-0.07309449463018448 -0.03277834256305345 0.04567916074474915
-0.07285999463602635 -0.03464537542338758 0.045677765192195074
-0.07262699446462449 -0.03650046705371229 0.04567637856534562
-0.07239547977292297 -0.038343731650006485 0.04567500077884451
-0.07216543640017258 -0.04017528195677017 0.04567363174841588
-0.07193685036504097 -0.041995229290024694 0.04567227139085722
-0.07170970786278286 -0.04380368355985198 0.045670919624011486
-0.07148399526245817 -0.04560075329253366 0.04566957636676139
-0.07125951462252221 -0.04738741456751355 0.045668955354928764
-0.07147564219961423 -0.04709871033076368 0.04396358829439617
-0.07169345824742894 -0.04680649808121229 0.04224639098473537
-0.07191279378435038 -0.04651162023818178 0.04051796183897982
-0.07213328645537541 -0.04621581522808932 0.0387796651149247
-0.0723553255934085 -0.04591730455959331 0.03702992848414166
-0.07257854452989441 -0.045617840143592825 0.03527014103753434
-0.0728033375671131 -0.04531562907616943 0.033498700500776246
-0.07302933364653695 -0.045012436950438606 0.03171702128688453
-0.07325693213646507 -0.044706456224128666 0.029923470528279872
-0.07348575751019028 -0.04439946637448072 0.028119488461067377
-0.07371621430121778 -0.04408964498988127 0.02630341095915556
-0.07394792243461515 -0.043778785637894446 0.024476704595034315
-0.0741810917919284 -0.04346596590967994 0.02263847844957806
-0.0744159374250034 -0.04315024834830239 0.020787810509877602
-0.0746520722833384 -0.04283344804831318 0.018926207839443654
-0.07488991426369042 -0.042513704383663975 0.017051925137244295
-0.07512907155884008 -0.04219284707419563 0.015166497142657831
-0.07536996759916434 -0.04186899977273756 0.013268144817765837
-0.07561220573381515 -0.04154400704657507 0.011358431137194203
-0.07585621503852055 -0.041215976570915136 0.009435542572331646
-0.07610159392980005 -0.04088676798749041 0.00750107090649943
-0.07634877724351835 -0.04055447273121976 0.005553167344970911
-0.07659735837240397 -0.04022096575027001 0.003593453067702923
-0.07684756348074337 -0.03988527996965219 0.001620935985410521
-0.06584403754042423 -0.034443046842480673 0.10237733014749595
-0.06554293155090675 -0.03671662492069361 0.10256907689904973
-0.06528356251074867 -0.03876386900121337 0.10262840371015627
-0.06505606621419119 -0.04063799164512849 0.10258694038298002
-0.06485467390682106 -0.04237028480898497 0.10246297916151206
-0.06467119514909407 -0.04400449611652835 0.10228330223015819
-0.06449673597705219 -0.045587714237250776 0.10207748884459625
-0.06433207562553565 -0.047116150975649806 0.10184254532185127
-0.06417555092322388 -0.048598778007640064 0.10158380503929712
-0.0640275033597557 -0.05003407238626567 0.10129979256796276
-0.06388510887354129 -0.05143695560628753 0.10099993626765186
-0.06374919679314744 -0.05280330759594831 0.1006811552945184
-0.06362028615448913 -0.05413064676560603 0.10034140594716084
-0.06349159818567146 -0.05545416415663573 0.10000406569471548
-0.06334401953500525 -0.05687227881192186 0.09973600903811705
-0.06317457536095118 -0.05839968940516199 0.09954838271792005
-0.06297981413310956 -0.060053415766539164 0.09945416033992022
-0.06275119758471806 -0.061876367311927416 0.09948447449827039
-0.06793473715429464 -0.03605254617774395 0.08031436837036318
-0.06772006702080224 -0.03785104241232978 0.08023944723477824
-0.06751549852512018 -0.039593703823462 0.0801337336232581
-0.0673273866889506 -0.041248584634830554 0.0799740655339913
-0.06715380217512164 -0.04282597057349774 0.07976677494700221
-0.06699171196907769 -0.04434164706354227 0.07952227398718043
-0.0668435952239518 -0.045783463804033975 0.07923115506253822
-0.06670680777325784 -0.04716516832085921 0.07890251224424738
-0.0665805600368262 -0.048491080196478464 0.07853880561475293
-0.06646522483077538 -0.04975965791022585 0.07813828003559856
-0.07808847978850074 0.006091627130545174 0.03270395401354009
-0.07807992665594232 0.005239510172653894 0.03177085364874277
-0.07822197101058868 0.005134873227255976 0.030277490674961993
-0.07836453312625195 0.005029854873295658 0.028778684294887225
-0.0777252783659996 0.0010585192636937135 0.030205338069646703
-0.07747009431202799 -0.0010056513717699445 0.03020416836237161
-0.0759487891083266 -0.009294836539134155 0.034983962615926956
-0.07574788086730466 -0.011068781367137293 0.034805698665836604
-0.0755701625825194 -0.012724928479609376 0.03454437489694212
-0.07240030552492384 -0.02900798897006096 0.045681978973959314
-0.07216653264245401 -0.030899252801856958 0.04568056530949227
-0.07193426455668342 -0.032778342563082985 0.04567916074477241
-0.07170348678465532 -0.03464537542341445 0.04567776519221628
-0.07147418502867306 -0.03650046705373655 0.04567637856536494
-0.07124634517334827 -0.038343731650028245 0.045675000778861885
-0.07101995328270554 -0.04017528195678938 0.045673631748431365
-0.07079499559733841 -0.041995229290041514 0.04567227139087082
-0.0705714585316246 -0.04380368355986625 0.04567091962402309
-0.07034932867098811 -0.04560075329254554 0.0456695763667711
-0.07012859276921869 -0.047386545652257694 0.04566824153901017
-0.06990905732641368 -0.04916202807990655 0.045667626648255966
-0.07010681307156542 -0.048944453827643064 0.044021455705404444
-0.07031974394901842 -0.048658823804171636 0.042310171237889604
-0.07053415586858824 -0.048370582065771106 0.04058772878217026
-0.07074969452932056 -0.04808145199625791 0.03885548833862773
-0.07096674043524365 -0.047789671215902496 0.03711188390196157
-0.07118493508093517 -0.04749697639451611 0.03535830015086544
-0.07140466380966898 -0.04720159096708665 0.03359314135708735
-0.07162556383729322 -0.046905265083289904 0.031817817362131406
-0.07184802544009548 -0.04660620777189639 0.03003070207459657
-0.0720716814792015 -0.04630618286039251 0.028233230995119873
-0.07229692726013888 -0.04600338474532212 0.026423747011313725
-0.0725233912115367 -0.045699591134116424 0.02460371179144466
-0.07275127837901484 -0.045393888327442344 0.022772238533075473
-0.07298079884284425 -0.04508534781633733 0.0209284095720651
-0.07321157423404138 -0.04477576851185516 0.01907372680524816
-0.07344401286796405 -0.04446330721156494 0.017206452573371944
-0.07367773174058073 -0.044149777230803156 0.015328116267691594
-0.0739131445538272 -0.04383331990172329 0.013436946757811818
-0.0741498635841997 -0.04351576316165279 0.011534501483420112
-0.07438830802855985 -0.04319523262649644 0.009618975097929194
-0.07462808535748024 -0.04287357107801226 0.007691953657363804
-0.07486941344315166 -0.04254982918766964 0.0057524692307174274
-0.0751125156543698 -0.04222304172303254 0.003799519878254165
-0.07535699208720813 -0.041895074155216094 0.001834735672498533
-0.06490303881660933 -0.03379195988475475 0.10196824452516873
-0.0646103828259685 -0.03604751524603961 0.1021462777842101
-0.0643610500691617 -0.03806470225097275 0.10218410526786753
-0.064140636455596 -0.03992194064056204 0.1021293351095083
-0.06394457891377966 -0.04164450526409946 0.10199653393914082
-0.06376451099034727 -0.043277743484937126 0.10181359496808165
-0.0635934956099591 -0.04485904919516842 0.1016038915029096
-0.0634316973436192 -0.046387835183783976 0.10136651164332827
-0.06327717975004479 -0.047874649188584195 0.10110784944519477
-0.06313193610891611 -0.04930918496766612 0.10082066640727305
-0.06299256831421826 -0.05070966214819472 0.10051652826340857
-0.06285959604981523 -0.0520735304031516 0.10019338489861215
-0.06273279461429022 -0.053402172571192896 0.0998517889026442
-0.06260268020537146 -0.054745515011088375 0.09952511910709602
-0.06245407286356044 -0.05618289389806275 0.0992674898834287
-0.06228243590695779 -0.05773741852415093 0.09909579022874163
-0.06208424905021304 -0.059426709297877744 0.09902349655029175
-0.061851413363489045 -0.061292054812282504 0.09908071914698602
-0.06698281075993297 -0.03530608742391306 0.07979571841484986
-0.06608476551090639 -0.040664321041579354 0.08220494799656
-0.06613822793439911 -0.04108428586027957 0.08118087389142542
-0.0661917769298838 -0.04150493073028766 0.08015514149754238
-0.06621809038112568 -0.042066939289036376 0.0792276672285479
-0.06606019526201778 -0.04357604667822096 0.07897551429535293
-0.06591543883653084 -0.045014452517189274 0.07867894759628183
-0.06578316632666263 -0.04638592288947191 0.07833989139607711
-0.06565967240457098 -0.0477097749046968 0.07797161224887611
-0.06554727927915176 -0.048974451431197275 0.0775651410675422
-0.07715348697802894 0.007735108170663585 0.03148462916074235
-0.07698211143458007 0.006055947673901552 0.03116183410213691
-0.07712245365311159 0.005952578702797251 0.02966421488435128
-0.07726353249601732 0.005849959496064372 0.028160275136818458
-0.07647164484395733 0.0010585192636433094 0.030205338069684895
-0.0762205766618245 -0.001005651371817462 0.0302041683624078
-0.07467837361984413 -0.009522077526728512 0.03515811105312333
-0.0744809458232891 -0.01129434581921046 0.034979494810401024
-0.07216004440412431 -0.023638148816592375 0.042998258710432835
-0.0712325586616117 -0.029007988970095322 0.04568197897398607
-0.07100255630950483 -0.030899252801888544 0.04568056530951703
-0.07077403448318266 -0.03277834256311207 0.04567916074479533
-0.07054697893328454 -0.03464537542344104 0.04567776519223732
-0.07032137559272185 -0.03650046705376059 0.04567637856538409
-0.07009721057377376 -0.03834373165004973 0.045675000778879093
-0.06987447016523866 -0.04017528195680842 0.04567363174844663
-0.06965314082963603 -0.041995229290058056 0.0456722713908842
-0.06943320920046647 -0.043803683559880346 0.04567091962403452
-0.06921466207951815 -0.04560075329255725 0.04566957636678065
-0.0689974864342294 -0.047386545652266965 0.04566824153901777
-0.06878166939509511 -0.04916116646240076 0.045666915061648994
-0.06856702184896865 -0.050925574620196035 0.04566630622773887
-0.0687470723787671 -0.05077794238346256 0.04407893890173176
-0.06895517813126788 -0.050498813653438945 0.04237352673573752
-0.069164727124251 -0.05021712620342744 0.04065702968873042
-0.06937537301495618 -0.04993458853180588 0.03893080352776396
-0.06958748759116404 -0.04964945419043909 0.0371932885190438
-0.06980072041291979 -0.04936344476816845 0.03544586495451796
-0.0700154479794806 -0.04907479985516694 0.033686943597871555
-0.07023131568154953 -0.04878525432081865 0.03191792974599078
-0.07044870482081945 -0.04849303357740775 0.030137204026893794
-0.0706672565448266 -0.04819988596891911 0.028346197234130788
-0.07088716850667555 -0.047904913847402975 0.02654404344525635
-0.07110864316826222 -0.047607205213219095 0.024729846747043926
-0.07133131517110358 -0.047308528990470944 0.02290507712272044
-0.07155557823562587 -0.04700707417302563 0.02106803698034837
-0.07178106256797596 -0.04670462366279998 0.019220223082438648
-0.07200816702858484 -0.046399351479266826 0.017359905344673188
-0.07223651730814638 -0.04609305471100733 0.015488607844232505
-0.07246651750938596 -0.045783892163468454 0.013604567288235558
-0.07269778872555369 -0.045473675325243934 0.011709335617242855
-0.07293074040671484 -0.04516054754246507 0.009801115593381482
-0.07316498896472239 -0.0448463349217032 0.007881487583021485
-0.07340074715229762 -0.04453009733795432 0.005949488409177084
-0.07363823307165968 -0.044210879020567084 0.004004121150798234
-0.07387705595175517 -0.043890528417197594 0.002047009894326768
-0.0642964170064548 -0.0306011521465005 0.1012171119115306
-0.06396117115306034 -0.03312392354611404 0.10154850940670687
-0.06367731688838421 -0.035358925776178385 0.10171116971542335
-0.06343432237534037 -0.03736519907954505 0.10173959304051342
-0.06322152214396637 -0.03920205912464125 0.10166928187885949
-0.06303044606568908 -0.04091644904193198 0.10152862553797298
-0.06285378045912428 -0.042548684619968524 0.10134239716504484
-0.06268619593896885 -0.04412804073326482 0.10112877105069382
-0.06252770443791408 -0.04565474485957294 0.10088735728800424
-0.06237609697578198 -0.047140984104693195 0.10062562585225618
-0.06223305215552812 -0.0485779588007349 0.10033735054750206
-0.06209625087278816 -0.04997838231179008 0.10003047064481435
-0.06196590812361473 -0.05134130450566843 0.09970397783103935
-0.0618413628710033 -0.05267046416423543 0.09935999810152862
-0.06171077939078844 -0.05402914634226069 0.09904095521362588
-0.061558476788069465 -0.05550058712165151 0.09880378116614214
-0.0613852114057084 -0.0570800724465953 0.09864656332473165
-0.0611834879704662 -0.05880664656603196 0.09859739824230004
-0.06094834892891945 -0.060705612168975076 0.09867549188314931
-0.06602694595287398 -0.03455553225184299 0.07927422221079758
-0.0658187290158259 -0.03635955141502095 0.07919741511576872
-0.06488926261923106 -0.04195015349566844 0.08178914961562125
-0.0649415063612998 -0.042371275504460515 0.08076710406506679
-0.06527884402448571 -0.04130110966031281 0.0786837309345928
-0.0651247811311689 -0.04280528672746364 0.07842506985824343
-0.0649838452293982 -0.04423772700264872 0.07812120073911796
-0.06485426620384299 -0.045608061673501954 0.07777826996146872
-0.06473575206113891 -0.04691817175467855 0.07739694308968784
-0.06462483861844968 -0.048186361578415826 0.07698989746344245
-0.07587923023612403 0.006873568876622771 0.03055193157632724
-0.07601807351171706 0.006772606323646069 0.029049197494176948
-0.0761574258276226 0.006671273612226747 0.027540953946588786
-0.07521801132191551 0.0010585192635936824 0.03020533806972253
-0.07367896234363575 -0.007589556936070163 0.035222706229704304
-0.07341978206989959 -0.009696770759416884 0.03529198898502067
-0.07321513749912419 -0.011521712003197904 0.03515467917929499
-0.07029251407287836 -0.02710443237493604 0.04568340182694686
-0.0700648117982999 -0.029007988970129073 0.04568197897401238
-0.06983857997655595 -0.03089925280191974 0.04568056530954151
-0.06961380440968216 -0.03277834256314077 0.04567916074481787
-0.06939047108191401 -0.034645375423467184 0.045677765192258024
-0.06916856615677086 -0.036500467053784236 0.04567637856540291
-0.06894807597419947 -0.03834373165007088 0.045675000778896024
-0.06872898704777197 -0.04017528195682718 0.04567363174846173
-0.06851128606193381 -0.04199522929007432 0.04567227139089736
-0.06829495986930847 -0.04380368355989428 0.04567091962404585
-0.06807999548804833 -0.04560075329256874 0.04566957636679003
-0.06786638009924018 -0.047386545652276124 0.04566824153902532
-0.06765410104435446 -0.049161166462407646 0.045666915061654656
-0.06744314582274746 -0.050924720226457276 0.04566559685656235
-0.0672333296539483 -0.05267815739155213 0.045664994016109184
-0.06739632990577694 -0.05259929764566851 0.04413604169724822
-0.06759966970871627 -0.05232659044926857 0.042436461707288486
-0.06780441558390832 -0.05205137666046655 0.04072586921273874
-0.06801022905226255 -0.0517753500472769 0.0390056157712203
-0.06821747329622634 -0.05149677991574936 0.03727414786947425
-0.0684258058450106 -0.05121737293173223 0.03553284143795726
-0.06863559446708298 -0.05093538465954561 0.03378011367884748
-0.06884649262987766 -0.050652534849234654 0.03201736537108085
-0.06905887277609878 -0.050367065111825426 0.0302429838060691
-0.06927238423970165 -0.05008070847180629 0.02845839509841258
-0.06948722003784431 -0.04979257566492673 0.026662737231148925
-0.06970357786851057 -0.04950176330120054 0.02485511841645016
-0.06992110072824184 -0.04921002467770108 0.023037003708291703
-0.07014017314547008 -0.04891556556961646 0.021206702772423147
-0.07036043379660457 -0.04862015304170558 0.019365707269098753
-0.0705822722116276 -0.048321978136658006 0.017512294622977986
-0.07080532266905468 -0.04802282189160201 0.015647983630905582
-0.07102997979957883 -0.04772086038236539 0.013771018768449828
-0.07125587340421217 -0.04741788882752218 0.011882946512521642
-0.07148320839233599 -0.04711298406968106 0.009982826831934799
-0.0717121947774874 -0.046805207801892734 0.00806968692983867
-0.07194245549197481 -0.04649637691196323 0.006145115847917493
-0.07217439836863285 -0.046184629001883526 0.0042072724642008286
-0.07240764165482698 -0.045871795683504135 0.002257774919194766
-0.06333852604191549 -0.029967288441745565 0.10082110274529649
-0.0630155391737443 -0.032454183550388704 0.10112770386038528
-0.06274069285514897 -0.03466674992471469 0.10127379547260795
-0.06250473795611936 -0.03665781422539521 0.10129007225210457
-0.062297790020620705 -0.03848331372783104 0.10120995470556263
-0.06211255540476458 -0.04018445465220827 0.10105818614863607
-0.06193913284285791 -0.0418164900463775 0.100869172723166
-0.06177496514490036 -0.04339386497798425 0.10065159200963814
-0.061619176496311934 -0.044921687473764516 0.10040822446151307
-0.061470767287740403 -0.04640570529894528 0.10014234159176105
-0.06133065806655648 -0.04784112871639018 0.0998503306871287
-0.06119583462008847 -0.04924466928304999 0.09954279576342517
-0.061068256849375904 -0.050605831315711836 0.0992124003295985
-0.060945676440273246 -0.051937065518134484 0.09886707126855312
-0.060813686186852275 -0.05331664488758431 0.09855940500992447
-0.06066056105327797 -0.054807702223232724 0.09833288335509746
-0.06062917290517595 -0.05563807014702887 0.09766110642352316
-0.06027870441985 -0.05818724139154702 0.09817175179839316
-0.06528810333375368 -0.03190346115854248 0.07877343158830874
-0.06506760265875215 -0.03379820390422533 0.07874801990988672
-0.06359494735291142 -0.042394933844381644 0.08341404287500243
-0.06467384794832934 -0.037320727902702966 0.07853695829898069
-0.06449875757753393 -0.038959334400317125 0.0783570009507181
-0.06433681396189941 -0.04052413881056116 0.07813188150402234
-0.06418750670378995 -0.04201828237319838 0.07786302434931339
-0.06404827851855519 -0.043455736122420985 0.07755967295663513
-0.063921221849061 -0.044825758718653186 0.07721344155920326
-0.0638057217108084 -0.046131995057083486 0.07682621329689962
-0.06369803519736475 -0.04739454438865165 0.07641193319652478
-0.07490924475926238 0.00759723389824557 0.028430730157343764
-0.07504663698462424 0.007496064369663935 0.02691901115571943
-0.07396437779987418 0.001058519263544777 0.030205338069759557
-0.07246829239231188 -0.007499844222442653 0.035154323315319536
-0.07221331018753305 -0.00960787546736419 0.03522386317572468
-0.07203532399888873 -0.011313043947499601 0.03499390161332305
-0.06912097217165676 -0.027104432374971843 0.04568340182697461
-0.06889706493498843 -0.02900798897016238 0.045681978974038306
-0.06867460364360733 -0.03089925280195055 0.0456805653095656
-0.06845357433618193 -0.03277834256316897 0.04567916074484013
-0.06823396323054373 -0.034645375423492886 0.0456777651922784
-0.06801575672082011 -0.03650046705380755 0.04567637856542145
-0.06779894137462537 -0.03834373165009175 0.04567500077891268
-0.06758350393030549 -0.040175281956845554 0.045673631748476495
-0.06736943129423174 -0.04199522929009036 0.04567227139091029
-0.06715671053815063 -0.04380368355990799 0.045670919624057005
-0.0669453288965786 -0.045600753292580065 0.0456695763667993
-0.06673527376425104 -0.04738654565228523 0.04566824153903276
-0.06652653269361387 -0.04916116646241436 0.04566691506166021
-0.06631909339236744 -0.05092472022646177 0.04566559685656607
-0.06611294372105113 -0.052677310148550316 0.045664286846609725
-0.06590790317859099 -0.054419878317910175 0.045663689937050944
-0.0660544966272344 -0.054408639656988556 0.04419276785551285
-0.06625312880107324 -0.05414227538685806 0.0424989803256009
-0.06645313050064452 -0.05387345580045638 0.04079425194650843
-0.06665417101730724 -0.05360386008847773 0.03907993009014915
-0.06685660503741359 -0.05333177313627846 0.03735446741344345
-0.06706009796437003 -0.05305888684262916 0.03561923551044094
-0.06726500894736309 -0.05278347256754168 0.03387265796900629
-0.06747099943379727 -0.05250723510056843 0.03211613107661221
-0.06767825543473975 -0.052229300552697144 0.030348812859298246
-0.06788696743143359 -0.051948781340751926 0.028569832400903383
-0.0680967908071097 -0.0516674019369206 0.026780623934164693
-0.06830809624611331 -0.05138339897663058 0.024979535632126293
-0.06852053499858383 -0.05109851029638468 0.02316802764971393
-0.06873448252091387 -0.05081095826098908 0.021344416848199932
-0.06894958585639668 -0.0505224942677015 0.019510189817385004
-0.06916622532709434 -0.050231326186680914 0.01766363142579347
-0.06938404369396245 -0.049939219176545646 0.01580625522340906
-0.06960342624083841 -0.04964436638359737 0.013936313386060994
-0.06982401136906367 -0.04934854693269053 0.012055346962209834
-0.07004599908611003 -0.049050846516120516 0.010162420427975716
-0.07026959436503726 -0.04875033592100814 0.008256565744264366
-0.07049442891979944 -0.048448815610567575 0.006339366241867483
-0.07072090087508728 -0.04814444088827763 0.004408989177299649
-0.07094863738390056 -0.047839026715220834 0.0024670467849020605
-0.062377183148149135 -0.029331140497205643 0.10042366649010631
-0.06255672980333372 -0.02900636271369339 0.0989613973234234
-0.06180033186255543 -0.03397181241762792 0.10083467618619635
-0.061571340957812914 -0.03594752811704505 0.10083870780805637
-0.06137018774037161 -0.0377615570062097 0.1007487030909831
-0.06118851206463682 -0.039461765062008936 0.1005937267835556
-0.06102054281579683 -0.041081139490373175 0.10039390853929786
-0.06085977762329081 -0.04265650129989618 0.10017234097160169
-0.060706691721862355 -0.04418543746678011 0.0999270049094291
-0.060561465183140595 -0.04566720022795567 0.09965693677073939
-0.06042355859511851 -0.047105049682037936 0.09936380724549593
-0.060293163688392375 -0.04849816542268981 0.0990466192375935
-0.06016704436620104 -0.04986471614140087 0.09871705182384372
-0.06004571965638374 -0.051201975777465436 0.09837300782877564
-0.059912132279119325 -0.052604175397001685 0.09807787640942928
-0.05975644250983014 -0.05412506476474416 0.09786894989995515
-0.059578578717212116 -0.0557643024906489 0.09774737295320449
-0.059369622548539086 -0.057570039938709294 0.09774761972072202
-0.062259331546510414 -0.042419234052278765 0.08603974812495155
-0.06410343172650804 -0.033041117912347095 0.07822198600112457
-0.06390427230733171 -0.034836676871203065 0.07813345684130144
-0.06371948210497978 -0.03654968930685387 0.07799530038141414
-0.06354770726315478 -0.03818797950601355 0.07781213667074224
-0.06339001463917004 -0.03974620284449043 0.0775793465922768
-0.06324399179741899 -0.041237864853065354 0.07730568288111964
-0.06310885431413635 -0.04266758402877058 0.07699372096333587
-0.06298524979808985 -0.044032236818658255 0.07664051299724553
-0.06287242223326396 -0.04533626720695444 0.07624854978638196
-0.07393135186681664 0.008325495635429392 0.026293569137106898
-0.07406770523462265 0.008226409121007638 0.024771047430656223
-0.07127227514448346 -0.007329800218590643 0.03502470841363087
-0.07100646256796969 -0.00951789125291247 0.0351549028596963
-0.06817116120212013 -0.025187500142034414 0.04568409225451381
-0.06794961247186272 -0.027103478007415582 0.045682662529848095
-0.06772931807167727 -0.02900798897019513 0.04568197897406384
-0.06751062731065903 -0.03089925280198086 0.045680565309589305
-0.06729334426268199 -0.03277834256319678 0.045679160744862
-0.06707745537917373 -0.03464537542351814 0.04567776519229838
-0.06686294728486959 -0.03650046705383042 0.0456763785654396
-0.06664980677505149 -0.03834373165011229 0.04567500077892911
-0.06643802081283916 -0.04017528195686376 0.04567363174849115
-0.06622757652652982 -0.04199522929010624 0.045672271390923114
-0.06601846120699291 -0.04380368355992148 0.045670919624067996
-0.065810662305109 -0.04560075329259117 0.045669576366808406
-0.065604167429262 -0.047386545652294054 0.04566824153904003
-0.06539896434287336 -0.049161166462421024 0.0456669150616657
-0.06519504096198747 -0.0509247202264661 0.04566559685656968
-0.0649923853528973 -0.05267731014855248 0.0456642868466115
-0.0647908200738691 -0.054419878317910175 0.045663689937050944
-0.06459066581857333 -0.05615083806374127 0.04566239391519533
-0.06472148468830216 -0.056206086881801176 0.04424912109059703
-0.06491546671335366 -0.05594598806313145 0.04256108670870046
-0.06511078232787948 -0.05568348436842313 0.04086218242160489
-0.06530710850174846 -0.055420240562106815 0.0391537514390814
-0.06550479153280801 -0.055154556936462595 0.03743425253848559
-0.0657035046050073 -0.05488811077703393 0.035705053002346
-0.06590359835806295 -0.05461918906365426 0.03396458275207492
-0.06610474212394021 -0.05434948178210458 0.03221423360994469
-0.06630729096714005 -0.05407726239720034 0.03045240602881716
-0.06651091030005553 -0.05380423377779603 0.028680516848970272
-0.06671578405141937 -0.05352952313670345 0.026897711758303744
-0.06692210058173202 -0.05325224400203987 0.02510310710645075
-0.06712951929472913 -0.05297411891399206 0.02329815817926706
-0.06733840669286092 -0.052693386638076045 0.021481188972155785
-0.06754841808438819 -0.052411783071434626 0.01965368103601839
-0.06775992470406614 -0.05212753271884496 0.0178139266189708
-0.06797257769141385 -0.05184238503100069 0.015963434057313486
-0.06818656963122378 -0.051555441933647084 0.014101290017789425
-0.06840209784545377 -0.05126579091415917 0.012226549581484947
-0.06861880708026188 -0.05097520212667106 0.010340762262693148
-0.06883708081296076 -0.050681863436934316 0.008442137876311429
-0.06905655943014136 -0.05038755906256992 0.006532254079808952
-0.06927744208540322 -0.05009137197839347 0.004610152466285766
-0.06949993290512645 -0.04979237014484733 0.0026748413028118145
-0.061414489880928486 -0.028680462791172867 0.10001715270185782
-0.06160880935168821 -0.02825406309938061 0.09848871859403743
-0.06085888840981295 -0.033258712170323446 0.10038408017066544
-0.06063661764157408 -0.035219927244964644 0.10037634037716522
-0.06044030442076173 -0.03702753345539095 0.10027961213857187
-0.060264210360213226 -0.0387151940530952 0.10011391926800536
-0.060099000046709525 -0.04033682374103931 0.09991285006418157
-0.05994205027610669 -0.04190771869509441 0.09968566817867905
-0.059790367755677414 -0.04344515866776266 0.09944315210304402
-0.05964816445916992 -0.04492544761066708 0.0991693974015718
-0.05951360400751866 -0.0463592944412457 0.09887088815741835
-0.059384746681516304 -0.04775790866200236 0.09855459495313212
-0.05926222750078434 -0.04911790528986043 0.09821789642639023
-0.05914175773363173 -0.050463614616943264 0.0978767456248798
-0.05900653374194061 -0.051889404626945024 0.0975947924695138
-0.0588481380852675 -0.053441918236741326 0.09740467047144771
-0.05866777744574198 -0.05511362708466189 0.097302704751587
-0.05845639343166987 -0.056954315500485464 0.09732450262652842
-0.06334367165615155 -0.030407555443100864 0.07773977247953831
-0.06313507124177985 -0.03228074220140198 0.07769366634966202
-0.06294088154573983 -0.034069329188806785 0.07759734838811785
-0.06276053326004773 -0.03577695383503504 0.07745245040120752
-0.0625939562538083 -0.037404471641377834 0.07725868786050866
-0.06243890448376605 -0.038964724890479696 0.07702429595677093
-0.0622961483513812 -0.040453867031051305 0.07674578451145267
-0.06216521423278972 -0.041874913166590866 0.07642452415716733
-0.062045184366210586 -0.04323328934703746 0.07606366713325816
-0.06193439539420516 -0.044538455052644366 0.07566937316246755
-0.07014623063441575 -0.006778476551071777 0.034604465645022064
-0.0698113599015018 -0.00936188566739099 0.035035346395873135
-0.06699579635380076 -0.025187500142071606 0.04568409225454245
-0.06677806742923788 -0.027103478007450332 0.04568266252987496
-0.06656157120836644 -0.029007988970227327 0.04568197897408893
-0.06634665097771104 -0.0308992528020105 0.045680565309612564
-0.06613311418918232 -0.032778342563224094 0.045679160744883485
-0.06592094752780393 -0.03464537542354312 0.04567776519231814
-0.06571013784891927 -0.03650046705385307 0.04567637856545764
-0.06550067217547778 -0.038343731650132495 0.04567500077894532
-0.065292537695373 -0.04017528195688164 0.04567363174850553
-0.06508572175882807 -0.04199522929012173 0.04567227139093566
-0.06488021187583533 -0.04380368355993475 0.045670919624078765
-0.0646759957136395 -0.045600753292602214 0.0456695763668174
-0.06447306109427303 -0.04738654565230288 0.04566824153904725
-0.06427139599213291 -0.049161166462427464 0.04566691506167109
-0.06407098853160755 -0.05092472022647043 0.04566559685657329
-0.06387182698474347 -0.05267731014855459 0.04566428684661328
-0.06367389976895844 -0.054419038153559585 0.04566298495560683
-0.063477033649288 -0.056150838063739106 0.045662393915193555
-0.06328154191325266 -0.057871136053441075 0.045661105876102004
-0.06339720738548932 -0.057991756232002034 0.044305105067903694
-0.06358659591640344 -0.05773784650299457 0.042622784920480494
-0.06377728269958521 -0.057481581517535796 0.040929665109856295
-0.06396895229274019 -0.057224611762858424 0.0392270847070364
-0.0641619427111818 -0.056965252768245045 0.0375135085606792
-0.06435593482704204 -0.056705167357843644 0.035790299666490666
-0.06455127087871841 -0.05644265795795145 0.03405589422792632
-0.06474762798864792 -0.05617939990525039 0.032311679628135415
-0.06494518333231766 -0.05591453536792096 0.03055682127428183
-0.06514411831593261 -0.055647193245120796 0.028790456046196067
-0.06534410431475556 -0.05537906797521075 0.02701400879674426
-0.06554549448004525 -0.055108428354689876 0.025225841433762886
-0.06574795627054343 -0.05483698178946228 0.02342740440375002
-0.06595184735102172 -0.05456298325963865 0.02161702877565269
-0.06615683119423703 -0.05428815332736325 0.01979619109274705
-0.06636327006637027 -0.05401073294203307 0.01796319091930071
-0.06657082338310381 -0.053732456014695895 0.01611953141082817
-0.06677967903261403 -0.053452432985846454 0.014264303509961107
-0.06699002950962514 -0.0531697600890193 0.012396566810838394
-0.06720152800813947 -0.052886191624198664 0.010517865377735525
-0.06741454869675695 -0.052599932498642976 0.008626416982991714
-0.06762874052727227 -0.052312750860900314 0.00672379364796688
-0.06784429777137306 -0.05202373851978642 0.00480904161621476
-0.06806141953556642 -0.05173197251372663 0.002881174061827696
-0.06045123501231204 -0.028009844716208154 0.0995981810795104
-0.060656851573708925 -0.027498559335351447 0.09801402665955616
-0.060459899034893745 -0.029346923034187677 0.09791228661148124
-0.06026407292947783 -0.03118418892849084 0.09781175582437104
-0.05950689299889046 -0.03628785230221432 0.09980690559361532
-0.05933516333690681 -0.03796955532018498 0.09963471090916992
-0.059684132600677856 -0.03662526423654888 0.09751403322182464
-0.05901856774272235 -0.0411655299576989 0.09920328108342907
-0.05886889796330954 -0.04270818874607091 0.09896146200830505
-0.0587308386820565 -0.04418042597844335 0.09867970937334708
-0.05859960012863822 -0.04561022059506514 0.09837577558298993
-0.05847313879844534 -0.047009550355634755 0.09805718583812553
-0.05835306667833095 -0.04836933507259161 0.09771756509945254
-0.05823237789153855 -0.04972989281501622 0.09738360159464227
-0.05809397389743551 -0.051188869388786196 0.0971213297356186
-0.05793564099925571 -0.05275827401915584 0.09694005280359405
-0.057752665517408104 -0.0544642368294348 0.09685891481534106
-0.05753807851585288 -0.05634547591019107 0.09690611670210661
-0.06236705767623314 -0.029644453976222618 0.07721247535511896
-0.062162809707926855 -0.031515269159980375 0.07716180500187497
-0.06197323507378688 -0.03329859180244776 0.07705887171386597
-0.06179760954838611 -0.034999005773297676 0.0769059385542466
-0.06163477441757024 -0.036623503596951656 0.0767070331107263
-0.061483608490167936 -0.038178814141982265 0.07646609689540831
-0.061343946510293894 -0.03966626421261932 0.07618331160450972
-0.06121716849939503 -0.041078541495090326 0.07585266989385467
-0.06110067728593306 -0.04243056698524361 0.0754840957712116
-0.0609929900332199 -0.04373094362119467 0.07508315528885826
-0.06901687635664737 -0.0062255323852070665 0.03418298766241562
-0.0662738174046717 -0.02196194013829844 0.0446915260222982
-0.06582043150548171 -0.0251875001421083 0.04568409225457076
-0.06560652238661338 -0.02710347800748447 0.04568266252990144
-0.06539399912579469 -0.02900704278192273 0.04568124206800783
-0.0651826746447633 -0.030899252802039923 0.0456805653096356
-0.06497288411568289 -0.03277834256325102 0.04567916074490469
-0.06476443967643437 -0.034645375423567715 0.04567776519233763
-0.06455732841296918 -0.036500467053875274 0.04567637856547535
-0.06435153757590428 -0.038343731650152424 0.045675000778961194
-0.06414705457790705 -0.04017528195689912 0.04567363174851963
-0.06394386699112646 -0.04199522929013705 0.04567227139094804
-0.06374196254467787 -0.04380368355994779 0.04567091962408937
-0.06354132912217009 -0.045600753292613094 0.04566957636682628
-0.06334195475928416 -0.047386545652311485 0.045668241539054355
-0.06314382764139252 -0.04916116646243396 0.045666915061676416
-0.06294693610122766 -0.05092472022647471 0.045665596856576784
-0.06275126861658968 -0.0526773101485567 0.045664286846615054
-0.06255681380809953 -0.05441903815355953 0.04566298495560678
-0.062363560436993884 -0.05615000490687372 0.04566169110830515
-0.062171497402957666 -0.0578703098338067 0.045660405230395495
-0.061980456731181154 -0.059580870490362536 0.04565982574624061
-0.06208157914785469 -0.05976576309234005 0.044360723404952174
-0.0622664300278052 -0.05951796718509028 0.04268407897159787
-0.06245254441089735 -0.05926786483524016 0.040996704424323904
-0.06263961435323777 -0.05901709239997516 0.03929993471859772
-0.06282796969199221 -0.05876398047804682 0.03759224072582312
-0.06301729889638381 -0.05851017758207394 0.03587498117941523
-0.06320793591001306 -0.05825400141391812 0.034146598513983994
-0.06339956555300219 -0.05799711281380088 0.032408475699433115
-0.06359236066956905 -0.0577386618412416 0.030659781784364182
-0.06378649821811742 -0.057477785494226996 0.028899657494110276
-0.06398165742613797 -0.0572161634306646 0.027129523033719405
-0.06417818284740275 -0.05695208025669335 0.02534774709234222
-0.06437574989844677 -0.056687228403835555 0.023555775306615956
-0.06457470752083869 -0.05641987888337108 0.021751945759186708
-0.06477472725277184 -0.0561517370853748 0.019937730016743094
-0.06497598995440082 -0.055881928991142193 0.018112240310621863
-0.06517868087965462 -0.05560956681458401 0.01627455840749309
-0.06538246562027172 -0.05533637573436284 0.01442619572663778
-0.06558770446369254 -0.05506059185177553 0.01256541091907587
-0.06579405894788323 -0.05478395378348694 0.010693742634216297
-0.06600171601065445 -0.05450556948312146 0.008810259752593474
-0.0662108671990698 -0.05422453259808163 0.006913999033548945
-0.06642116783374936 -0.05394260227172931 0.005006540989259067
-0.06663299011601127 -0.05365797830870517 0.0030860604323043606
-0.05948123512069599 -0.027355172284576845 0.09918917156869295
-0.059201198108542845 -0.029721536149001915 0.0994107492362262
-0.059506569929659 -0.02859459522005059 0.09743690335827854
-0.05931356934876507 -0.030437328236158856 0.09733714938449728
-0.05912167119868076 -0.03226900960859097 0.09723859188673242
-0.058401941713714434 -0.03722152045984717 0.09915396260311679
-0.05874143246344406 -0.035897893081661414 0.09704392620215335
-0.058091057864855716 -0.040420104505355214 0.09871879027864633
-0.05794747192412925 -0.04194416238742743 0.0984620875857598
-0.05781113010598761 -0.04342230992711693 0.09818141464164717
-0.05768290448122511 -0.04484968849780452 0.0978730894906506
-0.05755786572235083 -0.046255423793858386 0.09755594275375745
-0.057440094856510755 -0.04761579745689387 0.09721391364971274
-0.05731897645979624 -0.048992926243557555 0.09688827671231637
-0.05717972156216139 -0.050472703439910616 0.09663730285216235
-0.05701867400479888 -0.05207571415620377 0.09647617208386039
-0.05683190561307297 -0.05382394823313841 0.09642134490565707
-0.05661526068750261 -0.05574052715290917 0.0964904045029035
-0.06138636431846088 -0.028877137772756023 0.07668226588079641
-0.061188164676013145 -0.030735683558093696 0.07662013805020182
