# .PCD v0.7 - Point Cloud Data file format
VERSION 0.7
FIELDS x y z
SIZE 4 4 4
TYPE F F F
COUNT 1 1 1
WIDTH 760
HEIGHT 1
VIEWPOINT 0 0 0 1 0 0 0
POINTS 760
DATA ascii
-0.004184012630117306 -0.02175910686986243 0.01821028182015838
-0.03721490699265412 -0.020525278772110394 0.05585299036780822
-0.03221821046112616 -0.02032110340906377 0.0575215305078261
-0.02893848591082754 -0.020200314602299804 0.05812284345283836
-0.026191228771925368 -0.020105209809899504 0.05839975279538234
-0.023889050962414393 -0.020031639433140663 0.05840304857863199
-0.02177586376881091 -0.01996709964170452 0.05829439629974437
-0.019825353691349634 -0.019910343709451533 0.058088986226310035
-0.018038533566381576 -0.019861468252883905 0.057784418003659244
-0.016371397444920943 -0.019818336778825506 0.0574080184206508
-0.014762123894623835 -0.019777909934702072 0.05699959299537455
-0.013214221621004607 -0.019740378762841803 0.05655619022213465
-0.011716685888997769 -0.019705211332838105 0.056084556050900014
-0.010286451392016949 -0.01967326896663301 0.05557271296723715
-0.008911502202576527 -0.019643968899810203 0.05502809983715212
-0.007581194007391656 -0.019616792549648755 0.05445739377707742
-0.006292745745236417 -0.01959161284452775 0.05386202496747189
-0.005001084472446293 -0.019566169104721438 0.0532726854015067
-0.003815500101089553 -0.019545981879391005 0.05261349893712319
-0.002722865420290821 -0.019530418608737336 0.05189243929300419
-0.0016201579160552981 -0.01951428086624002 0.05118082459311962
-0.000474345851080471 -0.01949588589154367 0.050502118992089784
0.0005318307655154952 -0.019484528826080823 0.04972704741623901
0.001377367394709783 -0.01948132515942718 0.04883899265332442
0.0021037527745968454 -0.019484202982412057 0.047865869990308396
0.0027646319134233543 -0.019490450239500072 0.046845008817246125
0.0033126210103686105 -0.019502521499764773 0.04574123179506634
0.00374058759076068 -0.019520819983089386 0.04454798390612685
0.004138646836610527 -0.019540736750389545 0.043329955722965274
0.004464430093902849 -0.01956447156139557 0.04205550699804833
0.004697716805538488 -0.019593095452422958 0.04070874597368085
0.004790486878472167 -0.019629131107289498 0.03925271038897815
0.004728227866762746 -0.019673379709238787 0.03767478142832459
0.004555733609490742 -0.019723558438936854 0.03600681034346925
0.0041283492333829 -0.019787259041533015 0.034137734301150524
0.002809600258778633 -0.019897875773084658 0.031579220352220105
0.0018262768129982399 -0.019991367626332572 0.02926035974377522
0.0011639198730261646 -0.020068386019323065 0.027174061831600482
0.0002868701676185248 -0.020157037275747712 0.024909284267418397
-0.0011052763438919033 -0.020273249934575587 0.022229304891905388
-0.0033961217397522336 -0.02043748822030222 0.01882720253713427
-0.00834058040099861 -0.020743073169201577 0.013310040655990396
-0.0356880048383898 -0.019172532759133335 0.05681781435935834
-0.03144230733604503 -0.0190154363777073 0.05801459264178099
-0.028288352756466073 -0.018907908379564978 0.058538322858759095
-0.025758581568939287 -0.018828706188767145 0.058677807309969965
-0.023546531855882347 -0.018763854116798765 0.05862442205711549
-0.021481242300139036 -0.01870553167662441 0.058485886183811064
-0.019545587901307393 -0.018652984276291844 0.05827184368702959
-0.017755002461783798 -0.018606962932685458 0.05797077746117346
-0.016098703356234978 -0.01856700506962797 0.05758826007699369
-0.01450569329256135 -0.018529837648583777 0.05717003401809012
-0.012972683429584686 -0.01849532381599253 0.05671763019837983
-0.011486491347574845 -0.01846286260462572 0.0562392728600733
-0.010075152597683101 -0.018433781078855762 0.055715521105392185
-0.008703455871325039 -0.018406445141775276 0.05516949213736794
-0.0073533377639070086 -0.018380014881645493 0.05461310959721466
-0.0060659324475417775 -0.01835643642322375 0.05401788788989542
-0.004773147542082634 -0.01833250812166097 0.05343018807548394
-0.0036544063619034506 -0.018316727061778643 0.05272542914566192
-0.002535436280125647 -0.01830087093836534 0.05202338694125397
-0.001319747233227364 -0.018280349962406694 0.051391864443746826
-0.00016336610222800196 -0.018262571771676485 0.05072178675486172
0.0008322344814387095 -0.018252399274569765 0.04994041148968409
0.0016685624224216933 -0.018249807101273663 0.049046951989078214
0.002464388881777746 -0.018249146469364687 0.04812483368730702
0.003155442690124133 -0.01825351769613436 0.04712717710760328
0.0036502452929644824 -0.018267356766199724 0.04598633227990062
0.004054886781109046 -0.01828560344186628 0.04477739765624972
0.004461394735659929 -0.01830383548480535 0.04356682143541607
0.004846511526857833 -0.018323179670882872 0.042337445410523644
0.005109748723989671 -0.018348521886869276 0.04101443912312147
0.005202114819472414 -0.01838228325908589 0.03955976332296923
0.005136601358393833 -0.018423883152323007 0.03798105997411888
0.004963203211723055 -0.018470928187600627 0.03631406748475213
0.004611422141883814 -0.018526904214682727 0.03450397308928599
0.003560266246802224 -0.018617428835337988 0.03215141062246196
0.0024086046994521437 -0.01871327637487418 0.029706632750151618
0.0015154857110676323 -0.018796790287088153 0.027444941409913437
0.0005956292863915635 -0.01888197773509675 0.025148463385715414
-0.0006890912139525529 -0.018985579468198642 0.02255343639290114
-0.0028827803253376194 -0.019134691714798594 0.019229150265311912
-0.00691278013576152 -0.019375684380997744 0.014434015901629127
-0.03460552887277918 -0.017848102275178232 0.05750181285852923
-0.030837098478085634 -0.01772182503619307 0.05839918391528903
-0.027829624597334957 -0.017627699309865213 0.05883148142444106
-0.0253936602862867 -0.01755777116812819 0.058912335603254484
-0.023227832089514955 -0.017499202531024032 0.05883040086100455
-0.0212354752477259 -0.017447888848466285 0.05864562303050502
-0.019348609338660505 -0.017400933454026647 0.0584005906641934
-0.017546879627660383 -0.0173574803480458 0.05810757253527504
-0.015905440754594657 -0.017320813572473476 0.05771600018165329
-0.01432481636462657 -0.017286646059118935 0.05729025698810575
-0.012814054797415486 -0.017255387251894707 0.0568236548500452
-0.011348725572611629 -0.01722598753587187 0.056331867067493824
-0.009912684508005865 -0.017197751529255297 0.05582532658473516
-0.008525306159376411 -0.017171535943625443 0.05529056611835903
-0.007193558930496502 -0.017147659228151278 0.05472230165491121
-0.005856800769438286 -0.01712346532378568 0.05416160025090716
-0.0046278419772844415 -0.017103929728772893 0.053530593108415514
-0.0035474450934809276 -0.017090882990079815 0.0527997473478502
-0.002348189190875205 -0.01707251753411309 0.052154207399360775
-0.0011097388059907454 -0.017052337297365237 0.051539396304788765
2.2339722942466e-05 -0.017036806320648 0.05085296437430298
0.0009971491279375244 -0.017028221821453277 0.0500575433987871
0.0018734076558464263 -0.01702400388634697 0.04919324390556484
0.0026412748917820084 -0.01702461985946755 0.04825185107182828
0.003232662398214514 -0.017033153295503888 0.047182930311743865
0.0037073385812334547 -0.01704696712566368 0.04602777951387299
0.004198634486271169 -0.017060089621973185 0.04488232220306848
0.00463576696971596 -0.017075710767730762 0.04369479377411434
0.005021946730949356 -0.01709370093421951 0.0424668992878065
0.005323354916047629 -0.017115607426095487 0.04117291701443543
0.005488028681631507 -0.017143814370003514 0.03977304012344912
0.005431696973611677 -0.017182195996973505 0.03820238054891478
0.005284718382938258 -0.017224871847689137 0.036556509698466855
0.004936346743281694 -0.0172769295832939 0.034750312700051245
0.004272537920237407 -0.017343650671421566 0.0326943350759617
0.0028536718866464805 -0.01744530122485618 0.030047714598177566
0.0018139719653835762 -0.017529944978641337 0.027674923455813405
0.0007806457553662938 -0.01761465319513694 0.025291785714447457
-0.00048799908275332093 -0.01771058769069936 0.022710050095878842
-0.0025731797837943993 -0.0178447177990772 0.01947156833410879
-0.0062257537018545195 -0.018052109940407766 0.01497484834410151
-0.04015423473795299 -0.016760546515756942 0.0555069781945533
-0.03397524796507112 -0.016548225611082244 0.05790007684648313
-0.03037238645958218 -0.016437502392208838 0.058694493847819385
-0.02751964486131453 -0.016356228156465598 0.05902957960741356
-0.025146447783161774 -0.016293776125020032 0.059071214597691435
-0.023007129101119406 -0.01624043177696121 0.05897304338027154
-0.021067187640135654 -0.016194866538083098 0.05875500193833744
-0.019180414091377385 -0.016151255417545737 0.05851052460507533
-0.017424154432317596 -0.016112722241294664 0.05818823740927487
-0.01579702446123271 -0.016079241570770272 0.05778765971921157
-0.014221532002698545 -0.016047713181038013 0.0573589067207661
-0.01271804571236601 -0.01601897328705713 0.05688782567254991
-0.011246574415797739 -0.015991416636365278 0.05640052421695496
-0.009825427192814207 -0.01596579446491415 0.055884300204353865
-0.008441785579778538 -0.015941596451711733 0.05534732831547956
-0.007098410431283231 -0.015918943874169002 0.05478732566462552
-0.005777346137781969 -0.015897111942300205 0.054216200361288325
-0.004580153447193536 -0.015880266639061905 0.05356354551764286
-0.003476170449882743 -0.01586717954753963 0.052849269978349545
-0.002266460162205608 -0.015849689894166758 0.05221130750710601
-0.0010176646758852104 -0.015830517814636364 0.05160407879371087
7.886953178054545e-05 -0.015817556607664936 0.050892895516710834
0.0010620120012634904 -0.0158092356049844 0.050103612758567284
0.0019200773231674573 -0.01580606800184977 0.04922657343420478
0.002677267467428135 -0.015807079737688974 0.0482776964330337
0.003315136441214561 -0.01581306482167657 0.04724247718480762
0.0037559600520771785 -0.015827297576482807 0.04606307657836589
0.004105633720630608 -0.01584540086523209 0.0448144389406705
0.004532219807081683 -0.01586035621221356 0.043618800181214556
0.004987084021615962 -0.01587418622649811 0.042441174046859764
0.005403659099355418 -0.015889684945675216 0.04123249598783363
0.0056403392083664294 -0.015912833814719918 0.03988665581726725
0.00560768548008056 -0.015947459977688858 0.03833437125091288
0.005451647738878351 -0.0159874555755351 0.03668238469974633
0.005161542210866121 -0.016033307735998183 0.034921043274443564
0.004572996835275678 -0.016092042664466417 0.03292335793104667
0.003396111252476519 -0.01617609461568054 0.03046341862368801
0.00205744404555136 -0.016267409657153974 0.027862517377834517
0.0008785879110320693 -0.016352272647505817 0.025367656245913306
-0.00042138521506585036 -0.01644268920114102 0.022761930019901566
-0.002479834280630533 -0.016566083786068293 0.019544658117786384
-0.0060282654316589634 -0.016754168831086977 0.015130312614845987
-0.03894020260990122 -0.01542688885703722 0.056269769136094494
-0.03356743333513229 -0.015260346276308753 0.058157768105855046
-0.030083068388256806 -0.015162460110283549 0.05887834642042561
-0.027324668545175235 -0.01509088632545086 0.05915418276517398
-0.024980245690158387 -0.015034284430677338 0.059178029670051924
-0.02288294398795493 -0.014986582707158316 0.059053305444351556
-0.020938185235144624 -0.01494433518711344 0.05883884734066813
-0.019109516752201683 -0.01490622313139217 0.058556863749727295
-0.017385534284703796 -0.014871847648732294 0.05821362167802602
-0.01574283840967583 -0.014840360257349116 0.057823474883853976
-0.01418561959227116 -0.01481193452688585 0.05738277652379353
-0.012668942792629978 -0.014784909853290902 0.05692064522025436
-0.01123991422188908 -0.014761058308636079 0.05640500062175435
-0.009798926315776502 -0.01473666225030205 0.05590221105387466
-0.008406629678749555 -0.014713998274388348 0.05537122094402408
-0.007067797794952202 -0.014693256664546772 0.05480824618758312
-0.005787140159472681 -0.014674626828109374 0.05420947004671456
-0.0046137509628752515 -0.014659978288978848 0.05354032989150265
-0.0034891275209236183 -0.014647118291937718 0.052840267222122095
-0.0022288334509472096 -0.014629054188330718 0.05223759546503143
-0.0010433553414004315 -0.014613763209427635 0.05158603098608361
2.980688079551319e-05 -0.014602692139304641 0.05085823897454911
0.0010162912833472926 -0.014594887360472217 0.05007113926340612
0.001900986568073526 -0.014590947492681042 0.04921293961367018
0.002712194924650302 -0.014589810607154103 0.048302776959550375
0.0032305472081676223 -0.014599926993860082 0.04718140312878244
0.0035550516098452056 -0.014617552393321452 0.045917225823142505
0.003826357242665057 -0.014637304200958491 0.04461058902282572
0.004225472479868542 -0.014652194069914009 0.043393677339464976
0.004767195214755382 -0.014661618132039443 0.04227891779523335
0.00537302074302709 -0.014668591538596473 0.04120976489536171
0.0056572550145027045 -0.0146881112641277 0.03989927412469396
0.0056754926617731405 -0.014718087525753215 0.038385226376009884
0.005501591530195138 -0.014755699206996485 0.03672004539016532
0.0052127340620704565 -0.014797971298829381 0.0349598540651494
0.004665184974958325 -0.014850574829332839 0.03299362774132142
0.003656494130929555 -0.014921538042556892 0.030662965739117753
0.002189422101936289 -0.015010868418544692 0.027964205757056104
0.0008510811391777562 -0.015095492018978994 0.025346348226038595
-0.0005046561661813942 -0.015181163073033948 0.02269707729828141
-0.002605805135141692 -0.015296766554073674 0.01944602259498307
-0.006089098010980731 -0.015467804806824961 0.015082424744987166
-0.03827328349046549 -0.014118964185841796 0.05668880241477925
-0.033389265156412995 -0.013982668049646901 0.05827034960485883
-0.030048425210587204 -0.013897756198518898 0.05890036107477692
-0.02727388695245314 -0.013831600553292123 0.05918663566475979
-0.02497790578212178 -0.013781348357831874 0.059179533486530544
-0.022884104244742798 -0.013737740083330403 0.05905255555894029
-0.020955457565766833 -0.013699559655182445 0.05882762115065787
-0.01915411054884608 -0.0136655531234608 0.05852771683931696
-0.017433242608406896 -0.01363415131807602 0.05818226392862902
-0.015795895434796425 -0.013605473582191479 0.057788405967859335
-0.014221532002539172 -0.013578834230103639 0.05735890672087207
-0.012732555725330552 -0.013555012841321773 0.05687812742924292
-0.01127987876037112 -0.013532341688435914 0.056378139924555315
-0.00985193164552467 -0.013510429846963636 0.05586638693818341
-0.00846595892496399 -0.013489876115124628 0.05533089964375476
-0.007136682983747755 -0.013471197039973421 0.05476117039319378
-0.0058807523692050445 -0.013454979985726903 0.054145141046908485
-0.004715662917826269 -0.013441846449393504 0.053469909510788505
-0.0035474450932820867 -0.013428550920770091 0.05279974734798837
-0.0023116219184592945 -0.013412848072021918 0.05217975517875917
-0.0011268737477693191 -0.013398862674633912 0.05152735893141902
-5.3415048447691404e-05 -0.013388709781129328 0.050799453233426495
0.0009482215699661012 -0.013381030690864706 0.050022792220558776
0.0018256654900865033 -0.013377678512948677 0.04915914844330055
0.002580919112222635 -0.013378609505489126 0.04820851110808444
0.0030464354310290043 -0.013389754223031765 0.0470484730549795
0.003224676651256142 -0.013411088947767378 0.045677388030953225
0.0035180410264470385 -0.013428438362674851 0.044385542374414444
0.00396805625037 -0.01344030522811861 0.04320475874765961
0.004616931831667059 -0.013445155644147232 0.042168038239130734
0.005217639466033819 -0.013451741264536214 0.041094485010961745
0.005586409953944882 -0.013466629691326492 0.039846427411591334
0.005639473130548522 -0.013492868067137067 0.03835821186632754
0.005504778983202396 -0.013525943404248413 0.036722448925775364
0.005156208928631001 -0.01356683649263482 0.03491699987894736
0.004590151518473473 -0.01361572657925867 0.03293643397681334
0.0036543347470196497 -0.013678154395855383 0.03066131087289581
0.0021316247882023354 -0.013762051005846059 0.02791967323916672
0.0006859573143833675 -0.01384351310310553 0.025218435661120364
-0.0007891602964492095 -0.013926389229454415 0.02247550102332746
-0.0028309579771630955 -0.014030222916167338 0.019269727305333717
-0.006476346886235385 -0.014192932028512437 0.014777579480362346
-0.03807164026807264 -0.01282927861309498 0.05681549726898488
-0.033441366607134426 -0.012713106875102027 0.05823742756757555
-0.0301201071767056 -0.012636516306629993 0.05885480943045701
-0.027379006957664265 -0.012577403892357363 0.059119456815284854
-0.02512654321461094 -0.012533062730849717 0.059084006903080855
-0.023019900102325186 -0.012493032764358822 0.05896478935616978
-0.021094841732504976 -0.012458442187035332 0.05873702809900505
-0.01929367297573914 -0.012427541196746978 0.0584364975698356
-0.01754574293789357 -0.012398165066391137 0.0581083196592585
-0.01592577537176576 -0.012372640335479872 0.05770255968098936
-0.01433604616167733 -0.01234795329516305 0.057282792909798264
-0.012849791000714983 -0.012326389337722477 0.056799769385896315
-0.011397599187238538 -0.01230580165613483 0.05629901846187052
-0.00997677152029669 -0.012286111752275229 0.055782012816977866
-0.008597866107502572 -0.012267655786269538 0.05524125297783217
-0.007272337621901326 -0.012250800773154024 0.054668464690192375
-0.006049585935145596 -0.012237110150643715 0.05402912098433654
-0.004881655529364648 -0.01222509179457827 0.05335520988692305
-0.0037062876798918953 -0.012212789773599896 0.052689381272100544
-0.002459008886705305 -0.012198162158292438 0.05207678305362712
-0.001300451169425565 -0.012186288126063205 0.051405420015020464
-0.0002231718061549981 -0.012176948068813767 0.05067954160793131
0.0007704878715252272 -0.01217023208800445 0.04989655548020672
0.001639887760060632 -0.012167452891237076 0.04902647374195829
0.002338243946474472 -0.012170130388389655 0.04803425218935564
0.002885456016050947 -0.012177660806042073 0.046932244718876526
0.003094274525362206 -0.01219608508829594 0.04558272178232248
0.0032739997030466483 -0.01221552141915726 0.044207411354973414
0.0038248960023711254 -0.01222307393607883 0.043099692985072935
0.004486677586277743 -0.012227076109645227 0.04207192345313027
0.005095993515887576 -0.012232793155961225 0.041004233911588917
0.005380067651807652 -0.012249083483278791 0.03969250683680303
0.005492145261854542 -0.012271032362382346 0.038247716532268716
0.005422950648230784 -0.012298977457919332 0.03666074532839886
0.005030299749381628 -0.01233759737657957 0.03482154260032139
0.004375606135576415 -0.012384950704711512 0.0327728981531879
0.0034025981524014592 -0.01244293708077699 0.030468389926623873
0.0018369131019124185 -0.012520635732456068 0.02769259947753261
0.0004214621955073161 -0.012593718055055032 0.025013545487906963
-0.0011576415488084857 -0.012672508521167875 0.022188522049731207
-0.0033430320215094844 -0.012771675205959185 0.018868771931377648
-0.007302826178019695 -0.01293004372204097 0.014126968685830521
-0.03834012813213483 -0.011553712661685738 0.05664680312499293
-0.03374089975822275 -0.011450025471940073 0.058048157567773984
-0.030330517872316776 -0.011378656801867138 0.05872110002366199
-0.027589408644786317 -0.011325466790608125 0.05898499579390215
-0.025354976966199982 -0.01128606954094314 0.05893719667184599
-0.023258052214915614 -0.011250324168142917 0.05881086929575002
-0.02134274524793306 -0.011219476278415484 0.05857590265338486
-0.019506634985741234 -0.011190707635482293 0.058297303666346445
-0.01774589967489998 -0.011163924189484403 0.057976760545209116
-0.016106618679970874 -0.01114042397310018 0.05758302831319739
-0.014537166960304437 -0.011118782832175527 0.057149114501949705
-0.013044219595436723 -0.011099198988965225 0.05666981665449289
-0.011597662908621353 -0.01108083923568699 0.05616455297710127
-0.010189070855067706 -0.011063473874877229 0.05563852845481765
-0.008815707400510242 -0.011047031776705572 0.05509320383264865
-0.007503386259130884 -0.011032247760329787 0.05451056720409514
-0.006282926234556507 -0.011020004265582622 0.05386877279772212
-0.005127107413027632 -0.011009544661147218 0.05318560451429649
-0.003949667058661621 -0.010998428070305613 0.05252027783730939
-0.002711011055446355 -0.010985522860006675 0.05190072136267865
-0.0015417913108154435 -0.010974546589840175 0.051235877484409276
-0.00046685931329981667 -0.010966221729582715 0.050507407281797534
0.0005201033205985972 -0.010960383508024496 0.049718717907361654
0.0013635405221767427 -0.010958642415950532 0.048829118078026534
0.0020910119536272087 -0.010960230759118946 0.04785672112796374
0.0026649472311027766 -0.010966252313823846 0.04677303573446001
0.00306775907763146 -0.010977242635754881 0.04556347272522132
0.003352551585270813 -0.010991695146814875 0.0442647480660871
0.003821713435329166 -0.011000858870857558 0.043097357288970684
0.004468667913373969 -0.011004892056063094 0.04205863409083799
0.004901196973999655 -0.011015188533148194 0.04085971120418874
0.0051512403453362055 -0.011030855089223966 0.03952181362375584
0.005230062802236424 -0.011051595853409063 0.038051155697016115
0.005180445597708083 -0.01107618859172601 0.036477881605161466
0.004845552325843772 -0.011109264753341286 0.03468147746456868
0.004065157973504985 -0.011155594489701413 0.03253626105947938
0.002979404492604254 -0.011211127434676359 0.030144071082841173
0.0014071279217757193 -0.011281277437302565 0.027361452318840684
2.8453071058420765e-05 -0.011345988938219588 0.024709102411887285
-0.0016295716535661975 -0.011419267993381098 0.021820975488799355
-0.003991271618499159 -0.011513793050729226 0.01836119855816387
-0.008583440029243827 -0.011675219205229024 0.01311885970655463
-0.03878133905414388 -0.010280720551334681 0.05636958501285155
-0.0342074273048506 -0.010189193520395138 0.05775336659610075
-0.03079153929782885 -0.010125642372266572 0.05842813534738478
-0.028000194561742575 -0.010077152946345145 0.058722475589244705
-0.02569986856495543 -0.010040534309385825 0.05871554109331589
-0.023600085222439893 -0.01000870703877076 0.058589809987852015
-0.021657963694429072 -0.00998064204703429 0.0583710257174056
-0.019787493777523257 -0.0099542362602872 0.05811373180976509
-0.01804764965048611 -0.009930959851365048 0.057778426179620035
-0.01640650132813215 -0.00991003933545593 0.05738481592996042
-0.014816151444945691 -0.009890298097169363 0.05696368265215651
-0.013320547015334139 -0.009872837930798626 0.05648512415579582
-0.011868071096572452 -0.009856384211517358 0.05598280804190203
-0.01047692541279216 -0.009841398231136606 0.05544397943442364
-0.009112052082529631 -0.009827010294062053 0.054891802269855405
-0.007801634869429197 -0.009813931739334782 0.05430674559162957
-0.0065941181006303196 -0.009803389447634677 0.053654926104544476
-0.0054370806478552525 -0.00979407715876088 0.052971415381939446
-0.004257303620031905 -0.009784152575635304 0.05230652760317678
-0.0030259377841331814 -0.009772881638216236 0.051680697334098025
-0.0018522243653595893 -0.009763027212819556 0.05101779687274788
-0.0007804745227082965 -0.009755724305760542 0.05028587790029854
0.0001967825386393618 -0.009750798296552895 0.04948907680969333
0.0010612263099324393 -0.00974873139977473 0.048613217884739324
0.0017796588848090766 -0.009750390287490321 0.04763314633839738
0.0023910758106259755 -0.00975479859951952 0.046575298529907994
0.002921327178909694 -0.009761309503459211 0.04545716956155088
0.0033674090966970827 -0.009770013343779563 0.044275592883759096
0.0038089826328190357 -0.009778869511027225 0.0430880141124062
0.004258781908374587 -0.009787549894151447 0.041903758920399437
0.004617112059204842 -0.00979863495090868 0.040648944007708854
0.004838273206832389 -0.009813325567645425 0.039288356492816534
0.004886790042064715 -0.009832566799593637 0.03779370244906838
0.004757444783658027 -0.009856523189825573 0.03615891297492918
0.004341653093819675 -0.009888059756937576 0.03429944932589368
0.003613079057157187 -0.009927913437943296 0.03219166684388586
0.002356431121670388 -0.009981782157204083 0.02966664898850857
0.0008424541020782272 -0.010042640252001297 0.02692637419231919
-0.0005703365251128467 -0.010101091346814523 0.024245252248605353
-0.002251652842938545 -0.01016687635200963 0.021336488910237872
-0.004915905366639606 -0.010258934438484217 0.017637207810436595
-0.03966280111438758 -0.009014429060163089 0.05581575183222137
-0.03477010437833078 -0.008927567858485225 0.05739782034287638
-0.0313304987526149 -0.008871476437972148 0.05808564349459816
-0.02852344722814809 -0.008828733970170154 0.058388081464708586
-0.026154747625842856 -0.00879524513082329 0.05842319856666106
-0.024027853776848518 -0.00876683171446863 0.058313338949975924
-0.022040811409103522 -0.00874132370486441 0.058122192986957755
-0.020177906982356775 -0.00871839863471794 0.05785855419402991
-0.018430899786299915 -0.008697893377035349 0.05752652335046193
-0.016762417814057018 -0.008679011086442569 0.05714956705730617
-0.015197011379320391 -0.008662295521076713 0.056710537527494775
-0.013690331653716692 -0.008646793058589649 0.05623796645835111
-0.012249274002156363 -0.00863266159113454 0.055726596505195125
-0.0108462168139285 -0.008619304920323418 0.05519439061116871
-0.009472896838391587 -0.008606546531708247 0.054646565212584375
-0.008176186304427291 -0.008595419924247434 0.05405077900940053
-0.006949593713377611 -0.008585792075146193 0.053410648240696856
-0.005811883847018862 -0.008578086063603857 0.05271242924051295
-0.004679473740731632 -0.008570465922654813 0.052013197832029345
-0.003443035080864798 -0.008560510467835193 0.051389291685807525
-0.0022827173135215872 -0.008552204005477985 0.05071537364791123
-0.0011750941102363632 -0.008545035607753515 0.05000712919637762
-0.00019556313466373432 -0.00854069263347404 0.04921041024660766
0.000677322094262689 -0.00853871351178636 0.04833904951616835
0.0014262472502589718 -0.008539500281983532 0.047379370353067274
0.002054034406518801 -0.008543006746888408 0.046331952126875464
0.002599417356208833 -0.008548379365341387 0.045223477088337016
0.0030966077088850352 -0.008554859363669474 0.04407792911680003
0.0035414381776315285 -0.008562547655273358 0.04289166238346587
0.003941391370800906 -0.008571282579368792 0.041669556008192665
0.004246525140512547 -0.008582202245130026 0.040373999574417396
0.004418402798422205 -0.008596193021967164 0.03897515510885535
0.004424567066873997 -0.008614012640731665 0.03744703699801599
0.004238323900034202 -0.008636293775981893 0.03576746390042479
0.003773024628815125 -0.008665044248500774 0.033868347112836705
0.003014032059867222 -0.00870063999497502 0.03173504716384756
0.0016092176839450079 -0.00875120357741531 0.029094014232359133
0.00022433704993901626 -0.008801522344714449 0.026450118344014117
-0.0012466339793211767 -0.008854037672397782 0.0237213609075273
-0.0031367620869710566 -0.00891645407948844 0.02064715196094491
-0.005993756201228939 -0.00900150821133135 0.016793247665955413
-0.04116814052309653 -0.0077541709823676285 0.05486992903365112
-0.03558268796348063 -0.0076670841407385495 0.056884362335169136
-0.03200587406960692 -0.007616517021125273 0.05765646363405602
-0.029179091577537397 -0.007579542223829562 0.057969080029460995
-0.026746308155029874 -0.007549680603854431 0.058043013338010485
-0.024532539837988476 -0.0075237440392033365 0.057987155368487975
-0.022510237007915213 -0.007501246271046903 0.05781708876661834
-0.02063012272179443 -0.007481294484209729 0.05756298188049408
-0.01888925035732497 -0.007463849153182488 0.05722525847199744
-0.017207637868503378 -0.007447436969855811 0.05685529151786495
-0.015630590114072862 -0.007432908837457616 0.056422351942839344
-0.014130488624995996 -0.007419760089696377 0.055943773102966055
-0.012687114573870562 -0.007407620532087969 0.055432318040712525
-0.011284052419034019 -0.00739618833452861 0.0548984755881784
-0.009920736317646228 -0.007385457134797608 0.054342204863048915
-0.008617560758761578 -0.0073758152686463005 0.053749145909103624
-0.007386896390718656 -0.0073675027924221355 0.053110139963771286
-0.006259542761819448 -0.007361110188347379 0.05240310035730672
-0.005170084218692694 -0.007355409661899534 0.05167231473261835
-0.003962964224687504 -0.0073474519789918655 0.05102604241421543
-0.002790859004745627 -0.007340128016854947 0.05035840183318119
-0.0016684350107579182 -0.007333721258741473 0.04965864640191475
-0.0006552113328569531 -0.00732937432664743 0.048883941542261666
0.00023380716262355605 -0.007327387118122826 0.04802230966210802
0.0009942394618409067 -0.00732785821469034 0.04706915645103882
0.0016449568106474688 -0.007330440078920686 0.046036595057081076
0.002189602613445918 -0.0073350756027273515 0.04492596948203831
0.0026912780039909934 -0.0073405596445571 0.04378207023299929
0.0031511240789516837 -0.007346875409396504 0.04260520962161779
0.0035425736093456783 -0.007354542966706364 0.041375267836003815
0.00375802780997736 -0.00736566042171318 0.04001157549808382
0.0039026558820261514 -0.00737820261144091 0.03859043486005148
0.0038639138661528127 -0.007394373306525401 0.03702654925693866
0.003640536318335774 -0.007414220027946345 0.03531669529721909
0.003049586657783321 -0.007441348526055939 0.03331987701414274
0.0021982401650973427 -0.0074737014062268405 0.031113215094489388
0.0006496778648085177 -0.007519902359331286 0.02835866095496148
-0.0005505735949306034 -0.00755943391099742 0.025853053879838883
-0.0020895005325289318 -0.007605821466746074 0.023068437425171895
-0.004152661675049629 -0.00766278112684 0.01985595344216834
-0.0073529806267591535 -0.007742536749752094 0.01572897123201833
-0.03675394467564558 -0.00640711387125797 0.056144264763753116
-0.03290375135249707 -0.0063608289125853534 0.05708589074316178
-0.029936088573886965 -0.006327884880150676 0.057485307343485614
-0.027456784646985977 -0.006302308837706802 0.05758640297572615
-0.025178067162652307 -0.006279717435137959 0.05756994468858212
-0.0231122262394603 -0.00626031786063625 0.05742582451599332
-0.021223103460574266 -0.006243570660113796 0.057175404285204456
-0.019423213754791724 -0.0062281377688988395 0.05687429475947803
-0.017741616548936967 -0.00621447765958308 0.05650234950039423
-0.01616822602309842 -0.0062024442464009765 0.05606500296246847
-0.014665152679488536 -0.006191457408180123 0.05558641283729138
-0.013222326317887445 -0.006181366347691658 0.05507259511785567
-0.011819888820654434 -0.006171866058446316 0.054536325869755375
-0.010448394103628855 -0.006162812157918361 0.05398359845245715
-0.009120684658829481 -0.0061544089019767295 0.05340531354562922
-0.007883473221809878 -0.006147394842749653 0.052768899318322404
-0.00675206373368098 -0.006142019580714214 0.052062772136099666
-0.005694699697098071 -0.0061377916645569365 0.05130780447792288
-0.004587640670921156 -0.006132760275180448 0.050589611283606506
-0.0033826785408436755 -0.006126156196670086 0.04994264595752235
-0.0022742101038266127 -0.006121058101222531 0.04923074310619091
-0.001206310291455126 -0.006116584956343313 0.048492519224743236
-0.0002922604529516648 -0.006114547645813913 0.04764661412652066
0.0004595453887823453 -0.006115095360828218 0.04668520611671173
0.0010874560631916608 -0.006117629819034674 0.045634075366835
0.001644301038217999 -0.006121315378227216 0.04453010435219146
0.0021377424558781666 -0.006126035943058662 0.04337803271136853
0.002620202297978158 -0.006130953060042579 0.04221556443329494
0.002977477912029569 -0.006137912383340834 0.04095828294729631
0.003211635686839742 -0.006146893217276456 0.03960619833803436
0.00327098192873726 -0.006158746566242496 0.03811923909959908
0.003190007554643992 -0.006172929897709724 0.03652112211898684
0.0028233037798058858 -0.006191825937897766 0.03470045169971786
0.0021825771176886555 -0.006215273299896545 0.03266255900338627
0.0009608607028355753 -0.006248320898602835 0.030170030642017454
-0.0003279314132239586 -0.006282607035504246 0.027609459960611482
-0.0014919537325429055 -0.006314988820744687 0.02512772557112375
-0.0030910076468666503 -0.006354667400997327 0.02229262361430412
-0.005338960874124388 -0.006405216497063495 0.018932045036113065
-0.010021799820801702 -0.006496224151583175 0.013639278521007436
-0.03846730782178448 -0.005146612175869941 0.05506161918295027
-0.034078155913656816 -0.005103031430239385 0.0563395934280283
-0.03089166151234496 -0.005074021930334013 0.05687463109336516
-0.028312377494422947 -0.005052356178435002 0.05703652896235739
-0.0259598803796246 -0.005033395824932621 0.05706465109162673
-0.023844452169739017 -0.005017283745869681 0.056949912631052535
-0.02189316212824055 -0.005003135775184114 0.0567374478557065
-0.020087486239990404 -0.00499073429762621 0.05643768142860961
-0.018390222241449095 -0.004979628254046208 0.05607364286837607
-0.016793703266968163 -0.004969730107726046 0.05564926872375825
-0.015280385504430227 -0.004960828604523947 0.055175201790044814
-0.01382870314666379 -0.0049526606015289805 0.05466504119618165
-0.012435498027693448 -0.00494519102786892 0.05412026100310274
-0.011044262259482684 -0.004937716049650643 0.053578634958629856
-0.009734786261740291 -0.004931237438074604 0.052985639573643994
-0.008472870559669943 -0.004925330978615377 0.05236387372025886
-0.007320555345785962 -0.004920782246397234 0.05166994878405523
-0.006287548148106725 -0.0049177221341266545 0.050895884988757634
-0.005268928225357183 -0.00491483168138239 0.05011362871783981
-0.004144863833621948 -0.004910592052519952 0.049407207374499884
-0.002996727896006135 -0.004906029173682534 0.04872037589560352
-0.0019284577091482902 -0.00490246473355018 0.047979608410064045
-0.0010846173057380004 -0.004901749717416097 0.04708074593131084
-0.00029584619303918425 -0.004901735969288902 0.046142778465084466
0.00040062859368406034 -0.00490290484768271 0.045138180820432416
0.001015967433827203 -0.004905120369398747 0.04407396159524951
0.0015043789174472577 -0.00490897822346649 0.04291572701983465
0.0019410672467443657 -0.004913518963380161 0.04171714505323221
0.0022671294549176935 -0.004919507892568896 0.04043411584827383
0.0024545519263756144 -0.004927316750458191 0.039044505642001126
0.0024695536490759173 -0.004937395204461943 0.03752141548234067
0.002271194289478251 -0.004950289761000283 0.03583201570909844
0.0017729612015364715 -0.004967145246849764 0.03390842879494488
0.0008768005978531113 -0.004989266776819111 0.03167259247497051
-0.00033518889681766195 -0.005015613437743234 0.029182125258659153
-0.0013360413924263792 -0.00503930291049815 0.02683688443805432
-0.002615652113029554 -0.005066754918559623 0.024261922041540485
-0.004315763192899835 -0.005099859582612275 0.021343871225083355
-0.006857056043917287 -0.005144203476125607 0.017749728728677805
-0.04234554119344325 -0.003895475607088682 0.05261102823227498
-0.03561839137035855 -0.0038414066274895936 0.055360822036954305
-0.03209810612586911 -0.0038166084768823166 0.05610363074068275
-0.029338789392138243 -0.0037987225720594315 0.05637687264188107
-0.026905568498082122 -0.003783775898591643 0.056453443528746206
-0.02470714286018083 -0.0037709415238427304 0.056389204882758504
-0.022689929222887373 -0.003759735474012084 0.05621667364778782
-0.02085677346509024 -0.0037501938930993533 0.05593204396020701
-0.019144229671684165 -0.0037417364377930937 0.055575269219078016
-0.01755006361329703 -0.00373434877593829 0.05514654077345549
-0.01601096912050559 -0.003727445975866874 0.05468689225633949
-0.014572355447157959 -0.0037214559820001793 0.054165222606411434
-0.013166434571507901 -0.0037157485313062126 0.05362625114724556
-0.01180840499128144 -0.003710468160241992 0.05305930881674448
-0.010467577551341034 -0.0037053284669520056 0.052484853661857955
-0.00921793586691838 -0.003701028385815188 0.05185187527323448
-0.008040676352839171 -0.0036973952366019607 0.051172350680855794
-0.006941553771548925 -0.0036944876009309432 0.05044147263116233
-0.005948231694762107 -0.003692572521658277 0.04963903233603856
-0.004927537564707318 -0.003690389257955597 0.04885737557177161
-0.004033298137544938 -0.003689402439015314 0.0479881704489305
-0.0029842065207085766 -0.0036869325134404364 0.047229754613226094
-0.002033933846878444 -0.003685398260338803 0.04640278367739842
-0.0011697548260125035 -0.0036846834030650026 0.04551524670681739
-0.00041475812994834493 -0.0036850148967458693 0.04454946553543049
0.00021875068977356138 -0.0036865177248813366 0.043495217054178026
0.0007150867045935816 -0.0036893505164304384 0.0423396056295986
0.0011465683527420167 -0.0036928222029804117 0.041134059781032295
0.0013571439678671249 -0.0036984489514949198 0.039762636311541644
0.0014421972189756493 -0.0037053179939459864 0.038293423298624896
0.0013913809639026775 -0.0037135377856126603 0.03671715500010281
0.0010572633790574826 -0.0037245544059462893 0.034921572201971174
0.00034379355427360814 -0.0037393239786264183 0.032830748488717754
-0.0005995067672009413 -0.0037564060153599246 0.03055333902320745
-0.0014584826776662951 -0.003772732443989969 0.028325901875317805
-0.002532273560176823 -0.003791239990259334 0.0259201395281084
-0.003830301003237835 -0.003812035309500261 0.023326041635722605
-0.005801004552919653 -0.0038395611850791968 0.020193334455968714
-0.009558766974319954 -0.003884888096099378 0.015645593919114464
-0.09074910318204255 -0.002881193479651322 0.025402992293880877
-0.09020382735233345 -0.0028835133365616864 0.02406021909161221
-0.08933631574870532 -0.002883874962066734 0.022918341935499686
-0.03779641029057407 -0.0025742612820082037 0.05397675923081052
-0.0335683024237699 -0.002553416956033114 0.05516407508144461
-0.03055298098434095 -0.0025399385739709904 0.055596533715716434
-0.028066175503810298 -0.002529659136321487 0.055703331768232445
-0.025757352864943572 -0.0025204363577709574 0.05570661853572745
-0.023681537423036858 -0.0025126164730930414 0.05556854952410345
-0.02180423507189999 -0.0025059943269307083 0.05530929595056233
-0.02006247367434083 -0.002500186489248018 0.0549683406979527
-0.01843649101858169 -0.00249507501711896 0.0545573615089503
-0.01690147330206515 -0.002490509564792476 0.05409169456494317
-0.015386797615500769 -0.0024860527338744385 0.053617825206094094
-0.013982388388357359 -0.002482267430809995 0.05307478162385254
-0.012627137924990817 -0.002478774867478797 0.05250288212052123
-0.011309206690838236 -0.0024755024905045954 0.051909688506389995
-0.010052579658341554 -0.0024726025107027444 0.05127831974612851
-0.00885981071379588 -0.002470093288816236 0.050606335108076606
-0.0076826999378354355 -0.002467672776165935 0.04992651379186014
-0.006648611022055162 -0.002466147573012323 0.04914971127469775
-0.005803332988406185 -0.0024658135338337527 0.04824212536276595
-0.004987842595737868 -0.0024656674201866662 0.04731390581796552
-0.004018469851665207 -0.002464540839058475 0.04649516104593432
-0.003057601385401343 -0.0024634639006649883 0.04567172304419781
-0.0022148148413359547 -0.0024631375311422983 0.0447648154555787
-0.001454606936830971 -0.0024633388979787133 0.04379868695520567
-0.0007840851673216465 -0.002464116899602612 0.04276720201659423
-0.00029154751330129347 -0.0024660431765954676 0.04160484162758732
3.193460853695429e-05 -0.0024690673056006755 0.04031602652126398
0.0001926706271017098 -0.002473155364752656 0.03890336983914061
0.00019657156357616445 -0.002478275729024619 0.03736927346320823
-7.429480232856722e-06 -0.0024847661332643147 0.035673715504898895
-0.000513206085742679 -0.002493245407846768 0.03374372615233612
-0.001181944951468783 -0.0025028217731015933 0.03168024781565815
-0.0018624806523630522 -0.0025125153310915633 0.029595823051997372
-0.0026540673994166486 -0.0025229761116370756 0.027414575192146018
-0.0038257697797404178 -0.0025359728106137337 0.024928855304788167
-0.005247464089409071 -0.002550666666690305 0.022234125136322835
-0.007901193239068238 -0.002573533453510815 0.018566430997354944
-0.09141369348008488 -0.0014342079752782352 0.030011654612124294
-0.0906659548490168 -0.001434735458907061 0.028805416864331135
-0.09001090150870528 -0.0014355462789259691 0.027540372573809146
-0.088905179531936 -0.001434989920090523 0.02655499212507667
-0.08780186006282237 -0.0014344387017746496 0.025569403937698187
-0.08669784633477728 -0.0014338832009450672 0.024585546729480434
-0.0855962247038412 -0.0014333328323798285 0.023601474307467285
-0.03553746684125486 -0.0012827432982476213 0.05390564477859322
-0.03205023635123411 -0.001274566923234149 0.054634274832770224
-0.029411779751401634 -0.0012689696997294979 0.05483365446477495
-0.027018124700299018 -0.0012641049865831238 0.05488717705485019
-0.024866121352838 -0.0012599674172759747 0.05479429471124764
-0.02296505440022867 -0.0012565900692926976 0.05454631207757166
-0.0211993740242859 -0.001253619132541136 0.05421688765708049
-0.019503091429313668 -0.0012508519814704343 0.0538484271486524
-0.01793340092616963 -0.0012484679273884497 0.05340197187495038
-0.01635943101141668 -0.001246060959293918 0.05296410538032731
-0.014900255981153132 -0.0012440031944857446 0.05245443278365536
-0.013569900104301369 -0.0012423406739703266 0.05186216275629424
-0.01230259267724515 -0.0012408693450581048 0.051230813478782444
-0.011074057806509996 -0.0012395140146566988 0.050576374265049684
-0.009874926060345623 -0.001238245859242089 0.04990489817452737
-0.008758108348096705 -0.0012372325010175905 0.04917930481755106
-0.007659698370304002 -0.0012362732697856942 0.04844331359122306
-0.006716159968132573 -0.0012358012026213708 0.047600860319737204
-0.0058965010050259226 -0.0012357208123336427 0.04667205386256085
-0.005140619579695083 -0.0012358431496224003 0.04569814548222245
-0.004346234920105219 -0.001235843149658105 0.044751434754892905
-0.00346985812870515 -0.0012355810280916585 0.043863600510322454
-0.002714912974148387 -0.0012357068326183697 0.04288873661330683
-0.0021308548443054187 -0.0012363817215732791 0.041789506045644464
-0.001683403184801202 -0.0012374988292448087 0.040588896187592094
-0.0014149687143382716 -0.0012391976114371577 0.039254139558003776
-0.0012724057784611054 -0.0012413100255145902 0.03782228795367765
-0.0013645547577207373 -0.0012441909500337464 0.0362110485770738
-0.001720695796445515 -0.0012479401640230724 0.03439570836130512
-0.0020569253328142634 -0.0012516403250772592 0.03258594266296394
-0.002478228102685498 -0.001255633076209137 0.030702770592439643
-0.003089243633236094 -0.0012602618008105797 0.028665760157684628
-0.004048814169296533 -0.0012660500588594363 0.026351438532287774
-0.0051935408391489135 -0.0012724696006690295 0.023880649788761976
-0.007258186566310332 -0.0012819378701167932 0.020684874334021608
-0.011443395557848846 -0.0012984262691138582 0.015822476970013655
-0.09207086248964441 0.0 0.03458055771989588
-0.09113444961151151 0.0 0.03349803564644582
-0.09067798407330246 0.0 0.03212255716440682
-0.0895784311207653 0.0 0.031138809412219304
-0.08847817800489122 0.0 0.030156766050449924
-0.08738031028640486 0.0 0.029174525151872355
-0.08628328164552268 0.0 0.028193034959651808
-0.0851855624674886 0.0 0.02721325508461897
-0.08409021325713739 0.0 0.026233266557132984
-0.08299417990613306 0.0 0.025254992277858213
-0.03933438463470135 0.0 0.05147915546856824
-0.03407860202866403 0.0 0.05333068098089433
-0.03100389291935779 0.0 0.05380465601356926
-0.028502873160773323 0.0 0.05392216146435019
-0.026255308129854327 0.0 0.05388630961960372
-0.024246496419748076 0.0 0.05370404526549705
-0.02243720573496555 0.0 0.05339872236834331
-0.020771265356176905 0.0 0.053005513474008004
-0.019128507269065453 0.0 0.05260318333358843
-0.017523483367770265 0.0 0.052181730328458686
-0.016046738859721132 0.0 0.051679572303115706
-0.014664522017183712 0.0 0.05111823658755055
-0.01336758538033328 0.0 0.05050300277820491
-0.012151439971698541 0.0 0.049836012326221146
-0.01094904770922911 0.0 0.04916268833777088
-0.009820489489702211 0.0 0.04844114737376515
-0.008728280819706224 0.0 0.047696746869597295
-0.007770669731484325 0.0 0.046860062486425214
-0.0068569526739991615 0.0 0.04599361653616757
-0.006056272466236301 0.0 0.04504779590470903
-0.005385555123086916 0.0 0.04400919564200051
-0.004761711713695771 0.0 0.042935953018324924
-0.004190073028988994 0.0 0.04182366007117205
-0.003618866902977025 0.0 0.040709274273760365
-0.0032545064903161114 0.0 0.039442114037917586
-0.003015723826307326 0.0 0.03807934027604887
-0.0029788232831492456 0.0 0.036563120140756245
-0.002992549438688541 0.0 0.03500321297256942
-0.003111459975448483 0.0 0.033358270959425174
-0.0033708381353909633 0.0 0.03160051312181922
-0.003804481774514923 0.0 0.029702693753358322
-0.004536933395035747 0.0 0.027568202967812483
-0.0055282654296952005 0.0 0.02522373642508824
-0.007142336563238816 0.0 0.022387170003860868
-0.009963256196587 0.0 0.018600632802368122
-0.09272379762143945 0.0014215943236373452 0.03910834477055203
-0.09162623295852063 0.001421044102673616 0.03812901907758043
-0.09134074567275702 0.0014229277161049538 0.03666352190223826
-0.09024576922193417 0.0014223857239266727 0.035682364861002736
-0.08915009000988322 0.0014218395173732307 0.034702887960461004
-0.08805678441635423 0.0014212983537088496 0.033723227216808926
-0.08696278243996897 0.0014207529817926233 0.0327452505572417
-0.08587114387770661 0.0014202126447438327 0.03176708268553763
-0.08477881529327058 0.001419668105553203 0.030790602828179414
-0.08368883994792331 0.0014191285932274875 0.029813924413241155
-0.08259969272820072 0.0014185894908047014 0.028837988044775054
-0.081509864992309 0.0014180461953673125 0.027863745566877263
-0.08042237529558743 0.0014175079148436474 0.026889293556459193
-0.07933421139943442 0.001416965447382341 0.025916539334239708
-0.03729451231344855 0.001290670571145495 0.051263873736974996
-0.033079672280682315 0.0012802550071878051 0.05246305932883749
-0.03024049242964455 0.0012740391581309296 0.05279279192502884
-0.027832928635357412 0.0012691318874018026 0.052855162531992295
-0.02572178821440002 0.001265122564181141 0.05273436478223387
-0.023857660743121123 0.001261863321244792 0.05245984919854246
-0.022166526680492904 0.001259128636815106 0.052078128968574056
-0.020496631324819492 0.0012564491372397256 0.051688752726308795
-0.01887188687185254 0.0012538997599999555 0.05127545042129811
-0.01735807505936321 0.0012516869393793871 0.050793294263732414
-0.015915768236010985 0.0012496891997120817 0.05026786551899032
-0.014590469805784045 0.001248050671680207 0.04966728966220707
-0.013343271542686108 0.0012466511595479004 0.04901700235820389
-0.012134907275519913 0.0012453683655194842 0.04834326845546266
-0.01096717083782145 0.0012442086652572973 0.04764441695412919
-0.009963728830309493 0.0012435641402976129 0.04683359927482711
-0.008989205646859844 0.001243008685218376 0.046004035546424404
-0.008157940835663846 0.001242906139553005 0.045074633355043414
-0.007333475423286717 0.0012428248222697068 0.0441406525802836
-0.0065988847303685705 0.0012430299037905904 0.04314268627484763
-0.005970312272732148 0.0012435747591026116 0.04206808742547208
-0.005390959459184885 0.001244279533176213 0.04095661112799287
-0.0049834276200322325 0.0012455387790639256 0.03971866278466801
-0.004655830397783445 0.0012470603614515368 0.03841925752851133
-0.004453665356554282 0.0012489925681734347 0.03702403040098046
-0.004337379454843082 0.001251210196653316 0.03556063968169931
-0.004317356209173229 0.0012537486380045806 0.034020317386246834
-0.004482214266303297 0.0012568973395296417 0.03233575988846871
-0.004849255970351463 0.0012607163648442694 0.030491705440009398
-0.005395034708777391 0.001265133555079097 0.028503319014817896
-0.006125577913254798 0.0012701723486147575 0.026363781786471197
-0.007412388717065899 0.0012770517959823223 0.023787575695589702
-0.009767127047206947 0.0012874606185995334 0.020375634634119677
-0.09217799705697555 0.0028399267934398073 0.03943219734121045
-0.08901165057296079 0.002826432673910977 0.03968937211331586
-0.08792198008391194 0.0028253451619143434 0.03871559217302434
-0.08763786717362937 0.0028290955824423177 0.037256752948979344
-0.08654921923803793 0.002828015173173578 0.03628207006300982
-0.08546291809149165 0.0028269447343474475 0.03530720581040281
-0.08437743899075095 0.0028258751055636974 0.034333079274962874
-0.08329127355060512 0.0028247971541764273 0.03336062074504392
-0.0822074398169404 0.002823729149625192 0.03238796992504783
-0.08112292602548138 0.002822652834487169 0.03141699100731904
