# .PCD v0.7 - Point Cloud Data file format
VERSION 0.7
FIELDS x y z
SIZE 4 4 4
TYPE F F F
COUNT 1 1 1
WIDTH 779
HEIGHT 1
VIEWPOINT 0 0 0 1 0 0 0
POINTS 779
DATA ascii
0.047608538438155476 -0.05021758045008884 0.05659068975640896
0.047308229827110145 -0.05302405930270576 0.057418238306311264
0.04713659646128153 -0.05492591013569509 0.057536198603672706
0.04697759560504545 -0.05673488933269277 0.05758933586990145
0.0468321518756775 -0.058445155211121036 0.05757176626648136
0.046742432827402515 -0.05976569767693579 0.05724446934701477
0.04665317273271781 -0.06108039068019028 0.05691776731554027
0.046564252893276876 -0.06239007213613895 0.056592310656684186
0.04647578633891852 -0.06369398069240717 0.056267436394158765
0.046424680069246965 -0.06473910583610709 0.055731922696964364
0.04637975363725676 -0.06574042705749716 0.055162756152192405
0.04633502835060957 -0.06673903208966347 0.05459403212882069
0.04629027518428288 -0.06773648985585817 0.05402706269581414
0.046245608385155325 -0.06873202267148304 0.053461187432569
0.04622706056484693 -0.0695491030760314 0.052745113154342715
0.046217053200915244 -0.07030784241136273 0.05197991470892499
0.046207163815390626 -0.07106548605222035 0.05121438299035763
0.0461972786611622 -0.07182280552584497 0.05044917881403682
0.0461872841862237 -0.07258056424669146 0.049684969953218694
0.04618728418662196 -0.07327099702865891 0.04886214402676331
0.04621057347195364 -0.07380559026300937 0.04790148298935226
0.046234000034265255 -0.07433996324662967 0.046939177250724995
0.04625733646693507 -0.07487563702154665 0.0459765734580761
0.04628081047850525 -0.07541109405273316 0.04501231659015742
0.04630430832668266 -0.0759470948119984 0.044047080570784936
0.04636487376492556 -0.07623853196087305 0.04285832501238329
0.04642628620129571 -0.076526188146266 0.04166230810657595
0.04648797657271958 -0.07681384967407978 0.040462423488720145
0.04655271475224918 -0.07708332573113164 0.039241868348824094
0.04663730651289433 -0.07722455867214362 0.037898322097351556
0.04676290972833132 -0.07710002436486085 0.03630173380343488
0.04688919131787856 -0.07697481745657925 0.03469652244870236
0.047016274453548744 -0.07684816626252411 0.033081896465558924
0.04722807396908683 -0.07617490041254632 0.030941737915723022
0.04795242913173212 -0.07218548357071775 0.025632691440589273
0.049915478029768895 -0.04129210465348182 0.05093818770967257
0.049335948460150325 -0.04598040540201748 0.053219291874849195
0.049049198475386004 -0.0486559074542009 0.05392402169707883
0.04876341225466728 -0.05131647549601265 0.05463346394020335
0.048537243482819695 -0.05356402576217306 0.0550256820600612
0.04838429746872703 -0.05530902052064185 0.055022660623928854
0.04823231232513123 -0.057043052496008495 0.055019658169701724
0.048112084254132235 -0.05855847685277288 0.05484600919721411
0.04802398532503104 -0.05985418162180656 0.05449798723053867
0.04793632797698366 -0.06114434726746987 0.05415057108915877
0.04784910914181656 -0.06242901369971254 0.05380375486752742
0.047789278095688316 -0.0635280313158672 0.053306336103370044
0.047744058251567016 -0.06452783137893459 0.052728780631011885
0.047699042254825956 -0.06552495336457648 0.05215164908553416
0.04765411106575301 -0.06652019682711074 0.051575604824215526
0.047615750178123334 -0.06747058583191717 0.050963809560219064
0.04760478442526196 -0.06823870547480049 0.05019728454157285
0.04759394155217711 -0.06900569398513523 0.04943043918785189
0.047582985840771655 -0.0697731085317802 0.048664618135229376
0.04757203517202448 -0.070540169855425 0.04789914957215774
0.04757592031676358 -0.07120967730828143 0.047048512000040954
0.0475975945789496 -0.0717629682816977 0.04609484897578442
0.04761928859851451 -0.07231676361275596 0.045140316630949195
0.04764100240248565 -0.07287106399139892 0.044184913776337154
0.04766273601793966 -0.07342587010882817 0.043228639220580345
0.04771384078156334 -0.07379095811912706 0.0420996831981279
0.04777241450179506 -0.07410924242399897 0.04092509795114624
0.047831132209496925 -0.07442830914379267 0.039747625307588796
0.04788999443625325 -0.07474816116708655 0.0385672546075399
0.04797796121314266 -0.07488280843382444 0.03721244330000123
0.04808669115864898 -0.0748869773285955 0.035731223837302206
0.04819579421183146 -0.07489193766260177 0.03424399540618889
0.048316927285716675 -0.07482334990551137 0.03268108387175117
0.04846724740499755 -0.07457255252162764 0.030939042215503088
0.04856237874533921 -0.07467656698697989 0.029523462761421093
0.04870139772923013 -0.07450533854870756 0.027840032590548236
0.048958510240545955 -0.07359179024958407 0.025437882321408256
0.04926186416754169 -0.07239417197910386 0.022746443328527655
0.050721071741441706 -0.04276892412361455 0.05354382055262058
0.050115619167281356 -0.047546355338634994 0.055887990837678536
0.049848405850952356 -0.0500471345717341 0.05645507089084728
0.0495996629263366 -0.052417166117208314 0.056932766115247
0.0494493415531592 -0.05412547142862989 0.056892479735505264
0.04930771784274503 -0.05577175677330809 0.05681063997197516
0.049167148948592296 -0.057407010519508805 0.0567279439334647
0.049056248771286656 -0.05884218766572691 0.056489822575672255
0.048972303535450616 -0.060096454359897744 0.056109461322956244
0.04888840197378306 -0.06134803551274398 0.05573172077752997
0.04880490855746204 -0.06259454006715248 0.05535461194977165
0.048732326988589356 -0.06376717369132673 0.05492067873641571
0.04868888157907147 -0.0647472732465939 0.05432940133621955
0.04864599500707261 -0.06572248654925739 0.05373652829272235
0.048603304070374886 -0.06669520139206453 0.05314403563977205
0.0485605680580037 -0.06766698935007237 0.05255324600794076
0.04853120066987416 -0.06855093071849672 0.05188967256896082
0.04851838605390398 -0.06932701129339736 0.05113489613665606
0.04850569787175826 -0.07010191012518735 0.050379849577620095
0.04849301632412339 -0.0708764037709107 0.04962519782411462
0.048480221862640886 -0.0716512603308832 0.04887161255518152
0.04847771159295108 -0.07235984661897732 0.04806047723639406
0.048495528180792495 -0.07293838981900069 0.04713447184727049
0.048514195828190235 -0.07351201243055655 0.04620303233788037
0.04853287785279962 -0.07408607682751872 0.045270875464203775
0.04855157427123674 -0.07466058352045424 0.044338000397183275
0.048580126063007434 -0.07517317148354952 0.04334808209752383
0.04863299941243831 -0.07553279841893423 0.04221757458475389
0.04868586741975717 -0.07589396955782962 0.04108529768078306
0.048738971317791015 -0.07625516633211687 0.03994985865595985
0.048792070101987814 -0.07661791231016851 0.038812641250397406
0.04887151038051518 -0.07681713223913428 0.03752060984510863
0.048969132220653404 -0.07690496453011403 0.036119955564696216
0.049067144844627555 -0.07699314841701516 0.03471369441339073
0.049169485207337583 -0.07705720230951152 0.0332787373325531
0.04931946822008697 -0.0768283963627347 0.031560316567026014
0.049501258288005216 -0.07640685932816821 0.02964932890597677
0.049684393459312776 -0.07598220325141153 0.027724201440635643
0.04999442837691186 -0.07478037554616113 0.02504061227526455
0.05049428178891888 -0.07241978584260717 0.02121804466821675
0.05148375729093722 -0.04516061943033162 0.05542658081411195
0.05104868966669949 -0.04872908235108575 0.05682403676236514
0.05076488652862719 -0.05129694210570368 0.05744950667048315
0.05054770727965271 -0.05342244467961049 0.05773691880303722
0.0503929553454297 -0.055135688418279316 0.05770490388671223
0.05023914806602594 -0.05683847397456576 0.057673084399559926
0.05009264348320122 -0.05848964943540352 0.0576079319574907
0.050002786351467585 -0.05977052317250697 0.05724841250367657
0.049913374977437586 -0.06104601019739542 0.0568895236683673
0.049825023911313916 -0.062312173504779356 0.056527976282783166
0.0497379697769517 -0.06356753776709384 0.056162455560819946
0.04967993875297937 -0.06463446638250864 0.05564458313810444
0.049634052613678474 -0.06562210900652832 0.05506347554076152
0.04958837351133926 -0.06660714816945629 0.054482781857187856
0.04954265628409357 -0.0675911534614621 0.053903815418098466
0.04949702327577301 -0.06857334604800708 0.05332591553386151
0.04947314220627969 -0.06941637970121056 0.05263136830798065
0.049461332036145146 -0.07018239825531059 0.05187184040366993
0.049449405836408694 -0.07094881900590255 0.05111334004647938
0.049437485386616666 -0.07171487024426532 0.05035520538288052
0.04942557068261198 -0.07248055223756072 0.04959743614846951
0.04942265367163184 -0.07318949432033905 0.04879043466474037
0.04944307998547637 -0.07375234075843179 0.04785438550041121
0.0494635231906356 -0.07431565263618922 0.046917562280540226
0.04948386147158374 -0.07488018922189371 0.04598064215185893
0.049504826174406456 -0.07544140215504086 0.04503954771255403
0.04952629682503041 -0.0760000645356862 0.044094922203961995
0.04958384692961805 -0.07633616827277473 0.042946971087545416
0.04964226663141311 -0.07666851389650109 0.04179220533396938
0.04970082415580603 -0.07700164358342676 0.04063471527998719
0.04975964318878763 -0.0773348032734677 0.03947379328041073
0.049825888589448336 -0.07762408830937523 0.03826871347820021
0.049934084965669694 -0.07765868053013364 0.03682235115100729
0.05004287686316671 -0.07769266305624284 0.03536898144681211
0.05015214384776014 -0.07772679398183374 0.03390926497221852
0.05027345587238561 -0.07769082412867512 0.032376663484168955
0.05046609393378494 -0.07722604887338413 0.030428787454001238
0.05066481151210451 -0.07672990382180078 0.028439342342325535
0.05092851569743469 -0.0758473462278475 0.0260664304572491
0.051362447477072234 -0.0739478108842268 0.0226947747709354
0.05305856432384906 -0.04150874956255729 0.05398782799626689
0.0522610541920004 -0.04735669376947249 0.0571553468009009
0.051951403930729785 -0.05005603931258473 0.057874230630408974
0.05179507645485384 -0.05176633774458289 0.05782299123144108
0.0515907760172955 -0.05377851564928354 0.05802175072725774
0.051429136439506876 -0.05551343434142292 0.05800869001793568
0.05126850656736704 -0.057237515606085865 0.057995710894260755
0.05112796474009268 -0.05882982885468013 0.05788443579509395
0.05103507798979825 -0.06011677813881444 0.05753135496148837
0.05094240175425415 -0.06139985764851941 0.05718021017856656
0.05085006149609875 -0.06267828563456834 0.05683033839411228
0.05075792992795019 -0.06395287602285826 0.05648238750724749
0.05070391276764296 -0.0649858766917486 0.05593789527164844
0.05065613278676988 -0.06597836292362874 0.055362408006473796
0.05060844277044652 -0.06696898041101035 0.05478800432172465
0.050560842464821565 -0.06795773442689573 0.05421468115988204
0.05051333161699779 -0.06894463022446773 0.053642435474919425
0.05049147183585354 -0.06977108620401479 0.05293535422394713
0.05047968038289623 -0.0705346176370773 0.052175289094942456
0.05046801846999474 -0.07129702641397723 0.051414915364467906
0.05045636194416371 -0.07205908300595487 0.05065489287885366
0.0504447108016717 -0.07282078765698219 0.049895221394774036
0.050441365191908 -0.07353121369854759 0.04909109312269039
0.050463925673534284 -0.07408295157663097 0.048146800227598596
0.05048650634506052 -0.07463518321780349 0.047201662262794264
0.05050923147020231 -0.07518715210902 0.04625500133976734
0.050531852714228775 -0.07574037428915431 0.045308167195705795
0.0505544942297951 -0.07629409222743017 0.04436048456662839
0.05061043846232115 -0.07664682809769685 0.043229025721252146
0.050671757689195164 -0.07696862962849133 0.042066113614222744
0.05073335102571337 -0.07729045655037409 0.04089968715042497
0.05079496863543616 -0.0776138222694685 0.03973111829224962
0.05085673610108602 -0.0779379744239792 0.03855970743855558
0.050969966851770944 -0.0779557970135365 0.03709923701591794
0.05108421125733022 -0.07797066368127015 0.03562940516727142
0.0511185463373133 -0.07846474437760576 0.0346041632818444
0.05123524813366135 -0.07847016075626306 0.033114358950935674
0.05141136771569262 -0.07812639120477272 0.03128546284792871
0.051620734343374226 -0.0775907216063384 0.029262674610621764
0.05183168235675437 -0.07705144356657123 0.02722408639301449
0.05223420116082485 -0.07538968213585023 0.024088243217800676
0.05336823774509131 -0.04738659048029992 0.057178881713118634
0.053052055343837945 -0.05008551990096455 0.05789756245957989
0.05274994446133853 -0.05268786141965143 0.05855622102031832
0.0525821076020133 -0.05444304950871437 0.05855333143451158
0.05241533538337099 -0.056187103901333524 0.058550460178220076
0.052249747884061365 -0.05791932022777441 0.058546952212937875
0.052127537879443596 -0.05937778362020779 0.05832982310224971
0.05203196215918699 -0.06066796616136988 0.057981758591742094
0.05193673627323599 -0.06195342626767991 0.05763496809627494
0.05184185830436012 -0.06323418981995188 0.05728944463373936
0.05175128490240115 -0.0644859170672864 0.05692495155667299
0.05170229259595508 -0.06547983792714701 0.05635019058579582
0.05165339296260818 -0.06647187870149035 0.055776516823984656
0.05160458573966034 -0.06746204471978762 0.05520392718933248
0.05155587066540345 -0.06845034129138561 0.05463241861156942
0.05150724747911667 -0.06943677370560197 0.05406198803200818
0.05148853177020964 -0.0702402222045782 0.053337407007633564
0.05147665182702637 -0.0710017351423301 0.052577726334280206
0.051464903659936515 -0.07176213291900047 0.05181773460064232
0.05145303461641718 -0.07252294548953497 0.05105875293766621
0.05144117104620922 -0.07328340721765697 0.0503001212727911
0.05143625053251884 -0.07400183848099279 0.049505167741767664
0.0514595997951877 -0.07455067643208346 0.04856048794886203
0.051483096650625074 -0.0750992569823396 0.047614278005560506
0.05150661497355972 -0.0756483387337849 0.04666720357381998
0.05153015479342545 -0.07619792237360257 0.04571926346836025
0.051553716139709126 -0.07674800859023706 0.0447704565017375
0.05160420480254548 -0.07713911458926975 0.04367598305181203
0.05166751851310934 -0.07745572428804309 0.04251067298348221
0.05173098777495804 -0.07777311184434194 0.041342499941592725
0.05179474108131629 -0.07809052702781011 0.04017075881616439
0.051858523485658004 -0.07840947878497517 0.03899682432569207
0.05196002729423008 -0.07850907148143044 0.037614839105109654
0.05207808959365648 -0.07851456298322773 0.03613891581947626
0.052196689631437955 -0.07852007949718093 0.034656270146040224
0.05231596159659335 -0.07852486159899114 0.033166137043072474
0.052494318263495446 -0.07818973551965691 0.0313457349400148
0.052707918012557156 -0.07765520304795565 0.029324348117539645
0.052923263141330064 -0.07711630277089737 0.027286444011840216
0.053330373682049494 -0.07547729960116167 0.024172919414214455
0.054475224088798596 -0.04741648186598463 0.05720241243334456
0.054152511872434 -0.05011499526942764 0.05792089015755081
0.053842536451569126 -0.05272690845253786 0.058587289617310634
0.05367137798257488 -0.054480941857689036 0.05858364266904331
0.05350117054449386 -0.056224675593046336 0.05858067561714253
0.05333217210572885 -0.05795657473895327 0.05857707260991912
0.05320665120151126 -0.059419609813248786 0.05836382017036379
0.053109109513785384 -0.06070954924500699 0.0580157382340073
0.053011924810393456 -0.061994767739715406 0.05766893021241942
0.052915095135170724 -0.0632752911666587 0.05732338912494184
0.05282213720906812 -0.06452992934600044 0.05696149330612316
0.05277213804269821 -0.06552367134532211 0.05638677708615564
0.052722233440945426 -0.06651553385668912 0.055813147840678645
0.05267242313578454 -0.06750552220714584 0.05524060248887558
0.052622706860202435 -0.06849364170362332 0.05466913796156048
0.052573084348193154 -0.06947989763303503 0.05409875120112406
0.052553596956056964 -0.07028552313595732 0.053376230217838494
0.052541473026287575 -0.07104691535674046 0.05261665058900317
0.052529483578191205 -0.07180719274412534 0.05185675999405848
0.052517370770329905 -0.07256788481003013 0.05109787918145753
0.05250526354738164 -0.07332822613985063 0.050339348269813455
0.05249972699781702 -0.07404957993521116 0.049547172594055666
0.05252368419807128 -0.0745975980417562 0.04860198861652437
0.05254766327308528 -0.07514611653084596 0.04765594161356895
0.05257166425283294 -0.07569513608812345 0.04670903040263563
0.052595557953189466 -0.07624541107457722 0.04576193095758696
0.05261960271437288 -0.0767954338228507 0.04481329041560522
0.052670608919583764 -0.0771895353690259 0.043721761145483706
0.05273535024806642 -0.07750540209656914 0.04255601270296272
0.052800120707871635 -0.07782279900500277 0.0413880854983501
0.05286505046770518 -0.07814097653685076 0.040217285829368565
0.052930270979330916 -0.07845918458213624 0.03904290500940366
0.0530330673573961 -0.07856338353429376 0.037665453058128684
0.05315354625121257 -0.07856899743887186 0.036189908594973175
0.05327457379192809 -0.07857463690853383 0.034707644673574733
0.053396153735806626 -0.07858030211831052 0.0332186152897368
0.05357681892318138 -0.07825305351953182 0.031405981993379406
0.053794642735185326 -0.07771965726920949 0.029385995589443048
0.05401438124086994 -0.07718113448355018 0.027348775199332043
0.05442578361130633 -0.07556564880036387 0.024258302780624907
0.05558201327580797 -0.047446367927945654 0.05722593896269579
0.05525263382078016 -0.05014530734697448 0.05794488005239362
0.054935008318313834 -0.05276511575996662 0.05861769006899459
0.054760259890916554 -0.054519648927762066 0.058614605623591276
0.05458675608757339 -0.05626223864756347 0.05861088410996684
0.054414348279401 -0.05799382071290138 0.0586071861045207
0.054285620539190775 -0.05946062115678924 0.058397154914418326
0.054186113408250684 -0.06075032223448523 0.058049055907334335
0.05408683649629008 -0.06203609856669956 0.057702883583629294
0.05398805612197111 -0.0633163819494712 0.05735732489170953
0.053892693636525255 -0.06457392946401169 0.05699802495899642
0.05384182086955245 -0.06556671024620758 0.05642270042565989
0.05379091160495127 -0.06655839773685424 0.055849114898927577
0.05374009852227441 -0.0675482116508283 0.0552766130366214
0.05368938134920704 -0.06853615729268908 0.054705191770619166
0.053638759814461305 -0.0695222399469903 0.054134848044369965
0.05361835367495998 -0.0703308109471632 0.053415042183964534
0.05360598590040409 -0.07109208248895837 0.052655563572982955
0.053593755311495926 -0.07185223952489539 0.051895774090025604
0.053581398880898176 -0.07261281112405338 0.051136994101214805
0.053569048146717306 -0.07337303209340851 0.050378563916258556
0.05356300624533813 -0.07409654918869685 0.049588498033069695
0.05358744493443913 -0.07464450537910716 0.04864347666077312
0.05361177436408219 -0.07519371727175272 0.04769826422813239
0.053636257585553314 -0.07574267364445875 0.04675151881377021
0.05366076317904999 -0.07629213163686688 0.04580390829213693
0.05368529117525 -0.07684209193684177 0.04485543147693016
0.05373666152939921 -0.07723993952912789 0.04376752414981949
0.05380270232240748 -0.07755581608007878 0.04260202431132554
0.053868772804676585 -0.07787322245894696 0.041434346568435476
0.053935138919189766 -0.078190656749411 0.04026310335960298
0.05400153527052729 -0.0785096269079621 0.039089668505712216
0.05410572472043359 -0.07861767621674443 0.037716048959663684
0.05422861847555195 -0.07862341243635329 0.03624088314257179
0.05435207177431448 -0.07862917477337505 0.03475900079494265
0.05447608844690119 -0.07863496340658843 0.03327035594087885
0.05465900673511576 -0.0783155828266272 0.03146547860585713
0.0548810466752577 -0.0777833174589509 0.029446883607048446
0.055105036949487006 -0.07724593872200525 0.027411079972291474
0.05552070546516887 -0.07565316607374539 0.024342882148495282
0.057295129344930924 -0.04316403815413461 0.05528392313280439
0.05668846113820855 -0.04747710232483532 0.05725013330758677
0.056352555449395235 -0.05017561390503539 0.057968865578948425
0.05602722746831932 -0.0528033142290672 0.05864808348827599
0.05584902523668998 -0.054557523612644376 0.05864490272808193
0.055672092098675685 -0.056299793067859816 0.058641085659085435
0.05549627649033244 -0.058031058152549886 0.05863729269911255
0.05536417886699572 -0.05950242594293437 0.05843113458262955
0.05526270779499768 -0.060791884074653746 0.05808301819048617
0.05516160799345311 -0.06207662423410171 0.05773617551435595
0.055060877428432325 -0.06335667226773217 0.05739059957644216
0.05496308988187931 -0.06461713203359593 0.057033894437230115
0.05491107841273693 -0.0656105196856826 0.056459266911684625
0.054859165287244986 -0.06660202903344581 0.055885725895877425
0.05480735022674358 -0.0675916653991207 0.05531326831114919
0.054755632953624636 -0.06857943408485351 0.05474189109046057
0.054704013191326936 -0.06956534037279644 0.05417159117833753
0.054682667865626935 -0.07037685289864543 0.0534545004535017
0.05467019058327256 -0.07113723654466492 0.052694465291114045
0.05465758492145823 -0.07189803643839737 0.05193543786061744
0.0546451190818349 -0.07265772443725027 0.05117609770185344
0.05463252497783688 -0.07341782508395844 0.05041776821705213
0.05462582835143493 -0.07414426138539904 0.04963047714341773
0.054650748113285075 -0.07469215467364648 0.048685620942497676
0.0546756906218085 -0.07524054807702779 0.047739902280053315
0.05470065590816424 -0.07578944228060963 0.04679331997466646
0.05472564400356763 -0.07633883797071422 0.0458458728427637
0.05475052041077359 -0.07688948803939283 0.044898239080866986
0.05480249758916333 -0.07728957514690266 0.0438125893783014
0.054869702202800935 -0.07760621342849705 0.042648020737247716
0.054937207292450385 -0.07792287703644107 0.04147990223171988
0.05500474290627498 -0.07824107313465511 0.04030959982441634
0.055072580885926044 -0.07855930002942213 0.03913571889680745
0.05517786295126247 -0.07867270319902242 0.03776732916265668
0.055303169214692034 -0.07867856334296758 0.036292547070614356
0.055429045902477374 -0.07868445016371522 0.03481105141451191
0.05555563543201729 -0.07868960506997696 0.03332207801571968
0.055740611136474584 -0.07837884856220978 0.03152567592976696
0.0559669976466041 -0.07784695110601059 0.02950774623781033
0.05619537228289021 -0.07730994451297996 0.027472617093471208
0.056439195760437585 -0.0766948450500019 0.025349592548984945
0.0567384053138165 -0.07578597827301908 0.02292789122016814
0.05763420047344142 -0.07166168496377162 0.017349970260850056
0.05841000240937578 -0.04249181860009976 0.05618339396931943
0.0577031105595032 -0.04732628485885182 0.05854297278644366
0.05740263258222857 -0.04978392883666549 0.05906608422509313
0.05710785149358263 -0.0522011426093848 0.059571930249901706
0.05691956597876487 -0.05399546491527518 0.05959664337838744
0.056766822012997264 -0.05558012171115784 0.05946290983596625
0.056614895631770676 -0.057156296398497064 0.059329892121982475
0.05646378028824377 -0.058724056898118215 0.059197584504413925
0.056377610435765634 -0.05991587157688777 0.05876719049298279
0.05630342142334428 -0.06103704048044384 0.05828334789764472
0.0562297057414427 -0.062153674230884026 0.05779947226724863
0.05613328967830268 -0.06339774213792904 0.057424518072045905
0.05603305753882598 -0.06466110806224507 0.05707040608960673
0.05598004087768632 -0.06565431703526176 0.05649582330661912
0.05592712444700226 -0.06664564830068481 0.05592232679900416
0.05587430796280669 -0.06763510717832566 0.05534991348919038
0.05582159114220423 -0.06862269896791867 0.054778580311220626
0.05576897370336611 -0.06960842894921643 0.054208324210697656
0.05574680546086467 -0.07042211426446493 0.05349328975574946
0.05573408720871179 -0.07118237752953954 0.05273335574828947
0.05572123809689445 -0.07194305692659053 0.05197442918512124
0.055708531506775544 -0.07270262475526351 0.051215189988286225
0.055695694174283675 -0.07346260511712549 0.050456961177117454
0.05568845871205235 -0.07419120185900752 0.04967177726073785
0.05571385937283827 -0.07473903325594977 0.04872708355382366
0.05573914646636967 -0.07528811962453924 0.047782198938280895
0.05576459339823391 -0.07583695066899132 0.04683578231588714
0.05579006357559561 -0.07638628306468637 0.04588850115211662
0.055815557030320505 -0.07693611749890966 0.04494035426180698
0.05585150671409858 -0.07742937068583278 0.0439395127084638
0.05588997744923582 -0.07790974981190402 0.04292505096229454
0.055929189625573444 -0.0783870415512315 0.04190575063103125
0.05598624858670357 -0.07876831542841256 0.0407958485437786
0.056043147598965386 -0.0791518672067072 0.03968506931937188
0.05611193957935648 -0.07947248807446294 0.03851265680130728
0.05621579252974184 -0.07960557310280475 0.03716094558783056
0.05632589502280682 -0.07970757188815619 0.03577448413428408
0.05644203787899304 -0.07977984003309929 0.034354060039322454
0.0565585198938911 -0.07985316154788358 0.03292848418807304
0.05674016899408674 -0.07958085500547885 0.031166144863163603
0.05695009927622825 -0.0791621436387639 0.029253377870217145
0.05716993139089281 -0.07869591297025752 0.027283485747681413
0.05752180668011565 -0.07753385860589085 0.024625876350240716
0.05802630690086255 -0.07557182547820368 0.021168224950498638
0.05876114778616846 -0.04762102791576828 0.058773757342406585
0.05839852323961971 -0.05039910426020394 0.059550354875301525
0.05807834094075217 -0.05292715922319108 0.06014652175365026
0.057893208256684994 -0.054681515304578654 0.060142513870614034
0.057709252093984476 -0.05642472242314256 0.06013853145772763
0.057530605997762684 -0.058133480291025164 0.06011575080639814
0.05738945066047549 -0.05962664051415484 0.05992732637898229
0.05728708479854798 -0.0608982645106369 0.05956569681295243
0.05718508346744878 -0.06216536017962254 0.05920535503096508
0.057083304005232816 -0.06342873950874262 0.05884694138061819
0.056982026417330266 -0.064686846294081 0.058489154347828254
0.05691046449276766 -0.06577684754699553 0.057996762867638385
0.05685764382596942 -0.06676086779124252 0.05741942957136803
0.05680492111780747 -0.06774306311947764 0.056843166969298864
0.05675229609603005 -0.06872343860359992 0.05626797208570561
0.05669976848939408 -0.06970199929672655 0.05569384195587607
0.05664747660466352 -0.07067798614396131 0.0551201222395441
0.05663431481629946 -0.07143742266807579 0.05436341605064421
0.05662102069440706 -0.07219726639209834 0.05360771619826188
0.056607871195570945 -0.07295599548793225 0.052851714566349905
0.0565947278029188 -0.07371437225557309 0.052096063996084685
0.05658159051219802 -0.07447239694037966 0.05134076424299272
0.05657025585936407 -0.07522029471086505 0.050577214557121
0.05659458948532772 -0.07577427701628514 0.04964272365114342
0.05661908249257621 -0.07632798622477638 0.04870676171778543
0.05664345815114868 -0.07688292377003236 0.04777065862377633
0.056667993484590735 -0.077437591520713 0.04683307725760688
0.056692411284773696 -0.07799348678153678 0.045895357796473524
0.056724630554394986 -0.07850809378879575 0.04491890825712702
0.05679140751430923 -0.078838385793908 0.0437725942854163
0.05685820227029887 -0.07917020244702894 0.042624262717266825
0.05692529427111734 -0.07950205440177688 0.04147253863554268
0.05699254479451126 -0.0798346904444478 0.040318093301409175
0.057060516819671246 -0.08016512824755584 0.03915813520493616
0.05718098838961902 -0.08021920241928027 0.03773577749536233
0.057311046249222085 -0.0802255506435306 0.036262243966915186
0.057441697089398946 -0.0802319278116348 0.03478199206894933
0.05757294497483373 -0.080238334121992 0.03329497574928342
0.05775804861954096 -0.07996534243309966 0.031533889247167546
0.058007487947262966 -0.07936005110780897 0.029443652151958488
0.05826085007159097 -0.07874032242516504 0.02732640440223294
0.058742812794083006 -0.07693558775603054 0.024044683812219747
0.060753224121414276 -0.04267220634062591 0.05489881758400361
0.05999529727888247 -0.04763239564066063 0.05737238135611117
0.05934458313085631 -0.05197646941422551 0.059394117088875376
0.05907030247546371 -0.05420964890266672 0.05976706339482851
0.05886177073843478 -0.05607109238499969 0.05985565210836957
0.05865485197287983 -0.05791863121906793 0.059942967556155025
0.05848517075815575 -0.05955529230261897 0.05986964111114873
0.05837432741296963 -0.06086319652396155 0.05953719293428339
0.05826404730645902 -0.06216536017961277 0.059205355030957085
0.05815403975186451 -0.06346340071879858 0.058875415645893936
0.05804458962439672 -0.06475576586442888 0.05854607315795968
0.05796843298625355 -0.06586336885554028 0.058068598275195504
0.057912512657018536 -0.0668586820843377 0.05750107236397961
0.05785655823354525 -0.06785284974681438 0.056935288867856815
0.057800853436453 -0.06884432845524369 0.05636994834491821
0.057745255802310075 -0.06983389979146631 0.05580569540437791
0.05769032927661687 -0.07081851566888986 0.05523992372791153
0.05767735421696554 -0.07157529382159761 0.054481572578808646
0.05766438499241081 -0.07233173163879736 0.05372356247261445
0.05765142159901703 -0.07308782935002084 0.052965893179323265
0.057638464032852985 -0.07384358718458878 0.052208564469132135
0.05762537154214897 -0.07459975868215829 0.05145223543464528
0.05761369186810797 -0.07534807362817741 0.05068963958972833
0.05764142122671468 -0.07588612371705189 0.049741648491745005
0.05766917729034729 -0.07642469198026303 0.048792744421784606
0.057696819000528365 -0.07696452762824096 0.047843595024909036
0.05772462845402771 -0.07750413352881574 0.046892863698498544
0.05775246472836831 -0.07804425985259417 0.04594121543875829
0.057788394799886185 -0.07854240366512394 0.04495005892040538
0.057862517777047234 -0.07884062383451879 0.043774636890283325
0.05793683114786711 -0.07913961001780884 0.042596195649235336
0.05801147828642639 -0.07943861871383007 0.04141403513081393
0.058090179505036275 -0.07971823711852327 0.04021013307975335
0.05816981164278894 -0.07999487966779573 0.038999478826411416
0.05831661260254329 -0.07992431112225112 0.037459531034780225
0.05846546029049747 -0.07984662404567949 0.03590542397762092
0.058621040938391496 -0.07973764661645494 0.03431412108215792
0.058801769514343113 -0.07950256591961907 0.0325948925779912
0.05921366342128385 -0.07808132322074252 0.02973191229050326
0.05943817414823703 -0.07763264944729686 0.027782875467689316
0.0597976196065178 -0.07649764061995296 0.025159008160437202
0.06026301319737467 -0.07482935655268602 0.021998577338844638
0.061497118496476814 -0.044768735664116266 0.05654040532502386
0.06094669010795438 -0.04850855185118402 0.05806209801500134
0.060614623229077555 -0.05103954922606718 0.05865261011841655
0.06032293008247404 -0.053342132149791444 0.05907680535505444
0.06014055685607324 -0.05504171354016607 0.05903222087668253
0.05995928303722809 -0.056731049278497425 0.05898790516862623
0.0597790987144121 -0.05841023173276233 0.05894385580783157
0.059648074739651835 -0.05981882692520757 0.058688310886845785
0.059542694612596946 -0.061085707921926746 0.05832311652726302
0.05943753916175989 -0.06234891359618688 0.05795986186331081
0.05933290097486924 -0.06360687669562981 0.05759723664997102
0.059230674423749775 -0.06484943925038228 0.057226770433640606
0.059175976901657885 -0.06583485341624351 0.056646511859845095
0.059121380308980925 -0.0668184492680251 0.05606732399556813
0.05906702955553776 -0.06779945700474849 0.05548855027526428
0.059012633718130536 -0.0687794344145064 0.05491149414325669
0.05895833797665752 -0.06975760852904173 0.05433549987507269
0.05893375680689189 -0.07057697771492732 0.05362600879942747
0.05892002919652351 -0.07133835757337037 0.05286773773467446
0.05890630797988988 -0.07209938281359146 0.05210981984019891
0.0588925931525249 -0.0728600536832833 0.05135225486932199
0.05887888470996735 -0.07362037042990399 0.05059504257559133
0.058869220487584285 -0.07435916209961635 0.04981955543826794
0.05889432520093999 -0.07491583374522115 0.048883457949309206
0.05891930687086366 -0.07547373445596717 0.047947232188145006
0.058944454330079346 -0.07603135563692681 0.04700953879057851
0.058969478554471204 -0.07659020500070313 0.04607172025117601
0.05899466886881504 -0.0771487781456881 0.0451324268637775
0.0590438084111728 -0.07758404887756365 0.044079948314265094
0.059112654209748046 -0.07791875651784952 0.042933271162281794
0.059181514992821 -0.07825499620041387 0.041784605434682986
0.05925068248907764 -0.0785912695438532 0.0406325681399593
0.05931986541617213 -0.07892908051112463 0.03947853076973307
0.05941711091161747 -0.07912497856668815 0.038188809165784376
0.05954446512368058 -0.07916950621300956 0.03675244952132556
0.05967251462941953 -0.07921347072173879 0.03530920887012701
0.059801116059257975 -0.07925762472806552 0.033859747505351145
0.05995494471236434 -0.07917693577902041 0.03228505562015127
0.06018092191010385 -0.07873504445178975 0.030357166314826822
0.060408609021672485 -0.07828980944167374 0.028414689145680072
0.06067890811318766 -0.07763543743196627 0.026258609775143993
0.061149394047701845 -0.07598221606063582 0.02311852718023072
0.06223348722834865 -0.04683104317923231 0.058155197303889405
0.06189328171208739 -0.0493792983312209 0.05874755609398097
0.06155693037900779 -0.05189901130414459 0.05933281439813448
0.06131166506912109 -0.05392208396907827 0.05953825627760728
0.06112662771154351 -0.055616934306750854 0.05949235734315267
0.06094270387135627 -0.05730158537792168 0.05944673461918665
0.06075988352732863 -0.05897612897208948 0.05940138561992042
0.06064722905731298 -0.060273070621542024 0.059057528182561825
0.06054008424932375 -0.06153816831374742 0.05869284481358755
0.06043346662695817 -0.06279801286925568 0.05832879796842244
0.0603272238746882 -0.0640534277813618 0.05796603112060511
0.06023232462944586 -0.06524655726103518 0.057556482670121145
0.0601767714768764 -0.0662303763778882 0.05697664356257326
0.060121468437682485 -0.067211606363201 0.05639722189768742
0.06006611949155093 -0.06819180738993025 0.05581951622515541
0.06001087236223185 -0.06917020529391793 0.05524287326751648
0.05995572676903866 -0.07014680504597703 0.05466729009509941
0.05993384371170317 -0.0709489420438365 0.05394478479123027
0.05991989976430593 -0.07170932915514144 0.05318734206883424
0.05990596230367565 -0.0724693625320294 0.052430251711117926
0.05989203132528747 -0.07322904242127765 0.051673513472254184
0.05987810682461953 -0.07398836906943979 0.05091712710664997
0.05986667891629818 -0.07473451967686723 0.050149810137160744
0.059892177934964354 -0.07529067395553679 0.0492149921635715
0.05991769868448325 -0.07584730220174685 0.04827937751649053
0.0599430943344067 -0.07640515622154304 0.04734363658915952
0.05996865850376255 -0.07696273317605462 0.04640642812025264
0.05999409737906927 -0.07752153501924774 0.045469096500081074
0.060037378302256875 -0.07799027074150466 0.04444876574685808
0.06010728940376353 -0.07832500574320866 0.043304044883254234
0.06017721550473429 -0.07866126980943378 0.04215734173952884
0.06024745284555287 -0.07899756854887513 0.041007277022780786
0.06031770563695344 -0.07933540191527017 0.039855218584415986
0.06040168874410719 -0.07960587642919192 0.038636962762205684
0.06053094798554747 -0.07965136258105099 0.037203839974422726
0.060660912037196105 -0.07969629179850934 0.03576386212598526
0.06079143537293386 -0.07974141436326632 0.03431768751243247
0.06092252161075948 -0.0797867315260824 0.03286527604700146
0.061144042123487743 -0.07938596883117394 0.030979745280310833
0.06137487635562819 -0.0789441472577726 0.02904378949532921
0.06160746010792837 -0.07849897706601622 0.027093160870681365
0.06202916822840228 -0.07712648269127736 0.02423012943762065
0.06251557545294653 -0.07544534947267234 0.02104472105096722
0.06387575875359316 -0.04329274653843235 0.05680716903119587
0.06317927779334853 -0.04770952006511303 0.05884304691823711
0.06283495811324272 -0.05024552343617744 0.05942945491300611
0.06249405744717877 -0.05275569234519917 0.060010817681050765
0.062296927527847726 -0.05449999894440527 0.059998086542213835
0.062109245829248115 -0.05619014093159974 0.05995088263680848
0.061922691589731 -0.057870129739522935 0.05990396229911088
0.061752563242738485 -0.059459844929240446 0.05979247159030393
0.0616434262263396 -0.06072683704677434 0.05942635754390024
0.061534826336423584 -0.061988565448168886 0.05906088710786456
0.06142660842380881 -0.06324585598494975 0.05869670213730749
0.06131877047674611 -0.06449873202989603 0.058333795862101856
0.061231628142319965 -0.0656419048597392 0.05788472499975417
0.061175223513644086 -0.0666241369442242 0.05730530424434804
0.06111892270563341 -0.06760456109219548 0.05672694999445527
0.061062725431906675 -0.06858318229070598 0.056149659308202815
0.06100678085415604 -0.0695592376247734 0.05557277807849359
0.060950789519862325 -0.07053427090338571 0.05499760492703765
0.06093155225233015 -0.0713200217829833 0.054262802683513967
0.0609173930349498 -0.07207941871307211 0.05350618651017186
0.060903240396652514 -0.0728384627892516 0.05274992189865613
0.060889094332853624 -0.0735971542573966 0.051994008603995
0.0608749548389727 -0.07435549336315339 0.051238446381444425
0.060861714322335 -0.07510896543674789 0.050479262582444506
0.06088760565727483 -0.07566460321790447 0.04954572067341945
0.060913519030585235 -0.07622071395079522 0.048611384145534176
0.0609394544704163 -0.07677729823953333 0.047676251983802986
0.060965262760556846 -0.07733510501863938 0.04674099552798788
0.06099124229084736 -0.07789263718898748 0.04580427162730183
0.061028308878810736 -0.07839541351953849 0.04481660345450467
0.06109927938080373 -0.07873017455501224 0.04367383253722845
0.061170264889955216 -0.07906646168474374 0.04252908560623231
0.06124156613327014 -0.07940278449160004 0.04138098705239723
0.06131288283954627 -0.0797406389360984 0.040230901101376615
0.06138451714159502 -0.08007853446119745 0.03907743757699872
0.06151430702875755 -0.08013169309195928 0.037653801044433166
0.061646172854267337 -0.08017758068580949 0.03621707258043144
0.06177860524557389 -0.08022366543720938 0.0347741711659626
0.061911607861940776 -0.08026994861953529 0.033325056931954145
0.062103050562263624 -0.08003411426947155 0.03159966631759065
0.06233700293887411 -0.07959568103643633 0.029670193957796687
0.0625727246548148 -0.0791539320125092 0.027726129348989492
0.06290225045111308 -0.07826302192047807 0.0253342248809032
0.06339010710441392 -0.076614221905628 0.02218612572229839
0.06459741649366159 -0.04537812010978948 0.05843129021145693
0.06412030073073498 -0.048582571711972666 0.059526648556766204
0.06377175749577461 -0.051107262290903954 0.060107822122619115
0.06347019372180915 -0.05338023246812795 0.06050509762115236
0.06327873572033992 -0.05507588778733802 0.06045630467175778
0.06308842931219112 -0.05676134397503246 0.06040780520516886
0.06289926413850457 -0.05843669277484376 0.060359596581440134
0.06274756595707529 -0.0599149191597344 0.06016040062881972
0.06263698096294291 -0.06117853380054944 0.0597935046397397
0.06252678506842022 -0.06243770234118812 0.0594278995951078
0.062416976223509314 -0.06369244820622899 0.05906357869349982
0.06230739919240525 -0.0649435767414418 0.05870118108442185
0.06222829544838193 -0.06603704837710261 0.05821279788828043
0.062171044023514276 -0.06701769515140887 0.057633796022727335
0.06211389784700181 -0.06799653915033316 0.05705585856724482
0.06205700859948652 -0.06897281626894847 0.05647833384144968
0.0620000717721361 -0.06994807269052572 0.055902515605927905
0.06194323932721751 -0.07092154117201133 0.05532775301944326
0.06192689090288314 -0.07169022008416204 0.05458006517738817
0.06191251747679841 -0.07244862938908064 0.05382427376555421
0.061898150721400286 -0.07320668671732516 0.05306883311543281
0.06188379063204578 -0.07396439231386792 0.052313742982899814
0.06186943720409702 -0.07472174642344992 0.05155900312405409
0.06185509043291935 -0.07547874929059073 0.0508046132952254
0.06188076830579035 -0.07603687521153385 0.04987498338191021
0.061906921213773204 -0.0765932189394547 0.048942584558756164
0.06193324760236356 -0.07714928557111839 0.04800872912187437
0.061959596391473054 -0.07770582534711201 0.04707407908884709
0.061985815986845744 -0.07826358433856567 0.04613930674213085
0.062016762417027874 -0.07879873697984369 0.04518278936505893
0.06208863467922603 -0.07913426725755146 0.04404263805262565
0.06216067372263959 -0.07947057614089481 0.042899840993184335
0.062233032962422184 -0.07980692169690634 0.041753702217423916
0.062305407670267474 -0.08014479590879858 0.040605582339632906
0.06237810445963153 -0.08048271218742115 0.03945409490015145
0.06249471118971298 -0.08060975918455554 0.03810164086654555
0.06262831198751517 -0.08065734466548413 0.03666884709048718
0.0627626406772363 -0.08070438527770546 0.03522920540221597
0.06289754683684633 -0.0807516281143294 0.03378337479235416
0.06305797350146658 -0.08067949852465212 0.032216946411339986
0.06329501533107416 -0.08024442876336596 0.030293919825084503
0.06353384601759088 -0.07980607571007053 0.028356380950407156
0.06377448588736237 -0.07936440205751616 0.026404164887708692
0.06426176491295961 -0.07775644014937516 0.023301502560980403
0.06513622122492202 -0.07432434250974418 0.018384848343878157
0.06626488030631766 -0.0418110250070764 0.05707580677850155
0.06541302121261028 -0.04691007464775382 0.059624400091853935
0.0650564361227628 -0.049451088847124236 0.0602066996612064
0.06470339283067861 -0.05196621159872289 0.06078399338024337
0.06445118473321998 -0.053958815284999295 0.060963005559438066
0.06425710778046001 -0.05564976113446091 0.06091291912946217
0.06406419613704285 -0.0573305539236747 0.060863133436802275
0.06387259760329149 -0.0590004819577748 0.06081300011067736
0.06373993136743623 -0.06036791729365876 0.06052665113631012
0.06362775466487569 -0.06162896622103026 0.06015962406315667
0.06351597211101445 -0.06288558427477542 0.05979388659148244
0.06340442567863458 -0.06413857911303128 0.05943007627876834
0.06329342576115207 -0.06538640075469448 0.059066897466644674
0.06322248410747101 -0.0664312091981567 0.05854005488080288
0.06316439026798139 -0.06741027550420459 0.05796147161401832
0.06310655758383653 -0.06838677391656606 0.05738330434475686
0.06304867649649684 -0.06936225298940335 0.05680684197850194
0.0629909014884756 -0.07033594429080609 0.056231436101282395
0.06293430779337199 -0.0713025255517038 0.05565254238847528
0.06291971451908945 -0.07206029909859185 0.05489722544169695
0.06290512801104607 -0.07281772130027603 0.054142258701107004
0.06289070170036214 -0.07357403743346236 0.053386988061201845
0.06287612863958715 -0.0743307596981106 0.052632719314430865
0.06286156233099958 -0.07508713134797784 0.05187880004564305
0.06284700276990748 -0.07584315262668656 0.05112523001200858
0.06287137468258287 -0.07640899432826803 0.050204110875661734
0.06289806750321612 -0.07696407368226832 0.04927231771080659
0.06292462939684279 -0.07752037031345976 0.04834039953814878
0.06295136746613855 -0.07807639229123325 0.04740702483744724
0.06297797440557486 -0.07863363065975731 0.046473528239326545
0.06300475783868642 -0.07919059766160808 0.0455385679762354
0.0630753657814833 -0.07953728813228383 0.044410465337027194
0.06314845252078385 -0.0798736174695231 0.043269611837752575
0.0632218638867853 -0.08020998446667665 0.042125426485268014
0.0632952907187597 -0.08054787714548262 0.040979266296808314
0.06336904408586855 -0.08088581286884872 0.03982974851433285
0.06347186910827787 -0.08108706199665 0.03854876566743093
0.06360734424950952 -0.08113559097330825 0.03711919246979162
0.06374355657287453 -0.08118358116610519 0.035682797113489484
0.06388035353358204 -0.08123177733777426 0.034240236600133644
0.06401773890371278 -0.08128018081729133 0.032791471152124274
0.06424893986523184 -0.08089040827076793 0.030914984241620314
0.06449085081467919 -0.08045542621993124 0.028983933129860084
0.06473459034165285 -0.08001715618894811 0.027038285420974195
0.06512678363830682 -0.0788909425509095 0.02440934487485319
0.06563202962501115 -0.07724656888679532 0.021253220984459087
0.06697361534264482 -0.04390928285436646 0.05870121408303686
0.06634846959809705 -0.04778543372887911 0.06030614327855027
0.06598772194867217 -0.050315106706523005 0.06088322782139938
0.06563021872926571 -0.05282072670160887 0.06145667399889887
0.06542873813629113 -0.05453537062038111 0.06141930888755953
0.06523206171536144 -0.05622162954804116 0.061367938319418225
0.06503656415524131 -0.057897781191092956 0.06131687566183519
0.06484367841206601 -0.05955671529385076 0.06126032717066998
0.06472951807076453 -0.060819646994516474 0.060891876111420606
0.06461559972320147 -0.062078930693064416 0.060525363129814935
0.0645022403540426 -0.06333300311168966 0.06015949516812713
0.06438927803581218 -0.06458268303395381 0.05979490869038723
0.06427655308402191 -0.0658287712356731 0.05943223928882213
0.06421436065092545 -0.06682361643894141 0.058865855941191925
0.0641554284650166 -0.06780111020032353 0.05828769015561314
0.06409660434895806 -0.06877681143352843 0.05771058461051454
0.06403788800575441 -0.06975072506474672 0.05713453639216387
0.06397943528714968 -0.07072209380509853 0.056558896243840306
0.06392514188497998 -0.07167195198390952 0.05596747860165213
0.06391033641808926 -0.07242874212190437 0.055212983650350156
0.06389553780768982 -0.07318518178631345 0.05445883810972185
0.06388074604902041 -0.0739412712205369 0.05370504173710006
0.06386611673233752 -0.07469625950283065 0.05295094029124059
0.06385133859086078 -0.07545165121972014 0.05219783984453952
0.06383656728690495 -0.07620669343349945 0.051445087840824966
0.06385958239606804 -0.07678021239238098 0.05053244141709973
0.06388666193352546 -0.07733477683863405 0.04960191608481196
0.06391376444678057 -0.07788981180846316 0.04867060124265349
0.06394073400552401 -0.07844606080091582 0.04773916336367773
0.0639678824257184 -0.07900203757491658 0.04680626904422164
0.06399489768555168 -0.07955922748257327 0.045873254796946095
0.06405948311449411 -0.07993924143798442 0.044777318277312905
0.06413376864848655 -0.08027484927448375 0.04363772253223863
0.0642080694040941 -0.08061197707994966 0.042496163802269005
0.06428270014981802 -0.08094914620383414 0.041351270240356786
0.06435734658949879 -0.08128784080488288 0.04020440242619994
0.06444594735737777 -0.08156286051259415 0.038994481282994764
0.06458344346909294 -0.08161158423438247 0.03756741624527693
0.06472136774308987 -0.08166126033766608 0.036134953148449556
0.0648600428551085 -0.0817104035706962 0.03469564928299623
0.06499931350707189 -0.08175975784924022 0.03325016433043648
0.06519864049378417 -0.08153438707305605 0.03153412511918935
0.06544376543697068 -0.0811020014489417 0.02960880319307574
0.06569057589803151 -0.08066710997129589 0.027669685544258193
0.06598539658803272 -0.08001704355301364 0.02550898321685957
0.06649556218697027 -0.07838673637010135 0.022372376310849373
0.06778793420649548 -0.07319222486035937 0.01569528116609653
0.06866471207494391 -0.04032266105204829 0.0573456488045197
0.06767368700710866 -0.04598189220529947 0.06030675287933185
0.06727905814066108 -0.04865624514312755 0.06098434467196945
0.06691385979352903 -0.05117632649528586 0.06155756508523669
0.06660333157779263 -0.05341816178176784 0.061926979319390674
0.06640287196862266 -0.05510990911274549 0.06187401602512538
0.06620345095447916 -0.05679231388534689 0.06182201537406051
0.06600571456447986 -0.05846223230991504 0.06176839716174898
0.06583207614491199 -0.060009744030784185 0.061624656310692916
0.0657161756814673 -0.06127090694344206 0.06125672129052173
0.06560084406837999 -0.06252684811386716 0.06088943831709309
0.06548591655908985 -0.0637783886643652 0.060523442245310644
0.06537139103343782 -0.0650255516831027 0.06015872632334973
0.06526349757989276 -0.06623810949401654 0.05977030069124506
0.06520362189998843 -0.06721582475338811 0.059191491840480115
0.0651438559846875 -0.06819174765687974 0.05861374406698672
0.06508419953243423 -0.06916588312862126 0.0580370544556732
0.06502481089065366 -0.0701374726967916 0.057460776157032545
0.06496537217433308 -0.07110805106907453 0.05688619335546402
0.06491363023464974 -0.07204050382057753 0.05628166922170752
0.06489861362003364 -0.07279631307962753 0.05552799449278689
0.06488360395146497 -0.07355177273347252 0.05477466838172396
0.06486860122412509 -0.07430688302462701 0.05402169064669238
0.06485360543319979 -0.07506164419538092 0.05326906104608947
0.06483861657388032 -0.07581605648779577 0.05251677933853194
0.06482379230986314 -0.07656937476977338 0.051764189472880584
0.06484540014792788 -0.07715053267264366 0.050859977897347974
