# .PCD v0.7 - Point Cloud Data file format
VERSION 0.7
FIELDS x y z
SIZE 4 4 4
TYPE F F F
COUNT 1 1 1
WIDTH 765
HEIGHT 1
VIEWPOINT 0 0 0 1 0 0 0
POINTS 765
DATA ascii
-0.046575713263897256 -0.06677520498724045 0.03457293263768968
-0.04731398323653341 -0.0667755569073518 0.03368947204242417
-0.04799399379606312 -0.06678752433518452 0.032755802999041905
-0.048701567911473675 -0.06679403782692019 0.03184546033514857
-0.04936178400306085 -0.066810062899081 0.03089358782902768
-0.05008026484123401 -0.0668144667393252 0.029991976373833718
-0.050665633731263315 -0.06684566253034477 0.02897304542895701
-0.050918497253805095 -0.06694402268706069 0.02765858839259755
-0.05095774662755509 -0.06708597911443046 0.02614966676157099
-0.05127967607883965 -0.06717133548954553 0.024886838640988396
-0.051502999081602774 -0.0672770865743038 0.023531460332035903
-0.051665349200062494 -0.06739571587570223 0.022116101507732577
-0.05192266159356096 -0.06749552288159105 0.02078144001980392
-0.05162559369145825 -0.06770904966666746 0.018936153594598326
-0.05146616728016479 -0.067895359694343 0.01720716405353956
-0.05183617620828529 -0.06797385401575616 0.01595771595189338
-0.05198657157120412 -0.06809788330613221 0.01450098455888943
-0.0517397403235062 -0.0683043802674318 0.012668235354367174
-0.05017215155355331 -0.06878476277443688 0.009588492377320179
-0.04984469401052466 -0.06901048448944401 0.007653815577454759
-0.06385739637511417 -0.06656646935234584 0.016127395605998407
-0.06496691179016845 -0.06648874758885469 0.015605658060629524
-0.06590513119197822 -0.06644655706165538 0.014922092695388245
-0.06661829803357144 -0.06645143587296398 0.014021922029535616
-0.06723384738059657 -0.06647688699314627 0.013026193320337054
-0.06770505738420307 -0.06653291320137843 0.011887559232491962
0.05604420628775836 -0.08164136391270667 0.018002278972714725
0.05138363157358555 -0.08093872756665768 0.01956248837386504
0.048532975015872115 -0.0805711436798929 0.019887137917127706
0.04606456396419645 -0.08027357189149081 0.019958430218456946
0.04398925087990718 -0.08004847559335378 0.01976435593778164
0.0421849373512449 -0.07987336408431826 0.01938713094154232
0.04028903318204646 -0.07968029416900924 0.019082588310574966
0.038381481456039146 -0.07948423382496064 0.018794443914376013
0.0366446494217626 -0.0793196331164344 0.018391214291855862
0.034750790544005705 -0.07912461284398015 0.018108857267105538
0.03321033360086656 -0.07899585746484504 0.017576710478184376
0.03175229156198628 -0.0788822422832229 0.016989481565432563
0.030511991764267443 -0.07880965173260229 0.01624635742359165
0.029663477388338966 -0.07881157932357576 0.01521561983153491
0.030228759284624263 -0.07908407394631342 0.013130182714097549
-0.034068114767484226 -0.06908410871450157 0.0377576860317555
-0.036424936549205256 -0.06876583690055896 0.0381715610287634
-0.038217192168842784 -0.0685584402851356 0.03813560531886351
-0.039682761036378245 -0.06841524013823534 0.037838965536017344
-0.0410688612865544 -0.06828728658255302 0.0374826551040372
-0.04226958744032794 -0.0681958745386605 0.03697726791462097
-0.04334325783159787 -0.06812954662139101 0.036369313359712385
-0.044383546880745195 -0.06806963816731727 0.035736141580397285
-0.045295481820217864 -0.06803532378441479 0.03499678635894454
-0.046141623989736646 -0.06801414160720412 0.03420287122319038
-0.047028006432463965 -0.06798472386546456 0.03344438788741538
-0.047758953717805475 -0.06798669621255304 0.0325533081151404
-0.048440525811598745 -0.0679987120612251 0.03161937704959883
-0.04930899474986189 -0.06797271296728648 0.030847627059990557
-0.04990284559193603 -0.06800265849338646 0.029836693162184624
-0.05020735952497024 -0.06809193412107863 0.02856983723853096
-0.05022924055854883 -0.0682395628111082 0.027048962663690168
-0.05080471454347313 -0.0682740835799443 0.02601360334168601
-0.050945184343062555 -0.06839835768046368 0.024587874470680338
-0.05126254486944648 -0.06848667441105961 0.02331541777953139
-0.051843269439841355 -0.06852089929302095 0.02227679702329627
-0.05206017869838575 -0.06863072223532023 0.020906294743799902
-0.05215514258526838 -0.06876638727452586 0.019419460029328983
-0.05166769640730856 -0.06902398909852987 0.01739205728798171
-0.05171709209715908 -0.06917067968261083 0.015847890711741808
-0.0520292661338827 -0.06926305054723673 0.014540565357521296
-0.05218383213270844 -0.0693888997151105 0.013082089123410467
-0.05177530244804868 -0.06963369756035034 0.011090282627992165
-0.049301220018726444 -0.07031483009872996 0.007142047770322346
-0.06365521479806885 -0.06775706204349222 0.015934018259040172
-0.064770681749105 -0.06767683402161165 0.015416996460693555
-0.06574706422567661 -0.06762587867178596 0.014769331908618621
-0.06644977763303028 -0.06763315331135822 0.013858212190484165
-0.06703739186831481 -0.06766510927418103 0.012834354338706055
-0.06754271095687331 -0.06771487861539165 0.011728204647907692
0.05847892115142306 -0.08314862327604573 0.01967414095000347
0.05358043506538601 -0.08239231990873025 0.02136658697062932
0.050529782936593104 -0.08198236784169032 0.021812703294325775
0.0477761148241867 -0.08162702353224723 0.022069042037013542
0.045351680190856114 -0.08133274321192668 0.022109754290217
0.04305662491508705 -0.08106187783545707 0.022071520877031958
0.04110751577322347 -0.08085585703693526 0.021799936409250986
0.03935411235126385 -0.08068637856926276 0.021397746393983563
0.03762871630312675 -0.08052156620450387 0.02098247559705052
0.03592319676815853 -0.080359889089682 0.020559676175851693
0.03412879777990385 -0.08018046264349984 0.0202076779077478
0.03232971825990455 -0.07999939423482556 0.019866450015143422
0.030600457099579037 -0.07983105230239466 0.019481715562207513
0.02892728125324312 -0.07967285992076725 0.019062765640811385
0.027376493197528495 -0.07953773012686563 0.018560046108718142
0.025937486684576683 -0.07942374704075884 0.017979992643478715
0.02467528192350532 -0.0793436967822099 0.017272786623445224
0.023662782720693443 -0.07931200979118615 0.016381632841168503
0.023057592003743077 -0.07935979002562575 0.015184664488284927
0.022954642186902685 -0.07950612913917318 0.01360492904069921
-0.03469660906618549 -0.07028007634675522 0.03675925679324282
-0.03699042531067398 -0.06996850310639847 0.037127813203825355
-0.038812149776815685 -0.0697512424453352 0.03711995104094318
-0.040303511094985645 -0.06960012735014406 0.036847213287812375
-0.04154869082109652 -0.06949845742503698 0.036375555968147455
-0.0427551077334159 -0.06940424961811004 0.03587579680619357
-0.04386858781225139 -0.06932862702224907 0.035301749341944355
-0.04482954814185269 -0.06928391847456902 0.03460166803516174
-0.045823113592165454 -0.06923231889943228 0.03393134088306421
-0.04672911452705392 -0.06919850984401883 0.03318823539870308
-0.047467789659797366 -0.06919905783759558 0.03230246054667585
-0.048423755807022295 -0.0691546986235813 0.0316048528876528
-0.0490280511630275 -0.06918298702750322 0.030603024559965053
-0.04931654725675111 -0.06927696086852529 0.02932354541281529
-0.049505214333827374 -0.0693921242410618 0.02795206148757373
-0.05004677801014207 -0.06943421385301063 0.026887580315377413
-0.050562565658686054 -0.06948187896008999 0.025798304663744664
-0.050498733685482966 -0.06965116650361569 0.024188842936712363
-0.0508574775115897 -0.0697325027060174 0.022951474119976223
-0.0519251189967177 -0.06966504877217353 0.022350722602293094
-0.0520689900016682 -0.069792096669846 0.020914294714718284
-0.05227337438368712 -0.06990692984148625 0.019527367324828016
-0.052484612752834614 -0.07002083228847408 0.018141538554206804
-0.05192498918232702 -0.07029892314926578 0.01603962365654399
-0.05199991480540744 -0.07044324666997931 0.014513354655523891
-0.052496121951275176 -0.0704983740284604 0.013373115248571099
-0.05220692796897097 -0.07072165686554842 0.011494618240745824
-0.04988370503451145 -0.0713817974519146 0.007690550704619992
-0.06179233975344656 -0.06914758457453814 0.015743628017272304
-0.06351748412656077 -0.06893520310280363 0.015802285228562085
-0.06465868043793199 -0.06884811999386227 0.015309314953589337
-0.06562549513506571 -0.06879843113639726 0.01465184379352974
-0.06620789070891031 -0.06883203102226458 0.01362323013911726
-0.0668132837230831 -0.06886077953529944 0.012615512536523321
-0.06729223743446772 -0.068917261561725 0.011482347041006258
0.057565566065622464 -0.08418969028487869 0.02196185943261081
0.05350545817184815 -0.08358216233748322 0.023072980740140026
0.05069461279690429 -0.08321185838613576 0.023349683627361006
0.04809483811663723 -0.08288063166160686 0.023495231524912175
0.0456205667154036 -0.08257223672771846 0.023566747351635664
0.04337917843947359 -0.08230754025657039 0.023487845579994893
0.04127750666445873 -0.0820687889942965 0.02332135941914476
0.03925022685182383 -0.08184348091709592 0.023111875542556115
0.03737180388578565 -0.08164616064016622 0.02280569638461255
0.03567387984490733 -0.08148315826762939 0.022378538210320154
0.03395091462668498 -0.081314602656116 0.021975922260784597
0.03210234916478366 -0.08112080893429223 0.021670788894737836
0.030396896832030063 -0.08095423935499425 0.02126959396387751
0.028692193829811197 -0.08078712798442243 0.020874598033377656
0.026962269105418102 -0.08061436482282842 0.02050489432310426
0.025240959734711965 -0.08044258179154881 0.020135859174634008
0.02372665902843213 -0.08031095698274887 0.019620241465991395
0.022283150073280245 -0.08019279001138248 0.01905719198067185
0.021036908809951793 -0.08011324175111498 0.018351028160166483
0.019909296666842047 -0.08005693036614908 0.01755867280652723
0.01904154196012081 -0.08005212110127707 0.016571622183058632
0.018439162850151125 -0.08010023979240945 0.015382488783741821
0.018125585244607334 -0.08020630480305485 0.013970043634278895
-0.03224021285635292 -0.07195528712492744 0.034752010594043536
-0.03555106750589243 -0.07143053730669488 0.03594537708182022
-0.037673640323347746 -0.07114831756287703 0.036179686610830264
-0.03946433424313406 -0.07093339186342866 0.0361504759396693
-0.04088382092220927 -0.07079433810310928 0.0358206079349086
-0.04209258224249385 -0.07069837462610126 0.03531987188514224
-0.04323506188940418 -0.07061576573162177 0.034767340375133626
-0.044283434638181685 -0.07055239477748781 0.03413855608986782
-0.04538707885248627 -0.07047720780234124 0.03355962095782872
-0.04646170177226455 -0.07040776053381055 0.03295906076595834
-0.04741906547099106 -0.07036259098655884 0.03226048302935769
-0.04773473520771082 -0.07045205692380162 0.031008106075631203
-0.04798026522489668 -0.07055669069517759 0.02969077358870703
-0.04858740886711299 -0.07058546808385656 0.028685379310051884
-0.04927198057717974 -0.07059799544711685 0.027746852990842397
-0.04986588108832074 -0.07062980125506624 0.026727582714220377
-0.05031300361497526 -0.0706929363807689 0.02557641482054951
-0.05038030255357784 -0.07083723959533772 0.02408299079956938
-0.05075229853166885 -0.07091715968438828 0.022856973237300238
-0.05119938618144643 -0.07098137695055316 0.02169524906506959
-0.05210158774446555 -0.07094830943074 0.02094389090338905
-0.052360670481988 -0.07105328695961367 0.01960704035696703
-0.05253669472683947 -0.07117662927120821 0.018189321248283707
-0.05266207043484966 -0.07131146567876885 0.016719396338255643
-0.052106621965430255 -0.07159421448551136 0.014612279538423756
-0.052266633039115884 -0.07172311074052862 0.013159252148007783
-0.052351444978863904 -0.07186894140216572 0.011629998033913569
-0.05007681106048312 -0.07252942751150177 0.007872390956310038
-0.0617406447724147 -0.0703113575846522 0.015694440249322483
-0.06329131481896955 -0.07013373392981936 0.015585964724466106
-0.06442774258549416 -0.0700463627880208 0.015087284195757389
-0.06543462707632625 -0.06998713346330138 0.014467383020324354
-0.06603893273270972 -0.07001655166116319 0.013459095215384353
-0.06660798766544979 -0.07005391161214083 0.012415040754531537
-0.06707046081300277 -0.07011509861293465 0.011264657486851404
0.06045600764832376 -0.08595814172476826 0.021665179591962402
0.055036011353661374 -0.08507856540136827 0.023680993613418133
0.0518063273341679 -0.08462169499467771 0.024234158278501672
0.049134838373725676 -0.08427182686599816 0.024421538771610185
0.04659049916073266 -0.08394538599775835 0.024534718227418373
0.04427024707115906 -0.08366149485600526 0.024504968539733052
0.04209910684687712 -0.08340570348497517 0.02438216950686234
0.040010025639137525 -0.08316500160927404 0.024211770518172915
0.03797034217860862 -0.08293304760563017 0.024015951784847556
0.03616340892878955 -0.08274608845356082 0.023663968292344295
0.0343633321296542 -0.08255971871934548 0.023314476692783914
0.032517009861350754 -0.08236341678352915 0.023005573124303513
0.030508852149778887 -0.08213416319449895 0.022821305603127673
0.0285989645549089 -0.08192352187160641 0.02257481427988489
0.02687319076789274 -0.08174872876335915 0.022202327555866097
0.025238367637602677 -0.08159138792656585 0.021770071108364875
0.023619605191875948 -0.08143661013837739 0.021332258911547164
0.022002111353500442 -0.08128144288030886 0.020899711299522727
0.020522503736928877 -0.08115335769257775 0.02037054214340278
0.019141380597018143 -0.08104458402536477 0.019772667018875312
0.01789811814985076 -0.08096319493860844 0.019075225104796423
0.01674567996625881 -0.08089984417218239 0.01831221599314753
0.015802131499278005 -0.08087858828935893 0.017392548790943096
0.014985009409886785 -0.08088293517761212 0.016376856449046573
0.014455025089049889 -0.08094577569197464 0.015139749144706838
0.014284227174947872 -0.08108218478104079 0.013621837182893615
-0.03368882630449016 -0.07299063126099094 0.03441554116672724
-0.03640224067334519 -0.07258090969242198 0.03512967173066045
-0.038419686077845905 -0.07231545563212893 0.03528314339728633
-0.039962530620965386 -0.07214865697896841 0.03505163306994169
-0.04136572250997228 -0.07201056380006952 0.034709964123170456
-0.042670539679516284 -0.07189264552772223 0.03429113929156624
-0.04397558230496701 -0.07177416192610435 0.03387749297397713
-0.04513689851487046 -0.0716856500514079 0.03334634204234055
-0.046129732553042646 -0.07163257186672467 0.03267456078405717
-0.046258808026234166 -0.07176332364134072 0.031260882457771755
-0.04675516239439459 -0.07181621505131527 0.030159717864780056
-0.04754863690948369 -0.07180574474030131 0.029314977984253254
-0.048295747850668425 -0.071805173722178 0.028430107914611036
-0.04898529292528747 -0.07181697665391605 0.027494613594102102
-0.049526500811309104 -0.07186079563458879 0.026427411602102213
-0.050070137134710424 -0.07190428638928402 0.025360478116305485
-0.050672692083456705 -0.07193521971916395 0.024344324590085675
-0.05069039742269166 -0.0720931643588893 0.022801356521475802
-0.05097918721997885 -0.07219288179601763 0.021496367894025814
-0.05159515819509741 -0.0722217532709082 0.02048409267181389
-0.052445277247734234 -0.07219961641226069 0.019684258900495022
-0.052637281213164966 -0.07232144082322556 0.018281604488237513
-0.052766342758885976 -0.07245762891296358 0.016815561417879987
-0.052647102030358495 -0.0726490393009322 0.015113341764438681
-0.051956584569495645 -0.07296723446914727 0.01287031475920758
-0.051998851622839626 -0.07312501071762856 0.011299697707009115
-0.049833805583201496 -0.07377223908646421 0.007643562379218205
-0.061660103053339965 -0.0714819180220185 0.015617804813752967
-0.06316758508722758 -0.07131105260850418 0.015467622946675141
-0.06427359779376746 -0.07122910975861714 0.014939084649595313
-0.0651875751304139 -0.0711897991442767 0.014228624407354395
-0.06574636799485112 -0.07123004625885104 0.013174881992574772
-0.06634995110472824 -0.07126040206791864 0.012163067824592033
-0.066835886269756 -0.07131743594068181 0.011034405860696483
0.05839275646383879 -0.08693819894212848 0.023059645950047947
0.05398738739631265 -0.08624385436867947 0.02439365868421789
0.05087918981351203 -0.08580322126987135 0.02486775943509517
0.048134213300968065 -0.08543277803859287 0.025109154311243387
0.04563804411410971 -0.08511023446632453 0.02519285737339566
0.04333007421112833 -0.08482382413155613 0.02515821394093476
0.0411001111932664 -0.08455179988561748 0.025080119309848325
0.039045949330874075 -0.08431378541188364 0.024889038444113165
0.03716246978704324 -0.08410896444453879 0.024586611197607466
0.035300870690664954 -0.08390769393864665 0.02427659277810601
0.03303947319934236 -0.08362524149117764 0.024259921489498515
0.030708062935742242 -0.08332752724791145 0.024304532308373594
0.02880315113222326 -0.08311466290645625 0.024052834436716075
0.027063572615521614 -0.0829343565517357 0.023689441776050257
0.025337663985108838 -0.08275607483212852 0.023323141635158307
0.02365088112655761 -0.08258499977775967 0.022935132521784196
0.02210084785958738 -0.08244104236297473 0.02245295202633424
0.020542936329075667 -0.08229487938301125 0.021982296868325757
0.019031336613031358 -0.0821575705055074 0.021482874895526194
0.01764894119133764 -0.08204614526697923 0.02089199082471843
0.016323783515672263 -0.08194599867017673 0.02026237024757571
0.015096560625174116 -0.08186557027814449 0.019562485793712225
0.013976727857738791 -0.0818069328596834 0.01878395085206863
0.012985518394411144 -0.0817746087471691 0.01790918709550199
0.012164088425765829 -0.08177728120352705 0.016904903463309695
0.011400025766111765 -0.08179186130323655 0.015856073220027633
0.01099519792885284 -0.081881156181255 0.014526878982236868
0.011105919275523124 -0.08207819496507641 0.012790410029858479
-0.03493515902923461 -0.07406372572217662 0.033918048338490214
-0.03735755844842881 -0.07370831831454215 0.034401298305543504
-0.03933823945559117 -0.0734457569077609 0.03453055495379792
-0.04085908201421179 -0.07328053088986008 0.03428484225017642
-0.04223550139695148 -0.07314557981856697 0.03392416400180431
-0.04327522667765715 -0.07308246213984161 0.03328358153472366
-0.043617169481543816 -0.07316949588505747 0.03205077196216288
-0.044512190760462866 -0.07313741694489743 0.03128831596355236
-0.04543063626995952 -0.07310012411404956 0.03054738480715602
-0.0463302714553499 -0.07306674823379142 0.029791728411946383
-0.04705079826071373 -0.07307217944202607 0.028881536596711554
-0.047241899908845475 -0.0731930383437478 0.02750774524176902
-0.048072409667156535 -0.07317474785844144 0.02669142196444757
-0.04933440965518726 -0.07306189963316193 0.026257513055053805
-0.04993309244602534 -0.07309410645361084 0.025238629360657794
-0.05046073885556335 -0.0731420812413792 0.0241548836737831
-0.05095552562998806 -0.07319751507867321 0.02303956808837493
-0.051001308746851215 -0.07335239587192505 0.021516347802833402
-0.05137233330845953 -0.0734359595173948 0.020281785186093748
-0.05197233469111834 -0.07346908533097603 0.019252615697115227
-0.05263198871421587 -0.07348909289206548 0.01827674887623315
-0.05284759417028956 -0.07360818638980313 0.016890495476552136
-0.05296576813851139 -0.07374959352540467 0.015408767183187178
-0.05199849287906516 -0.0741347397315526 0.01290936954812777
-0.05159714136229959 -0.07439461782888751 0.01092338593564346
-0.04982019404754667 -0.07496517629029822 0.007630744938349143
-0.061606668903547324 -0.07264692946776138 0.015566962226945924
-0.06294007674272328 -0.0725127715856071 0.015250021715573658
-0.06406392276953693 -0.07242557708919568 0.014737496629108893
-0.06506390496486875 -0.0723661685959683 0.01410910574870844
-0.06561783573575952 -0.07240823954196206 0.013050018798675123
-0.06612570067185486 -0.07246104012920013 0.011944087078401222
-0.06655260234371818 -0.07253264387901755 0.01075634250509544
0.05739815179408081 -0.08811917016235932 0.023731858214847135
0.05336253083048215 -0.08748753159433818 0.024818323260691222
0.05024980454754946 -0.08703874180905714 0.02529787818616752
0.047518177750051904 -0.0866648501189277 0.025532485316341114
0.04500541684379822 -0.08633358903532236 0.025629997974289165
0.042607358224565295 -0.08602416561868514 0.025660367230683823
0.040467890345187385 -0.08576585363062639 0.025521821348055862
0.038492045241910855 -0.08553969333904783 0.02527815854828591
0.03647283712292293 -0.08530379143834085 0.025073749234797216
0.03414237607419002 -0.08500350155791839 0.0250994225812447
0.03148296205664414 -0.08463481352951123 0.025371516786548476
0.029331170574378118 -0.08436847100282942 0.025293244001873494
0.027390387176119746 -0.08414429323780064 0.025072860531024865
0.0256291412640427 -0.08395607571405662 0.02473077629442605
0.02394403099926895 -0.08378275400253811 0.02434038437517977
0.02229495054623898 -0.08361614693791747 0.02393025429914314
0.020721096347915746 -0.083464399283692 0.023471072555778738
0.01922725100438233 -0.08332859453551784 0.022958425106376135
0.0177263359906924 -0.08319075592006273 0.022456337165788043
0.01627900430044965 -0.08306348785380699 0.021919438216309095
0.014976570150195101 -0.08296589187693729 0.02127825198478217
0.013719520941216312 -0.08287736706528798 0.020606480056673926
0.012493255834792605 -0.08279491417929626 0.01991471775938619
0.01143628209180847 -0.0827476269915786 0.0190964603799057
0.010389823351274918 -0.0827023505697356 0.018271965114893873
0.009511597761807489 -0.08269232304386984 0.017318937043553806
0.008756381646207734 -0.08270822147559456 0.01627050418636955
0.00810385817800413 -0.0827459129366364 0.015141032060567217
0.007847654990544461 -0.08286778823363329 0.013698075294157952
0.008887618123963381 -0.08326556849572096 0.011224437951834199
-0.03576346578476064 -0.07538762274842882 0.031546792835492055
-0.038090383821463514 -0.07504609376136162 0.031961628509258155
-0.039822311471256366 -0.07483280321420727 0.03188852459321817
-0.04140129234292417 -0.0746519988043418 0.03169445881705124
-0.04271253991270224 -0.07452903355695789 0.031279574612284256
-0.043841673592029895 -0.07444549768653085 0.030713677981360044
-0.04488195184723198 -0.0743811383445655 0.03007467483657389
-0.04577971276977838 -0.07434791312592583 0.029314900664308752
-0.04664717082098946 -0.07432123579173928 0.028530119851635005
-0.047027472687101 -0.07440231513646749 0.02732007142514975
-0.04756676484366473 -0.07444847081739171 0.026246535188192865
-0.04849084605314469 -0.07440924474413896 0.02551140775159544
-0.0496418298453406 -0.07431926046281702 0.024979662845423467
-0.050230817573279296 -0.07435443717850918 0.023949383154511616
-0.050833619214247006 -0.07438667878569864 0.02293003799120097
-0.051224129244811456 -0.07446671116145213 0.02171759671550566
-0.05126080847027631 -0.07462669616119942 0.0201805293975299
-0.051683139237135245 -0.07470046046039189 0.018988674018757257
-0.052326500843399515 -0.07472461503335423 0.017996478518699288
-0.05287584616021279 -0.07477017190804704 0.016916550854962742
-0.05278083964965197 -0.07496219930856253 0.015237325743818253
-0.052002950585618046 -0.07531046745554962 0.012913523731159227
-0.051067796866523296 -0.07569619220110238 0.010427509717295336
-0.049394954773356814 -0.07625229042735299 0.007230314054547937
-0.06150568923434463 -0.07382324122104442 0.01547088008440023
-0.06276796678763508 -0.07370337737932674 0.015085406487092223
-0.06385313135316684 -0.07362381339320491 0.014534835274865432
-0.06478613230162789 -0.07357906149079411 0.013840657687911206
-0.06538638228146948 -0.0736112153672203 0.012825172384662076
-0.06589611982313903 -0.07366454421433224 0.011719901176422298
-0.06624290987851927 -0.0737560617109763 0.010452357286865832
0.0571651044264091 -0.08944867558844548 0.023889365316504152
0.052886544828334825 -0.08875760633827896 0.025141812530169394
0.049864432844484496 -0.08832009633450047 0.025561239285616544
0.04699439912610792 -0.0879119079399462 0.025892418652969373
0.04445109105903622 -0.08756899631514015 0.026013032848081874
0.04218483513930121 -0.08728156257782684 0.025953942246603023
0.039967097508623706 -0.0870029390673288 0.025871701010047488
0.03801162586108736 -0.08677723414986384 0.025615655315754327
0.03573062298150853 -0.08648337661361603 0.02559802941877648
0.03265382379531345 -0.08602362727278118 0.026156678403733147
0.03036187895083914 -0.08572474998988297 0.026172147552258718
0.028160017917051805 -0.08544336370908891 0.026134219200562858
0.02619099761056809 -0.08520930234713696 0.025938828726786767
0.024309521478139418 -0.08499254174158678 0.025688762630109496
0.022590157736418814 -0.08480878054748556 0.025328605636829593
0.020950439797035647 -0.08464094536499871 0.02491699502602529
0.019365075197935733 -0.08448382507751043 0.0244716824188424
0.01790701658392846 -0.08435283531444354 0.02393792839220288
0.016478352715474598 -0.08422749669588636 0.02338726747459119
0.015125852752988556 -0.08411772567828144 0.022784297435319956
0.013728754458162518 -0.08399805288813837 0.02221918176281068
0.012398692279157464 -0.08389210025377031 0.021607858275187963
0.011196429341796932 -0.08381287286041422 0.02090321532464512
0.010048587894179839 -0.08374490628083635 0.020159934199231067
0.008969595807946595 -0.0836913522322577 0.019366242761972574
0.007947251726295068 -0.08364969166136195 0.018530751959246528
0.007016639475876829 -0.08362752248053937 0.017625442651127088
0.006287087877353603 -0.08364845973648984 0.01656356816317206
0.005556026057417729 -0.08366916097391347 0.015502063047722447
0.00519183623358177 -0.08376911446786055 0.014149392285892737
0.005472712602057228 -0.08400898595984643 0.012279531920654507
-0.036451482235494104 -0.07658083279010199 0.030586426728685057
-0.038931844115971836 -0.07619926091811109 0.031137373421411985
-0.04040977378482452 -0.07603849126698523 0.03085363711029998
-0.04149274880628262 -0.07596486235013448 0.03023970182780189
-0.04218835504201768 -0.07597725944424642 0.029296772225284484
-0.04388239300780361 -0.07576665337639817 0.029213521485012606
-0.04520755776739949 -0.0756377064737441 0.028819368783269295
-0.04611526305013325 -0.07560186511669122 0.028067016308320758
-0.04700065002685555 -0.0755708836974564 0.027296595343245633
-0.04731650017465305 -0.07566813788165147 0.02602634220562028
-0.04794068537711765 -0.07569617254907844 0.025024808048687286
-0.04890832505803089 -0.0756465713854382 0.02432749130595796
-0.04998551293953002 -0.07557188919756351 0.02373013320464007
-0.050585997613217304 -0.07560528671362453 0.022707555705438642
-0.05115872885169531 -0.07564516092777884 0.02165852783215133
-0.05132277597211338 -0.07577858146848264 0.020236791019300038
-0.05156094178401566 -0.0758956350548376 0.01887714736637308
-0.051879614467543245 -0.0759947442149391 0.0175864818664474
-0.052645274669057274 -0.07599149063244509 0.016703906454725137
-0.052255896465599694 -0.07625450349594916 0.014750667275910678
-0.05147789987567364 -0.07660851471073177 0.01242422352172795
-0.0508168904195066 -0.07693705385323005 0.010192467053966425
-0.04936583893546925 -0.07745049102311431 0.007202896829927419
-0.06131203823156095 -0.07502188822162174 0.015286621179607995
-0.0625567951604673 -0.07490435109184664 0.014883430572118495
-0.06364206113918947 -0.07482363451230324 0.014331905876023121
-0.06450451840435911 -0.07479486337667068 0.013568497340189056
-0.06511104014672503 -0.0748261974033882 0.012557690130772625
-0.06568544800924098 -0.07486525385625852 0.011514179963679705
-0.06590414316617149 -0.07498860801560629 0.010119833623702612
0.05776486806570358 -0.09094855959688196 0.02348400981539589
0.05284295337666978 -0.09011409554451563 0.025171438121659506
0.04957114808784008 -0.08961810877588487 0.02576166862525725
0.04677487172878786 -0.08921882854328674 0.026043274806669903
0.04419684635577098 -0.08886332769612476 0.026188713991742663
0.0418127166892161 -0.08854679655656057 0.026212495409063397
0.039643381301565694 -0.08827383759511061 0.02609786582079804
0.037579798615203275 -0.0880218974533405 0.025919015890718766
0.0345442166065974 -0.08756509666244316 0.026436075095630895
0.03160386017610123 -0.08712643615748308 0.026902423222753546
0.029266702309981185 -0.08681298809782349 0.026954277001911386
0.027177635649024534 -0.08655059810125573 0.02683964314156234
0.025185444697850057 -0.08630760998910596 0.02666484541609243
0.02328808456922543 -0.08608371061987681 0.026430281218990437
0.021430650188485334 -0.085867361780671 0.026174955175854386
0.019732066629760514 -0.08568391110513397 0.02581116297924041
0.018089487802663784 -0.08551163810190479 0.025412940104187265
0.016574125828085484 -0.08536582559518252 0.024926821618109996
0.015128639847663217 -0.08523436381374028 0.024394082743496137
0.013783627837141765 -0.08512390666955585 0.023790960952367768
0.012523726872179175 -0.08503128349428304 0.023127846677218566
0.01124333797706295 -0.08493385809232604 0.022483783113902867
0.009964723581671386 -0.08483640609608917 0.02184207503454133
0.008796121586666872 -0.08476234252013003 0.021119774724545237
0.007643326308578835 -0.08469139289578799 0.020388126243938542
0.0065621974298264996 -0.08463571228922702 0.019603679187239986
0.0056010369656046555 -0.08460591350041279 0.018727936069223794
0.004603035322126969 -0.0845679504626871 0.01788218590897961
0.003799830468759424 -0.0845724149367668 0.01688455359364216
0.003130186644638211 -0.08460616174420711 0.01578104455308532
0.0027102251831365165 -0.08469487538099041 0.014477564008170074
0.0028146253327177573 -0.08489934951732409 0.0127511890283602
-0.03573569956880357 -0.07809023668832275 0.02844127489784498
-0.039185351624778486 -0.07748423988649346 0.02981530986772457
-0.040790611831955426 -0.07729212837014623 0.029641129558551027
-0.04169524755254367 -0.07725775291733647 0.028874175599731322
-0.04257719780860353 -0.07722837166583704 0.02808905219326424
-0.04466776049609639 -0.07692408512816479 0.02835186127897993
-0.045569073764126666 -0.07688942113129424 0.027591478616395715
-0.04650814118128316 -0.07684598145097668 0.026865535266006546
-0.04726192868360518 -0.07684475274242043 0.025978327999601036
-0.047627795574221365 -0.07693249945779053 0.024748066922382517
-0.04834134096931103 -0.07694071032767343 0.023823376142171393
-0.04950448300098925 -0.07684536709946248 0.02330019517901122
-0.050327370114223224 -0.07682816900096384 0.02247518487471173
-0.05091103439271816 -0.07686626086594187 0.02143481304378847
-0.051454601177459924 -0.0769138262716992 0.02035647794588441
-0.0515006953913521 -0.0770772672255937 0.01882216194466041
-0.05154964960169128 -0.07724078357969552 0.01728375504891838
-0.051763314009571626 -0.07736657521714527 0.015890518838894696
-0.05158042321670814 -0.07758576829832498 0.014124457075636032
-0.051181602240675916 -0.07785662475593065 0.01214810067851968
-0.050731369739535515 -0.07814081169739985 0.01011235349519135
-0.04730949699189352 -0.07912671207874963 0.005266521542314939
-0.061223628703239774 -0.07619700514716037 0.015202499524530066
-0.062424036958953266 -0.076088233504185 0.014756453479690457
-0.06347115064952874 -0.07601542386756147 0.014167587271947557
-0.06430642000097603 -0.07599278704196662 0.013377048939130609
-0.06492162260127593 -0.07602263843748207 0.012373679674000493
-0.06545690411817456 -0.07607177396395183 0.011291006651763191
-0.0657474803243826 -0.076179894757597 0.009966057883246393
0.05330109891144963 -0.09157561629562577 0.02486007357797121
0.04974464930261158 -0.0910124468455358 0.025643098760592675
0.046707063146065875 -0.09055633975389217 0.026089871915286833
0.04402971035362163 -0.09017445003221981 0.026304203689767436
0.04166665887668508 -0.08985751114198202 0.026313978443090136
0.0395605895951634 -0.0895937669242087 0.026155708369925756
0.03718345292094011 -0.08927136018253615 0.02619745051670025
0.03348306719175764 -0.08866594230716963 0.027185642611794736
0.030868540756760043 -0.08828967799936498 0.027424689553952886
0.028442938999587886 -0.08795225383889071 0.02754257437839408
0.026349482196991958 -0.08768458606008768 0.02743431925787526
0.024313736945251962 -0.08742820280526126 0.027294224903316677
0.022352635155561462 -0.08718681559340163 0.027109376641464566
0.020555767150286286 -0.08697982610700301 0.026813551153431314
0.01880552709849387 -0.08678204902927487 0.026491153296245185
0.017149634708471917 -0.0866038690839557 0.02610645898911995
0.015544067358232438 -0.08643586153922815 0.025691038669402977
0.01403130689633697 -0.08628732213906931 0.025212635783046833
0.012620367430525137 -0.086160335937527 0.02466340177680909
0.011210098771417598 -0.08603296439463953 0.024118403059185722
0.00995853026092769 -0.08593976404084668 0.023457852271299207
0.008744137568790944 -0.08585431874634626 0.022772458789375283
0.0075516115523892036 -0.0857733155111378 0.02207351787747025
0.006446842150831467 -0.0857112830100507 0.021310010821559366
0.005348214862562262 -0.08565034257946973 0.020544086327991207
0.004253413363590197 -0.08558998924590729 0.0197774864483109
0.0032278662095558963 -0.08554471753770868 0.018958947076375965
0.0023497285911303623 -0.08553197006981689 0.018026084838447365
0.001492072634599828 -0.0855237237333582 0.017077497865390756
0.0008790674539493892 -0.08556997375216949 0.015934563746336505
0.0004336256749478129 -0.08565385121299517 0.01465582308302893
0.0005209060423705392 -0.08585734048221152 0.012945450793019453
0.0018782517049307224 -0.08634662569215612 0.010200416206408103
-0.036146793567182534 -0.07935336281277086 0.027238569824706793
-0.039600398787481894 -0.07873610060613204 0.02862647209288316
-0.041092454967997516 -0.07856683145620888 0.02835757806760003
-0.042070410315733164 -0.07851520275234618 0.0276524378282067
-0.04296140011003846 -0.07848341639698365 0.026874017043905574
-0.044987706763223834 -0.07818888513187179 0.027085313576447667
-0.045953914703091236 -0.07813879466123386 0.026380457869640717
-0.046877637294323704 -0.07809835174690945 0.025640212885242153
-0.04750605783754558 -0.07812649058424831 0.024640393747834832
-0.0479864451294843 -0.07818930283121789 0.023507832235418413
-0.04867496051013659 -0.07820371588639888 0.022558779243417204
-0.049975985109366794 -0.07807460585324769 0.02215947356867881
-0.05068158760155117 -0.07808481065795783 0.02122757933925412
-0.05128736880625279 -0.0781185679840951 0.020204644095274615
-0.05153879492064489 -0.07823611242646832 0.018856934461197905
-0.05121101937956324 -0.0784912027509228 0.01697307818579452
-0.051348633902041974 -0.07863711333945617 0.015508080392952428
-0.05095142642352124 -0.07891078026143515 0.013541333749168272
-0.0507905037155883 -0.07912942063199986 0.011783631901296499
-0.04974697223723623 -0.07955975962618017 0.009190195402141499
-0.06100239214670122 -0.07740468439117928 0.014991992968809598
-0.06225306515373458 -0.07728227742565673 0.014592926839029019
-0.06336244742072861 -0.0771934230435291 0.01406307664272638
-0.06412993869816425 -0.07718690967055887 0.013206491970154444
-0.06476304249495146 -0.0772129697705158 0.012219626374816661
-0.06521544577938415 -0.0772830935591394 0.01105522237021328
-0.06544376759586784 -0.07740816405050309 0.009667942202590818
0.05421754403625745 -0.09313763100719702 0.02423723979167608
0.05014193916458354 -0.0924556401152942 0.025371592850800317
0.04685467393565845 -0.09193949702662241 0.025988435847468128
0.04419158023515457 -0.09155502724014358 0.026192352840775368
0.041691429467904106 -0.09120398731852324 0.026296767485949335
0.03951661969227516 -0.09092152592204546 0.026186428008141693
0.03696827730340935 -0.09055737287784107 0.026348612352074585
0.03301429333600725 -0.08988803222127524 0.027516771904035287
0.03028763755038022 -0.08948166872405773 0.027837280570044587
0.027809710156135148 -0.08912759872900305 0.027994799990552766
0.025627280672307573 -0.08883631184080314 0.027952913966187487
0.02360571051075394 -0.0885788665504572 0.02780542526026819
0.021643943703196278 -0.08833341312905275 0.027623855686742582
0.019725260721443427 -0.08809636875863937 0.02741975568781413
0.017965076697208482 -0.08789308374701339 0.027107962526193075
0.016306110037429433 -0.08771118665643335 0.02672889699872999
0.01468328827256049 -0.08753648828827608 0.026329664605618697
0.013154290301792437 -0.08738175548195075 0.02586684433327152
0.011626053518184132 -0.08722654435496541 0.025409133381273652
0.010216178797584186 -0.08709689888023334 0.024867879849971908
0.008824253133624393 -0.08697069321045649 0.0243177975781112
0.007532252067325662 -0.08686618184356706 0.023696210635934023
0.006316119411526933 -0.08677814011008088 0.023020350074386964
0.005114907382881784 -0.08669305922816443 0.022336259362352062
0.004109027960344347 -0.08665133948947791 0.021504017914321383
0.0030917347208395674 -0.08660688267064433 0.02068221997928621
0.0020137838661993257 -0.08654860227669581 0.019909576863939904
0.0010121878228363523 -0.08650727330917916 0.019079007120504365
0.00012082529534745978 -0.08649065205781044 0.018162744767663497
-0.0006188231585526616 -0.08650828086814503 0.017126392388638223
-0.0012987406249021505 -0.08653952669114788 0.016041595583704105
-0.0016757939881180128 -0.08663971570530943 0.014712054058126367
-0.0015982622629807097 -0.08684383737995709 0.01301119013210944
-0.0007811971546216046 -0.08721758210601381 0.010701484563760744
-0.0365549569051874 -0.08061991408650644 0.026030230725444248
-0.04002919694341095 -0.07998742701119302 0.02744635837843673
-0.04161988675877948 -0.07979236757107375 0.027264296724627546
-0.04243817451384013 -0.07977736944192537 0.026420861932416217
-0.04332911269848455 -0.07974524956938597 0.02564126475748718
-0.04538973504136545 -0.07943778487373176 0.025886669116917727
-0.046331491284326454 -0.07939278181472997 0.025159691526249195
-0.04725514284153931 -0.07935185636629036 0.024418467376445374
-0.047888873481197025 -0.07937941809422362 0.0234210796290652
-0.0482958067304885 -0.07946094311423463 0.022219896744905487
-0.04903174617149886 -0.07946455616798119 0.02131109670523451
-0.05020485045698436 -0.07936393877538872 0.020796995829869602
-0.0506825113441845 -0.07942907748842948 0.01965548105421383
-0.050675424465943086 -0.07961062807513068 0.01806895718244006
-0.050677231017043856 -0.07979086753143037 0.016483353160670178
-0.050519733029421865 -0.08001026048214797 0.014743627129318815
-0.050286787523415366 -0.0802488501493881 0.012925167736038135
-0.04988548255076458 -0.08052922775648112 0.010940233278837974
-0.06090358843999272 -0.07858408234686902 0.014897981254303472
-0.06203697383368867 -0.07848858375855665 0.01438624546488082
-0.06311949407309297 -0.07840510923616303 0.013829493818066363
-0.06393474150890616 -0.07838690516380366 0.013017847391821824
-0.0644765267235724 -0.07843595133427701 0.01194128944547429
-0.06495345121610246 -0.07850123435983924 0.010799384447270521
-0.06501068670006493 -0.07867064663350984 0.009242842449075084
0.05092924083052641 -0.09398579674617352 0.024833554819746917
0.04736744408783544 -0.09340282943250393 0.025636067378501715
0.0443891486779216 -0.09294438770740987 0.026055834559250424
0.041833590293684775 -0.09257619930972978 0.02619799213343682
0.039649850770975936 -0.09228769732509243 0.026093345916348043
0.03714116888309921 -0.09192692564235797 0.02622715524273017
0.03275264288513219 -0.09115255201694904 0.02770159477235412
0.029943108787034267 -0.09072188814928903 0.0280819848012841
0.027399709032250086 -0.09034804330052715 0.02828760568181543
0.025158605018452407 -0.09003934447965216 0.02828945813799638
0.023022199904965623 -0.08975251709734235 0.02822672426187328
0.021027667472917788 -0.08949593043273082 0.028071245316634463
0.019112359345094587 -0.08925586693632993 0.027867125606418797
0.017242755803218046 -0.0890249740230177 0.027638076133987333
0.015545979465427684 -0.08883164150866125 0.02728979838848511
0.013891567528017734 -0.08864696619457835 0.026917055040773574
0.012318265815047913 -0.08847967378745637 0.02649047491315748
0.010769348444254312 -0.08831715110863794 0.026051658886956708
0.009322483330035658 -0.08817688346800848 0.025541781198764657
0.007888197782283501 -0.08803886035680235 0.025027462250813814
0.006537906081802658 -0.08791921330908813 0.024454144400414768
0.005285144969173261 -0.0878211199963377 0.023810448015064656
0.0040396813934949205 -0.08772426639162392 0.023164715176542727
0.002876601815567925 -0.0876457140736176 0.022458712304709583
0.001805027643056234 -0.08758765550996178 0.02168432761471406
0.0007939347669725927 -0.08754314516653634 0.02086472203708517
-0.00021724205413692355 -0.0874984260820536 0.02004682368533539
-0.0011354369068988235 -0.08747481455650331 0.019156988930918162
-0.0019857114672998666 -0.08746669310871566 0.018213986251364334
-0.0027310187800068664 -0.08748268365479377 0.017187318448916744
-0.0033377464573795534 -0.0875306903877368 0.016048609171660566
-0.0038426968852321997 -0.08760241751582458 0.01482582351842543
-0.003867710706595695 -0.08778557369146768 0.013210257934342717
-0.003237869718514197 -0.08812146780846074 0.011052721856226522
-0.03482682411428839 -0.08221353605718182 0.02455699629393393
-0.03694985325283068 -0.08189238923699484 0.024807338934733136
-0.04043665606043356 -0.08124639560118205 0.02624490392716755
-0.04199221100926098 -0.08105656337779475 0.02603462195657008
-0.04274548487635499 -0.08105699925973932 0.025133131341857795
-0.0437587425106426 -0.08099536885748762 0.024459170357067628
-0.04575829141924265 -0.08069747282124247 0.0246553670908366
-0.0466946084627895 -0.08065321466391198 0.023922692461852912
-0.047714176844784406 -0.08058874949199522 0.02326575388848412
-0.048169529609923434 -0.08065990425003741 0.022107031969664015
-0.04843035622851172 -0.08077834225374173 0.02077076174013509
-0.04887666143139463 -0.08085243437514929 0.019597390768082146
-0.04959230529648667 -0.08086154278148909 0.01866565963994321
-0.04974307712941989 -0.0810079922055389 0.017218026376214668
-0.04980918058176065 -0.08117573284929772 0.01568695883835508
-0.04967137905704594 -0.08139402391134096 0.013961233257721917
-0.04971239912807773 -0.08156954801975551 0.012392670153535734
-0.047996652556231145 -0.08217678297924635 0.00918001299077642
-0.060662286880814376 -0.07979946426603436 0.014668382851094897
-0.06182398766062869 -0.07969567374579736 0.014182534020509674
-0.0629437979632167 -0.07960182024713276 0.013660574171450779
-0.06367607415396459 -0.07960413236298293 0.012767863289659065
-0.06426530112016493 -0.0796421964410682 0.01173609346073684
-0.06470028392293387 -0.07971906631745024 0.010552166361406379
-0.06497278855933353 -0.07983708113612935 0.009205642723943475
0.05250019665504513 -0.09569308050017353 0.02375997144597919
0.04810477458931067 -0.09491882757468076 0.02512938418170485
0.04494199257621262 -0.0944133709521097 0.025673823657664963
0.042195289977688066 -0.09399784005828617 0.02594667807701584
0.03986734008783921 -0.09367337578550974 0.025941396680825735
0.037370629925103316 -0.0933101309548437 0.02606595783265986
0.0328922326889412 -0.0925046500385599 0.02760299227485502
0.029822597278401253 -0.09200983998064366 0.028167579036694645
0.02719317203580296 -0.09161131037873874 0.028435105784846815
0.024750611474596285 -0.09125296016333015 0.028582428016399486
0.02258264912691621 -0.09095471131554451 0.028544083196072545
0.020524509588495554 -0.09067990963582721 0.02843651596740604
0.018578489418388577 -0.09042921768874408 0.028256808767319397
0.016724529813447853 -0.09019825929957095 0.028018403840655404
0.01493386701261995 -0.08998065369728293 0.027741477005439275
0.013250684431436677 -0.08978649519147397 0.027392536583450033
0.011630243303659082 -0.0896057725094752 0.027003703753406938
0.010018610807846329 -0.08942629884311404 0.026614709222652355
0.008519680527321938 -0.08927176983193043 0.02614714388796735
0.007052064203840636 -0.0891237469807134 0.025661371838992975
0.005665069920770427 -0.08899356086943053 0.02511945809095889
0.0043687927956548855 -0.08888364047882383 0.02451270399299127
0.0030745932095583295 -0.08877373361049902 0.023908310406830002
0.0018605802916283332 -0.08868183767603424 0.023245769649711645
0.0007324480805318556 -0.08860938200059902 0.022519669385788532
-0.00032182997988827733 -0.08855370765824974 0.021738368878325975
-0.0013747840409575884 -0.08849810323369493 0.02095804955540337
-0.002373579882425092 -0.08845484675120335 0.020136892986369836
-0.003295657524660933 -0.08842927110819082 0.019256272796191076
-0.004119726288524028 -0.08842645869258532 0.018298187828534096
-0.004896733556677357 -0.08843464077189751 0.017302358733118195
-0.005452236013853307 -0.08849477432239479 0.01612714163677087
-0.005941892688671624 -0.08857063348193761 0.014896190114697172
-0.005861742225835298 -0.08878094921791722 0.013196821450755236
-0.0052656896276006004 -0.08911387896949194 0.011065861611167904
-0.03592589735485213 -0.08332504957527291 0.023929801447596988
-0.03731268583766778 -0.08317548670731474 0.023553499157988655
-0.04088924997631049 -0.08249724906799444 0.02507936970307445
-0.04239012721551427 -0.08231761459510166 0.024823740502136926
-0.04308472140508457 -0.08233246190160887 0.023869244729468053
-0.04412904429853931 -0.08226248271235788 0.023221889547753005
-0.04618455390257514 -0.08194618839280182 0.02347156534884376
-0.04710085190791252 -0.08190624673653189 0.022720436291117918
-0.04762751784813324 -0.08196134129999155 0.021622589218681376
-0.04785468731216014 -0.08209003708014052 0.020253536523031135
-0.04831651874208931 -0.08216170952480388 0.019091476329348156
-0.04849762379085204 -0.08230277266362203 0.017671774861582945
-0.04874062787604838 -0.08242921118191625 0.016303115250332678
-0.04880575122301878 -0.08260018606658678 0.014766360896502129
-0.04888923122809308 -0.08276739166814438 0.01323989795667807
-0.04776116471956898 -0.08323615353814923 0.010583741536836166
-0.06050093351297364 -0.08099649977735116 0.014514855141888605
-0.06166087507101836 -0.080891741533203 0.01402652435684354
-0.06265279971927407 -0.08082888838577254 0.013380799505027352
-0.06342458845071097 -0.080821412375697 0.012524819756976724
-0.06404114652204362 -0.08085324842231734 0.01151833755069126
-0.06452763018102747 -0.08091828035193345 0.01038356982961447
-0.06469206132880773 -0.08106562999034689 0.008930088947135928
0.049385047771793256 -0.09656070816063499 0.024249598376593517
0.04570034904617942 -0.09593182476445508 0.025149805142292536
0.04274751239619612 -0.09546448357306721 0.025562986129857246
0.040284820842006686 -0.09510536322643766 0.025649723129425872
0.03786758495880399 -0.0947550124196535 0.02571684469495994
0.03303569278801971 -0.09385850820420555 0.027501655904471067
0.02987476888463908 -0.09333605974557001 0.02813052374797803
0.027136656485245436 -0.0929072417498733 0.02847546683237584
0.02460952613999029 -0.09252455022799942 0.028683737838445522
0.02233190425851278 -0.09219703288564932 0.028725122857850838
0.020179016232961644 -0.09189659295552624 0.02868732905554444
0.018221387388636434 -0.09163950558742452 0.028517465232043793
0.016305267059559758 -0.09139085258485279 0.028326102112886664
0.014447397828162512 -0.0911545261789979 0.0281004432826627
0.012769637842715953 -0.09095860804831342 0.027749432833833854
0.011042577615721583 -0.0907505194480946 0.02744207164759943
0.009404726145899434 -0.09056214844643114 0.027075120354617677
0.007822622931223766 -0.09038588089005378 0.026672768187579576
0.006378025203493565 -0.09024073961734447 0.02617239040844499
0.0049335524015444165 -0.09009501704877416 0.02567705256531977
0.0035408152335600906 -0.08996072032360013 0.025147233172245154
0.002200190074846231 -0.08983800958803864 0.02458203329676112
0.0009909378106643385 -0.08974548198379896 0.02391943500624316
-0.0001770998686322356 -0.08966221445231716 0.02322803958160291
-0.0013286431807383314 -0.0895824642517349 0.022526706361757742
-0.00240346321712559 -0.08952041951397867 0.021767833639261103
-0.0033804509964037166 -0.08948116894712636 0.02093376144777298
-0.004382783972539828 -0.08943576390019713 0.020121268162055284
-0.005287224122879519 -0.08941333637566834 0.019232104860738952
-0.006055424736765624 -0.08942313092587971 0.01823418720017539
-0.006848737439145269 -0.0894269977879647 0.017256218013177227
-0.0074851342156465606 -0.08946826511047162 0.01615056440531859
-0.007857981546458337 -0.08957263479158012 0.01482805006647031
-0.007854270269975316 -0.08976755695234796 0.013192387236762138
-0.007045848278209366 -0.09015628897645443 0.010885014401287363
-0.03746654797929483 -0.0845128746360092 0.022115036695817547
