# .PCD v0.7 - Point Cloud Data file format
VERSION 0.7
FIELDS x y z
SIZE 4 4 4
TYPE F F F
COUNT 1 1 1
WIDTH 766
HEIGHT 1
VIEWPOINT 0 0 0 1 0 0 0
POINTS 766
DATA ascii
0.0237521794354506 -0.006448019310463626 0.02336152484375903
0.02372909512430964 -0.007616782119746701 0.02269446417822668
0.023706326432723076 -0.008779000429593786 0.0220252792351171
0.023681912283763325 -0.009965598744129556 0.0213787757979354
0.02365734610910595 -0.011152934840994722 0.020736173097763322
0.023636329917463495 -0.012282926737838373 0.02005029200350472
0.02360769495702537 -0.013530740403046526 0.019463545690077744
0.02358334943700094 -0.014709626299734824 0.018824075725538847
0.023558853498523463 -0.015889209002890203 0.01818850479616746
0.023536076528123485 -0.017040404614870275 0.017532716498044554
0.02350874897150022 -0.018260665958692246 0.01693769837917558
0.02348640097336674 -0.019401983938385714 0.016280194041420837
0.023476039553877316 -0.02035661717585935 0.01546828996069155
0.023564404126877273 -0.019788737513361576 0.013366703854826745
0.023649999669680254 -0.01926942629838746 0.011294299961559229
0.02374226126361446 -0.018653603826741583 0.009127319751761731
0.026243995768847804 0.029966756344017798 0.02966947062932135
0.026134109691064243 0.02739759857542773 0.02988995310761794
0.026077643098670753 0.02567270688507689 0.029520958258505092
0.026019405436067677 0.023923745089043436 0.029176179457964913
0.02594292884257586 0.021893854298623838 0.02904139748504675
0.025877701548605143 0.02004409635950022 0.02878527408151127
0.025804949933983672 0.018081575534468874 0.028619515778498805
0.02574450892181361 0.016314687473864276 0.028319187113829025
0.02567227697161378 0.014369167852594567 0.028158167736578588
0.02560667588302012 0.012530719851195249 0.02792668820267802
0.02554559064382423 0.010766100967041836 0.027648306834404723
0.025480040190933705 0.008936720269286047 0.027426120811089416
0.02542355062332133 0.007250645285876212 0.027104072189111483
0.02535855060090594 0.005437832259945208 0.02688518944927476
0.025300693052203636 0.0037383812263619975 0.02658806132604352
0.025243901090088658 0.0020589041126494734 0.026282908234090574
0.025164732368318125 4.245212669296006e-05 0.026244555609677256
0.02511446593918028 -0.0015298809899149113 0.025872174772505585
0.025073030153192552 -0.0029651281086980896 0.02539939627487736
0.025040984432315883 -0.0042556789222323865 0.02481857985204855
0.02501417509055979 -0.005465133402972999 0.02417800017635413
0.02498799472890922 -0.0066633911740843765 0.023531976649722786
0.024963651910038232 -0.007832348851191884 0.022865984404198902
0.024934517290126246 -0.00907160591975753 0.02225934320522216
0.024904456847409034 -0.010322845345986043 0.021666076219783892
0.024877797236401628 -0.011521367804107674 0.021034052381607937
0.024849074544371297 -0.012748918359427486 0.020429058220268637
0.0248184442290406 -0.014002986631401648 0.01984944198484595
0.024789577040231648 -0.015228927201872522 0.019250682633420224
0.02475649774899173 -0.016515370178120936 0.01870563438453765
0.024731763657451174 -0.01767640879276844 0.01806076698752257
0.024695487855557446 -0.0190059845722913 0.017559794507196358
0.024664329723308353 -0.020257957627545398 0.01699844109275972
0.024637486788800286 -0.021444598403725312 0.01638605314926972
0.024627973676772674 -0.022375739725720822 0.015560517602874469
0.02473925573952841 -0.021541254459070514 0.013231034573758016
0.024653474244591966 -0.023587009694878147 0.013355282559896708
0.02463936250359177 -0.02458464550477074 0.012587862538180838
0.024676797475420727 -0.024833162473687664 0.011173512631983296
0.02417173327651199 -0.036825465775811195 0.011967856050946246
0.02420708912435353 -0.03709708657461125 0.010588075291662502
0.0275547886906445 0.029945671413948605 0.029684364454881207
0.027443523735815975 0.027438109283875023 0.02986118007012778
0.02738814578662338 0.025771524552223757 0.02945038682427875
0.027320131658115938 0.02392010988756571 0.029178789803783856
0.027244928537314958 0.02196599654175324 0.02898931026273721
0.027172954633458986 0.02006438953412737 0.028770542126995924
0.027094077264675255 0.01806499315411808 0.02863161961184202
0.0270279917695999 0.016259398467245945 0.02835976388102235
0.0269498733814286 0.014280457057191498 0.028223627536089757
0.026884252299974494 0.012490154211923232 0.02795678449884853
0.02681275847723995 0.010617650441521798 0.02775904313890748
0.02674429413965519 0.008793906714522903 0.0275332303980092
0.026682384750629107 0.007070186585638183 0.027240149111228573
0.026610878584242673 0.00521024672842102 0.02705773198942968
0.026551735901417257 0.003534679722069778 0.026743331431748896
0.02648451995983026 0.0017454448217219531 0.02652313094310793
0.026408214977149912 -0.00017144284744247118 0.026409360486974065
0.02635670544423992 -0.001724948368914181 0.02602328296119244
0.02631203495502803 -0.0031765708159121053 0.025564071124465404
0.02628105885169135 -0.004428182971349448 0.024953650957009577
0.026252333734814687 -0.00564554095626274 0.02432001833863967
0.026225620200679364 -0.0068322855666960725 0.02366564477959754
0.026195146256295213 -0.008071220440369842 0.023056047632784626
0.026164817664898206 -0.009306213665791652 0.022447013027901863
0.02613225172259946 -0.010571238177084108 0.021865835615080542
0.02609761384946858 -0.011863735932370889 0.02131085815923589
0.026066325638256994 -0.013106577093768723 0.02071976955374083
0.026031492912060188 -0.014397695724507498 0.020171978762050957
0.025992334366836897 -0.015747806252162988 0.019676942989020674
0.02596408964672193 -0.01694164013124766 0.019057679215988166
0.025918835184181768 -0.018373053094303093 0.01863916470439475
0.025884979471326647 -0.01964167684413165 0.018090388663452528
0.025845459280533837 -0.02098757415957292 0.017610661923111837
0.025808382426047428 -0.02229690147183966 0.01710501075753823
0.025769385104099325 -0.023630742726748755 0.0166247775499061
0.025735701879888172 -0.024888246496136524 0.016084346913627312
0.025721921523303198 -0.025867332263090237 0.015309534706718975
0.025815135567885866 -0.025363207041738334 0.01325861915095694
0.025842183510057785 -0.025779469496580165 0.01199308979986008
0.025952706167187832 -0.025045986977398405 0.009723124522603488
0.02549995266181671 -0.03363257949866172 0.012369735882778121
0.025307513870807288 -0.03704393110439774 0.01377865153132285
0.025329521572871296 -0.037518373959721296 0.012587167813395306
0.02537568710902232 -0.03766538189299845 0.011098675368674482
0.025448251255403256 -0.03745674541554689 0.00928304843167116
0.025565819452421767 -0.036642812139512704 0.006908532491357533
0.02887238419300442 0.03002382048099239 0.029629162063011916
0.02876033702666381 0.027580574048043205 0.02975999339239377
0.028703738889414774 0.025933884411926567 0.029334436220598004
0.028621005085794706 0.023918898168189984 0.029179659908680544
0.028542221332535676 0.021964793960412954 0.028990178535179267
0.028466061806841657 0.020052452125161657 0.02877920816220947
0.028390223780268425 0.018149103669867217 0.028570225551188322
0.028316123369476583 0.0162746896395099 0.028348541643998748
0.028234859355435262 0.01430379816320615 0.028206404106707272
0.02816329948399275 0.012473930285834545 0.027968821288934353
0.028083893643210674 0.010538292607511712 0.027818239920062937
0.02801366749333485 0.008735668672168961 0.02757690869360163
0.027942735636554382 0.006927300059071162 0.02734789431121948
0.02786860639615389 0.005078549304343372 0.027157577563662938
0.027804035044565047 0.00336695509631163 0.02687117840303832
0.027731598992678855 0.001550069159598766 0.026672859064716392
0.027652934755131985 -0.0003487723329635428 0.026545991860481177
0.02760425347483359 -0.00182897574057167 0.026103867361237487
0.027553057670566553 -0.0033409845985257203 0.02569211912043945
0.027524890197204138 -0.004533344142779894 0.02503599241911897
0.027493476978522658 -0.005768594434156671 0.024416886947933814
0.027461350793904032 -0.007011771267382505 0.023807695190975975
0.027428673428470312 -0.00826060165712511 0.023206732800551466
0.027394668302545864 -0.009525625113369907 0.02262252687242311
0.02735693167595416 -0.010839427415738068 0.0220815154312079
0.027321162521601505 -0.012124315186914647 0.021521537358709264
0.02728200176568401 -0.013453056308813494 0.021001393976562643
0.02724117731880418 -0.014801997250525445 0.020502354001685763
0.027199012463285557 -0.016166631808253007 0.020021009164699843
0.027158128885525462 -0.0175115582341413 0.01952835917126572
0.027118439116236223 -0.01883806349529693 0.019025245454160677
0.02707306868574398 -0.020238371333972716 0.018588432486548456
0.027024886183533044 -0.021673628034273196 0.01818632935168296
0.026982175795513243 -0.023033061651605957 0.01772599639275163
0.026944131160917543 -0.02432788652848905 0.017215965160538027
0.026903633150945575 -0.025653077192465346 0.01673636545432844
0.02686153005930636 -0.026997175239045046 0.016277817918976534
0.02682577103833053 -0.028254913471883303 0.015749920246798
0.026795260165285998 -0.029441309382252256 0.01516453446857241
0.026761837874924265 -0.030664255369040216 0.014614647944720616
0.02671765184850895 -0.03202665385485276 0.01419085174771112
0.026551375383214535 -0.03498683173996292 0.015178195051009369
0.026455205666534084 -0.037020382343300684 0.015366139478932617
0.026473785921274723 -0.03755087611246816 0.014229384813467583
0.026505030337444967 -0.03791756385030537 0.012943958222904395
0.026546608948695115 -0.0381518245002368 0.011535732695528211
0.026610400692863963 -0.03810059014293454 0.009864561438086394
0.02671832024673167 -0.0374823920163887 0.0076708048408613005
0.030199188416369684 0.030221185426041963 0.029489748792322856
0.030083467394507256 0.02779691643554366 0.02960633457316192
0.0300242343067009 0.026148934914869748 0.02918085616895366
0.029931228737941882 0.024044955647449573 0.029089141235657923
0.02984597605284948 0.022051398077717332 0.028927649734919125
0.029760149976496456 0.020054839550423864 0.028777474996205754
0.02967989953201448 0.01813843982114066 0.028578009321977127
0.02960278385198886 0.01626880828084193 0.02835285799070214
0.029523118517361193 0.014369167852666509 0.028158167736525463
0.029446296624248885 0.012512174526553954 0.02794044727545486
0.029360777401618438 0.010542892187983544 0.027814808874319363
0.029285223668761386 0.008711693333515125 0.027594890100364644
0.029207341006682423 0.006853629675974138 0.027403446296076994
0.029130462599271257 0.005013296521334476 0.02720704855093148
0.02906297885824096 0.0033021405879748444 0.026920582827397732
0.02896889158381883 0.0012418683164602817 0.026909051908900694
0.028902652268974746 -0.000444527989981347 0.026619771056879238
0.02884847054759552 -0.001967955280722633 0.02621152732306442
0.028803405248673062 -0.003368191691350997 0.025713308424992753
0.02876934851141793 -0.004621114391105796 0.025104716744633437
0.028731921493899592 -0.005916368363625191 0.024533215679819642
0.028697623713543393 -0.007168546649314322 0.023931771969305737
0.028660219478781453 -0.008459406391876534 0.023364915989582125
0.028623075678736596 -0.00974477907595045 0.022797834746917045
0.028582775680761993 -0.011069147827883818 0.022266258325818244
0.028542102586315284 -0.012396108777271875 0.021741283386222943
0.028499281796236026 -0.013748624649250474 0.021241637141709624
0.02845336633373197 -0.015138759170020888 0.02077753921048031
0.028405831960064194 -0.016547213488379564 0.020333657906665747
0.0283605370358162 -0.01792418144455621 0.01986913352680636
0.02831395026630569 -0.019315212067488263 0.01942140407364018
0.028269504337779947 -0.020676198386687716 0.01895387420404626
0.02821750984985321 -0.022131243566560432 0.018570314292896406
0.028161996381471936 -0.023628290586086398 0.018228099913337403
0.028116924425377346 -0.024989275436355263 0.017776832125379116
0.028071604416338842 -0.026350892712879603 0.01733125352496029
0.02802815001437274 -0.027686325010960522 0.016868424020070327
0.02798872715820881 -0.028968329890895095 0.0163645521776008
0.02795011469168098 -0.03023790256740866 0.0158544475420746
0.027891001854174233 -0.031763498301657034 0.01557169950877385
0.027775749390029858 -0.03399124239671264 0.015910324352355232
0.02763254147721168 -0.03656305234000057 0.016565017353802947
0.027631401768038247 -0.037349564727289286 0.015657290801606272
0.02765246357600979 -0.03785888981189123 0.014503244943217974
0.027679579377459084 -0.03829399422099189 0.013280406487945373
0.02771729457646358 -0.038598902989698536 0.011937422281494525
0.027773830189432816 -0.03867257775128541 0.010381173937366983
0.027871894232348107 -0.03823568913866171 0.008354739250302001
0.031536079265278995 0.030534376895184512 0.02926851879094583
0.031410062580088625 0.028040574287027775 0.029433274738756954
0.03135024279295085 0.026418066303713184 0.028988653816334198
0.031248874822196845 0.02425724796116996 0.028936699519039877
0.03115787845381305 0.022236759055736133 0.02879381776559342
0.031063084938686196 0.02017185804194821 0.028692524704974298
0.030975361714707182 0.01820361664109349 0.0285304353699955
0.030890225403537808 0.016273513353962266 0.028349404923477595
0.03080401736507743 0.014334145701441148 0.028184010622808342
0.030726840505690377 0.012515651642501013 0.02793786754755606
0.030642615258531437 0.0106107484899296 0.027764191632727198
0.03056161151546367 0.008751653861800657 0.027564919866202686
0.030472708374455336 0.0067958462456445545 0.02744701854467596
0.030394184984580526 0.004977304377712655 0.02723433576837686
0.030319133225551926 0.003207193083102633 0.026992955926306295
0.030219958222165985 0.0011344468324085977 0.026991375453464306
0.030156947426183963 -0.0004742355197419057 0.0266426605418556
0.030097049316888596 -0.0020401408585576375 0.02626744560100469
0.03005452117850731 -0.00338342596022434 0.02572517310913508
0.0300182131372214 -0.004646029387285255 0.025124225249397725
0.029975993039050505 -0.0059810504256848085 0.02458413387819347
0.029940558275939264 -0.0072286449892450255 0.02397933561297022
0.02989361248028792 -0.008618511851791355 0.02349151161152735
0.029852761745523412 -0.009929689444086676 0.02294575013584338
0.029812954869154425 -0.011225660910175073 0.022392127331523015
0.02975897406167416 -0.012695883205940894 0.021983652015165223
0.02971411108870826 -0.014049994110434394 0.021486595560214095
0.029664934576467062 -0.01545514935208131 0.021036077641551354
0.029616004214841347 -0.016854627055518212 0.020586198872371675
0.029572738539555905 -0.01818159819806381 0.02008172706509448
0.029524111598648886 -0.01957225045363098 0.019634813435298548
0.029479373289113136 -0.020912531994968286 0.019151135106900363
0.029415613590244936 -0.022483556783780834 0.01886594011950876
0.0293581282087452 -0.023974431789854034 0.01852008625164142
0.02929775611229489 -0.0254974545593466 0.0182077750682042
0.0292455416743334 -0.026917912847472192 0.017814638465548815
0.029199854012659142 -0.02825627664368735 0.017356876494894813
0.029155281616140633 -0.029578673018017254 0.016890383045349844
0.029100261846117467 -0.03102505342758466 0.01653618281093361
0.028998539628506882 -0.03303214933872173 0.016676245577012083
0.028828565788321173 -0.035855713125189204 0.017542170548883185
0.028799191121098747 -0.03698077941640082 0.01693255044277464
0.02881272294801484 -0.03758987127743785 0.01586983428305
0.028829199865102444 -0.03816445851422767 0.014774931185181417
0.02885275969356698 -0.038655391548962637 0.01360341842708418
0.028887495261855304 -0.039014499891646015 0.012310826396000618
0.028939556040277606 -0.039169615013130266 0.010830092162741778
0.029026153023456864 -0.03891809315259598 0.008974308305420342
0.029236490530794693 -0.037207583906902764 0.005777180733387399
0.03288321264682641 0.03095145845285524 0.02897390363482283
0.03274706590012178 0.028395502103895354 0.029181184568714436
0.032683668066262675 0.02675865728635085 0.028745418018290503
0.032573820519828024 0.024543890211833064 0.02873086900176597
0.0324767748260209 0.02249462043427658 0.028607639981725608
0.0323720525720501 0.020354686080196138 0.02855979956989424
0.032280496041129085 0.01838385186311825 0.0283988778345986
0.03218433418471965 0.016360577211490535 0.028285508498239575
0.03209232619930305 0.014393687032089264 0.028140075005399556
0.03200637521784558 0.01250637946925559 0.027944746721091762
0.03191780525832185 0.010591194274560067 0.027778778051602393
0.03183798138688137 0.008788196337057186 0.027537513157951166
0.031750616556862205 0.006896695135151232 0.027370972299940233
0.031665106777023534 0.005032420063819376 0.02719255015740435
0.031570928521656945 0.0030665332064773176 0.027100172974054704
0.031471595029901385 0.0010425771512397874 0.0270617807160477
0.03141041550708538 -0.000511638439426032 0.026671479281585198
0.031351452984389724 -0.0020357667535795265 0.026264057217545766
0.03130724155737096 -0.003377985290244412 0.025720935831234137
0.03126601831321819 -0.004681771260241663 0.025152211225949017
0.031222582833082154 -0.006010150115056789 0.024607041369217708
0.031180335926848535 -0.007321973939688253 0.02405319896672642
0.031132168172720902 -0.008702814960443006 0.023558589161709387
0.03108503363035977 -0.01006878273439843 0.023057015060254482
0.031038041596964803 -0.01143062057211608 0.02255695744336056
0.030987762485882465 -0.012829310760990975 0.022091528640013458
0.030935105012495898 -0.014253767219433056 0.021652225940671233
0.030879657727706594 -0.015708700680935272 0.02124326726523368
0.03084199033377725 -0.016949748211365356 0.020664341124778718
0.030800679566842876 -0.018232009342352695 0.020123360266459556
0.030750213626057666 -0.019620340768642996 0.01967474102581407
0.030694391466160882 -0.021069238448760186 0.019281933501521242
0.030629664379482335 -0.02262004490037689 0.018980467223004394
0.030559394729123678 -0.024232596643601167 0.01873786041289094
0.030482724779311805 -0.025916514547385416 0.018563143748843214
0.030421682203077147 -0.027413816659531354 0.01823739670658031
0.03036577908057919 -0.028848035261383742 0.017864017706035185
0.030317989322084644 -0.030184956754616354 0.017412716613389168
0.03023197757443878 -0.03196326114828213 0.017348745338747362
0.030091057998384227 -0.03437333006111193 0.017843939332373326
0.02997849127092929 -0.0364483722402123 0.018060885328319953
0.029981371296238932 -0.037185943033391844 0.017113061647715255
0.029991002826858956 -0.03784595663621243 0.016096333617616976
0.030005420517992657 -0.03845150308883971 0.01503014731548552
0.030025546052316304 -0.03899239101673002 0.013904623895822754
0.03005793546612283 -0.03939411081527494 0.012651897949061464
0.03011038554332867 -0.03956867457641672 0.011190518079914391
0.030192283739416865 -0.03941079319193608 0.009421641104755463
0.030352193842753682 -0.038371293440152665 0.006839269930955072
0.03425257497737797 0.03160553847973013 0.028511879156179254
0.034093234269519566 0.028833844217974636 0.028869848762323458
0.03402257403417601 0.027139121835520086 0.02847370619101952
0.033909234099434485 0.024934420502428833 0.02845043912257511
0.03380177561328971 0.022805936663931325 0.02838286740799917
0.03369019933409665 0.020633429214792665 0.02835744428267184
0.03359266347205056 0.018634315383002253 0.028216059165680263
0.033487001494307486 0.016543063803964586 0.02815158104264559
0.033388183421434764 0.014538528650880678 0.028033196205768884
0.03329287382131142 0.012580569029766342 0.027889704300314955
0.03319800979263477 0.010632605500592307 0.02774788744936524
0.033109087962456644 0.0087596469458453 0.027558925085583608
0.03301680225443792 0.006851363336443705 0.027405155255009805
0.03293419342827068 0.005061671480845575 0.02717037337945616
0.03283528416349052 0.0030843890989412093 0.0270865624397586
0.03272772419517732 0.001010488463636272 0.027086372207472675
0.03266241757349054 -0.0005633304336669642 0.026711307673077556
0.0326064470008779 -0.0020248310517193002 0.026255585918507518
0.03256354461450838 -0.003331189090425457 0.02568449022727831
0.03251703136064636 -0.004677439271625283 0.025148819267950984
0.032472228717204586 -0.006001528453143834 0.024600254333096427
0.032422829072324015 -0.007376662464892547 0.024096481119417368
0.0323757939010733 -0.008722017953423478 0.023573868428937994
0.03232401942469329 -0.010119722255801489 0.023097763122118198
0.03226663518004014 -0.011579444351298374 0.022676642653291113
0.03221246840180369 -0.012999370209371863 0.022229022273228816
0.032159484634780654 -0.01440305784202911 0.021773571994332497
0.032116569168216466 -0.015688969489487614 0.0212271439100562
0.03207739087231012 -0.016930107674299033 0.02064820637755893
0.03202801039840293 -0.018285491649060903 0.020167529857847755
0.03197473116622142 -0.01968273688455796 0.019726546187942562
0.03191544064114727 -0.021145507425109566 0.019345593034517383
0.031846456390324296 -0.0227150200579061 0.019060160825400962
0.03176897147963541 -0.024377087103092 0.018859744891616348
0.03167887093479626 -0.026177430976418004 0.018784404498590035
0.03159789109400055 -0.027870805652762787 0.018626980045629626
0.03154147737688401 -0.029284667256124053 0.018238214332857883
0.031467733908178815 -0.030889664151961982 0.018019845432882264
0.03136061977002508 -0.032863616734006396 0.01812852490624378
0.031190471657846577 -0.0355345237904065 0.018854928115484837
0.031155996818426866 -0.03668885924443405 0.01827136747596636
0.031162577932031213 -0.03738612273267977 0.017289187801333816
0.03116993155416229 -0.03807516253487392 0.016299058926764087
0.031181482033208193 -0.03871822450006368 0.015267293781444091
0.03120023769501073 -0.03928247652287842 0.014163898313769296
0.03124039401234499 -0.039612409348468824 0.012848034085070292
0.03130479055049257 -0.03967846651367202 0.011289680869943863
0.031395115349047875 -0.03946397356267223 0.009469924689516185
0.03151531311979068 -0.03892778388778906 0.007347165136843414
0.035650711713023385 0.03254658207993982 0.027847151353917687
0.035446321102169796 0.029320198129736963 0.028524412213001782
0.03537446709916211 0.027642171854864506 0.028114448961237493
0.035254477597278476 0.025409904744091383 0.028109005969609746
0.03514482488838235 0.023302859107377005 0.02802408580294241
0.03501827547433779 0.021006086323286488 0.02808691157041726
0.03490946506431271 0.018919583020071684 0.028007836228788385
0.034796606676704075 0.016791749226485353 0.02796907006783922
0.03469151367751388 0.014758328722845937 0.027871005476015842
0.03458847333646228 0.012753399470940507 0.02776147863351419
0.03448473272162777 0.010745380219022438 0.0276637634254418
0.03439123505252279 0.00885901678540757 0.02748439810888692
0.03428956946927381 0.006884227839702994 0.02738037340495475
0.034203471420503395 0.005090927308127047 0.027148193257900688
0.034097982587159445 0.0030821570220862515 0.02708826382537388
0.03398726616770031 0.0010193399798348324 0.02707958875819655
0.033926370712574774 -0.0004764358939161051 0.026644355917809392
0.03386481810908773 -0.0019767065045231957 0.02621830642464501
0.033817248859732356 -0.00331703913090009 0.025673470020021127
0.0337726167816432 -0.004622197719979959 0.025105564993870566
0.03372376341919426 -0.005972427432751726 0.024577345794283334
0.03367168696908221 -0.0073562901693897675 0.024080357868674684
0.03361881298363466 -0.008746552244084826 0.023593389655845787
0.0335627623035585 -0.01016958705574239 0.023137651481820953
0.033501093693302376 -0.011652229575794704 0.022735177081872004
0.03344145241290454 -0.013109510497370136 0.022318071064721723
0.033391377714861004 -0.014458358633810175 0.021818521454186557
0.03335125607639016 -0.015695200621050787 0.021232235683029843
0.033308220955310316 -0.016962151675312398 0.020674530599473828
0.03325835663064344 -0.018301944588573704 0.020181117895839096
0.03320144453958852 -0.019716483230005077 0.01975456451683205
0.03313504459288177 -0.021231906751409235 0.01941770808085319
0.03306103202277726 -0.022827107139189284 0.019154213033598877
0.03297766657923681 -0.024520459034772457 0.01898068583967827
0.03287995913460866 -0.026365412717419323 0.018943815621557114
0.03277900305284431 -0.028240875577867974 0.018942464836816275
0.03270974487406127 -0.029769205998769144 0.018653467372595656
0.032617944808512676 -0.031537146083036594 0.018577672613265317
0.032458372221561844 -0.03402940624526579 0.01913819137057793
0.032353150841329135 -0.035930977586815904 0.019200099064207943
0.032343304675613194 -0.0368066045606556 0.01837442205520995
0.03234596521080364 -0.037548183747604436 0.01743177560275294
0.03235155375937696 -0.03825868640302438 0.016461379936493603
0.03235767676680925 -0.03896377226150649 0.015485614401386016
0.03238183643226618 -0.03947779566365611 0.014338471863517999
0.0324419476282031 -0.0396124093484827 0.012848034085082782
0.03252351988920424 -0.039523222888210974 0.01114946664820915
0.032619297711227346 -0.03928822574188012 0.00931035952131104
0.03273525087717734 -0.03884566652161714 0.007272218627382143
0.03681922212171045 0.029994076342433007 0.02804578510869149
0.03673475376757232 0.02820325153488834 0.027713749381114205
0.03660537963729279 0.025914640212539364 0.02774656825389693
0.03648463745826371 0.02372820255206598 0.02771698475367662
0.0363618789195099 0.02152487539613762 0.027710293462866076
0.036246600951548996 0.01941023848798923 0.027649696330476037
0.03611903680310072 0.017164767554600335 0.02769531080203741
0.03600465524182563 0.015070909614045669 0.0276403516714141
0.03588962701813533 0.012975168203356535 0.02759694486621933
0.03578401704080507 0.010988410557032147 0.027482475542364437
0.0356769457465274 0.008990445101401345 0.027385827404873497
0.03557092699669119 0.007008936682881828 0.027286335292532493
0.03548292095059054 0.005229389688998609 0.027043218874197694
0.03535402406425774 0.0030073973571840273 0.02714524887863695
0.03526180072342093 0.0011909186808689576 0.026948097679242944
0.035188468967114826 -0.0004159163778401087 0.026597725970278874
0.03512824740113169 -0.0018771376081488378 0.026141175765188485
0.03507758298304212 -0.003232117221135977 0.025607331523681387
0.035029571920493364 -0.004556103301722014 0.02505381289789632
0.034976891320543484 -0.00592822840291668 0.024542551990600958
0.03492486745388284 -0.007290869440679804 0.02402858192557511
0.03486743207716512 -0.008709216176998935 0.023563682424954602
0.034803847150221445 -0.010190802074927174 0.023154622016493653
0.03474078967930308 -0.011663830381250906 0.02274450653744703
0.03467776368967623 -0.013133627711449714 0.022337569913026822
0.03462838946470975 -0.014455228843329115 0.021815977505229456
0.03458697670314635 -0.0156900080260845 0.021227992550872488
0.03454146865097488 -0.01696628597651123 0.020677926937595792
0.03448363385604886 -0.018370825153783132 0.020238004492681094
0.03442473305135127 -0.019783957118581108 0.01981058556374926
0.0343589871357838 -0.021266454931273937 0.019446544458386006
0.03427437207586249 -0.022944168691770406 0.01925243931792442
0.03418147949494993 -0.024704769052378006 0.01913615998308449
0.03408339060840867 -0.026515456921635816 0.01907105518728014
0.03395982422542458 -0.028587546839016598 0.019238002255596798
0.033876504720325024 -0.03023483539627464 0.01905251497330951
0.03376421314692109 -0.03217934634469721 0.019130949460093916
0.03357729255899212 -0.03489245616933273 0.01988566126712482
0.03353293035138859 -0.0361222094203863 0.019366594312878405
0.033528702740653595 -0.036935652561154164 0.018487369116038932
0.03352897842221383 -0.0377025215488232 0.01756756821001182
0.033529805493513705 -0.03846373701054495 0.016642740660816946
0.03353669933933119 -0.03916278641675558 0.015662561214078996
0.033579965400050704 -0.03949005467567257 0.014349428799103503
0.03365923756899648 -0.03945178371148145 0.012703715699959206
0.03373274480134968 -0.03947586458567459 0.011106693184802174
0.033823959307880076 -0.039323389689243426 0.009342285613768375
0.03397057456704121 -0.0386134252416066 0.007060257697544592
0.038227271981837264 0.031002163338966326 0.027329783684467923
0.038112170733300595 0.02891078782201628 0.027208456633456446
0.037978739947028654 0.026626807365977778 0.027235179115559505
0.03783810263630139 0.024271170113163265 0.027324958240015018
0.03769917605953647 0.021940143943112833 0.02740882671564293
0.037577084247145745 0.019795741344208584 0.027368309567761484
0.037453455604296776 0.01764031067963623 0.027346308281370912
0.03733316763387828 0.015526023667530253 0.027304522479933258
0.037203050921553495 0.013312360678393365 0.027346776379359783
0.03708772850956154 0.011261745728830597 0.02727858184303561
0.03697538467203851 0.00924784259620215 0.027192780327598254
0.03685910811003429 0.007197284768243217 0.027144309290412227
0.036764243758133565 0.005378093408567597 0.02693048008393678
0.03662714693118977 0.003117873349314515 0.027061039294443645
0.03652967947797043 0.0012806433967041397 0.02687933623261307
0.036455895899627354 -0.000303629484242951 0.026511209548861714
0.03639777336577363 -0.001720567023249131 0.026019888968763505
0.03634400537628926 -0.0030894064588217196 0.0254961861754765
0.036289148743275455 -0.004467218678307183 0.0249842160138804
0.03623031304794852 -0.00588401900955271 0.024507750028671893
0.036176521851535075 -0.007245812413547492 0.02399292243172596
0.03611557969126628 -0.00867934195964809 0.023539912372514682
0.03605022621936794 -0.010155795998489814 0.023126619598548115
0.035983269321206615 -0.011645901558206329 0.022730088042219432
0.03591635706045837 -0.013132579202307426 0.02233672218987587
0.03586623441947775 -0.014443752490134243 0.021806649322746174
0.03582323867738562 -0.0156796223957269 0.02121950592666416
0.035774183451643626 -0.01697558781278241 0.020685568417887712
0.03571267554916066 -0.018396520192509702 0.020259225330582664
0.03564576208936304 -0.019869796737517376 0.019881854989911962
0.03557180714134405 -0.02141168830576784 0.019567766601887526
0.03549070097466924 -0.023022839720733546 0.01931845213501704
0.035389688626325286 -0.024831872527173837 0.01924337772482515
0.03527313801680787 -0.02679335075102418 0.01930671300794118
0.03514789246180559 -0.02883728114648837 0.019450900874209143
0.035040871101440246 -0.03069241829500169 0.019444666669149513
0.03490466569203774 -0.03283560480997183 0.019696337916076168
0.03474482071465679 -0.035209397090922745 0.0201601573203265
0.034719400306889206 -0.03623342647576833 0.01946342500757242
0.03471825869036124 -0.037014362535912004 0.018556258678623982
0.034713502761867736 -0.037831188704992746 0.01768077475090385
0.034710554740624566 -0.03862986628625642 0.01678967670815984
0.03472577571546465 -0.039248546124904804 0.015738811604386616
0.03479109171126612 -0.039373086921521305 0.0142448846363194
0.034847259037488754 -0.03959068643063118 0.012828516550503433
0.03489582159354397 -0.03988555487715162 0.011476720650993588
0.03498301591906536 -0.039803559466497884 0.009778241922809905
0.03519602611689833 -0.03849383744069346 0.006951112839758633
0.039511479481893666 0.029799883803073357 0.026573501565606283
0.039387996748886704 0.027665779759779352 0.026489119437494713
0.03921312688266844 0.025002268502959224 0.026797099904765476
0.0390626068620615 0.02259909668431137 0.02693045593386839
0.038919708510739164 0.02028135420550886 0.027013850375645743
0.03878221183808776 0.018025594175540338 0.027063547572273083
0.038657764984829965 0.01591039512877218 0.02702089432987098
0.03853796635414524 0.013848397141285218 0.02694908235962057
0.038407425175679806 0.01168113438140983 0.026965739908833497
0.03828335539239597 0.009585831869417027 0.02693928974333676
0.038154863738932156 0.007450593106005876 0.02695329927591089
0.03805162925663977 0.005578798584478184 0.026778316716424222
0.037897930319444766 0.003197142550359744 0.027000616877494665
0.03780490975578529 0.0014391486299880074 0.026757864138357346
0.03772504416101308 -0.00018136001233443055 0.026417001606872992
0.03766920881760358 -0.001555097553082585 0.025891708685375714
0.03761073233243263 -0.00295313203669173 0.02539005354852225
0.03755598784436208 -0.004311027531800904 0.024861917952752555
0.037495823965843236 -0.005721109619850673 0.024379506550377072
0.03743072105878664 -0.007178206607369841 0.023939417152239184
0.03736520471728949 -0.008636656233346696 0.023505948572201396
0.037293443576635 -0.010154735105665058 0.023125770958331904
0.037225128883944185 -0.011635354383003338 0.022721605924070798
0.03715727468254931 -0.013108461851477848 0.022317223231007877
0.037105627001524075 -0.014417667211096052 0.02178544674742766
0.03705978012466415 -0.0156671588640786 0.02120932134414344
0.03700370135172034 -0.017015890307834014 0.02071867701200547
0.036944667778515405 -0.0183913814744599 0.02025498140225407
0.03686984371905885 -0.019919851115308806 0.019923413268319257
0.03678613134791393 -0.02153245797955139 0.019668569594154528
0.03669252370880018 -0.02323850431577662 0.019499416177988893
0.03659418000858094 -0.02498687668253252 0.019374130999074146
0.03646590110965527 -0.02702327765512358 0.019501694210836695
0.03632975578477833 -0.02913080912329924 0.019701133617238187
0.036200621144754724 -0.03116436492071839 0.019849128177950592
0.036003636409097504 -0.03385041335279293 0.020570629167927845
0.03592341316615226 -0.03539814150965148 0.020323625003025758
0.03591081525542805 -0.036289483246631726 0.01951223061608598
0.035907372052643265 -0.0370920890482494 0.018624287482503776
0.035898717772997885 -0.03794463894838296 0.01778059283968353
0.03589439219751224 -0.0387553009272395 0.01690061964863193
0.03594065118424788 -0.03908169944496692 0.015590465431791711
0.035995429919592634 -0.039328731549996554 0.01420524041800747
0.03602976388532229 -0.03977288486473246 0.012992217590215627
0.03612688563684947 -0.039621686346003715 0.011238397688454527
0.03621872677174082 -0.039524730976106426 0.009525087631796991
0.0363350934418991 -0.03919963714292962 0.007595278946482931
0.04101199403570174 0.031654922740897984 0.02524871054222233
0.040818808123553395 0.028855215601583106 0.025635015780353376
0.04063584419649388 0.02616645171851517 0.025956551187019894
0.040456084031750945 0.02351746971194646 0.02626375740493997
0.04028869022298702 0.0209999544217625 0.026489328740396056
0.04013991762825959 0.01867573173792847 0.026586409672242906
0.03999365680231113 0.0163827629815938 0.026672333539712934
0.03985760465080266 0.014197599068526412 0.026690003868213463
0.03972783464090317 0.012080554658897125 0.026667793334933132
0.03960539132466547 0.010041605631312511 0.026597461270216838
0.03947081328323595 0.007887554836885802 0.026623803345026564
0.039349946739310145 0.005874596205940441 0.02655405960905427
0.03917591995010295 0.0033423677230288162 0.026889919963450026
0.03908705715033581 0.0016555029622018491 0.026592058800004592
0.03900466120637711 3.5833236877447217e-05 0.026249655427138086
0.03893950911172464 -0.0014114281840093001 0.025780415765760845
0.038883167675343555 -0.002769825153974781 0.02524729131407305
0.038832555066311066 -0.0040699801685709636 0.024673177260194634
0.03875776996603914 -0.005603425282672381 0.024286864568425215
0.03869332883892246 -0.007033255077474321 0.02382469812797794
0.03862249240539783 -0.008522424051465805 0.023415057322340338
0.0385556461429455 -0.009970047797573323 0.022978034001873038
0.03847317798533081 -0.01156572799886224 0.02266561185881849
0.038401293594122504 -0.013056021976546595 0.022274825416606525
0.03834660634948758 -0.014378010514806805 0.02175321308457423
0.03829131684710421 -0.01570350846761448 0.021239024444938193
0.03823100599075259 -0.01707477799292334 0.020767053383286216
0.03816798052812961 -0.0184694743608535 0.020319476206136555
0.03809005268705052 -0.020003584724831713 0.0199929341536072
0.03800518932274249 -0.021600418862069648 0.019725294598870735
0.0379072245832951 -0.023318053528766536 0.01956616587881488
0.03779741841193238 -0.025143744190000927 0.019506456098212888
0.037657020766749844 -0.027253897083890366 0.019697262684252925
0.037503014674048464 -0.02948651261859908 0.020004371020026668
0.03736066891699563 -0.031603062901026435 0.020225095368634483
0.03715731809080936 -0.03428626654701439 0.020946131165319515
0.03711699464684679 -0.03543434175866039 0.02035497729867758
0.03710428445407503 -0.03632272869994807 0.019541175640111152
0.03709615449812329 -0.03716788614591088 0.01869062759910506
0.03708416931392737 -0.03804856951429131 0.017872035133192576
0.037087418768388614 -0.038787352262348196 0.016928968032580316
0.03715476982994187 -0.03893262599131825 0.015457921731836022
0.037178635253834684 -0.03948251077186976 0.014342686162101437
0.037250928084021216 -0.03958690825135841 0.012825121944626428
0.037362833227962 -0.03932991892919002 0.01097487677959541
0.03747064359736806 -0.039115152339335324 0.009153222514067194
0.037585543467159074 -0.03883993594046542 0.0072669884662782125
0.042265212949472185 0.03012273862297926 0.02472483970356426
0.042061135005003816 0.027282977853666734 0.025150411226667557
0.041894264137172614 0.024813622393323798 0.025322807420633364
0.04169312256044554 0.022018037806856572 0.025746207948206423
0.041530016803816586 0.019599280226510307 0.02590861467636646
0.041351175295205024 0.01703483780372006 0.026191166767069896
0.04120335358966756 0.01477706204232454 0.026260091025910648
0.041054897136217065 0.012519109455524258 0.026340654462704005
0.0409227130853091 0.010423569775837083 0.02631098971080459
0.040787093474660564 0.008300378779284912 0.02631250878630581
0.040652960817070365 0.006196872564072309 0.026309727813919714
0.04047747572374309 0.0037036696484159526 0.02661451999357084
0.040372746782490906 0.0018921068935482954 0.026410734975835848
0.04028932979901715 0.0002875119623064193 0.02605573838149361
0.04022083059219817 -0.0011721047669170925 0.025595024808786504
0.04016156045096185 -0.002541535704074116 0.02506949596080571
0.040101544542335034 -0.0039156357454601665 0.024552325188136936
0.04003528676841852 -0.0053462078239197575 0.02408438107960409
0.03996696243538797 -0.006793571585485048 0.02363500536411156
0.03988714658674405 -0.008346134928084503 0.023274789155373676
0.039805155531460606 -0.009915880634086438 0.022934704051611354
0.039726774162310866 -0.01144857018671308 0.022571392659312073
0.039649150631073375 -0.012971037819029363 0.02220611544080664
0.03958079211193657 -0.014404101406754743 0.02177442022216486
0.03952205125942127 -0.01574504206422389 0.021272963648848398
0.03945902938633634 -0.01712332025291191 0.020806930963606307
0.039392101205559416 -0.018535210851378103 0.020373766196686294
0.03931202014978629 -0.020065849315424433 0.020044630115178208
0.03922092814501764 -0.021694710283285568 0.01980399695109125
0.03911635356838849 -0.023443850696990953 0.019671722213417453
0.038998079957696004 -0.025314443566823996 0.019650449027823202
0.038849620606090284 -0.02745655563836219 0.019869119948555114
0.038686544890754127 -0.029726184085789475 0.020208691062403694
0.03850308311889853 -0.03217502261712807 0.020715268784741947
0.038338061206281075 -0.0344488337050044 0.021086188169248454
0.03831305712564755 -0.035445771849917374 0.020364876667058385
0.03830056731225455 -0.03632842728040231 0.01954613708691677
0.03828955364928571 -0.03719724859263768 0.01871632657966832
0.03827204972303971 -0.03812411606770805 0.01793850403048719
0.03830119685681467 -0.03863080974493721 0.016790511167280864
0.038354257717969575 -0.03892413057528327 0.01545036831540686
0.03839417630278738 -0.03933722601814338 0.014212832656288421
0.03849841816050155 -0.039177428198278186 0.012457213676032919
0.038600349967223196 -0.03904240380382307 0.010715196490497847
0.038725334975558814 -0.038706503190579666 0.008782201298189851
0.03883990736313039 -0.03846799556839797 0.006927527595652794
0.04352297856590002 0.028677601657381424 0.024143482734411248
0.04332263047120576 0.025938579452945254 0.02450613794734896
0.04312218377534152 0.023206433309500785 0.02487877270636918
0.04295708960164316 0.020814442599429772 0.02501680337926071
0.04274162335569282 0.01795632015981813 0.025511203860535014
0.042583700588356165 0.015645312235921416 0.02561592232931109
0.04240822180239603 0.013176439428075393 0.025850320785916925
0.04226240910372568 0.010990980201125433 0.025885434192860712
0.0421035746223237 0.008690052693266226 0.026018670768111263
0.041981959838140855 0.006740862842489759 0.025897305003782733
0.04177602028974887 0.0040151769030406514 0.026377075677577022
0.04166700181783973 0.002193559244821397 0.026179713906885504
0.0415827621537716 0.0006047886286849602 0.025811278490451228
0.04151200545666013 -0.0008565740859945992 0.02535060019041141
0.04145268891361356 -0.0022100834269742076 0.024811355802669244
0.04138629374714151 -0.00362617307982116 0.024325675191844476
0.04131490121789254 -0.005085390628507214 0.023879063851419857
0.041242220886189396 -0.006553582314217543 0.02344507059727724
0.04116121590974138 -0.008094769764484977 0.02307478515024225
0.04107537903857038 -0.009676719951726587 0.022743392197637435
0.0409878019517067 -0.011271109614636454 0.022428677523733065
0.04090129368073502 -0.012852414425964742 0.022110208030474088
0.04081757631045185 -0.014405144965606409 0.021775268445222762
0.04075239219291422 -0.015787604254114518 0.02130774336838842
0.04068511968888655 -0.017186302709359502 0.020858671199152412
0.040612348336147255 -0.018631718352108195 0.020453469132769464
0.04053220112294496 -0.02014033460860054 0.020106472469186898
0.04043183725464095 -0.0218264330716898 0.019913942194834333
0.04032666727738805 -0.023551463198610678 0.019762019804283215
0.04019244207218766 -0.025530827778344867 0.01983297925797517
0.04003519219000858 -0.027709307730215127 0.02008345722716498
0.039865384926742076 -0.029992864077623138 0.020436035885178505
0.039643637613816354 -0.03272875058758595 0.021189817469260464
0.03952832142597605 -0.03451763999706026 0.02114546707426196
0.03951077325197739 -0.0354419619030365 0.02036157694994878
0.0394984338739654 -0.03631987933949088 0.01953869485556281
0.03948242582387248 -0.03722944683428758 0.018744507541358257
0.03946848344143255 -0.03812033952590421 0.017935181277059842
0.03952409544276802 -0.03840423132052323 0.01659010977532871
0.03955065829890428 -0.03894300870797357 0.015467153178799986
0.03962729384828439 -0.039048178348219165 0.013954485842021636
0.039740779084346985 -0.03883718744084319 0.012151515298221283
0.0398067208054526 -0.03904145411262033 0.010714338740542007
0.03997658181659146 -0.03835231875331535 0.008460629747242543
0.0401006654370775 -0.03806359228789774 0.006558438623355145
0.044590954596174334 0.02468800161517526 0.023797344378281793
0.044367743299613675 0.021808309834936757 0.02428740124486206
0.044174061517186364 0.019205939744637468 0.024589108109776825
0.04400356025057469 0.016821525576416807 0.024743270851594612
0.04379250159382037 0.014075795270291236 0.02517944850674475
0.04362864310888126 0.01176515080166124 0.02530480938195695
0.04345100391122637 0.009336263440841486 0.025531388251651466
0.04332377439977921 0.007368334544255117 0.02542159127728688
0.04308840363740002 0.0044327998502858845 0.02605874538645292
0.0429803157200133 0.002648297941358957 0.02583122029148155
0.042890098570297776 0.0010279028887618669 0.025485271327373382
0.042817530628150906 -0.0004313785992353103 0.025021224155465815
0.042749759295570205 -0.001845147375861833 0.02452713796362438
0.04267680681211859 -0.0033024532913467075 0.024072201782085245
0.04260899099849465 -0.004711394039983496 0.023584650966622933
0.04253176803893798 -0.006201115630630749 0.02316611780488642
0.04244172446762202 -0.00780126246716939 0.022841249865726998
0.042355442543675285 -0.009364819613334074 0.02249389369560867
0.04225496221713366 -0.01105010346464752 0.022250942704722942
0.04215603416461608 -0.012717952666657872 0.02200149524802275
0.04205863994615901 -0.014368616889498254 0.021745577780085956
0.04198007515846434 -0.01585091023456242 0.021359473889088654
0.041910551481412074 -0.017251327407983963 0.020912089141431944
0.0418303003218814 -0.01874253623973582 0.020544990630556093
0.04175199874147496 -0.020213769615178234 0.020167442809501834
0.041641980538487014 -0.021957047707821253 0.020022962495572283
0.04152406562496093 -0.023764486630767245 0.019940767648931046
0.041387089617098985 -0.02573201941716252 0.02000269384056841
0.04122319730584767 -0.02792622964356034 0.02026741001757082
0.04105367583990349 -0.0301626259669715 0.020580757978435005
0.04080602674729391 -0.03306264865723785 0.021475970414695955
0.04072737758031569 -0.034507129682726956 0.0211364120895155
0.04071074690734237 -0.03541910046756208 0.020341777128023708
0.040699481488218996 -0.036284733375708256 0.01950809515952634
0.04067908576124875 -0.03722755298605579 0.01874284998300313
0.0406775262744496 -0.038009839077190855 0.01783795853632114
0.04073888189865852 -0.03825963189653481 0.016462216195356538
0.040761574492930976 -0.03883820890954459 0.015373973925898787
0.04086990724553639 -0.03869613159387447 0.013639831316414275
0.04095655982823621 -0.03874039449531114 0.012064549096241772
0.04095091455326865 -0.03956204695453808 0.01118453208956599
0.04087541773361085 -0.04096801861242322 0.010835479040460283
0.04137314210835083 -0.037585135255246815 0.006121762604675729
0.04584630461156218 0.02334729983141398 0.02315793188703985
0.04562525491898162 0.020550049551235183 0.023597287914036702
0.04539459981825484 0.017676131594249245 0.024109224987081013
0.045217817638751906 0.015285232938288318 0.024277271452057603
0.04504200900403286 0.01290938534435393 0.024446638115157626
0.04483060044800127 0.010227716043472113 0.024859178343128008
0.044678269014818715 0.008070946125916967 0.02488891072316607
0.04442735922219733 0.005058671868233167 0.025581678637621785
0.04430058379054799 0.0031376697568651357 0.025456185233851625
0.0442045384079389 0.0014886279299842209 0.025130285268476327
0.044129402226943344 2.4607515736907448e-05 0.024667996279778448
0.04405680566128235 -0.0014146556629155982 0.024191864361558013
0.043985206652884724 -0.0028426300793353843 0.02371215904888002
0.043909048414129556 -0.004307297913354602 0.02326654350247287
0.04382586726384473 -0.0058296119398068 0.022872098549266973
0.04374049824800812 -0.007367660612143778 0.022496245385409563
0.04364262824458721 -0.009009705713587557 0.022209827360531897
0.04354259140389805 -0.010666685743072724 0.021942595270261156
0.04343684209219877 -0.012368736775457356 0.02171915303114008
0.04332129362957475 -0.014150341315182502 0.0215681595397888
0.04322211197750593 -0.01578864223305937 0.021308591553518996
0.043143823371640536 -0.0172461675620994 0.020907850315947718
0.043053207996607716 -0.018805098042875945 0.02059665873261246
0.04296309317040402 -0.020356474856789097 0.020285925636034097
0.04284920768110894 -0.022104761213476598 0.020146254733613755
0.04272434248296808 -0.023941144560151895 0.020089001220223113
0.042570791615259895 -0.02601350633867111 0.020240141259705857
0.04240775333387483 -0.028159617542659554 0.020465326192217193
0.042202703905478645 -0.030650512564665222 0.020996681540319806
0.04197991169573998 -0.03328169358406763 0.021663693425674757
0.041935704231735586 -0.0344201563973055 0.02106148171656319
0.041914784241578504 -0.03536383958081396 0.020293916803668377
0.04190019858626041 -0.03625433111966875 0.0194816255541006
0.04187598815540827 -0.03722376522734561 0.01873953481181262
0.04190077263343789 -0.03778862562926316 0.017643326044361196
0.04194835831176937 -0.038166948885823615 0.016380241027575793
0.04198913332075235 -0.038602885081030935 0.01516474357565517
0.04211251521458861 -0.03836424622249096 0.013343196756373799
0.04213746443420783 -0.038933925976119166 0.012238432613855932
0.042050097786303184 -0.040419614228225986 0.011959076793145285
0.04198106418102729 -0.041753061903138045 0.011548236468499173
0.04192972496499746 -0.042940459041589774 0.011009435499360731
0.04187358012043932 -0.04416485947969656 0.01050856064401734
0.046873032863575935 0.019233253795624128 0.022953971137092744
0.04664202014582534 0.016417943335895635 0.023432328916061396
0.04642505476009886 0.013730932347243707 0.023830481194614117
0.046251271090481584 0.011419933547778482 0.023960173261820372
