# .PCD v0.7 - Point Cloud Data file format
VERSION 0.7
FIELDS x y z
SIZE 4 4 4
TYPE F F F
COUNT 1 1 1
WIDTH 757
HEIGHT 1
VIEWPOINT 0 0 0 1 0 0 0
POINTS 757
DATA ascii
-0.04536894801025604 -0.012966371680291876 0.01960391017390606
-0.04743674097866091 -0.012915948807181948 0.01987802140150613
-0.05080299468769339 -0.01281521106195638 0.021337232824011954
-0.05257836567220464 -0.012775524388408364 0.02137676779278469
-0.05423647704333634 -0.012740201710421376 0.021319043520426906
-0.05527114290321916 -0.012728931578816787 0.020698045296815626
-0.05563256818322626 -0.01274381642455312 0.019458935857842474
-0.055947083270484865 -0.012760599306646025 0.0181726515397303
-0.05594764357486842 -0.012789735593902476 0.016589624094849043
-0.05593337500596651 -0.012819586527721642 0.014985457343304032
-0.05593128300924749 -0.012849096176029275 0.013385313959716316
-0.05584062944498697 -0.012882228579130454 0.01169396630859515
-0.05584358672203327 -0.012911819524964308 0.010083390256085345
-0.055835985139766786 -0.01294196492470786 0.008455285979487859
-0.055771816571876076 -0.012974492715629539 0.00676521056316326
-0.05570555291167112 -0.013007254833080236 0.005064905964512256
-0.05566471212044927 -0.013039156830246017 0.0033810157587499945
-0.05610735684434165 -0.0130519047757386 0.0021611654633373334
-0.03292224794016152 -0.014407905468003343 0.021355652536682868
-0.034740127782531105 -0.014364759017782046 0.021337154402802594
-0.0364894093108214 -0.014324257074401544 0.02126875664860678
-0.03797409850145289 -0.014294536817240891 0.020978941352901903
-0.03933481659325594 -0.014269831617351082 0.020587203660850206
-0.04060059343781769 -0.014248967010079164 0.020117415704316022
-0.04222706228875717 -0.01421296641032032 0.019971289288672367
-0.044260294248811394 -0.014159802439401606 0.020194848328330295
-0.04683739306589568 -0.014083615937696347 0.02091638641994048
-0.0490558639846696 -0.014022144343492611 0.02133276600298356
-0.05084728175357828 -0.01397836659031399 0.02137723239288636
-0.052603837212753524 -0.013935861398288008 0.02139989394984737
-0.053822831887673894 -0.013915887437429815 0.02094151961703733
-0.05443393488822862 -0.013921577877295735 0.019929947404534076
-0.054899105227255496 -0.013933491120583522 0.01878250014765448
-0.05482733529842543 -0.013968311413112533 0.017134568087882218
-0.05477800008475131 -0.01400233380925913 0.015499621179254852
-0.054734576258722856 -0.014036259297905125 0.013862453715067835
-0.05475877494492859 -0.01406744263545255 0.012281209825981854
-0.05467977678913527 -0.014103202051010073 0.010595139520957586
-0.054637570675234115 -0.014137542433079056 0.008935866139242299
-0.05462090164821476 -0.014170939607484133 0.007293114700764325
-0.05455876905627699 -0.014206457886219194 0.005598949353355254
-0.05452041789017936 -0.014241110158145148 0.0039195549620399395
-0.05502220959172832 -0.014252453129133046 0.0027568540238543937
-0.03476111968067164 -0.01556088431639106 0.021355239624728795
-0.03658500619434002 -0.015513664278676665 0.02135155117686316
-0.03835656044586949 -0.015468583339277945 0.02131193043737628
-0.04008991141155782 -0.015425020252212972 0.021248087690906137
-0.04171647556824565 -0.01538607691536055 0.021099213956017826
-0.04363380587681176 -0.01533382254952901 0.021215509462601312
-0.04546368297335446 -0.015285294239684319 0.021264801641026676
-0.04732253977883616 -0.01523523293386627 0.021350003962612996
-0.04907997831872096 -0.015189559517428555 0.0213544321748243
-0.05081451046085783 -0.01514472445442335 0.021347633737972493
-0.05220638560465324 -0.015115343187292662 0.021039039124592374
-0.052988898498805226 -0.01511373434571938 0.020180408834467256
-0.053544198032690726 -0.015122546954165152 0.019113656839719495
-0.053513757765679015 -0.01515834538387468 0.01750486439740956
-0.05350168474643546 -0.015193460167696305 0.01590559877041775
-0.053457745168006277 -0.015230208080989044 0.014269261911034059
-0.05343485446595342 -0.01526614935577182 0.012644907990788712
-0.05340119895162243 -0.015302755397211603 0.011002834596265498
-0.053362930097788586 -0.015339744552723536 0.009348653662162698
-0.05328966136878904 -0.015378536683332882 0.007653330603692721
-0.05324466616196766 -0.015416186435441343 0.005976808976921877
-0.053152778731258565 -0.015456207800075053 0.00424718698926968
-0.053442572585987 -0.015478489628248866 0.0028778920482961934
-0.036602037725393555 -0.01670620171940897 0.021366301841604096
-0.03841850142229525 -0.016655480617253925 0.021365859120563047
-0.04023234380473839 -0.016604660880008136 0.021372749245632927
-0.04195946173965076 -0.016557824864843976 0.02131300302187711
-0.04381420996245844 -0.016504569585429764 0.021375071165762316
-0.045586275084944894 -0.016455107883938613 0.021373800365405093
-0.04737565841592345 -0.016404577778792496 0.021397480678974345
-0.049126410929353825 -0.016355712695305447 0.02139615080237761
-0.05052016495858164 -0.016324154120751312 0.02108178426350621
-0.05138737456642928 -0.016318361997655982 0.020295441466268938
-0.051916657399283195 -0.01632920925671159 0.01920180038293584
-0.052052317620285615 -0.016359562183273814 0.01774492866250832
-0.05205102178875132 -0.01639683821288138 0.016155857141738394
-0.05195365365728466 -0.01643905463198313 0.014470467386666908
-0.05190485329814043 -0.016479046861055162 0.012822105850184395
-0.05187012415320652 -0.016518520374671313 0.011179109146348676
-0.05181819328157117 -0.01655903513762037 0.009512181220636962
-0.05176151213969654 -0.01659997437569929 0.0078328015497649
-0.051682915598925516 -0.016642203179708822 0.006124512205755606
-0.05157137065657996 -0.016686285928171646 0.004376379055275326
-0.051820689469768866 -0.016712363822899704 0.002966475381769307
-0.038355621775006454 -0.0178484140001483 0.021311113187043595
-0.040207217274449425 -0.017792012146309384 0.021350757672924214
-0.04198992607154911 -0.01773894202552124 0.021339806773798098
-0.043765693714105325 -0.017685996644211017 0.021332160079849505
-0.04560715227141254 -0.017629381934156974 0.021392362625766492
-0.047282014260853655 -0.017581237066732713 0.021313782805065407
-0.04861046314623818 -0.01755105656724043 0.020932583643275826
-0.04952690358414846 -0.017542412341829114 0.020184682006605004
-0.05016370437787382 -0.01754847180387302 0.019184445100770442
-0.0502840105151654 -0.017581850227730195 0.017711723160680315
-0.05024824628857366 -0.017623645610084823 0.016089780404725362
-0.05015309242006771 -0.017668783548199306 0.014405493077757958
-0.050054749909681506 -0.01771429693786093 0.012710052894990054
-0.049959509766514754 -0.017759852898275266 0.011009220009993936
-0.049861968176072635 -0.017805740528653958 0.009297920620275624
-0.04982200897795186 -0.017848754276122175 0.007632453986008425
-0.0497454614766214 -0.017893930413857746 0.005924471097442208
-0.04961924384429223 -0.017941987896802715 0.004160928790779783
-0.050006101092882504 -0.01796259274036658 0.0028792709610277467
-0.05077493258763843 -0.01796264197373374 0.0019610525349023633
-0.03987091203716997 -0.018996764056880368 0.0210564121746436
-0.0417922726528252 -0.018932504590372542 0.021165903298104305
-0.04354399022048905 -0.018877391369984804 0.021136070357649805
-0.04510811675813814 -0.018832486099669317 0.020948661692151815
-0.04638615983989369 -0.01880335895517562 0.020513080291274244
-0.047163251785276084 -0.018802145172695958 0.019632297681836608
-0.04794474931278114 -0.018800678727807826 0.018755698453892578
-0.047809338276878666 -0.018850768206545254 0.017046865705830472
-0.04768771062089472 -0.018900307656251787 0.015342143202986325
-0.04756635136662796 -0.01895005679947669 0.013629271427287426
-0.04743614257729173 -0.01900053331520326 0.011899787940937767
-0.04730523827140348 -0.019051279453701407 0.010161066334102853
-0.04717087964129707 -0.019102453977903 0.00841046663541073
-0.04707813903365565 -0.019151490348110183 0.00669010155597316
-0.046977537047097895 -0.019201201035135246 0.004953928086937731
-0.04682826797843043 -0.01925392764813082 0.0031631470444921095
-0.04801422742319206 -0.01923025216724939 0.0026337558679734308
-0.04258265330549693 -0.02062075442214904 0.00247884691876743
0.015937607267356435 -0.02976323501584273 0.023790635321738585
0.01568444610363834 -0.02980649299541532 0.02236535457386235
0.015653185811231707 -0.029866555695295716 0.020768042161476596
0.015860570319183365 -0.029944785881095958 0.018983256489949307
0.016792245895150826 -0.030866401967247797 0.029560626396771483
0.016133576403085048 -0.030879400270198667 0.02845210643324564
0.01566698277020301 -0.030907342730160433 0.027200509884228896
0.015280623812675476 -0.030941634389232118 0.025886491699944447
0.014996874957835749 -0.030984056790024507 0.024492372465812373
0.014612339394341922 -0.031018794256144386 0.023169430476409514
0.014350505539176606 -0.031063268970002153 0.02175034320725877
0.01430362661522011 -0.03112476893324661 0.020163643891727145
0.01520525596510125 -0.03126098570546901 0.017847513287337247
0.015614668286357769 -0.03135905586044307 0.015894310848310444
0.016262635914024604 -0.03147634587930797 0.013746994772578736
0.017366035078045017 -0.03206604059187582 0.03231051737695467
0.016595534277006996 -0.03207037145251127 0.03128878046196071
0.016020513899847932 -0.03209044047630541 0.030123930205909588
0.015602975775883987 -0.032123283400630975 0.028841515925790595
0.014626177238385163 -0.03211110103137236 0.027968521711097205
0.014000139977510317 -0.032127251750509254 0.026836503383143195
0.013467982376633214 -0.03215108244445918 0.025632846437707024
0.013014363185576139 -0.03218139464097197 0.024367906478071244
0.012718607683323224 -0.032224688409990404 0.022980894559576026
0.012542418905272246 -0.03227792044202972 0.021498892807564396
0.012531905919931974 -0.0323449238139921 0.019885256983203925
0.012696312997737214 -0.03242654307739462 0.018130822646256595
0.013308607933766647 -0.032545285959527666 0.01602305736749632
0.014913135237829889 -0.0327461823213243 0.01313465585990059
0.017483865014192246 -0.033289946823168486 0.03380049545631364
0.01674871663159533 -0.033297265230937255 0.03275622589121602
0.015968793659454195 -0.03330087683132246 0.031743766780025384
0.015050986447762815 -0.03329297137745039 0.030831609180148767
0.014250019809362136 -0.03329482540738736 0.029834454624597162
0.013466396330617192 -0.03329814365984222 0.028824325630765146
0.01274294726664138 -0.03330653983823301 0.027769235004236836
0.012078228220751441 -0.03331992389385291 0.02666953041511827
0.011568128893536533 -0.03334643063142137 0.025452576626651513
0.011125536041217243 -0.0333787652089053 0.024182168558742223
0.010867445630870665 -0.03342689300595933 0.02276876361046204
0.010482214150828728 -0.03346441084347281 0.021447621211752033
0.010632483805874393 -0.03354772281765574 0.019712459520473014
0.010813819270919067 -0.033634039646322535 0.017945278550125676
0.011544237888477527 -0.033767713266581185 0.015744359828655574
0.013358179134352222 -0.033994880187512226 0.012686552190467881
0.018895504256455642 -0.03455018054818003 0.03592863176172495
0.017832293130285615 -0.03452944874835044 0.03512025482244996
0.017150812378390057 -0.03454158141720161 0.034039652157889344
0.015955812175085182 -0.034509347518623404 0.033328708811975694
0.015021300959141226 -0.034499557913631226 0.032431605102666405
0.014040883981939478 -0.03448574081600762 0.031568904731041125
0.013179345294544953 -0.034482212676023805 0.03062022606571868
0.012373454006720463 -0.0344835230451113 0.02963080926788758
0.01152828640933351 -0.034481406347156164 0.02867041155475364
0.010821358452261787 -0.03449138734754151 0.027607089583530364
0.010207177069079698 -0.03450954943161856 0.0264732852530265
0.009641768302714016 -0.034532076779701895 0.025301020691913922
0.009281316350688684 -0.034572761002688926 0.023971277879380026
0.008916563981996306 -0.03461323651745174 0.0226410278766353
0.008758118173087026 -0.03467214049680975 0.021148899034105773
0.00864756422314189 -0.034735540535474355 0.01961436635777275
0.00906402762647951 -0.034846046694344046 0.017665645606427083
0.009680980131699324 -0.03497487739602529 0.01555041239701499
0.012073170592002747 -0.03526269751323164 0.012033049609836366
0.01932916099524612 -0.03579522033695034 0.037183582735370035
0.018360615198948826 -0.03578213303332021 0.03630854087103835
0.017304989856445185 -0.03576121324055773 0.035496832813600054
0.016189950404468523 -0.03573488910369392 0.034729622918213965
0.015092820233975512 -0.03571006297929947 0.03395179541841625
0.014070187747141638 -0.035691830472043426 0.03312207175868126
0.013075164962117802 -0.03567600933897281 0.03227380384852452
0.012154747140737665 -0.03566685614521929 0.03137218191854402
0.011238249011484736 -0.03565801945041461 0.030468478588051795
0.01045062451782025 -0.035660825927316564 0.02946994635508443
0.009665165590873659 -0.03566384078342925 0.028469549040208764
0.008988150114704885 -0.03567673764089714 0.02738755077349092
0.008352890859543216 -0.03569349667813767 0.026272913555781707
0.007794609942914643 -0.03571736120868156 0.025098415302147348
0.007346210029524125 -0.035751389397708264 0.02383801997002455
0.007098944317362521 -0.03580402040077051 0.022420424100858594
0.0068566632501732006 -0.03585733208747693 0.020994245879231987
0.006896372056212741 -0.03593685897382083 0.01934481203923827
0.007249935015191722 -0.036045710810503825 0.01744374842926777
0.008089969649309192 -0.036200051433468154 0.015151906816431193
0.011065217033362607 -0.03655309838630614 0.011165185942975608
0.020005852257444556 -0.03706028315113569 0.03826479194421739
0.019004494131015848 -0.037043705479786394 0.03741291870973751
0.017774464506056464 -0.03700594649398797 0.036724858955199835
0.01654460827025145 -0.036968048683909176 0.03603986560789868
0.015371844447123861 -0.03693528818133635 0.03531708418188695
0.014245124899401829 -0.03690667033518092 0.03456383776105487
0.013182421697002678 -0.03688389386410514 0.033766551141607926
0.012161268116081148 -0.03686489918229294 0.032940876844933964
0.011134288446668805 -0.03684528117198381 0.03212109980866529
0.01019297229453442 -0.03683360604698999 0.03123978970855068
0.00933777129977531 -0.03682996577938716 0.030295590170175357
0.008487290985953966 -0.03682675437617407 0.02934818194456229
0.007644906638290594 -0.03682429267987287 0.02839497820704112
0.007061102781532602 -0.036846245509353615 0.027247001217335753
0.006442604649636086 -0.03686500644940927 0.02612342989404337
0.005832532054178163 -0.036884645478244195 0.024991811168228184
0.00547414429829568 -0.03692829101451345 0.023665606421913066
0.005114907378374722 -0.03697203996452316 0.02233625936582473
0.004990598075926389 -0.03703839944382625 0.02082111285940408
0.0051830225964119014 -0.037135338777806656 0.01905349221041508
0.005440382161627011 -0.037238914886617985 0.017226541048886768
0.006460244051802844 -0.037416182951815945 0.014790255754297432
0.011597375394883758 -0.03799058286483574 0.0090798535285887
0.020821390662352557 -0.03833766327059131 0.039247877646136464
0.0198703318254424 -0.03832533250827552 0.038359995654875856
0.018473923506727996 -0.03827050078971142 0.037787699583604395
0.01706517417258757 -0.03821426589268573 0.03722863792590603
0.01579988540404903 -0.03817153105841652 0.03657171559789696
0.01457790470699305 -0.0381327741518772 0.035887192294204395
0.01338835742571981 -0.038096974639680675 0.03518243025567158
0.012271060899996578 -0.03806798536380413 0.03442815928035814
0.011200082584489679 -0.03804334601903015 0.03364246687169109
0.010129349380953667 -0.03801862827334568 0.032858627794041084
0.009220321536323628 -0.03800947762018868 0.031957510034665404
0.008234597514661823 -0.037992841337043066 0.03111405265730327
0.007394525086291681 -0.03799030861253621 0.030163328202227224
0.006611026567657774 -0.03799328184773644 0.029170384277827865
0.005851078435842649 -0.0379985687476148 0.02815943399588544
0.005157323356788868 -0.038010359424641704 0.027097858090744165
0.004526093496201367 -0.0380283349928832 0.025987635467543124
0.003934701890562442 -0.03805030368722092 0.024845374053557856
0.003521147948660708 -0.03808988922830083 0.02356424239357935
0.0031898716808147487 -0.038137767056062706 0.022216038953209838
0.003025338508600872 -0.038202348413985565 0.02073393038983473
0.003085697304059387 -0.038289506277649966 0.019070265717298418
0.003433735054024445 -0.03840562457586027 0.01717274669300095
0.004679502116123779 -0.038611644293089796 0.014554869108333146
0.021841766665857354 -0.03963506139641746 0.040088593959665075
0.02084856016067338 -0.03961825060831552 0.039228895635622485
0.019300965126403447 -0.0395468769568961 0.038759978311904475
0.01782669788589103 -0.039482434337398516 0.03824488242159485
0.01643163023275962 -0.03942554484134281 0.03767861743196066
0.015105381967718878 -0.03937522832441541 0.037067700966990635
0.013832061226738857 -0.03932995035630689 0.03642276369480202
0.012631668236721794 -0.03929172825185969 0.03572876548366549
0.0114701919945005 -0.03925722114321654 0.035009555131143955
0.01036885432948964 -0.03922856829448377 0.03424919828253664
0.00926571707128071 -0.03919961688480635 0.033492450300488585
0.00821399187262456 -0.039175693302073156 0.03270008207124875
0.007288786085297261 -0.039164365308051896 0.03181576546563669
0.0063607383775591275 -0.03915270432106648 0.0309344790654702
0.0055556433963130925 -0.039153383412588554 0.02996191759132516
0.004701203467653237 -0.03914908290574836 0.02902651044434451
0.0039587942209382 -0.03915610001199856 0.028006515667136023
0.0033334190814190423 -0.03917501344438495 0.026896743788144772
0.0026739560052496114 -0.03919054290256718 0.025811559719062294
0.002125457344455739 -0.03921743682329513 0.024639614461663628
0.0017077462136878552 -0.039257790089285746 0.023364162007329436
0.0014263769491277278 -0.03931225627909633 0.0219792267087639
0.0012715598638128323 -0.03937992217066818 0.020490740283023
0.0014050787561228906 -0.03947748593362478 0.01876972038481617
0.0017855016414159985 -0.039600875162773316 0.01684526921373275
0.002825819536869556 -0.03979284766270964 0.01438558889295305
0.023003419366608213 -0.040947882408561224 0.04083320980121452
0.021582468269831012 -0.040887408312309005 0.04026875815280889
0.020262275571220234 -0.040836891074200916 0.03963850423824611
0.01874257684476438 -0.040765924603482676 0.039152248581522664
0.017171073176610374 -0.04068940102196118 0.038707998150632195
0.01580588508070785 -0.040633584161573644 0.038123057788398806
0.014449051697236981 -0.04057839131569502 0.037536424654194434
0.013137235911816536 -0.040527576987463475 0.03692170023703317
0.011920173396104738 -0.040486266719806326 0.03624247005565723
0.010705589488136602 -0.040445040582546075 0.0355646231599433
0.009536585686065302 -0.04040833578267482 0.03485668909530659
0.008426218685937015 -0.040377527209919245 0.03410856084290065
0.007276995883897186 -0.04034257444355462 0.03339149269414765
0.006353152365003389 -0.040330820624927856 0.03250992726687424
0.005316737309748132 -0.04030733352141311 0.03171324930682501
0.004256979616559964 -0.04028132038299601 0.030935910424086777
0.0035235746464838957 -0.04028921368014473 0.02991451500493625
0.002807675092645845 -0.040298968495329594 0.028879229634585946
0.002093649424563082 -0.04030896046291319 0.027841750150910505
0.0014524471522301408 -0.04032663280712471 0.026747675678529703
0.0008339433356211456 -0.04034676558956607 0.025634719025996122
0.0003653642859884343 -0.04038277536126364 0.024404033241451684
-9.740982676498255e-05 -0.04041955057429585 0.0231659757282196
-0.00038608834449099794 -0.04047489773881755 0.021788683353143712
-0.0004648471386994313 -0.04055273300403215 0.020241740294134614
-0.00038378257585769404 -0.04064787856674712 0.018562106803535483
0.00011748026740771023 -0.04078816438829105 0.0165405368494152
0.0014133881825712513 -0.0410138288405941 0.013872081249460155
0.022733658399450962 -0.042199448036914375 0.04101961256444453
0.02143343335513892 -0.042149608420147304 0.040372309719526045
0.01977637472528998 -0.0420623036514423 0.03997797958877636
0.018206765309053907 -0.04198379350647506 0.03952865858597465
0.01672898219371388 -0.041914590815220185 0.03902027937638042
0.015155522699287105 -0.041835052513135663 0.038584982723278094
0.013835129342869235 -0.04178183123205215 0.03797486237760578
0.012488329407148002 -0.04172560537485547 0.03738766363922558
0.011182745901848368 -0.0416735051690889 0.036774898196644645
0.009977985598398353 -0.041631870504946704 0.03609283180883249
0.008751897840928835 -0.041587799703865044 0.035429449658351875
0.007607191601613161 -0.04155220302690966 0.03470964743220517
0.0064543498436273605 -0.04151559134170404 0.033998524333526126
0.005360521696908038 -0.04148513085203223 0.03324637602623742
0.004390825070785587 -0.04146783010836131 0.032403931452698764
0.0034241588940380208 -0.04145078212269102 0.031560522758209086
0.002507035261245627 -0.0414389878804339 0.03068104822311646
0.0016346425313009116 -0.04143196218040541 0.029768557138054486
0.0008904970694186831 -0.041438749684458924 0.02875884521344929
0.00023424313406089636 -0.041455072608027534 0.02768125894358464
-0.0004599410372389534 -0.04146735305817562 0.02663164994300049
-0.0009643835948346946 -0.04150029579138348 0.025434117557524616
-0.0015366626086222301 -0.04152599399310424 0.024286888348436675
-0.0019624941460942846 -0.041567776577204014 0.023023013397141856
-0.002200150495969666 -0.041630307836325334 0.021607784316350576
-0.002342751694341838 -0.041703519274630674 0.02011249461952358
-0.002191227550369712 -0.04180933422684831 0.018377509510146994
-0.0017463065191789529 -0.04194788215750946 0.016399617157191515
-0.0002671691120432196 -0.04220105377859606 0.013579226967105174
0.024128829054487655 -0.043539514669047104 0.041605318251304924
0.022819182524874748 -0.0434873834108911 0.0409605160484815
0.02096929083345289 -0.043377033764162756 0.040694802508547456
0.019293987910304677 -0.043285019133879464 0.04031499985634729
0.017678207238640276 -0.04319904644312456 0.03989997299855763
0.016120961646185095 -0.04311904606781315 0.03944976880097434
0.014599425895584273 -0.043042583841125734 0.03897995479911659
0.013177245831652196 -0.04297658532835074 0.038444695324518
0.011810744431318076 -0.042916367562382256 0.03787422032858012
0.01051845924046435 -0.04286398534136238 0.037254518111766055
0.009250804771144205 -0.042814075232451294 0.036620733332833666
0.008011990118074463 -0.04276711291575053 0.03596952424542532
0.006893629637663878 -0.04273315726732808 0.035233332833307374
0.005688775836864668 -0.04268956162663667 0.03456344244124382
0.004589865199402687 -0.042657443822539776 0.0338181385555697
0.0035347564567241863 -0.04263002262376613 0.033042513904138926
0.0025827440973906213 -0.04261388020575321 0.0321915806148238
0.0015322059878948302 -0.04258675914482682 0.03141612945157546
0.0005907116550767366 -0.04257162546570633 0.03056000698398359
-0.0002218062176560509 -0.042570771467000425 0.029606691164346777
-0.000978455511896792 -0.042576140037123074 0.028610623109631694
-0.0016850132575574883 -0.042587125420506036 0.02757556146833956
-0.0022510807352830176 -0.04261388021317359 0.026430852775550517
-0.002906239746392647 -0.04263075667057959 0.025353536485191785
-0.003358089680903009 -0.042670554808501855 0.024115768508885305
-0.0037824343088805334 -0.042713620343738615 0.022853370187558786
-0.004025462961516124 -0.04277733479123443 0.021444243559226916
-0.004107486728481935 -0.04285953320609132 0.019902222032867734
-0.003904883457323094 -0.04297434744896579 0.018126328512481082
-0.0034038792218150093 -0.04312355233677122 0.01610179365564135
-0.0021315638665734826 -0.04336120677489585 0.013442366378127457
0.026070670163490905 -0.04494298957673401 0.04182177800669479
0.024170600527349373 -0.044824686926099054 0.041576613480022395
0.022312503403912054 -0.0447105347487562 0.04131062744233388
0.020543878795237003 -0.044605808453691075 0.04099038480983963
0.018822111189825796 -0.044505845722549404 0.04064467723071974
0.017185908775827208 -0.04441497150484516 0.04024581487434603
0.015587570162744757 -0.044327936789030215 0.039826542254169595
0.014111527902842647 -0.044254173799050826 0.03932648813954848
0.012586669964562591 -0.04417465739622903 0.03886645996108207
0.011217342534727559 -0.044112216796656785 0.03830032727097232
0.009840563870282926 -0.0440486835962274 0.03774396361595578
0.008572498375783666 -0.04399710252831627 0.03711315415366678
0.007296182296964382 -0.04394437925379403 0.03649200779502071
0.006054190543135274 -0.04389530994229201 0.035849399862001086
0.004870579521951912 -0.04385263701462321 0.035167190622189315
0.003735804874655191 -0.043815319127377954 0.034451779734305854
0.002662584025356518 -0.043784833519604056 0.0336931089617698
0.0016954301928762128 -0.043766286932140804 0.03285706262554944
0.0006138553064260477 -0.043734618652499294 0.032108622348069826
-0.0003546048800459056 -0.04371573965133829 0.031276692966855424
-0.0012349521252861817 -0.04370686840317989 0.030378955047259126
-0.0021138536633775185 -0.04369812562627359 0.029480747241211636
-0.0028718464238313146 -0.043703245973206295 0.02849001000918494
-0.0035248002891075103 -0.04372048912872036 0.027417534953722456
-0.004178269604840079 -0.043737745896210475 0.026344213272202543
-0.004712101127710755 -0.04376891759626863 0.025175963166258697
-0.005154697285252308 -0.04381080007639865 0.02393362605632504
-0.005537520271974294 -0.04385980632201326 0.022640931760735727
-0.005805305144367112 -0.04392241697854949 0.021253127499922697
-0.005913319047590182 -0.04400393927946053 0.019732937236404235
-0.00563876636512356 -0.044130548391740375 0.01789910729415234
-0.005068376393175089 -0.044292371630354474 0.01581678976622164
-0.0035461533859442174 -0.04456667873856773 0.012948890397935786
0.025860370999846005 -0.046203311404384995 0.04196549540605299
0.024032190792125097 -0.04608972048966465 0.041671726712108836
0.02201052276721077 -0.04595371684345467 0.04151929375057062
0.020194557246027922 -0.045840546769195155 0.041233098363126
0.01842486183595865 -0.04573218732540226 0.040922216084132934
0.01672844814244795 -0.04563175131602754 0.04056718301887202
0.015099398500916295 -0.045538610404047615 0.04017137363691475
0.01355604917682185 -0.04545491103983837 0.0397210212209107
0.012068508871108996 -0.04537727820981077 0.039236508988549246
0.010643863982253865 -0.04530656487820635 0.038712127762217996
0.009258626582167084 -0.045240105025968445 0.03816412667048802
0.00793920448465052 -0.04518097676975531 0.037572897862163945
0.006576285058199183 -0.045116566887620675 0.0370174762986627
0.005339609309642779 -0.04506653974752379 0.03637383330827182
0.004137807160573825 -0.045020360095462904 0.0357079043508699
0.0029461908167950357 -0.04497517518814041 0.03503760718451204
0.001811928896303272 -0.04493649905535947 0.03432765323628045
0.0007639710309472192 -0.0449077599602831 0.033555653409302166
-0.0002258510417506021 -0.04488571737913536 0.0327418125802843
-0.001271323602805574 -0.04485704318138324 0.03197169769218039
-0.00222429553490322 -0.04483914040491335 0.031133075630770946
-0.0031169646804907747 -0.04482827783284961 0.03024949175740249
-0.0039519551888691495 -0.044824189758302206 0.029322227975627668
-0.004691922938086124 -0.0448313443817287 0.028321642230736632
-0.005406291431777566 -0.044841569234678504 0.027300615914648718
-0.006021006572833276 -0.04486369643400575 0.026200839701237433
-0.006489118581481101 -0.04490340100071597 0.02498409266620849
-0.006977400949231216 -0.04494086446963319 0.023780497176765947
-0.007402050893605239 -0.044986109094727354 0.022523612342094657
-0.007574954526237132 -0.045061762621748616 0.02106213000161483
-0.007571739231968522 -0.045158924560662256 0.019453619121227728
-0.007371793554355188 -0.045280218252346835 0.01767911074534534
-0.006725427113614957 -0.04545596198417437 0.01553306089693457
-0.005084991553195195 -0.04575280675681368 0.012562098994686743
0.026070670163921728 -0.04751116040974027 0.041821778006400356
0.023740168900066916 -0.0473360071488973 0.041872400067553495
0.021763352391813096 -0.04720138684269333 0.04169008658783041
0.01986578388661886 -0.04707547974204226 0.04146153474350034
0.018077329775787854 -0.04696183585492227 0.04116501987617227
0.016333367506898566 -0.046852948558276215 0.04084472893543922
0.01463081935963767 -0.046748485176044775 0.04050236538806923
0.013108438447692217 -0.04666481820550259 0.040038940219320196
0.011548292839631047 -0.04657635021563134 0.039608025566990446
0.01010145071249735 -0.046500920818901566 0.03910162105709436
0.008725665044614417 -0.046433603051253165 0.03854892886849004
0.007365054058870779 -0.0463678098303673 0.03798970599765833
0.005992694243020735 -0.04630034619109983 0.037443451807218586
0.004666455333128372 -0.04623810364615449 0.03686786315852264
0.003382408083216659 -0.04618064511799857 0.03626531436424901
0.0021839772297406745 -0.04613320111602882 0.03560310578192394
0.0010274213918751718 -0.04609058478608191 0.03491285483942547
-0.0001313623024982724 -0.046047522452840425 0.03422714996083781
-0.0012347444792879525 -0.046010956494689524 0.03350258028363817
-0.002124057720922612 -0.04600008965602345 0.03261819287856982
-0.003156679488246994 -0.045971833734444266 0.03184377923895976
-0.00409434064772185 -0.045954975220869144 0.03099851395160369
-0.00496792961059811 -0.04594583236492433 0.030105030777139552
-0.005783284810998879 -0.04594374308108889 0.029167061700592523
-0.006516175854183792 -0.045951709501020815 0.02816501129518223
-0.007191622123293051 -0.04596673567647099 0.0271174348713607
-0.007798136554780677 -0.04599027464545712 0.02601456158676202
-0.008318881923366384 -0.04602444900353991 0.02484218607122296
-0.008725227162348803 -0.04607285122628027 0.023576425787042
-0.009011849613545342 -0.0461362293641193 0.022211546091341072
-0.009254397878611764 -0.046205328193918205 0.02080682630380304
-0.009342572381880576 -0.046293849276664634 0.019272492446918255
-0.009117825503699939 -0.046421602555377375 0.017477645060198554
-0.008330783398852015 -0.04661987003653522 0.015214400492103097
-0.006838607493081461 -0.04690692073266209 0.01235801766500888
0.028537461020778754 -0.04899063197148757 0.041689919612802884
0.026583503789520735 -0.0488564149237411 0.041471310064934985
0.023668717193664313 -0.04860681894042729 0.04192150067975414
0.021573154023448726 -0.04845432185341666 0.04182151220436259
0.01959612087242374 -0.04831542962059119 0.04164890041994773
0.01774086789953644 -0.0481906160825736 0.04140008946770973
0.015950619012241762 -0.04807312624628584 0.0411136114677772
0.014221859942079085 -0.04796258067744323 0.040791243363728746
0.012649287327664571 -0.04787047892241298 0.04036505587003669
0.011073669730410796 -0.04777763026337762 0.039946981583178
0.009643998896623152 -0.047702130006963314 0.03943010567379995
0.008164975058608248 -0.04762031093612286 0.03895375121271333
0.006741237153996382 -0.047544898210065585 0.03844256982799937
0.005395297883322381 -0.047478683434734985 0.03787950428013864
0.004071894758686412 -0.04741495471053886 0.03730421306033482
0.0027399372578005843 -0.047349911353882876 0.03673939446591373
0.0014499539041960552 -0.0472897601258568 0.0361476895680346
0.0002679176692289009 -0.047242663165080696 0.035479404927956815
-0.0008954726085320663 -0.047197672427276544 0.03480022974724539
-0.0020068718802633834 -0.047158928315914006 0.03408481183325596
-0.0030668434426682767 -0.04712640028169042 0.03333296014066911
-0.0040199985658843085 -0.04710701191770466 0.03250183859454464
-0.005025972570216419 -0.04708096304992401 0.031712479723395415
-0.005921819757560454 -0.047068549887873457 0.030839997980453504
-0.006779871776006585 -0.04706081165996559 0.029939064135837357
-0.007538675883956514 -0.047065480977981855 0.02896135034138203
-0.00819136214414945 -0.04708349988351956 0.027900234035557747
-0.008887005127654002 -0.04709618812734005 0.026871727222223196
-0.009496114894951002 -0.04711984657714967 0.02577388409468978
-0.01005394337859028 -0.047150089113562096 0.024633647209480913
-0.010507687929655785 -0.0471936476025143 0.023408112662799796
-0.010841555025481953 -0.04725261300575334 0.02208323043681304
-0.011038454193949776 -0.04732925930302032 0.020643618932366825
-0.011045873755617885 -0.04743039662173009 0.019044797133292546
-0.010823160681305732 -0.04756137861558346 0.017251048654622847
-0.010080694865093942 -0.047759488449384484 0.015021400742259772
-0.008058243070126037 -0.0481227313504555 0.011721124114009718
0.028768330427362432 -0.05030806422695737 0.041533016310303095
0.026845230548324217 -0.05017414947858368 0.04129244730359183
0.023812837211419968 -0.049903623953863975 0.041822463421465284
0.021501137968973905 -0.049720583983092204 0.04187127474670699
0.019427472053711148 -0.04956611733307124 0.041766080004602524
0.017482792400825675 -0.04942694069497643 0.0415803942996974
0.015572062570350598 -0.049291395061753944 0.04137954906426555
0.013871010308574627 -0.04918127809665517 0.04103907414481872
0.01220258172820321 -0.0490747612750456 0.0406823319930662
0.010703168934527718 -0.04898883717941728 0.04021157778872969
0.009118962381023943 -0.04889198789866429 0.03980712115958068
0.007643931141360472 -0.04880837971904251 0.03932994880012869
0.00620398718248083 -0.048728819222634584 0.038832589845171184
0.004817452046714743 -0.04865563000890062 0.038301286405069135
0.0034405850948886485 -0.048583352919273265 0.037767533236028994
0.0020743808847685785 -0.048512118923511705 0.03723050942477002
0.0008333058312672281 -0.048456384314204536 0.03660519075439578
-0.00046034080715956494 -0.04839376703701461 0.036022647695528764
-0.0016468011387503756 -0.048344475418871845 0.03536372325102283
-0.0028039055863826046 -0.04829870644638436 0.03468582426880118
-0.003913731240899554 -0.04825876379535762 0.03397502297518712
-0.004941480110593255 -0.0482291231517362 0.033204231912614346
-0.006007426182080777 -0.0481944747924197 0.0324646268627895
-0.0069017533884827564 -0.04818166478983596 0.03159503154741694
-0.007682073497003172 -0.048183435981749095 0.03063795138817682
-0.00856834084952346 -0.04817158511097307 0.029763269551855875
-0.009367573776818738 -0.04817090420490367 0.028821210953320353
-0.010102475928652987 -0.04817853146963968 0.027828555096108376
-0.010736543174492463 -0.048199246223597725 0.026755596809332427
-0.011333289719324569 -0.04822489175711577 0.025651586436541085
-0.011856048836556776 -0.048260267300798604 0.02448670756846766
-0.012290259365278 -0.048307332900437316 0.023248289744564332
-0.012613896973589223 -0.0483690400391984 0.021917370031116323
-0.012789988298368804 -0.04845032196436061 0.02046244460070762
-0.012774746831250572 -0.048557048104120225 0.018845788894901017
-0.012525592640525829 -0.048694980162243884 0.01702989052477033
-0.011577755045151461 -0.04892553956193619 0.014627794683492068
-0.009196238461954442 -0.04934635289556184 0.011020001068504981
0.029307627997646524 -0.05166558944004086 0.04116649927775273
0.027042047231026878 -0.051485377334515414 0.041157943764452254
0.024067977392814688 -0.051215302793467095 0.04164713466118514
0.02153183020166194 -0.05099933991006687 0.04185006664887492
0.019294058573529838 -0.0508201907608327 0.04185877757766787
0.017313248172180773 -0.050672837928639386 0.04169884662784562
0.015338132736605115 -0.05052560674755513 0.04154388582055585
0.013527641197694007 -0.05039869671167745 0.04128162088514653
0.01185798706583252 -0.050289203301873794 0.040927083029600075
0.010257679447987333 -0.05018811041298746 0.040529727787492364
0.008681754852416457 -0.050089720060154545 0.04012106886395472
0.007163339299002147 -0.04999829369937048 0.03967693968830899
0.005698189326440117 -0.049913329561248665 0.03919977700004795
0.004265616262399241 -0.049832205726198155 0.038704083232485365
0.00288603033164736 -0.049757577683799965 0.03817452274541072
0.0015575825908393792 -0.04968924700420947 0.03761185559339553
0.00014248072602940365 -0.04960941263517876 0.03711772508165523
-0.0011035575784779095 -0.04955118014110593 0.03650245379505063
-0.002376857597017834 -0.04948915991908254 0.035911262782770625
-0.00350314326630885 -0.04944603391502587 0.035213092485704645
-0.004679873721553429 -0.04939614091021967 0.03455586923817572
-0.005774342269330546 -0.049356800753283976 0.03383907567972949
-0.006773634707701592 -0.049329773320158615 0.03305181870126089
-0.007772891949688332 -0.04930263638327318 0.03226623910110338
-0.008728836980295474 -0.0492810872867372 0.03144882287917694
-0.009618692664678852 -0.049268166868907746 0.03058130000496112
-0.010433525020279388 -0.049265111417905176 0.02965585368547885
-0.011145529330702675 -0.04927566822573544 0.028649654680081682
-0.011871445973543615 -0.04928442269434231 0.027653793445194252
-0.012546418267938175 -0.04929999387612143 0.02661683806370535
-0.013126833003505756 -0.04932824173494156 0.02550324648001534
-0.013649495562556957 -0.04936432913792813 0.024341398075623355
-0.01405193956108225 -0.04941667290734569 0.023080032585123478
-0.014363407101832315 -0.04948145335173723 0.021741347520922383
-0.01453361587733587 -0.049565514606719346 0.020283050193999286
-0.01450234260606631 -0.04967710017160913 0.018653795682794738
-0.014152510179199551 -0.04983220575941147 0.016754215910317727
-0.013106386512787505 -0.05008225590726919 0.014266451656093415
-0.0095368880328357 -0.0506757766590756 0.00965621278911466
0.029922905792316823 -0.05303625185029424 0.040748344618947385
0.02763847922787599 -0.052849268552531 0.04075034511310477
0.02440706920521246 -0.05253941242244974 0.04141411551553803
0.021665277491713875 -0.0522915667571629 0.041757855593015425
0.01927651075319614 -0.05208842349111858 0.041870970051436696
0.017185604156336076 -0.05192309829907688 0.04178802530984399
0.015170057319421004 -0.05176689630986038 0.04166195955416191
0.013326474365353114 -0.051632458068465586 0.04142371974581932
0.01158887116381535 -0.05151130383195146 0.041118224690104344
0.009866166181566771 -0.05139160144369727 0.040809330222545515
0.008228719248173977 -0.051282582154609443 0.04044638231041947
0.00667836082202361 -0.051184552377941867 0.04002709775934343
0.005197026315087616 -0.051095202583456026 0.03956359946008864
0.003742879910515806 -0.05100906903685488 0.039085639757267476
0.0023352559804423745 -0.050928726954764116 0.03857873779834209
0.0009723893453428278 -0.05085397864113083 0.038043670490420345
-0.0003853979116441586 -0.050779593369021325 0.03750936678717992
-0.0017791471745916554 -0.05070011546629365 0.03700640833019819
-0.0030106822554699653 -0.050641922798738324 0.036386628835312185
-0.004244741484081382 -0.05058314937758918 0.035772303153506435
-0.005445055938976984 -0.05052864517648418 0.03513598748343538
-0.006463473162235611 -0.05049830506686191 0.03436436122367903
-0.00761287505040259 -0.05045023444003894 0.03369497922906983
-0.008654756099805427 -0.05041644076547772 0.03294571066308394
-0.009634331717796651 -0.050390912577206175 0.03215026105466712
-0.010581501057816078 -0.050369658827117296 0.03133115026915567
-0.01147043484159499 -0.05035620738991222 0.030467756904856036
-0.012230721411841006 -0.050360171279155555 0.029503926153241933
-0.01294534628155336 -0.0503703670010318 0.02850371085196407
-0.013659221751946171 -0.050380708545778925 0.02750226391151045
-0.01432671836127919 -0.0503974339972213 0.0264630712774091
-0.014903489493313271 -0.05042665929683573 0.025349869756668364
-0.015427089543939121 -0.050463309700264705 0.02419184624427151
-0.015824124369555048 -0.0505175305024135 0.022928644618927463
-0.016119467417140876 -0.0505860062622581 0.021578930094410365
-0.01626730764026202 -0.050675159409371645 0.020103718977458607
-0.016201526165678104 -0.050794280202794 0.018446443272110702
-0.015805620470011772 -0.050959731638765035 0.016507525281068358
-0.014719663682714601 -0.051221873795016054 0.013982128518541526
0.031205729610623234 -0.054498595839036434 0.03987651280460619
0.028459131055518616 -0.05424646338212931 0.04018951574791296
0.02494072828008531 -0.0538913571526428 0.04104739247137362
0.021907597000457024 -0.05359904575177917 0.04159041466747959
0.019388843263973776 -0.053373772061775085 0.04179291983408778
0.017124132001634984 -0.05318134539023036 0.041830972922386356
0.01504236882752269 -0.05301249854276925 0.041751661291807796
0.013108393440073474 -0.05286268393551665 0.041577766268579064
0.011269134814182014 -0.052724921722876995 0.041345319916861245
0.009531685523077427 -0.05260023642206702 0.0410482023492727
0.007852734600399092 -0.052482893273703694 0.040716367407484855
0.0062490205373230134 -0.05237518974393454 0.04033708464132796
0.004707094552950042 -0.05227537228055421 0.03991926852367722
0.0032468167883294985 -0.052186172969300566 0.03944772691706028
0.0018188285348396671 -0.05210097547635939 0.03895774554770959
0.0004074509168573437 -0.05201767766622836 0.03846053933024235
-0.000939945953660426 -0.05194273119515547 0.03792079495545703
-0.002266246149509654 -0.0518703462061754 0.03736975871168391
-0.003608132771047101 -0.05179553097851038 0.0368347144207995
-0.0048864697709973814 -0.051729096085460245 0.03625620575099581
-0.006023550762336516 -0.051681746836435276 0.03557456981608431
-0.0072494849861565736 -0.051621992224469705 0.034963493627595155
-0.008390478813895264 -0.05157367913954804 0.03429090392609352
-0.00946430661807418 -0.05153442797718217 0.03356946496251578
-0.010485275183545029 -0.0515023183792545 0.032809441287682095
-0.011484129891212058 -0.0514731362866412 0.03203413174918429
-0.012418476266535972 -0.051452786199055286 0.03121007592738778
-0.013249479974605405 -0.05144672758190468 0.03030590065465405
-0.014031672207700685 -0.05144744877270185 0.02936346227131975
-0.014755033794069283 -0.051456393201697224 0.028374170155852196
-0.015454936636377647 -0.05146866078065769 0.027365567395306323
-0.016107822552318962 -0.051487578742324416 0.02631840377805794
-0.016680983825377416 -0.0515177896429401 0.025205624236934066
-0.017181852239883944 -0.05155831918470946 0.024032230094325646
-0.017597196434465057 -0.05161110302225211 0.022786457585943498
-0.017861235001684406 -0.05168553160888974 0.021413134386008892
-0.017980853599461333 -0.051780769187938114 0.01991594208954628
-0.01788724020196536 -0.05190673373496707 0.018235816771334734
-0.017464580287388176 -0.052080126059450615 0.016273232498008605
-0.016267289825693754 -0.052364877084513026 0.013649877530724275
0.0298480759104775 -0.055725513107992 0.03924031776278125
0.025686115408890875 -0.05527529373818899 0.04053517287308117
0.022361099180861543 -0.05493667114313716 0.04127704813247246
0.019550431196574236 -0.054666518656885675 0.04168064625297474
0.017122972331392428 -0.05444741010419461 0.041831783127730504
0.014951541303251159 -0.05426231687682317 0.04181546803454628
0.012927032593766707 -0.05409654085343112 0.041705874711362334
0.011005346140951 -0.05394416313463253 0.04153267787172632
0.009232600067092533 -0.0538115928771755 0.04126179669959168
0.007529920640779508 -0.0536881096390868 0.0409481719738089
0.005870519132422369 -0.05357007940071359 0.040610365473602306
0.004248147689981607 -0.05345667349830391 0.040252443903604995
0.002782706433043236 -0.053364505191396926 0.03978649106392007
0.0013114117022128835 -0.05327114361565426 0.03933014037947652
-0.00011464184219200924 -0.05318367809527706 0.03884579229192853
-0.001522003612484224 -0.05309845019784086 0.03835263295371383
-0.0028454762617188267 -0.05302456721899943 0.03780183410719179
-0.004249607839545477 -0.0529391022312795 0.03731581825140873
-0.005477152599920376 -0.05287801168013023 0.03670161693363483
-0.00674206580413883 -0.05281142007626368 0.03611930762591803
-0.007964837070009001 -0.05275047557253465 0.03550876610391357
-0.00911872554762222 -0.052698982791042244 0.034849003352214414
-0.010237979038806577 -0.052652164428716494 0.03416557538168469
-0.011307367490133724 -0.05261220580492181 0.033446272076129824
-0.012329492267707798 -0.05257878157774663 0.03269251321518918
-0.013289307441078035 -0.052554072038134655 0.03189193911318311
-0.014202846885539022 -0.052535848937050135 0.03105639834959778
-0.01505300715955915 -0.05252659526737987 0.03017177785448194
-0.015826910587708187 -0.052528210754361496 0.02922703180877595
-0.01656807368412655 -0.05253452678898013 0.02825599958068581
-0.017250085062988696 -0.052549368099436264 0.02723702018127694
-0.017892639967873436 -0.052569954085404484 0.026185252543818094
-0.01845915996231784 -0.05260159970034249 0.025070448636418663
-0.018947824426155113 -0.052644639920795246 0.023890124369013832
-0.019308767047349684 -0.05270637501406247 0.02260228566782957
-0.019570514816981688 -0.0527827838632711 0.021228800664599312
-0.019605003509343744 -0.05289260101344978 0.019662011796709344
-0.019532985526520885 -0.053018432084415465 0.01799967164244698
-0.019097222835093963 -0.05319798470684642 0.016024473386111016
-0.017853375276678574 -0.0534967070118146 0.013356691766377715
0.032100148711111276 -0.05733248871424253 0.03770126244528643
0.02690667393982271 -0.05672967764375351 0.03969642214041402
0.022973692436295767 -0.0562992160956936 0.040853750882494655
0.019884556493433403 -0.05598426005578982 0.04144849127076089
0.01724825559206733 -0.055731072574914775 0.04174425379085156
0.014942345890612552 -0.05552294830349675 0.04182192785312344
0.012775455741739439 -0.05533340915667094 0.04181294453856399
0.010802932653054542 -0.05517032278117894 0.041676443624307224
0.008974359498771456 -0.05502677458197719 0.041446221335804445
0.0072176678635006986 -0.05489274756839332 0.04117239282133939
0.005514889177523241 -0.05476576782001723 0.04086713294869809
0.0038881509555853677 -0.05464900435335328 0.0405137858114229
0.0023503231853865825 -0.054544342115530775 0.04010209691140981
0.0008596844776146417 -0.05444593898532683 0.039661664430300725
-0.0006126122135789447 -0.05434973408055497 0.03921324531073328
-0.002046384367507148 -0.05425861551858469 0.03874167952348334
-0.003447549300533981 -0.05417177061152595 0.038250949132269674
-0.004798479861348848 -0.05409174709671767 0.03772747015367506
-0.0061147152703203145 -0.054016360821434954 0.03718237840006705
-0.007397775793847705 -0.05394542263960433 0.03661643016740879
-0.008631305291286251 -0.05388131453798827 0.03601677717371615
-0.009816980951887544 -0.053823837802223724 0.035384118612411974
-0.0109637092781813 -0.05377174722340615 0.034724746609201995
-0.012072976429249538 -0.05372486174815568 0.034039348231242994
-0.013138998896659593 -0.05368405389143443 0.03332296966313186
-0.014146790663501163 -0.053651542054077093 0.032563350816048386
-0.015096921346581305 -0.05362729620570989 0.031760220576302844
-0.01598785915489248 -0.05361159300588638 0.030911648192222807
-0.016835397016559173 -0.053602175500137614 0.030029455564719976
-0.017610310001333895 -0.05360337119223794 0.029089716114952313
-0.018353735395935045 -0.053609200949187565 0.02812458437058768
-0.0190557040407483 -0.053621163392640385 0.027125593989338226
-0.019683987791031865 -0.053644056439193004 0.026066010583088273
-0.020259134701185455 -0.05367491065203453 0.024961662647321525
-0.020686143100840937 -0.053727864791845076 0.0237338036224497
-0.02106437718301979 -0.05378829689754172 0.02246254153692262
-0.02134721924577282 -0.05386319841518646 0.02110850876503534
-0.021287799563925347 -0.05398950974018139 0.019464365111631743
-0.02121689711572361 -0.054118090653346176 0.017803091376301428
-0.020702953999631846 -0.05431364896656986 0.01576044568750412
-0.01921352216626332 -0.05465661774183446 0.012878917104245935
0.02935142951938935 -0.05836500520686691 0.03801642033665931
0.024164978989281827 -0.05774769317738152 0.04003058099392476
0.020433253665943507 -0.05733460434179624 0.04106724871438372
0.017480468908339042 -0.05703075455675512 0.04158201761118774
0.014979130092087178 -0.05679008216242209 0.04179608678678198
0.012717363065821108 -0.05658268057090291 0.04185397964840476
0.010644765301947579 -0.056401532769973034 0.04178878321443008
0.008736630029437753 -0.05624325322480582 0.041615997801152105
0.006940405074050915 -0.056100422704115034 0.04137148824070086
0.005188637193953738 -0.05596341276982512 0.04110268930977534
