# .PCD v0.7 - Point Cloud Data file format
VERSION 0.7
FIELDS x y z
SIZE 4 4 4
TYPE F F F
COUNT 1 1 1
WIDTH 756
HEIGHT 1
VIEWPOINT 0 0 0 1 0 0 0
POINTS 756
DATA ascii
-0.08025540840212686 -0.008610340927057168 0.03924228258195522
-0.0817198996916243 -0.008588316931440475 0.03914160602812561
-0.08313649467009798 -0.008567560192953924 0.03900337797816167
-0.08454552888702405 -0.008546924444211965 0.03886512561495109
-0.08594634246814747 -0.008526429461428958 0.03872615856234729
-0.0870956001300518 -0.008513076374539368 0.03835366496187326
-0.08770984453051195 -0.008515088080204436 0.037471413450463564
-0.088044772858834 -0.00852518167914489 0.0363185245935812
-0.08838049616294569 -0.008535299235945863 0.03516289927457844
-0.0887177368056416 -0.008545419943774323 0.034005230359843985
-0.08905433904705284 -0.008555606565135175 0.032843400186385485
-0.08938814673486878 -0.008565922463009565 0.03167524674233457
-0.08972204070972084 -0.008576284310961938 0.030503559155417415
-0.09005962227534775 -0.008586586881218175 0.029331903415620864
-0.09040521300696369 -0.008596702791801443 0.028164641486133846
-0.09075161898417239 -0.008606842565729701 0.026994625995839683
-0.09110532011354278 -0.008616815098644879 0.025828405161019807
-0.09144544888149125 -0.008627236630278947 0.02464483037431542
-0.09160131771736563 -0.008643172746508037 0.02326904785409023
-0.09191714395667161 -0.00865442953146355 0.022052063369087938
-0.09238655270731727 -0.008661163348564592 0.020989797822136003
-0.09265723275108984 -0.008673865971381676 0.01971864891206132
-0.08769411140255845 -0.00884335149384887 0.01297717938372478
-0.0868738854226323 -0.008889299829800556 0.010523506671626603
-0.0907759161564875 -0.008793382617677809 0.013035840438217094
-0.0923329651658506 -0.008767729520788534 0.013095860079940014
-0.09227456604122763 -0.008790795078810327 0.011443042962869299
-0.09224812130602139 -0.008813004480055755 0.009816077372162446
-0.09225608729654616 -0.008834276824085533 0.008218077179422467
-0.09228987278617717 -0.008854866895381992 0.006640255044923382
0.03757324177220628 -0.011487690823585988 0.06011523107693573
0.03385785487797105 -0.011408467386668552 0.060946062875474494
0.031828615761749834 -0.011375167655368196 0.060738064416268334
0.03023315505700075 -0.011353654741479917 0.06026464291002076
0.028586779233178372 -0.011330655659598681 0.059829191313258534
0.027068526914582225 -0.011311099860056444 0.05931787472857625
0.025715132323341328 -0.011296022933167196 0.05870573135249363
0.024301070132721037 -0.011279206421408772 0.058136756523113786
0.02320885014198859 -0.01127125306781612 0.057363023593926754
0.022154147331981677 -0.01126431114573743 0.05656686555672613
0.021202580301703133 -0.011260214584533808 0.05570475188032281
0.020316361467013433 -0.011257925679428146 0.05480052937319291
0.01952268331076301 -0.011258215771184398 0.053835405066715636
0.018743918406464444 -0.01125892494684813 0.052860235920086096
0.018156897310299236 -0.011265021090826194 0.051756004403473
0.01762091773259078 -0.011272577850029783 0.05061564974422783
0.017220849792930648 -0.01128399677895369 0.04938090691610547
0.016628251856282195 -0.011290022863182444 0.04827467957436621
0.015934165194428418 -0.01129320048665372 0.047236576517418916
0.015352988062855788 -0.011299593572917536 0.0461195992664834
0.014965684972284177 -0.011311522858395123 0.04486619277746845
0.014874329288547705 -0.011331929132818412 0.04340280094253951
0.015106778005361754 -0.011361659201786738 0.04170641355580107
0.01632149662830068 -0.011419599617237645 0.03930811626237213
0.031956186249122165 -0.01189097336377713 0.026652180891730437
0.028892193812024458 -0.01182738140276648 0.027221735341022457
0.026738567712786487 -0.011789721333886713 0.027154926757755382
0.02456206815061479 -0.011751246693147078 0.027114927924223375
0.022400935634190322 -0.011713057242502652 0.027074312603301676
0.020201126848554907 -0.01167359016026885 0.027072410749839237
0.018041012314266525 -0.011635111085742667 0.027052233134653103
0.015830395028308464 -0.011595004065064363 0.027079927755249422
0.013665274067071076 -0.011556055522896229 0.02708494582223203
0.01149038405535835 -0.011516659391779272 0.027108031444166125
0.00928103431291305 -0.011476090587086384 0.027167888752934577
0.007129177619591642 -0.011437037279897479 0.027195668602532808
0.004964925099194328 -0.011397455963143928 0.0272437236598142
0.002813372041526374 -0.011358082052109383 0.027293146264135648
0.0006556492309496287 -0.011318360222607453 0.027358310017148946
-0.0015209566944919262 -0.011277912439440652 0.027449156773076078
-0.0035866356433645885 -0.011240579650385156 0.02746543548397906
-0.005316916353708956 -0.011213045612237543 0.02723100920330318
-0.006725106408467296 -0.01119497688058236 0.02675215179372864
-0.007925124328373057 -0.01118303758521662 0.02611452732951447
-0.009004641244570344 -0.01117464758474884 0.025384916881148967
-0.009818652742769163 -0.011174171258435332 0.02444643319218459
-0.010590262906100545 -0.011174965159060865 0.023474166898333537
-0.011190783174092611 -0.011180907113299192 0.022364082432552113
-0.01163345581796571 -0.011191631310793959 0.0211246798646601
-0.011883486921876074 -0.011208219455971223 0.019725624082849724
-0.011990216190792269 -0.011229216317056676 0.01820470903168031
-0.012026229281852874 -0.01125244899431873 0.016619662247034872
-0.01199642773409898 -0.011277783060839972 0.01497356523118315
-0.011962225196976206 -0.011303361427845647 0.01331649704370469
-0.011975973105905646 -0.011327587468138427 0.011692047869734101
-0.011940501164305173 -0.01135342528897916 0.010019270591146878
-0.011396180336148365 -0.011394978849157689 0.007909743579703143
-0.058641727710925406 -0.010078743949056185 0.03897313666876623
-0.0605278861505526 -0.01004242473327882 0.039136081071741824
-0.062400499683031074 -0.010006366333558338 0.039297855336059395
-0.06419908260212126 -0.00997246242904273 0.039404845743457206
-0.06590296091821851 -0.009941375600461414 0.03943771011208885
-0.06759306940271964 -0.009910581893655596 0.039467528022303355
-0.06927195157284433 -0.009880003190940477 0.03949645348858666
-0.0709412870829032 -0.009849587934668511 0.039525907047037456
-0.07256704003612557 -0.009820413866590046 0.03952491324663843
-0.07412627207136585 -0.009793216654336965 0.039471977149190374
-0.07568223476122332 -0.00976599988242412 0.0394242356277526
-0.07722957292708899 -0.009738933969979078 0.039376758732089956
-0.07876835807791177 -0.009712017666173151 0.03932954426809754
-0.08027703621306137 -0.009685941589027705 0.03926243776357746
-0.08172730284666274 -0.009661619151018892 0.039148541112089985
-0.08314384521084806 -0.00963826896632952 0.03901029968955477
-0.08455355708856777 -0.009615031374899097 0.03887272485923793
-0.08595213986567685 -0.009592045952911205 0.038731674785367265
-0.0870703715617282 -0.00957802740525759 0.038329535000670656
-0.0876558775166072 -0.009581224696219519 0.03741952790260422
-0.08799080314112934 -0.009592584148127388 0.036266366595416266
-0.0883272436411397 -0.009603947110826466 0.03511116689235083
-0.0886637623629089 -0.009615360537873683 0.033952524268741346
-0.08900036205724554 -0.009626824693227775 0.032790417925369186
-0.0893341660166031 -0.00963843434314965 0.03162198583689663
-0.0896680561373906 -0.00965009571108101 0.030450018150788016
-0.09000635501033544 -0.009661666632816576 0.02927879991516308
-0.09035194588633766 -0.009673051173468578 0.028111262927876246
-0.09069835215685318 -0.009684462575047419 0.026940971228963717
-0.09105205609337935 -0.009695685766720539 0.02577447542226785
-0.0913828229599733 -0.009707725822061322 0.024581093545127775
-0.09155302767035334 -0.00972518058876962 0.023219646939162453
-0.09172312380564135 -0.009742722376135968 0.02185255351038623
-0.0921205624273449 -0.00975272631829308 0.020714867527525604
-0.09248347236016907 -0.00976393866544912 0.019538120274842252
-0.09248030598500817 -0.009787537043302695 0.017975491449467418
-0.08562667525177453 -0.010042578629614529 0.009214295814087892
0.036222443324610554 -0.012747974928979909 0.059468775303823274
0.03299839356379347 -0.012674714270684102 0.06000307899833979
0.030941945052836817 -0.012636808695745549 0.05981677033937599
0.02913784494097421 -0.0126064724888595 0.059479006315863725
0.02756102729598875 -0.012582982197604156 0.05900313341057123
0.025932470962003795 -0.012557810430588458 0.058566051749211034
0.024555935246077965 -0.012540293224488538 0.05797203468537704
0.023292705714449136 -0.012526199686083435 0.05730852147661264
0.02218084477394444 -0.0125167259572425 0.05654941586623935
0.021092644397846083 -0.012507946861141435 0.055777010602811816
0.02019976419018249 -0.012505190259785188 0.0548775962667305
0.01932569888456437 -0.012503007321194488 0.05396633416328328
0.018634663689133746 -0.012506514709649657 0.05293325989557768
0.017779132465476022 -0.01250490393034701 0.05200990517387177
0.017182656116239647 -0.012511385367648809 0.0509118526906443
0.016471102889207223 -0.012514288077229237 0.04989044937551568
0.015516019465866393 -0.012509558427364306 0.049034773641608465
0.014740392222520493 -0.012510453920362312 0.048056920588965935
0.014110218753812187 -0.01251593713017721 0.04697834334537804
0.01370006396946749 -0.012528390735977626 0.04574556415150194
0.01348484765095298 -0.012547063633819076 0.04437356436048506
0.01346626450526417 -0.012572047588431636 0.04285888163967028
0.013714131335042401 -0.012605599573951918 0.041149889248596194
0.015252595031090888 -0.01268037925501334 0.03851603634533868
0.028942997760068034 -0.013143155718608268 0.027185453281634853
0.026852856191864727 -0.013103344072700121 0.027072859082120204
0.024597394720454302 -0.013058072454932962 0.027089421877793562
0.02239610506749712 -0.013014352980973053 0.027077819383766133
0.02027895052355383 -0.012973159120667736 0.027015605572867363
0.018115789540741 -0.012930311580907766 0.02699735388965685
0.015935096262188087 -0.012886719804513183 0.02700266857142586
0.013657113662564446 -0.01283979755446925 0.027091000158419698
0.011557411649825988 -0.012798462299316303 0.027058032361281625
0.009331417864962332 -0.012752849403026343 0.027130101282959562
0.007171168948769513 -0.012709186920785865 0.02716400455767848
0.005016662600931976 -0.01266552866304828 0.02720449918747453
0.002881367218178721 -0.01262231518708563 0.027241317382682928
0.0007329707306202304 -0.012578490199178874 0.02729905388513426
-0.0014673342915957899 -0.012532775134441156 0.027407841001425626
-0.0035258852948138464 -0.012491532608354242 0.02741837544941117
-0.005176846232606946 -0.012463559904536767 0.027121920398030186
-0.006553617356476915 -0.012444531936300528 0.02661787539809929
-0.007720193933929198 -0.012432385912702727 0.025953204561868393
-0.008807902263519962 -0.012422806245255926 0.02522921166034059
-0.009587312502391143 -0.012423442075775105 0.024262362391354264
-0.010333949263694686 -0.012425173276914824 0.023269133818883347
-0.010913570840177855 -0.012432492044829406 0.02214114611561091
-0.011330899447699938 -0.012445276343644748 0.02088006196165515
-0.011571149004370784 -0.012464057686447 0.019471750242069374
-0.011622184414717351 -0.012489283035619024 0.01790397156076501
-0.011642577868939519 -0.012515650318997115 0.016304491629013318
-0.011649198613104261 -0.01254259723886938 0.01468679801060696
-0.011639821266256956 -0.012570202901095685 0.013048817043684935
-0.011622906278791645 -0.012598184628858006 0.011397353010428934
-0.011485661038363737 -0.012630379270471765 0.009637614391393545
-0.010841816874597676 -0.012679974457773111 0.007442111879024771
-0.05866833128296639 -0.011197685951353906 0.03899629897086454
-0.060555063210176896 -0.011157309381948569 0.039159867335737064
-0.06242742192746337 -0.01111725123361586 0.03932154261609977
-0.0642322304543706 -0.011079361775603435 0.039434163969494396
-0.06593262252372595 -0.01104493970935337 0.039464082748316254
-0.067621686694534 -0.011010758618524283 0.03949310576904158
-0.06930032872857478 -0.010976788437387619 0.03952194970718831
-0.07096864479168652 -0.010943027219863847 0.039550616215162704
-0.07258564712219218 -0.010910916979456637 0.03954180701849447
-0.07414934968162551 -0.010880538892565288 0.03949303952448202
-0.07570513231732762 -0.010850302547025363 0.03944524302886104
-0.07725229206775158 -0.010820233785654255 0.0393977114440488
-0.07879090042295933 -0.010790331219055972 0.039350442573737376
-0.08029940655924539 -0.010761362087398486 0.039283284921510175
-0.0817347056379138 -0.010734868628703124 0.039155475855267796
-0.08315119539126914 -0.010708925252407847 0.03901722106164046
-0.08456085507885452 -0.010683106970534737 0.03887963290840557
-0.08595866166743865 -0.010657594857275647 0.03873788027892333
-0.08704585969029227 -0.010643134104848209 0.038306090526962766
-0.08760261072768044 -0.010647725097777673 0.0373683155725863
-0.08793753366055568 -0.010660351266518271 0.036214885327991164
-0.08827325184576634 -0.01067300741525852 0.03505871633976321
-0.0886104881726349 -0.010685667516575497 0.03390050197478439
-0.08894708532980006 -0.010698410080867755 0.032738123021750276
-0.08928016544741768 -0.010711340629881312 0.031568705345243586
-0.08961405168870001 -0.010724302473529974 0.030396457433113644
-0.0899530683714031 -0.010737137403425086 0.0292256771003484
-0.09029865936901132 -0.010749791496934745 0.02805786493233947
-0.09064506591005406 -0.010762475452223558 0.026887296901176805
-0.09099949280865516 -0.010774923641761873 0.0257212551770738
-0.09131944982667956 -0.010788705897006316 0.024516596249536282
-0.09149895265975733 -0.010807760954667452 0.023164327982908572
-0.09165165349780008 -0.010827903061749277 0.02177906098425908
-0.09179552439058214 -0.010848470550993843 0.020378904862964953
-0.09208759061934452 -0.010863603105219392 0.019126818304397553
-0.09232039514557566 -0.010881026653513913 0.017808493584167584
-0.09204078073386063 -0.01091776044457157 0.01594725609196196
-0.0917293270964914 -0.010955869361704692 0.014041813366260925
-0.09142376298464461 -0.010993940940806341 0.012131582343992864
0.03542255397585453 -0.014023427092073023 0.05847994994727401
0.03215958993451645 -0.013941376824276746 0.0590473608577326
0.03002453674914418 -0.013896952471558892 0.058915541443814334
0.02807367803257793 -0.013858562521947025 0.05867551464193288
0.02645267106277488 -0.013831162690835883 0.05823172857432396
0.024833375469984487 -0.013803712402347278 0.057792722330923973
0.02348733739224912 -0.013785419940885448 0.057182020181287374
0.022141380233917596 -0.013767057587005596 0.056575210247949426
0.021103056814037346 -0.013759096054739106 0.05577016672501023
0.02024939637342127 -0.013757402462010068 0.05484479105647461
0.019372911496135403 -0.013754921904317426 0.053934953486653725
0.01859787547764885 -0.013755906146090704 0.052957848503918714
0.01769082213177775 -0.01375236353653785 0.05206925972225668
0.01663331837450449 -0.013743632895649456 0.05128312740786567
0.015531596108792511 -0.013733343416751545 0.05052895630785198
0.014637042798396227 -0.013730165435760252 0.049635461911385126
0.013858527875518 -0.013730989216013784 0.04866292542070194
0.013273542865898325 -0.013738525503919635 0.04755647997900064
0.012839634821628365 -0.013751340457925698 0.046343402493556896
0.012519330259072758 -0.013768161897639202 0.04504812452599394
0.01236381657982999 -0.01379079970313246 0.04363335624662418
0.012430567021939454 -0.013821298233606753 0.04205656468991886
0.012903859017807717 -0.013866159531748733 0.040184244349028064
0.014609467663684594 -0.013954451638669024 0.037421862265925365
0.026776656790146014 -0.01441099884965502 0.02712757595152193
0.0246473496314511 -0.014365640033609333 0.027053354060140478
0.022454079466766474 -0.014317835421926006 0.027035732501686338
0.020244225480493983 -0.0142692463160892 0.02704095212989388
0.018101544109841217 -0.014222837631923503 0.02700780865682706
0.01598805601432507 -0.014177273503150295 0.026963589497818186
0.013788886956776714 -0.014128469101269723 0.0269932354185633
0.011547009323388369 -0.01407793738195685 0.027065791953220952
0.009386396501757432 -0.014030100038637043 0.027088867517124027
0.0072290637073327835 -0.013982179904393377 0.02712034834893562
0.0050582875619129 -0.01393357602482154 0.027172941476417745
0.002932658121783005 -0.013886392117374222 0.02720222122478777
0.0007804836771993506 -0.013838052304063058 0.02726264184647892
-0.001354568651871113 -0.01379012701073228 0.02732095568541487
-0.003429295597612847 -0.01374418315907039 0.02734355259493193
-0.005051772848016167 -0.013714454115403578 0.027024511286157515
-0.006401289852500214 -0.013694523995397796 0.026498602546848382
-0.0075374891844319225 -0.013682282079426154 0.02580937799123706
-0.008569411378256009 -0.013673795779407706 0.025040462711085287
-0.009363127315613562 -0.013673990301770711 0.02408398466166478
-0.010070914451909219 -0.013677336946383635 0.023058724271593
-0.010623219240587067 -0.013686412254588831 0.02190764309892823
-0.011036333346682803 -0.013700653174560195 0.020641904219797447
-0.011238116304397194 -0.013722755875364166 0.01920105531228611
-0.011282141417380265 -0.013750789643239952 0.01762610514359786
-0.011287979132630022 -0.013780360490333696 0.0160131878592093
-0.011284228338688362 -0.013810415951686925 0.01438537884712393
-0.011286884391192298 -0.013840363654981832 0.01275578667487548
-0.011269166894473326 -0.013871202150854592 0.011102096786714866
-0.011051237066046049 -0.013909662257014722 0.0092730893794164
-0.010299880263411276 -0.013968281722617552 0.006984962812165096
-0.05869576164664014 -0.012316412868647288 0.03902018111605532
-0.06058141234850084 -0.012272037476811005 0.03918292897554965
-0.062454339651015545 -0.012227949589830978 0.03934522591848694
-0.06426213845353818 -0.01218615457441852 0.039460616648036684
-0.06596147713886019 -0.012148328102442879 0.039489737875724185
-0.06765029879421791 -0.012110735734559648 0.03951867887512417
-0.0693294887901203 -0.012073344974331638 0.03954814934857115
-0.0709975605831657 -0.012036214527859183 0.0395767326256703
-0.07260812770889952 -0.012001139539480978 0.039562217624521945
-0.07417242384389039 -0.011967698675283451 0.03951409875287243
-0.07572802646184523 -0.011934443657433878 0.03946624730000359
-0.07727500783278762 -0.011901372940974106 0.039418661042838365
-0.07881268818154696 -0.011868514307355204 0.03937064132578438
-0.0803195370444032 -0.011836711125254583 0.03930204472969079
-0.08174210806540433 -0.011808065368380641 0.039162410257684244
-0.08315854521138938 -0.011779529055048197 0.03902414209444521
-0.08456815271225976 -0.011751130335462472 0.038886540619760324
-0.0859651831828534 -0.011723096977082053 0.03874408550002029
-0.08702062263987809 -0.011708445775612709 0.038281952453032064
-0.0875486045100875 -0.011714638791406344 0.03731639233309475
-0.08788352469069582 -0.011728532658567329 0.03616268939533396
-0.08821996054747516 -0.011742430831785326 0.03500694628795892
-0.08855647438106096 -0.011756390740593082 0.033847757459503414
-0.08889234858980027 -0.011770441534954488 0.0326843950117926
-0.08922542460971844 -0.011784670437493623 0.031514694456282355
-0.08956002735266988 -0.011798904816699306 0.030342876991505285
-0.08989904186351588 -0.011813028442337677 0.029171816691227315
-0.09024535344438828 -0.011826923976321574 0.02800444748890485
-0.09059176023315346 -0.011840881412138963 0.026833603001780004
-0.0909469105946269 -0.011854550176396049 0.025668015765988428
-0.09125676976258534 -0.01187012654976286 0.024452804317348864
-0.09142682142629299 -0.011891478615836473 0.02309053743706163
-0.09158014811084114 -0.011913616376763215 0.021705532386467385
-0.09169497686769035 -0.01193743764573114 0.020274977907085823
-0.09173051854688025 -0.011964629934564899 0.018755837701226907
-0.09190496366086959 -0.011986233969598583 0.017374650754185317
-0.09172996905479452 -0.01202236446947978 0.015620993498542457
-0.09157439175580345 -0.01205786632894548 0.013878336368263966
-0.09131219096105903 -0.012097962212549176 0.012013251767447775
-0.09077883248035767 -0.012149525833139227 0.009848520113551196
0.0346713435135933 -0.015300784274442284 0.05746022568526116
0.03108905390728045 -0.01519938342201909 0.058239074131522794
0.0288325656017116 -0.01514634063438929 0.05819053375106603
0.026921039072806408 -0.015105799782336223 0.0579307169445738
0.025160466748396504 -0.01507067201257725 0.05758132000999411
0.02383043584917044 -0.015051332710073917 0.05695902257002888
0.022657346741367212 -0.015037734128303086 0.056237969853566994
0.021424949254267467 -0.01502187861974411 0.05555859311080552
0.020437647969741624 -0.01501508134668836 0.05472036305844402
0.019564178296819335 -0.015012501715274245 0.0538078247085052
0.01846916978949814 -0.015001634009830674 0.053043873174036194
0.017124040738573987 -0.01498135827483124 0.05245020102570025
0.01588271393924695 -0.014964895186567923 0.051790429980168695
0.014871004223492912 -0.014956997215910808 0.05097790729681956
0.01399733587401003 -0.014954266885761526 0.05007263443233462
0.013290123489309802 -0.014957807975592938 0.049053524956325534
0.012665003460718138 -0.014964468057681769 0.04797697604948592
0.012145395784070478 -0.014975153642974975 0.04682576959635165
0.011760454208295967 -0.014990996344479368 0.045578314410420484
0.01146841694576678 -0.015010438652192606 0.04426237850124426
0.01133162956049688 -0.01503587972576178 0.04283282466977972
0.011403995802677258 -0.015069415837336403 0.04124953385187957
0.011946584790773651 -0.015121091629073626 0.03932358207821757
0.014268143564362068 -0.015241226312642684 0.03610962396170797
0.024585212453041905 -0.01566921863597998 0.027098217565562133
0.022423882398403205 -0.015618293594878867 0.02705765425458717
0.02022506939566926 -0.01556571108439352 0.027054934568895517
0.018197720408354934 -0.015519543055704873 0.026937224564613227
0.015971578140399845 -0.015465477846745946 0.026975748543547062
0.013854222985477005 -0.015415413155088797 0.02694476156134268
0.01164411903865703 -0.01536152965588782 0.026993353180187696
0.009444828188226007 -0.015307842756654871 0.027045043977333483
0.007277890285997957 -0.015255195594766072 0.02708353010556952
0.005110049967800956 -0.015202292174591245 0.02713369812314781
0.0029594240060905608 -0.015149841966063645 0.02718181910344547
0.0008213763285675468 -0.015097665483812134 0.027231303339618207
-0.0013326646828584754 -0.01504463828550751 0.027304078795661935
-0.0033489476185955547 -0.014996828044192083 0.027281311327841007
-0.004899632453615355 -0.014967244852028976 0.026906021962893045
-0.006229505461738616 -0.014946294920285071 0.026364094900155288
-0.007347116236425255 -0.01493369353771909 0.02565951495632357
-0.008345549927496199 -0.014925785967031842 0.02486329194180026
-0.009138672795748704 -0.014926040919694792 0.02390539263135477
-0.009808570959598861 -0.014931226838430612 0.022848867731780242
-0.010357904296187714 -0.014941268849923825 0.02169427475525254
-0.010729616379419715 -0.014958490801097298 0.020393922459300995
-0.010892787347211497 -0.014984184171555004 0.01892036576490852
-0.010922294157468426 -0.015015382378458557 0.017332055656850143
-0.010924159071496464 -0.01504783360205884 0.015714308747451722
-0.010932453590524027 -0.015080165142990066 0.01409485751495293
-0.01091718697223032 -0.015113594338294706 0.012448840649452342
-0.01089432680751029 -0.015147478406593593 0.010789228405415963
-0.010697788485726278 -0.015188595582170838 0.008976510792173653
-0.009666166253954667 -0.01526403384630238 0.006450395185436997
-0.05619792185047856 -0.013509587316371821 0.03833790093758721
-0.058723187371176766 -0.013434950582157998 0.039044059222198446
-0.06060858038779704 -0.013386549235918914 0.039206707344654534
-0.06248043736959091 -0.013338495383440839 0.03936818774731454
-0.06429123274257831 -0.01329277342221916 0.03948634962572872
-0.06599112779931737 -0.013251482207732168 0.03951610078052198
-0.06767970026545861 -0.013210480009896485 0.0395449575107828
-0.06935785553936541 -0.013169730764058429 0.03957363621718618
-0.07102568972368528 -0.013129232136637468 0.039602138542072896
-0.072631380062253 -0.013091171524081617 0.03958332893401256
-0.07419549455893049 -0.013054696038897239 0.03953515483506437
-0.07575091719553728 -0.01301842324975281 0.03948724844187851
-0.07729772022295217 -0.012982351471742398 0.03943960752915504
-0.07883522395843334 -0.012946511007662389 0.03939153354228664
-0.08032699210026295 -0.012912457753144427 0.03930899217366984
-0.08174951012916126 -0.01288120937393853 0.03916934431936436
-0.08316589467123237 -0.012850080378109651 0.03903106278799118
-0.08457544998880989 -0.012819101473513424 0.038893447993327224
-0.08596880612326491 -0.012788677091887378 0.03874753272736614
-0.0869953812853188 -0.012773939133975643 0.03825781026238523
-0.08749457854292952 -0.012781942645383288 0.037264450105763625
-0.08783021646020495 -0.012797073902448632 0.036111170678794935
-0.08816592943014695 -0.012812272336281912 0.03495445753589582
-0.08850244076674069 -0.012827506913853697 0.033794993587293154
-0.08883831209030452 -0.012842840682374524 0.03263135433777742
-0.0891721047124715 -0.012858337293676183 0.031462085560060415
-0.08950598311831254 -0.01287390295914037 0.030289276815065658
-0.08984571618285248 -0.012889284542375519 0.02911865495471122
-0.09019130735610281 -0.012904480587750539 0.027950288333346285
-0.0905377143726438 -0.012919712506699944 0.02677916352805504
-0.09089430944106869 -0.012934565580609327 0.025614757178657965
-0.09120199271641416 -0.012951660096038512 0.024397055593009254
-0.09135537633550844 -0.012975700581956268 0.023017448817972963
-0.09150716199452569 -0.012999927180106596 0.02163048116278793
-0.09052965852411554 -0.013074750305973536 0.019070492857680532
-0.09167394406279578 -0.013054858578750585 0.018697059550124573
-0.09171461486149007 -0.013084441354964546 0.017175865960911973
-0.09163156487292212 -0.013119737299411911 0.015517697497319238
-0.09148369278010593 -0.013158129549804377 0.013782637115901053
-0.09119538934725419 -0.013203061390599072 0.011889374814617215
0.0645851825595749 -0.01776295745913547 0.038558169970474176
0.034579319061821934 -0.016604779525992173 0.056021119944282494
0.029965995598323802 -0.016453692201750802 0.05746619471607611
0.027578794213849178 -0.01639087350517424 0.057507989638820145
0.025617395413657873 -0.016344837658390038 0.05728600250472593
0.024437525376364788 -0.016329941026395164 0.0565644433708124
0.02299273096820842 -0.016304346666963565 0.056018759677525454
0.021734588064451 -0.016286160745104184 0.05535507356830943
0.020835517111598978 -0.01628237906179587 0.05445738488579027
0.019461609035003158 -0.016259399967956254 0.05387599913754182
0.017858942585036397 -0.016227069093903104 0.05345173855057689
0.016528078325497908 -0.01620563275214552 0.052850755280238026
0.015400533724219845 -0.016192373409388037 0.05211631569560943
0.014406154200118981 -0.016184483553811243 0.05129382834029511
0.013567486914759896 -0.016182915727242852 0.05036639106678592
0.012819199340830145 -0.016185036977985227 0.04937713743746269
0.012147297550120117 -0.016190296387615193 0.048334706870564015
0.011566094697256113 -0.016199300674255897 0.04722827618525732
0.01107533910755526 -0.016212062336366267 0.04605697109712015
0.010670404549362855 -0.01622841365057752 0.04482298578508115
0.010397427239560109 -0.016250282277073515 0.04349272015999661
0.010260045887020397 -0.016277852695027562 0.042062033168246304
0.010380823096917124 -0.016316243220749416 0.04044178373283264
0.011007062503217424 -0.016375798460427003 0.03845132406048002
0.02497052449361481 -0.0169910333413571 0.02682001940362727
0.02241542802527896 -0.016919465248612722 0.027063791760265965
0.02017599023414751 -0.016860801299596426 0.0270907585062245
0.018046945996435748 -0.01680652021505728 0.027047878386384838
0.015922152683345903 -0.016752192228183204 0.02701221965597428
0.013849555412814907 -0.01669983451278561 0.026948224509049934
0.01165568290316521 -0.016642144733702888 0.02698472714154493
0.009470039386472118 -0.016584561606123645 0.02702613567575468
0.007288111348775328 -0.01652689468438176 0.027075822795594395
0.005137061922354524 -0.016470296021594145 0.027113219174055903
0.0029995797940419178 -0.016414036261177652 0.027151210615081467
0.0008302191286980176 -0.016356181071111583 0.0272245265681621
-0.001316235056110282 -0.016299059696914368 0.02729141985703981
-0.003228361852974093 -0.01625172368884618 0.027187900007018706
-0.004753851302323198 -0.01622076659068375 0.026792485317813752
-0.00603821108863295 -0.01620003994245996 0.02621431088405235
-0.007151194378468728 -0.01618660522782729 0.02550528377722644
-0.00812462438639655 -0.016179135759446916 0.024688444740826265
-0.008894765154176087 -0.016180426286406813 0.02371132230947931
-0.009545858129230311 -0.016186882008699936 0.02263871574721965
-0.01006668455086912 -0.016199023482682515 0.0214600735690173
-0.01043090446603323 -0.016218033936507472 0.020152412813376153
-0.010567059985774452 -0.01624707492136731 0.01865560874483302
-0.010526511010652606 -0.0162839662397391 0.017008641130328184
-0.010558556102133188 -0.01631783700182794 0.015413964972018468
-0.010575723337735266 -0.01635250804765547 0.013800243564387304
-0.010580068963864098 -0.01638789412335848 0.012168944097680101
-0.010543506182354168 -0.01642523845297704 0.01049640838712984
-0.010270167938984054 -0.016473209920316936 0.00861769453235428
-0.009057558600082671 -0.016562992058089258 0.0059370059526221985
-0.056436913529707367 -0.014624684069971307 0.03854488679958029
-0.058733159211956154 -0.014554082261453882 0.03905274116867741
-0.06062504363812643 -0.0145013544921767 0.03922111652739796
-0.06250245401464433 -0.014449044154131873 0.039387558882519935
-0.06432112967242759 -0.01439915377506766 0.03951279251380929
-0.06601997176815938 -0.01435446628179465 0.03954174644213104
-0.06770830184098842 -0.014310055303893874 0.039570521210519405
-0.06938621715875481 -0.014265918282766138 0.039599118476744466
-0.07105459494472532 -0.014222017080042148 0.03962824540548138
-0.07265462893231805 -0.014181040217703124 0.039604437080951016
-0.07421856182752112 -0.01414153101980134 0.03955620777176544
-0.0757738045191646 -0.014102241360074576 0.03950824645518386
-0.07731967232614706 -0.014063204233939882 0.03945985284133319
-0.07885775639667975 -0.014024348004270847 0.03941242266363987
-0.08033444678892332 -0.01398815139469361 0.039315939275452016
-0.08175765197921148 -0.013954266366273109 0.039176971393690196
-0.08317324377082608 -0.013920579225450754 0.03903798314230483
-0.08458274690853101 -0.013887020388518358 0.03890035502913092
-0.08596228476699003 -0.013854704335180806 0.03874132765769084
-0.08697085698983631 -0.013839580504638389 0.03823435390565022
-0.08744125355509902 -0.013849603103121886 0.03721318182152866
-0.08777616819535228 -0.013866035068585431 0.03605893677024585
-0.08811259931300158 -0.0138824721408941 0.03490264977335539
-0.08844910816190893 -0.013898982240829338 0.0337429142514688
-0.08878497661448753 -0.013915599843694606 0.032579001768446414
-0.0891180445247825 -0.01393242810641821 0.031408746244894314
-0.08945191897463267 -0.013949297119565537 0.030235656892889762
-0.0897916500838995 -0.013965966644251575 0.02906475507624301
-0.09013796232244642 -0.013982400681325578 0.02789683169906021
-0.09048509054652298 -0.013998873440494743 0.026726156445322113
-0.09084096838279371 -0.014015004646453751 0.02556074943893616
-0.09113421370068259 -0.014034223976864947 0.024328074259984844
-0.09128534061535065 -0.014060384365450552 0.022945801990780168
-0.09143847831624108 -0.014086572591792482 0.021559854112572274
-0.0915697379649314 -0.014113945702310103 0.02014552968651262
-0.09160718693141501 -0.014146004016032217 0.018627702121259693
-0.09164553375169932 -0.014178172903328472 0.017103723272470506
-0.0915535232033709 -0.014216855349229495 0.015435776259420164
-0.09140099050559397 -0.014258684034784728 0.013695375426574952
-0.09103582983454334 -0.014311137001311702 0.011720149873403862
0.06458518255969564 -0.01912933880215105 0.03855816997039785
0.061946539933871225 -0.019053959061564443 0.03863010824784724
0.05935880879082173 -0.01898046670567236 0.03868218334604917
0.02881957949115893 -0.01770505120423552 0.05671055943331177
0.02667848840800996 -0.01764783939550906 0.05660020763175522
0.025385104064091835 -0.017626988129422087 0.055948562478374875
0.023354355073355038 -0.017574165980004997 0.05578239887875841
0.022307565826679143 -0.017563770642123933 0.054978466475807064
0.02066655823818747 -0.017527533829455766 0.05456906104035697
0.018944948785073523 -0.01748764565594936 0.054219406284294946
0.017450487002494464 -0.017457499686942362 0.05372474324252691
0.016129479851676676 -0.01743480924236058 0.05311865860943843
0.01504533185946838 -0.017422394321388493 0.0523563819824725
0.014097234029097683 -0.017415895960114575 0.051503776448012406
0.013207358027840954 -0.017411929878994495 0.0506125013516045
0.012437185661455796 -0.017413218657866422 0.049639651889120784
0.011697241151084503 -0.017415846374436203 0.04864569239702338
0.011036745817989801 -0.017421997338328676 0.04759607527382137
0.010455382959974002 -0.017431679018373804 0.04649010438403722
0.0099831942877745 -0.017446246611121288 0.045305754072779425
0.009603240935012247 -0.01746497656897145 0.04405371208756714
0.009331254295188773 -0.017488595651463327 0.04272171461328328
0.009194403941483076 -0.017518347465722634 0.04128907477838489
0.009471460703692813 -0.017566746698880486 0.03955400100048806
0.010453742941799238 -0.017646973860613573 0.037301243761213965
0.022588208790970288 -0.01822872759648463 0.026938360469852318
0.02057015760895864 -0.018175537102834313 0.026803047247626333
0.018393777821718693 -0.01811498118537028 0.026793337403660522
0.015857447384541645 -0.01803789633548109 0.02705996578454828
0.013744564044636143 -0.017979679432784623 0.027026119304490226
0.011673029970561688 -0.017923097442942 0.026971787135754044
0.009509008518977236 -0.01786207039839658 0.026996908976472944
0.0073733076946632115 -0.01780207923829327 0.027011579510839268
0.005146066742758804 -0.017737653351718983 0.027106392224222453
0.003000695351901228 -0.01767670551857871 0.027150360288354047
0.0008700167716697571 -0.017616175093341513 0.027194027232326
-0.001254885283897167 -0.01755565470250608 0.0272441501890901
-0.003095737756542094 -0.017507967932266364 0.02708516323741139
-0.004599308619891163 -0.01747565468254861 0.026672125054985785
-0.0058381115776861 -0.01745545713578302 0.026057632420994292
-0.00695828489546757 -0.017440675248531275 0.025353423962642174
-0.00785959735369246 -0.01743600202084554 0.024478694276393265
-0.0086494718837421 -0.017436499054249183 0.023516149482420368
-0.009285972743256765 -0.017444156941263483 0.022430825521439657
-0.009766486379919392 -0.017459144067765102 0.021218651862995375
-0.010099742260923639 -0.017481098554342153 0.019884666991011712
-0.01019166111720865 -0.01751448505206925 0.01835047783614091
-0.010200505573980168 -0.017551926909230735 0.016742245517495147
-0.010211532058426842 -0.01758942803173952 0.015128883831582396
-0.010223680081981434 -0.017627038948674272 0.013509500478997793
-0.010244492641251102 -0.017664402945077384 0.011890327550284796
-0.010214684978690436 -0.017704333791864778 0.010221950661541968
-0.009829644269646609 -0.01776134574719683 0.008248051266618428
-0.008244448859041631 -0.017875851430740712 0.005251109573417123
-0.056648684087679646 -0.015739447078414247 0.038728296998747413
-0.05872568038888626 -0.015673988519307555 0.0390462297588931
-0.06061681222315102 -0.015617242027071454 0.03921391211999087
-0.06249430005433759 -0.015560904945381454 0.03938038469829802
-0.06431062598488363 -0.015507292057959015 0.03950350233466521
-0.06601676714194338 -0.01545881226979492 0.03953889715464326
-0.06771227387171552 -0.015410634657556854 0.03957407135763441
-0.06939724529233954 -0.015362756404815199 0.03960902699990004
-0.07107099822828306 -0.01531521307637343 0.039643060662652385
-0.07267167589033346 -0.015271050655797569 0.039619914379143806
-0.07423931942317724 -0.015228317391120617 0.03957515272598483
-0.07579592569126836 -0.01518593572618339 0.03952854156149366
-0.07734237808125544 -0.015143864295880053 0.03948079320847386
-0.07888028549702508 -0.015102025332667874 0.03943330869052902
-0.08034190111041278 -0.01506379205381674 0.03932288603506373
-0.08176505327921457 -0.015027302279912422 0.03918390473990546
-0.08318132736431894 -0.014990988860810996 0.03904559514026246
-0.08459004347145066 -0.014954887084307585 0.038907261727197495
-0.08595576312437864 -0.014920778385518049 0.038735122315566306
-0.08694560714673544 -0.014905434777487417 0.03821020359610511
-0.08738718831998488 -0.01491768530907286 0.03716120184077615
-0.08772282117264424 -0.014935351282003033 0.03600738056371283
-0.088058528830746 -0.014953095700132528 0.03485012278007105
-0.08839215068157014 -0.014971028899648329 0.03368729522150343
-0.08866670471627314 -0.01499205440085271 0.032462909474221424
-0.08895718800504326 -0.015012365259659979 0.03125003468709808
-0.0892592888573912 -0.015032177073057526 0.030044609533360855
-0.08969644530084087 -0.015045154978566656 0.028969842990188566
-0.09008748291278168 -0.015060565247171174 0.02784624668380259
-0.09043244778083603 -0.015078422769543583 0.026673130285087165
-0.09078832905966727 -0.015095801093956985 0.025507452204976466
-0.09107073246419373 -0.01511706668640057 0.02426346694357906
-0.09122321895503016 -0.015145176679873053 0.02288225127905935
-0.09137555012895815 -0.015173429048076814 0.021495145402232074
-0.09150091934644339 -0.015203222815579022 0.020074398053215536
-0.09153749469184086 -0.015237801437533546 0.018555295257023263
-0.091577147555444 -0.015272385180556675 0.017032306295165278
-0.0914754397196213 -0.015314561227521586 0.015353811128676342
-0.09132263624044251 -0.01535963167852297 0.013612701454385367
-0.09093500422298384 -0.015417315598259295 0.0116132166802706
0.06459778140911909 -0.02049629704020662 0.03855020896768674
0.061960401337505966 -0.020415592092031247 0.0386212997599899
0.05934233675109829 -0.02033545710938591 0.038692710102349315
0.056796401146843256 -0.020258328090874463 0.03873036330241053
0.027852073640355357 -0.01896256234948748 0.055841707915311345
0.025858778582102504 -0.018907962932308266 0.055640696663476596
0.024531159279881642 -0.018883990787373652 0.05501322896367683
0.022556787568463577 -0.01882989635484358 0.054814657892386986
0.020459602845697533 -0.018769873018676143 0.05470585162100816
0.01862457366625392 -0.01872182966290378 0.05443234913302297
0.017140982186376552 -0.018690008229369646 0.05393161094269516
0.015937298314297355 -0.018671158734376206 0.05324782637363279
0.014832288059750731 -0.01865686065154942 0.05250036949777792
0.013855412398119327 -0.018648525789739658 0.05166812309349422
0.01294360381944093 -0.018643220841977455 0.050792749661888015
0.012072763728603553 -0.01863982725926406 0.04989007753888164
0.011309890089374608 -0.01864152389697493 0.048913349015412944
0.010581587802043657 -0.018644865054724385 0.04791232550117552
0.009934648898918874 -0.01865208179709883 0.046853916012253916
0.009368764446827216 -0.018663183127834986 0.045737393788896574
0.008880375277226515 -0.01867802321845816 0.04456432502109864
0.008510702263926806 -0.018698593625041476 0.043304518069377684
0.008423089264768036 -0.018732746476511276 0.04183991552964078
0.00917072755041215 -0.018807093060360294 0.039769949896433066
0.009467473489135125 -0.018860079360010332 0.038013337648795664
0.011103497294951137 -0.018977772659333158 0.0352757594691574
0.02048862519413086 -0.01946985572158161 0.026862559513698314
0.01864596331937013 -0.019421101861255615 0.026608257662640133
0.016313183655485952 -0.019348398607489315 0.026723677366281784
0.013795886216779185 -0.019266434059217425 0.026988042554277503
0.011551632512062926 -0.019197412273499158 0.027062343296058722
0.009473477528186391 -0.019136200249685313 0.027023557082711647
0.00735285717987616 -0.019072657170594372 0.027027000456786687
0.005246273555392311 -0.019009534693265728 0.027030421038556685
0.0030899608729838546 -0.018943706949024638 0.027082318225110924
0.000929728711775768 -0.018877409115843003 0.02714826636864842
-0.0011672085345806327 -0.018813949861161076 0.027176595727555874
-0.0029924007324356183 -0.018763639245294048 0.02700511359090557
-0.004429490392153901 -0.01873231813532958 0.026539867958099705
-0.0056862816316811116 -0.01870980383010265 0.025938749158992858
-0.006742635156583743 -0.01869715329909624 0.025183662845394028
-0.007629532590782029 -0.018692886939039973 0.024296614016965534
-0.008379277513993533 -0.01869544652227701 0.023301163564111493
-0.009023590747968213 -0.018703289607090764 0.02222093818192339
-0.009478609390272563 -0.018720653139232726 0.020987138946893635
-0.009792545733371683 -0.018745177163603896 0.01963629750431356
-0.009831549626520053 -0.018783645035022667 0.018057772781370496
-0.009858924868185293 -0.018822865771096514 0.016463122560586962
-0.009821967715726632 -0.0188655084719264 0.014808855726601344
-0.009859130445226016 -0.01890458137999286 0.013208428708879782
-0.009897525974175203 -0.018943761715827123 0.011602254023257597
-0.009831226784098868 -0.018988439911150286 0.009901888990417884
-0.009370697921105675 -0.019053416111099925 0.007862949536835362
-0.00740249281146288 -0.019195725406472273 0.004540879975448331
-0.05666883838949133 -0.016862651927208976 0.03874575223211296
-0.05871737018088613 -0.016793989468437034 0.03903899450687881
-0.06060858038783862 -0.016733186544896486 0.03920670734469095
-0.062486961135341856 -0.016672779892807518 0.039373927620401594
-0.06430173770848358 -0.016615419136747373 0.03949564093554292
-0.06600555043988265 -0.016563599200431673 0.03952892419471549
-0.06770115193356957 -0.016511976682911468 0.039564130720379787
-0.06938621715880011 -0.016460674941650856 0.03959911847678521
-0.07106006289762223 -0.016409732084257295 0.03963318399768956
-0.07265772851856794 -0.016362575300955706 0.0396072512616758
-0.07422548133620271 -0.016316785550618437 0.03956252303955293
-0.07578448410345168 -0.0162712513652017 0.03951804445763302
-0.07733480987103669 -0.016225970611094695 0.0394738134317687
-0.07887653087877389 -0.01618094117837095 0.039429827900947956
-0.08033295588063949 -0.01614025418566379 0.039314549882538685
-0.08175913226836862 -0.016100997462455285 0.039178358090246335
-0.08317838792625659 -0.016061931238247746 0.03904282718854063
-0.08459004347148996 -0.01602309330461316 0.03890726172723469
-0.08594561777777637 -0.015987094239189016 0.03872546901955032
-0.08692035299621759 -0.015971470876547194 0.038186049166714475
-0.08732877564664598 -0.01598639228683207 0.037105042099133456
-0.0876600777146973 -0.016005562131990524 0.03594674335263148
-0.08799145389045487 -0.016024817190096095 0.03478496255232305
-0.08825002147815963 -0.016048125971395655 0.03354850592857084
-0.0885122312548004 -0.016071345012176094 0.03231128276652506
-0.0887889299835044 -0.016093880388543983 0.031084020323779493
-0.08907652579205455 -0.016115924210504274 0.02986334815247199
-0.08936491052239953 -0.01613802850222725 0.028639327480247168
-0.09000162797039746 -0.01614104923010772 0.027760212128341455
-0.09037834301183395 -0.016158440382298772 0.026618631473842247
-0.09073567076614619 -0.016176987043831442 0.025454135763521235
-0.09100794545602237 -0.01620034045574669 0.024199566170256703
-0.09115962521289311 -0.016230511469260096 0.02281719462163978
-0.0913125947741032 -0.01626075472579364 0.021430408755626407
-0.09143279313903196 -0.01629297395115437 0.020003982103143025
-0.09146922206686003 -0.016330039812291395 0.01848436330364861
-0.09150800122414804 -0.01636715207755708 0.01696009549469224
-0.09139731438805992 -0.016412855406846488 0.015271802069803275
-0.09124497273027654 -0.016461129751368826 0.013530756318824555
-0.09083484566968342 -0.016524216742808906 0.01150699095291463
0.06744138178999398 -0.021958517465684915 0.038362136545921965
0.06465938599457438 -0.02186572574241562 0.03851128205814591
0.06200337717724452 -0.02177873472344116 0.03859398995988078
0.059383519151072095 -0.02169317361114426 0.038666391741317085
0.05678280613815867 -0.021608215355780048 0.03873910056804991
0.054256239358312974 -0.02152657116281929 0.038776435059088676
0.02727097532305378 -0.020238151913520887 0.05472283622573226
0.025607340628564235 -0.020196112707613265 0.05430982706216447
0.022746821059831224 -0.020094633682289757 0.05468975258998271
0.020280567013090278 -0.0200123139378203 0.05482418830798719
0.018491521363242724 -0.01996333625570542 0.05452078464117799
0.017077085105111967 -0.01993282544487074 0.05397431865372354
0.015838436761411168 -0.01991096752004964 0.053314272536595264
0.01471113620573583 -0.019894591355378726 0.0525822510378996
0.013649982634911018 -0.019881464571203707 0.051807737123590714
0.012699324850537042 -0.019873834110636816 0.05095968869065204
0.011803254280245756 -0.019868919805694586 0.05007528065822586
0.010953526173054617 -0.019866322419934853 0.049159593753551
0.010192288409229755 -0.019868185694023495 0.04818281622565562
0.00947441757668871 -0.019872252232076816 0.04717545731177564
0.008829786956209507 -0.019880051084227864 0.04611602789085545
0.00828038856253055 -0.019892723130617258 0.04498813956142317
0.007854946261128593 -0.019911761519462612 0.04377027386575011
0.007602427609396889 -0.01993970500034593 0.04242599783355444
0.0072923400364826585 -0.019964818641228375 0.04111877261639241
0.006924601426896992 -0.0199870807518688 0.03984931020936805
0.0075846466900530984 -0.020062223437175567 0.037830291337210886
0.007827449665583408 -0.02011620229051587 0.03610422429733584
0.0161587997905413 -0.02063031304310274 0.026837597431587368
0.014130972769648531 -0.020568216836332132 0.026739436416998497
0.012228942403262166 -0.020512390179496923 0.026557105510672918
0.00964546144225692 -0.020420891047694727 0.02689456980958782
0.007317641870831781 -0.020342332423500996 0.027053554965704885
0.005176461096369378 -0.020273191137685484 0.02708334892985298
0.003123446087934856 -0.02020837314576922 0.027056794337659507
0.0009894592303795746 -0.020139035552878173 0.027102491267146644
-0.0010992313495288286 -0.020071785694709795 0.027124219673829164
-0.00284763442367042 -0.02002217275192245 0.0268929709010729
-0.004272516461592046 -0.019989424020055692 0.026417614201129536
-0.0054944351405439296 -0.01996727075807694 0.025788532832964783
-0.006556828035504225 -0.01995347836420704 0.025037394064219565
-0.007413121478763163 -0.019950574133700088 0.02412533967264202
-0.008152569073651084 -0.019953877051324422 0.023120778153857602
-0.008754426917647384 -0.019964533563172977 0.022005625846265864
-0.009180669623738869 -0.019984623788283022 0.02074753346728403
-0.00945596950410571 -0.020012886879311794 0.019364174424135072
-0.00949324576544569 -0.020054050919874142 0.01778279335764965
-0.009511348928151142 -0.020096424507534252 0.016179100593050166
-0.009488636821979146 -0.020141182463135933 0.014535023543916892
-0.009549942156137858 -0.020181594639093792 0.012953078391364614
-0.009540187619406948 -0.020226030928853413 0.011305569269451865
-0.00949464698749175 -0.020272603227865074 0.009620955387516505
-0.008935666480594573 -0.02034730607068257 0.007497914798497318
-0.056685631739668896 -0.017985903163954462 0.03876029661321223
-0.05870905954697064 -0.017914047819840417 0.039031758884042755
-0.060601171376644 -0.01784914247542327 0.03920022273235041
-0.062479621880270564 -0.01778470575715232 0.039367470246812364
-0.06429365702700207 -0.01772356308892612 0.03948849382856212
-0.06599433294402729 -0.017668464315870904 0.03951895052901144
-0.06769002921078987 -0.017613396406354117 0.039554189381830196
-0.06937518824965938 -0.017558670694391043 0.039589209256810476
-0.0710499079755107 -0.01750428400018603 0.039624012188758495
-0.07264377989313858 -0.017454198058294054 0.039594587005979565
-0.07421164200886848 -0.017405351273757984 0.03954989222107491
-0.0757707530731071 -0.017356777128457294 0.03950544690089958
-0.07732118614819006 -0.017308473346133026 0.03946124896267844
