# .PCD v0.7 - Point Cloud Data file format
VERSION 0.7
FIELDS x y z
SIZE 4 4 4
TYPE F F F
COUNT 1 1 1
WIDTH 757
HEIGHT 1
VIEWPOINT 0 0 0 1 0 0 0
POINTS 757
DATA ascii
0.004576756799693446 0.045710568314518585 0.039849350039008635
0.00458228885771517 0.046039208413106436 0.03863147767979247
0.004587930658459888 0.04636157365644317 0.03740469346503189
0.004594685373748373 0.046604266310044384 0.036106647177011564
0.004602344610568209 0.04678304760897689 0.03474967848942939
0.0046107470174861585 0.046910115646930484 0.03334334787366344
0.004620389168696334 0.0469497097155106 0.03185611065160193
0.0046308446602789394 0.04693337400729525 0.030314056710223913
0.0046422599166352696 0.04685089730849257 0.028707487025337708
0.004655553976881395 0.04663633783869747 0.026977730797409616
0.004670858570938304 0.04628110446411282 0.02511535285788813
0.004688313307018733 0.04577612401633946 0.023110315892200195
0.004708155634814131 0.045105390770995624 0.020946232000798204
0.004731456445522328 0.04419336767212445 0.01855318668396433
0.004760454924127227 0.04288173053101352 0.015785444316098962
0.004811768791602261 0.03998854768408561 0.011569743646199226
0.0041342012249945105 -0.07195578491606014 0.04036234655749765
0.004101676924834837 -0.06749761646127722 0.04152588032347232
0.004082920552076619 -0.06456266413423195 0.041763095182758614
0.004068245569658658 -0.06208228821962736 0.04172932299944593
0.004056611434813393 -0.05994024396443781 0.04149323267498406
0.004046642165618943 -0.057984622223519466 0.04114778620664805
0.004038487913611936 -0.056230684211695026 0.040681271395863416
0.004030887032601584 -0.05454030966628409 0.04018031545440126
0.004025106214352097 -0.053050372814085756 0.03955580144255916
0.004019699419423884 -0.051603353633623505 0.03890795521646673
0.004014946544860829 -0.05022921505130057 0.038216749085856205
0.004010941193225958 -0.048937617223428376 0.037475056419440655
0.004007054072751232 -0.04766044323680374 0.036727009985936865
0.004004421958548512 -0.046519554382084716 0.03589147150947897
0.004002318740545483 -0.04543641264505166 0.03501943387724388
0.004001341212219938 -0.04447443796018852 0.03406763806769125
0.004000815953472015 -0.043561104558511865 0.033083749894277203
0.004000889152018088 -0.04271167741174914 0.03205685096182159
0.004001255483697221 -0.04189334804495576 0.03100864108727469
0.004002599473322173 -0.04117847426661897 0.029889042975830338
0.004005461595562678 -0.04062359159330159 0.028657807869124974
0.004008082671377593 -0.04004203951049118 0.027442789144403568
0.004011627824031701 -0.03955670429723929 0.026158425034566668
0.004016188092546936 -0.039176562309550855 0.024797284459620816
0.0035706058608854516 0.0084295907583391 0.056791617554682816
0.0035439311901151556 0.011987332087537383 0.05786340214161784
0.0035260173754882054 0.014618303294312518 0.05829511207842286
0.003511639292133949 0.01687294035145548 0.058471246641340624
0.0034992173632434707 0.018917874214200048 0.05850776518907963
0.0034882842571040485 0.020802888964077615 0.058438397494327665
0.003478175937441792 0.022597751393275967 0.05831222881319431
0.00346944795950423 0.02424554206569829 0.058086464896123347
0.003461714250039212 0.025786989083374734 0.05778944695787469
0.00345481610666232 0.02723907483645499 0.05743253870300141
0.0034485350557612064 0.02862478818404035 0.05703184790294191
0.0034430996636354745 0.02992108578251307 0.05656932193578834
0.0034381502822954965 0.0311653168654209 0.056072066721552294
0.0034343665670257617 0.03228838487217345 0.055487087986543615
0.003431058142258858 0.033361394898190955 0.05486712104904712
0.003428222285688757 0.034384929294355604 0.05421201398012898
0.003425758176303036 0.035369523232195 0.053529288022186594
0.003423699992854855 0.03631195449129987 0.05281597721870401
0.0034218318681160016 0.03723429790805377 0.05208875963079007
0.0034206708805376335 0.03808453438078868 0.05130666291836611
0.0034197069558876483 0.03891444412646866 0.0505095493487045
0.0034189219255308556 0.03972597811956119 0.04969871177528745
0.003418841601369631 0.04046656739601773 0.04883209405285305
0.0034190377361938114 0.04117948158467116 0.04794340668995012
0.003419671012490455 0.04184886759016443 0.04701954581806367
0.003420947261600247 0.04245451533921535 0.046043609478200465
0.003422269140623724 0.04305617720823557 0.04506333698935616
0.0034243254761543306 0.04358560318169391 0.04402289888287775
0.0034267246842197216 0.04408199687611125 0.04295355057558026
0.0034293695001223804 0.04455517828202915 0.041862957463475514
0.0034322251033944064 0.045008734437692155 0.04075377851008816
0.0034357788026161164 0.04539491442784027 0.03958588282741088
0.003440098124117257 0.04570754582326775 0.038353179841228324
0.0034444645262247347 0.0460174218518965 0.0371143853357061
0.003449595399624779 0.046254537990601696 0.03581007277016951
0.0034555613047421887 0.04641251232770888 0.034433797038169844
0.003462096475269684 0.04651771297448737 0.03300705613570537
0.0034693450008974826 0.04655653179952485 0.031517374878720916
0.00347777702351009 0.04648393297252312 0.029924805069056204
0.003486611806761422 0.04637605968263325 0.028294071551715205
0.0034968717849261817 0.04613467074733707 0.026538655282631773
0.0035085723839193093 0.04575919944035928 0.024656159866500993
0.0035219407065414246 0.04522879027102761 0.022626216691964907
0.0035369186340708193 0.044550076942902805 0.020452493237898883
0.0035550688970319775 0.0435748818409441 0.01800039263356551
0.0035810019089737026 0.04186602157661695 0.01487285354092388
0.0027500557165057557 -0.07095203417512763 0.040982344733994536
0.002733537955899127 -0.06734681744009252 0.04161955841231474
0.002722372928968715 -0.06463238613969313 0.041719536119784406
0.002713310866686181 -0.06227025316218726 0.041611222469032705
0.0027057408579303933 -0.06015832938840976 0.041355428235221925
0.002699446627076923 -0.05825982182919609 0.04097290558424338
0.0026943608218953077 -0.05656251206416263 0.04046921089165301
0.0026896335319581185 -0.05492684703589945 0.039931895015372976
0.002685756292628133 -0.05343235809698027 0.0393089207062719
0.0026822442040353653 -0.05199958279277889 0.03865042530978491
0.002679447697398571 -0.05068489068494769 0.03791891548529275
0.0026761733551642175 -0.04929480601056574 0.037240283325673584
0.0026741339926225033 -0.04810592885148601 0.03643255905115933
0.002672481837850362 -0.04698066351826241 0.0355849875021963
0.002671386954572335 -0.045945944974733144 0.03467887136455472
0.0026709785988754276 -0.045021949915498516 0.03369964815471321
0.002670864227744182 -0.04414523542840387 0.03268896008751959
0.00267081517176229 -0.043279019532323604 0.031671274460920884
0.0026712151619227393 -0.042484364253967455 0.030604743710972437
0.0026725467784581556 -0.0418375523718868 0.029436133891853067
0.002674509894657333 -0.04129007099894583 0.028197275865371352
0.0026768694594521696 -0.040804096312083815 0.02691330147614529
0.0026793482051072188 -0.04033543617988605 0.025614363022757658
0.002682687827639108 -0.04000092955100365 0.024218162964838086
0.0023859870141166107 0.007550977724201102 0.05617098903156886
0.0023664723457386366 0.011382423245526685 0.057433761086171875
0.002354008791242285 0.014096273392972203 0.057922300249490355
0.002343974858548148 0.01642212241479485 0.05814752577698734
0.0023355108319948596 0.018496495052966078 0.058203526425020025
0.002327994291003503 0.020417850707335428 0.05815887665808467
0.002321278043590802 0.022209981636306164 0.0580291874376197
0.002315410019674982 0.023866224880103204 0.05780808292710232
0.002310053940350027 0.02543945150471072 0.05753299862231037
0.002305318463672593 0.02691337063908239 0.05719089360424395
0.002301323385985985 0.02827011413947822 0.056767279720846275
0.0022974629365776073 0.02960358020140369 0.05633119408980514
0.0022941814736528905 0.030845686821500518 0.055831046127412576
0.0022917084738670614 0.03196183985944756 0.05523951998983334
0.0022894807228830464 0.033038913758359045 0.05462131201526349
0.002287472853296427 0.03408101457561835 0.0539791059051315
0.0022858092821793547 0.03506941544372816 0.05329805671004073
0.0022843989299494998 0.036018283255911776 0.052588485990616274
0.002283252796007687 0.03692619488693749 0.05184880428902394
0.0022822449028896165 0.03781246001385513 0.05109362806154527
0.0022817263624777605 0.038624216756547036 0.05028108027004924
0.002281422473573047 0.03940331074119374 0.04944334310885373
0.0022813151966125894 0.040152660136243634 0.0485823271626763
0.0022814699991467245 0.04086263626500891 0.047689952603782504
0.0022819763761962922 0.04152009890770203 0.04675514760978533
0.0022826797443105847 0.04214847072720235 0.045796171442324674
0.0022837833920690007 0.042717650241501315 0.04478817634952642
0.0022850733373768286 0.04325983943238271 0.04375670089212036
0.002286538243374347 0.04377689990380684 0.04270291275647925
0.0022883345803288184 0.044245836049036646 0.04160748013391846
0.0022903498392622197 0.04468358740466377 0.040483821143205034
0.002292807746460139 0.04505738778514068 0.039304159050450704
0.0022956870176487165 0.04537079443488906 0.03807061199437767
0.0022987549374481045 0.04565836628563186 0.036811505183433124
0.0023023101926546163 0.04587654676313163 0.035489531023366105
0.0023063755349022894 0.04602248139194559 0.0341012955306122
0.0023107851994179974 0.04612082933626388 0.03266692417905559
0.0023158560396992823 0.04612582935547643 0.031146310476282524
0.0023212944612094437 0.046080734270484314 0.029575602970917825
0.0023277936184756013 0.04588550964997545 0.02786697613149186
0.0023347159683108788 0.04563330801870902 0.026099846156433126
0.002342709223916224 0.04523114611426943 0.02419155735112133
0.0023514975534513075 0.04471973894710474 0.022175977076235476
0.0023622280538588432 0.043935194898122476 0.019905791373053372
0.0023750306411384095 0.04286077969459107 0.01736213803403791
0.0023954421332762956 0.04070727638225313 0.013831748031967128
0.0013736000363569968 -0.07047961834037131 0.04127414725373346
0.0013666351128765709 -0.0673017383593047 0.041647562108537484
0.001361473485915439 -0.06472584764895489 0.041661145694790014
0.0013572397520844875 -0.06246114463479552 0.04149128316511019
0.001353644309059942 -0.060410973150185565 0.04119578696263748
0.0013506104208147974 -0.058549014802620536 0.040789132616671775
0.0013482097099911698 -0.056897556606778255 0.04025509470364852
0.0013459626301111762 -0.05529921410049188 0.03969258157295624
0.0013440413224857038 -0.05380963794106236 0.03906508114109175
0.0013423564138714894 -0.05239921059461594 0.03839068644821936
0.0013409925766765857 -0.05109488638756571 0.03765093869709796
0.0013395616823758194 -0.049770650665391436 0.036927520061955155
0.0013384002880235228 -0.04853515038099804 0.03614885812996005
0.0013377772963234654 -0.04747439657668995 0.03525681944640807
0.0013371958096727399 -0.04642777284371158 0.034356826034096566
0.0013371220706540929 -0.045544632870559876 0.03334834613979015
0.0013371547341411963 -0.044695621883719616 0.03231697673455125
0.0013370769076885187 -0.043811298116229025 0.03130952781185414
0.0013374533972227915 -0.04307180943192429 0.03020328675925904
0.0013383259654868444 -0.042489557646642695 0.02898808515734408
0.0013393803150358406 -0.041963861934716906 0.02773169165143541
0.001340666668452833 -0.041510274749314735 0.0264226388791145
0.001342124512580109 -0.04110922613903767 0.02507375369284881
0.0013438582899427953 -0.04079332287583132 0.023661503286036445
0.0011977978366162446 0.006038847410992143 0.05510286095614825
0.0011852676158135092 0.010744233596443664 0.05698048208335915
0.001178718532116398 0.013558807894558766 0.05753846496350451
0.001173538694260153 0.01593667240307961 0.057798936497206244
0.0011690982726892403 0.018077069052644557 0.057900697857600714
0.0011653219537400045 0.02000488442443188 0.05785908129823547
0.0011619622898539324 0.02179832188730163 0.057728708245427696
0.0011590215150967726 0.02345749180178308 0.05750811254456056
0.0011563740416806907 0.025022081309362898 0.0572250207125104
0.0011539428026068762 0.02651646480501746 0.05689642286818147
0.0011517949833814546 0.027920346349852687 0.05650637134806019
0.0011498427379722433 0.029261298398892965 0.05607448417659311
0.0011482651648384269 0.03048471330540281 0.05555885001803479
0.0011469267140977065 0.03163284138574818 0.05499009191707105
0.0011458076987793798 0.03271216249077025 0.05437224810506014
0.0011447538501858626 0.03377016409204209 0.053740882535981915
0.001144046347696956 0.03472137028197375 0.05302988991738983
0.0011433397190913476 0.03567140157414567 0.052319775492795983
0.0011427086770230605 0.03659761035863712 0.05159289763141223
0.001142278392596018 0.03746227696222226 0.05081943390218863
0.0011419916948942424 0.03828304648508507 0.05001250855828715
0.0011417707822430484 0.039083631515711925 0.049190339357350676
0.0011417319292639037 0.03982920895773323 0.04832496645127077
0.0011418273502799932 0.040534462623932954 0.04742743665042354
0.001142021289461599 0.04121035298992065 0.04650604765447408
0.0011423855325942425 0.041835630999989715 0.04554323953269518
0.0011429293753616664 0.042407854837866577 0.04453636923377002
0.0011436563244091593 0.0429263280572908 0.04348417192377424
0.0011444141750110053 0.04343656660948775 0.04242332821372158
0.0011452690923082598 0.04391903978916051 0.04133758799417625
0.0011462966935666496 0.044351594476383094 0.040208179885083295
0.0011475581862473035 0.044716519921046916 0.03901964645147099
0.001149033955928048 0.04502003677862282 0.03777629149492806
0.0011505923047445336 0.045301212970559224 0.03651022966957973
0.0011524740050957963 0.04548969320225432 0.035161473894440076
0.0011545571056356453 0.045621738242397236 0.033759661854943945
0.0011568743920858055 0.04568817670201891 0.032296137943819914
0.0011594132586691406 0.04569312767532796 0.030773523665631908
0.0011623249752018732 0.04559310525809446 0.029153277500385044
0.001165487597804057 0.04542414996364236 0.02746529517483981
0.001169133452406639 0.045119600748644184 0.02565023268021377
0.0011731801008379261 0.04470416200243332 0.023727895573830038
0.0011780325635310771 0.04406207167242321 0.021594291378849217
0.0011833963385002335 0.04327943015556018 0.019322740015094486
0.0011906558695314903 0.04196066270771237 0.01655762592490634
0.0012040734611173105 0.038891268085088915 0.012200106915039588
6.5323503748118816e-09 -0.0747213809651654 0.040263502027348075
6.141839872379728e-09 -0.07025446127903279 0.04141322264305586
5.885551879978972e-09 -0.06732286823020228 0.04163443607399481
5.669738116022265e-09 -0.0648542464149286 0.04158092806116592
5.4801353552676344e-09 -0.06268544354497024 0.04135035357163175
5.304849824373077e-09 -0.06068041070403746 0.04102553397515246
5.145863925019566e-09 -0.05886182392547462 0.040590352328717716
5.0038340082033186e-09 -0.05723719099000829 0.040038045295257896
4.867019459515668e-09 -0.05567221491538249 0.039452860830915204
4.737816152798391e-09 -0.054194301305416914 0.03881646953491552
4.6176427509605385e-09 -0.052819677773181084 0.038117402989674254
4.499033342865656e-09 -0.05146294424498382 0.03741037286042154
4.389059732757267e-09 -0.05020499273691209 0.03664203563082152
4.286467048313558e-09 -0.049031469181969545 0.03582080816863359
4.189564127138553e-09 -0.04792302893614264 0.03495862834280167
4.104747739595498e-09 -0.04695284252755999 0.03400587862315996
4.029168488034182e-09 -0.04608831664446339 0.03298292919831619
3.951640477997433e-09 -0.0452014995614734 0.0319750750228977
3.883395861235916e-09 -0.044420872125789324 0.03089524971011598
3.823588289939612e-09 -0.043736753246395255 0.029748867635771337
3.7751595664440986e-09 -0.043182793221567095 0.02851170354321997
3.7282605596838314e-09 -0.04264633111762328 0.02726011083650154
3.69077124508173e-09 -0.04221750335197649 0.025931246612690917
3.6556050557210032e-09 -0.04181524904319334 0.024580489908748948
3.634426030160224e-09 -0.041572989248062686 0.023113784347159605
3.6263551562853273e-09 -0.041480669239470136 0.02153635362786893
-8.722282181529809e-10 0.00997712940689699 0.05643564054309769
-1.1334172882759556e-09 0.01296478426167158 0.05711423822575162
-1.3512810333456128e-09 0.015456855136440573 0.05745439194913876
-1.5400012829422731e-09 0.017615563261836387 0.05756748737373474
-1.7096428828289617e-09 0.01955603706023501 0.057533237845111884
-1.866568334263223e-09 0.021351055066890445 0.05740223868948735
-2.0153227553374008e-09 0.023052607375630307 0.05721096669978876
-2.1536664000774904e-09 0.02463507427731748 0.056939447818701805
-2.2858415268231368e-09 0.02614698155383266 0.056622297386802634
-2.409661954065573e-09 0.02756332220213875 0.05624005011242739
-2.5242891895698178e-09 0.028874504988470606 0.055784390734898215
-2.631244381996987e-09 0.030097929826313485 0.05526719161269905
-2.7327361576239085e-09 0.03125886045690879 0.054706560675580496
-2.8279500142237953e-09 0.03234798006021994 0.05409465253930856
-2.918484391549697e-09 0.03338357265683334 0.05344461431443526
-3.0057492594021162e-09 0.03438176642224944 0.0527682271013567
-3.089539861047205e-09 0.035340219212294244 0.05206322641357536
-3.1679856329018047e-09 0.0362375342723803 0.051312464859383955
-3.2446964562868575e-09 0.037115003834085725 0.050547518220632914
-3.3185822409384993e-09 0.037960158717497805 0.0497583289705133
-3.3872255158091883e-09 0.038745346275469716 0.04892261024185818
-3.4513712275481467e-09 0.03947908770490033 0.04804638512970022
-3.514184484188431e-09 0.040197587623696796 0.047157960216535955
-3.5716822342386153e-09 0.0408552852307989 0.04622049952796281
-3.6260800517062937e-09 0.04147752374025987 0.04525370866823353
-3.6754405045163148e-09 0.0420421415110418 0.04423911103875372
-3.72266695612673e-09 0.04258234915193693 0.043203089406024464
-3.7672986242327614e-09 0.04309287592743083 0.04214098556897816
-3.8089529438467145e-09 0.043569345803878834 0.0410487852403868
-3.84670180726146e-09 0.04400114246593767 0.03991721273994131
-3.87751406626223e-09 0.04435359361745067 0.038716722302447215
-3.904425396424419e-09 0.04466142334151629 0.03747537921366384
-3.9271200138702054e-09 0.04492101949138588 0.03618951869517606
-3.94223538652787e-09 0.045093919181183606 0.03482585209107297
-3.952245548829499e-09 0.045208422067798903 0.033407309668518015
-3.957127210439216e-09 0.045264261740810496 0.03193283995547119
-3.955360726781391e-09 0.04524405549138799 0.030386633121378792
-3.946191346891288e-09 0.045139169974280136 0.028760133482337302
-3.924818048209584e-09 0.04489468788938439 0.027004321135035203
-3.900306027738989e-09 0.04461430300980285 0.025207979503676425
-3.858999392629822e-09 0.04414181011958673 0.02323311580601356
-3.804171931523975e-09 0.04351465699799678 0.02111012060028783
-3.722583740097902e-09 0.04258139678340295 0.018702106908796645
-3.570572903876642e-09 0.04084259535919538 0.015558312776119299
-0.0013811034854625621 -0.07384886219518111 0.0407993729149449
-0.0013726340353322271 -0.07016474586959975 0.04146863825141156
-0.0013669354628115756 -0.06740458871522459 0.04158367048195427
-0.0013623281642724618 -0.06501065735893763 0.04148320969305619
-0.0013586131007784891 -0.06291551511905835 0.04120579694496235
-0.0013552460562160568 -0.06093915864653543 0.040862035573527467
-0.0013524815291119452 -0.059164125744827045 0.04039824910189821
-0.0013502538276418472 -0.05756781859165405 0.03982675183334472
-0.0013481873572994585 -0.05602688322332394 0.03922492205670658
-0.0013463968341198987 -0.054578294186246934 0.03856829126891059
-0.0013449960055663104 -0.05325841687137517 0.03783224365834903
-0.0013432758881917572 -0.051836974555867665 0.03716590337477943
-0.0013422608029851856 -0.050645536617502984 0.036352474872616725
-0.0013413872546126585 -0.04950104276790934 0.035510435895305115
-0.001340885099570181 -0.048477190172828866 0.03459029566375271
-0.0013404820162300883 -0.0474858018464685 0.033649657916890896
-0.0013406342761736756 -0.04667293287852864 0.03259000101184889
-0.001340490392371828 -0.04576513734499088 0.0315941356458998
-0.0013409594772767653 -0.045053210219851536 0.030465500700440573
-0.0013414330090030103 -0.04434209685293583 0.029335178989925104
-0.0013423851251127767 -0.04378254215023286 0.028099564632067864
-0.0013437352074540372 -0.043348042212656646 0.02677523401025156
-0.0013452163894341234 -0.04295332162510068 0.025419989842704604
-0.0013467714088760557 -0.042580031311077904 0.024046173815227334
-0.0013487295945587756 -0.04233189316490921 0.022580651123896567
-0.0013512657719780285 -0.042263154082650356 0.02098362748150079
-0.0011914038184932735 0.008817466076520841 0.055611980872982913
-0.0011827412680912946 0.0122986109923095 0.05663848523823739
-0.0011769872866027428 0.014858788071804019 0.057024935217516004
-0.0011721562886800397 0.01712344188670445 0.05721217221417502
-0.0011682387454994608 0.01909732084743515 0.05720023004033886
-0.0011648315462328852 0.02090750642043765 0.057078483108523925
-0.0011617220953694925 0.022620938243023025 0.05689416347717274
-0.0011590441292604178 0.0241967862280838 0.05661603459895043
-0.001156571325911941 0.025705805458236086 0.05629498183327364
-0.0011544078830797654 0.02711626630029418 0.055906569904883185
-0.0011524835073180742 0.028450392381722256 0.05546630804478664
-0.0011508413162986287 0.0296954065300728 0.054963664419411584
-0.001149370068529395 0.03088593534663503 0.054423829896536824
-0.001148204237732605 0.0319811945728401 0.053815072810913744
-0.0011472274994448607 0.03301726339261979 0.05316388954212742
-0.0011463937746798265 0.034008535385760985 0.0524806547320214
-0.0011456724017718481 0.03496460169883686 0.051772255813370915
-0.0011450389521483945 0.03589308496325294 0.051044202464307464
-0.0011444991315216124 0.03679242861381177 0.050294941065122445
-0.0011442414305139722 0.03760591119341716 0.04947946274796072
-0.001144082697282418 0.03838924935933047 0.04864078442624631
-0.0011440767701519116 0.03912645033696682 0.047765801807944985
-0.0011442056656087404 0.03982320303465692 0.04685847872688692
-0.0011443825454577124 0.040505759097211824 0.0459394080192444
-0.001144805390317837 0.041115080510388646 0.04496067215724214
-0.0011453456286790464 0.041689959204539995 0.043952851097135426
-0.001145964518113643 0.04224214289775163 0.04292508971294018
-0.0011467616280281853 0.042742237048344234 0.04185293496373049
-0.001147722626764751 0.04319482890998583 0.040739481915650855
-0.0011487244977026036 0.04363658032222012 0.039614530477790955
-0.001150048901361347 0.04398453335842506 0.03840867831598521
-0.0011514947037936456 0.04429847730858982 0.037170831453475106
-0.0011532332418578196 0.04452835449497933 0.035858287410331424
-0.0011552152276707688 0.044689165029304256 0.03448261501175781
-0.0011574431474724663 0.044780651811566874 0.033042635369543605
-0.0011598028104959847 0.04483658684049879 0.03156631967333562
-0.0011625339030512907 0.044787486359691486 0.029993283707369645
-0.001165685151462727 0.04461992083337207 0.028310422462867968
-0.0011690849664789972 0.04438440458274162 0.026560045016124134
-0.0011728351428438681 0.04405199562328299 0.02471582960131158
-0.0011771071261125108 0.04357392758586642 0.02273346994888864
-0.001182327860927839 0.042828357518526206 0.02050311062906418
-0.0011888553593081964 0.041714330654788356 0.017931183939372763
-0.001200065312812655 0.0392673840188551 0.014150410606077912
-0.0027595441802300163 -0.07340736257227876 0.04107052676833384
-0.0027451534641429153 -0.07014481402800338 0.04148094985213424
-0.002734492790090574 -0.06750607607563736 0.04152062548902197
-0.0027257668973778367 -0.06519234280550806 0.04136970096557041
-0.002718626568401937 -0.06314443622234156 0.041061963172834115
-0.0027122389249637476 -0.06122440593001127 0.040681792683767926
-0.0027068786917835933 -0.05947643651793899 0.04019978549974812
-0.0027025589436165446 -0.05790167052730971 0.03961339780269091
-0.002698561272174614 -0.05638212546761284 0.0389966144242026
-0.0026951156090717497 -0.054954856917096284 0.03832491518139908
-0.0026925081123618444 -0.053665744124298864 0.0375675005226469
-0.0026895165383418393 -0.052316138075962526 0.03685271788180294
-0.002687374342899497 -0.05110566839411251 0.036050039375455645
-0.002685796782031409 -0.04998760849560785 0.0351888323878114
-0.002684798370580719 -0.048963749432755554 0.03426689579653719
-0.0026844272973773936 -0.04804127101095662 0.03327839201962651
-0.0026847407808059526 -0.047228738159300954 0.032216437046484026
-0.0026847243594451072 -0.04636323936311498 0.031189903318981194
-0.0026856155618764977 -0.04564262346541714 0.030064924240804147
-0.002686788204938857 -0.044966267033104246 0.02890862436014352
-0.0026890620119169053 -0.04446421364480313 0.027631129691112255
-0.002691878572344848 -0.044046808103918644 0.02629239229716035
-0.0026948173820539306 -0.04364694802437863 0.024938048578426075
-0.002698487411111568 -0.04336073895677556 0.023500731435052047
-0.0027029865830201436 -0.04320291728375303 0.021968752970862482
-0.002708297970969653 -0.04317001981303781 0.02034304202492676
-0.0023925997440019187 0.0072795346851934895 0.05451965342195714
-0.0023709368925084874 0.011443611145176003 0.05602788021395583
-0.0023581913970275865 0.014199060518846007 0.05655120165182559
-0.0023481980005172196 0.016516764723814914 0.0567741469379302
-0.0023398855739656835 0.018566216717474715 0.05681467177848404
-0.0023326587800974975 0.02044157586609946 0.05673839049389512
-0.00232662194989299 0.022127705386425223 0.05653217844936431
-0.002321029266027767 0.023741202248230286 0.056279858690756746
-0.0023161262233511036 0.02524457196358515 0.05595278537355203
-0.002311555662738433 0.026693536738352786 0.05559123587269993
-0.0023079841241057204 0.027985882071585866 0.05511792723824993
-0.002304581620294237 0.0292499829460251 0.0546277877764188
-0.0023016012900588818 0.030447224256796468 0.05409122388603038
-0.002299112484525554 0.03156741152221587 0.05349966950184598
-0.0022971784665295576 0.03260136816499015 0.052845164060053684
-0.0022954466666321037 0.03360329894869529 0.05216842237897573
-0.0022938198332008806 0.03458817171273282 0.05148065583448963
-0.002292562140761741 0.03551604354903859 0.05075055683163371
-0.0022917024291436226 0.03638290805462974 0.04997428548399874
-0.0022910055264440225 0.03722464563612404 0.049179327727698674
-0.002290645256984786 0.038015232229682505 0.048344776010571244
-0.0022907474046269002 0.03873608755208913 0.047455201458211915
-0.0022909877006360023 0.03943628968668028 0.046548975103756385
-0.0022914263175551576 0.040106966796818966 0.04561869628266951
-0.0022922739245928854 0.04071685040011036 0.04463870183114016
-0.002293302701522922 0.04130028253013851 0.043636115068689696
-0.0022946999231331583 0.04182959208959808 0.04258797361794642
-0.002296243655331662 0.04233806225983694 0.04152090447954926
-0.0022980855686777547 0.04280337999189504 0.040416194888721946
-0.002300208929379977 0.04322830479699702 0.0392755546261937
-0.002302827674050551 0.043581572973006355 0.038072338861258825
-0.0023057930586787246 0.04388553980185228 0.03682433587144934
-0.0023093762514181985 0.04410074260020458 0.03549757677529913
-0.0023133686119041898 0.04425833027810344 0.034117261220750816
-0.0023178112179478684 0.04435269514076018 0.03267780215225724
-0.0023227400541998484 0.04437902486989814 0.03117418596398469
-0.0023283535303003523 0.04430892456661961 0.02958098688391808
-0.0023346801508229145 0.044138916811172324 0.027893834762196534
-0.0023419510026240955 0.043836220308471785 0.026082770565096947
-0.002349564167707176 0.0434887293887653 0.02422284048381612
-0.0023586267514025994 0.04293714080812544 0.02217319936030132
-0.0023695187305887377 0.042128185436244636 0.01988383078223238
-0.00238499486029191 0.04066819035715824 0.017001043118362535
-0.002422168143527136 0.036110555484209494 0.011328880709644773
-0.004173800514253221 -0.07810380678678192 0.03980114966928294
-0.00413751633419627 -0.07320853402510813 0.04119264045061499
-0.004118004935789949 -0.07017471274803416 0.04146248204484232
-0.004102717881049841 -0.06761325124251527 0.0414540471680408
-0.004090401228256745 -0.06538397084497405 0.041249980558407895
-0.004080075172891978 -0.06337776113255777 0.040915362436608926
-0.004070976662619749 -0.061510019994445 0.040501318031381295
-0.004062850342600238 -0.059752129253844655 0.040024591509074336
-0.004056889886313281 -0.05823329728409865 0.03940146581287418
-0.004051159740480451 -0.05674202062523531 0.038765316449324794
-0.00404645735966069 -0.055364546915225576 0.038060128618264966
-0.0040418905175339265 -0.0540037434917231 0.03734781719332525
-0.004038353961406955 -0.05275607611289723 0.036565170516217216
-0.004035444698892866 -0.05157748163487985 0.03573992588163266
-0.004033532368042772 -0.050507286362864 0.0348453428696619
-0.004032031109689476 -0.04948200553805027 0.033922428078375644
-0.004031373928216976 -0.04854772965187626 0.03293988390824393
-0.004031907234067284 -0.04774092643325073 0.03187218864564201
-0.0040327756606201096 -0.04696962701431284 0.030780071075728666
-0.004034339710763727 -0.046271977422673194 0.029637203308163218
-0.004036986408489559 -0.045688631163513516 0.02841496448705727
-0.004039972757369114 -0.04514014777854114 0.027166637383729597
-0.004044198479545999 -0.044721470857921386 0.02582620566464755
-0.004049521210089985 -0.04441677656658288 0.024403160997264584
-0.004055184138500892 -0.04414563764438367 0.02295236097802722
-0.004062385813355611 -0.04403383321322463 0.021385030995822063
-0.004071218440891903 -0.044090047621397455 0.019693159231141733
-0.0040819446816517 -0.04434073220817508 0.017855964414971226
-0.003564916704201192 0.010554269876153877 0.055392749984137346
-0.0035441729835020254 0.013481016195206641 0.056035592291017955
-0.00352813655508921 0.015909060593358726 0.05633538018383427
-0.003515277660414148 0.018000278614065668 0.05640382557785656
-0.003504178897309798 0.019903591716099733 0.05634570441705733
-0.003494602849456906 0.02164468281431642 0.05617768678077928
-0.0034861356766577676 0.02326723774310613 0.0559301197703958
-0.003478761650103185 0.02477358908116245 0.05560335568671293
-0.0034720348481986447 0.026210266145502314 0.05523074140324313
-0.0034662870801565235 0.027543656569465502 0.05478625994914105
-0.003461070023512136 0.028820270931348146 0.05430375862116826
-0.0034565430393416435 0.030024175528349684 0.05377049219767627
-0.0034528281091057104 0.03114338264655092 0.05317645638078733
-0.0034499200353037903 0.0321789428440285 0.05252143417438904
-0.0034474157623466603 0.03317227797297706 0.05183632318189679
-0.003445059991866454 0.03414950128497163 0.05114084153447712
-0.0034428882954195294 0.03510711358010504 0.05043207589734039
-0.0034413245797342926 0.03600248643043363 0.04967641444458287
-0.003440493617102717 0.03682345534309056 0.048863507806580164
-0.0034401595774229904 0.03759417137535542 0.048011535765224544
-0.0034401144978367373 0.03833579124317921 0.0471366972895772
-0.003440385445863067 0.0390457944000252 0.04623660617959374
-0.003441108074766569 0.039710850043711554 0.0453001362418648
-0.003442635554682713 0.04029608887563213 0.04429851477974234
-0.0034440014988573286 0.040898029235771405 0.043309156540744076
-0.0034459301115454706 0.041444779919057206 0.04227352416996305
-0.0034481964873708847 0.04195894835740088 0.0412094615740925
-0.003451183564398817 0.0424029567005485 0.040085496169021795
-0.003454458027641304 0.04281994240101872 0.03893650664925036
-0.0034583864568018432 0.04317406684418573 0.0377322052043898
-0.00346317458895879 0.04344557694591317 0.03645516333190996
-0.003468719378515865 0.0436451073302469 0.035113227107139156
-0.0034747516727995694 0.043799420673499734 0.03372809956280298
-0.003481609362326283 0.04387591584276235 0.032271347617948976
-0.0034890048942875715 0.0439030728047064 0.03076629181570112
-0.0034975794810164955 0.04381905046036311 0.02915894412644099
-0.003507922891446798 0.04356753539397168 0.02739897304034633
-0.003518507104975455 0.04329720212199928 0.02561347653360957
-0.003530838067628194 0.0428631219891506 0.023675288320466614
-0.003545124508586417 0.04224635347339156 0.021565416904992307
-0.0035639016237800185 0.04120499817524337 0.01906730110311461
-0.0035923742869124584 0.039243848760633304 0.01573463716952267
-0.005552075170431074 -0.07702706940425019 0.040458673465041395
-0.005515054135138479 -0.07307319928022826 0.04127575843827841
-0.0054909685632252864 -0.07019891938642753 0.04144753013016428
-0.005471919594867948 -0.06774729189901113 0.04137077970876596
-0.005456151816517122 -0.06557156123191932 0.041132782692924086
-0.005442829813971714 -0.06360159328740583 0.04077472611134658
-0.005431057541500757 -0.061762825423420875 0.04034157460445109
-0.0054212020744132325 -0.0600845139301453 0.039813371572782474
-0.005413410504323923 -0.05857773382065651 0.03918134750217517
-0.00540619311912501 -0.057120205192895346 0.03852226420447563
-0.00540014605137646 -0.05576008956439221 0.03780448562480765
-0.005394978376606468 -0.0544732306164446 0.03704267311737969
-0.005391001030637951 -0.053284369332565695 0.03621987341177746
-0.005386282415876614 -0.052036912476218056 0.03543795109577974
-0.0053837438024641054 -0.05096670537367931 0.034541682429551634
-0.005382168771918433 -0.049974835213019264 0.03359486047277188
-0.005381870510498034 -0.04908598320931046 0.03258012462515897
-0.0053833460217498404 -0.048339358431754964 0.031469974702696135
-0.00538502144839831 -0.047608246426405154 0.03034845471919112
-0.00538724587707019 -0.04692041072092734 0.02919651568991649
-0.005391317621571573 -0.04637899383633598 0.02794317424673054
-0.0053953788688645265 -0.04583543393704326 0.026688846638563524
-0.00540193297302879 -0.04548831691170957 0.025296321089487095
-0.0054091558734027274 -0.045192038822854996 0.023864497995692346
-0.005417489471408294 -0.04498118944957874 0.022368601651575226
-0.005427736122431107 -0.044918494081322535 0.02076355296773935
-0.0054404931993027855 -0.0450500335918409 0.019015051067671485
-0.005456562435553657 -0.045437551760295736 0.017076940030074594
-0.004770400048715142 0.00920816572858646 0.05443141882837682
-0.004736167220170636 0.012651801110391159 0.055440154023791544
-0.0047137356715459275 0.015163458532938157 0.055797050115704516
-0.004695006790330401 0.017379544170266714 0.055953199634437956
-0.004679945034257371 0.019304605374760475 0.05590849153471744
-0.004666810787298823 0.0210753315713475 0.055759838236790704
-0.004655584831759592 0.022694139408856395 0.055507229874987185
-0.004645054656958958 0.024255599334742917 0.05521905085300172
-0.004636022721105473 0.025698196419706776 0.05484876428954033
-0.004628202171114762 0.027044716385732137 0.05441205687497308
-0.004621336511808147 0.028315430454147916 0.05392307799461621
-0.0046151004745587235 0.02953571260703952 0.05340016714568663
-0.004610097008391594 0.03065978098675637 0.05280783430040231
-0.004605723323288801 0.03173420618784745 0.05218060576910999
-0.004602206120308793 0.032742037172385 0.051504825105621765
-0.004599057336685858 0.03372075581263784 0.05080871556361438
-0.004596215031969644 0.03467523422182517 0.05009572162230502
-0.004594354342395563 0.03555455971626603 0.04932568674492405
-0.004592881372277175 0.03640402631898915 0.048533330220109416
-0.004592290074145996 0.03718662215956087 0.04768898904040869
-0.004592181537840765 0.03793274948228953 0.04681600864403068
-0.004592809146818292 0.03862364055223305 0.04589891261392337
-0.004593835374394814 0.039284906146314635 0.044957588983772445
-0.004595683688214688 0.03988511995787353 0.04396624508458502
-0.004597727012451084 0.04047139855490789 0.04296238364105209
-0.004600123267732608 0.04103209546308234 0.04193629886494993
-0.0046037344323187936 0.04150343623455727 0.040835257345968656
-0.004607667097920676 0.041952139189030235 0.03971317822149739
-0.00461209329164299 0.04236565303143003 0.03855932721997324
-0.004617613588977501 0.04269995241237118 0.037336475497350696
-0.004623929955693254 0.042977482453502025 0.03606238554975272
-0.004631257504311967 0.043182841971715846 0.034723284648055075
-0.004639482610902658 0.04332483792396735 0.033325646859646896
-0.004648577632714605 0.04340592256186876 0.031870678167294164
-0.004658726498519313 0.04341310723942671 0.0303463880004739
-0.0046707665328879 0.043285995328986415 0.028699699479057483
-0.004684714214429938 0.043024302596157415 0.026928490264838956
-0.004700211333958735 0.04265488873300549 0.025054248929785916
-0.004717478882668691 0.04216253296691774 0.023062109765514927
-0.004738095803683424 0.04143425578110055 0.020850900706908204
-0.004766590556181479 0.04014592284525825 0.018130582749383006
-0.004825979630387653 0.03664936830145876 0.013427841101377291
-0.006932431468742426 -0.07651901935557925 0.0407689209253978
-0.0068927099498619195 -0.07299980663052619 0.041320833736127605
-0.006864855383911243 -0.07027440348786229 0.04140090508350047
-0.0068420646569575866 -0.06788988575487659 0.041282198907793666
-0.006823343962406105 -0.06577893309716087 0.041003226259759995
-0.006807418405999374 -0.06385628391188436 0.0406147010433795
-0.006792897473874995 -0.06202975707609604 0.04017290505425991
-0.0067814263158318955 -0.06040638559224898 0.039608832326592125
-0.006772050529592967 -0.058922708499659804 0.038960885281950186
-0.006763768492957492 -0.057512680102167646 0.038270027817967844
-0.00675653048397511 -0.05617264647268638 0.037537846149971965
-0.006750350724894159 -0.05490312761907207 0.03676326072541769
-0.0067454942144938215 -0.05372087306943629 0.03593457073580719
-0.006741372723312679 -0.052587362462064524 0.03507615121515523
-0.006738565526431121 -0.051539669249983766 0.03416297265157897
-0.006738274611790222 -0.050654647143590525 0.033143011908923936
-0.006736986316350751 -0.04970563610286044 0.03216595943489847
-0.006738191628527334 -0.04891680512854152 0.031081865257429342
-0.0067411234742706 -0.04823811902991226 0.029922749968886886
-0.0067445784089027435 -0.047592076417575735 0.028740038888666775
-0.006749788273037171 -0.04705696566532369 0.027479851845981562
-0.006756447737489405 -0.04661269430050091 0.026154724378050054
-0.006764083627643379 -0.04622867528382957 0.024784739296554725
-0.006774130628246213 -0.04599539359558369 0.02330631592017779
-0.006784987143253195 -0.045810692821801724 0.021789068071395523
-0.006799114631244881 -0.045829517151185606 0.020123555378497526
-0.006816447462989429 -0.046046473921575515 0.018311192526511366
-0.006837676308545317 -0.046503713308589656 0.016319690727128633
-0.005989813539804844 0.00752723525598592 0.05323096872878563
-0.005936522036181133 0.011631229939398746 0.0547073078001174
-0.005903968983108155 0.014426776051501389 0.05526516004915549
-0.00588093907160883 0.016620626118782234 0.05540225844461738
-0.005860020965333239 0.018677253179741726 0.05545057380861934
-0.005843374576472271 0.020463456743215147 0.055310781503825346
-0.0058283615269255065 0.022144247219071544 0.05510146382254383
-0.005814895474202501 0.02372558959648119 0.05482582819458809
-0.0058034950846773655 0.025176099126872575 0.05445930713636882
-0.005793567882872141 0.02653302883906683 0.05402829332960957
-0.005784440304621165 0.027838306234791277 0.053563297127676324
-0.0057767617394026945 0.029052448282697763 0.05303378337789344
-0.005770398824246917 0.030184168522292942 0.05244530193136915
-0.005765388580024261 0.031231715429074713 0.05179551691718631
-0.005760827552046687 0.03225062156278369 0.05112619217806663
-0.005756561933991472 0.033250405586102205 0.050444360628428886
-0.005753135816834337 0.03419819192272666 0.04972419374758946
-0.0057501375323862096 0.03511921183058664 0.04898480830077462
-0.005748412692244384 0.035962576326630524 0.04818581756289059
-0.005747883388708377 0.03673347022757156 0.04733035094375637
-0.005747898577165953 0.037471494191980315 0.04644900116932971
-0.0057489423533137116 0.038147817536768824 0.04551828745611347
-0.005750334622965851 0.03880354807321673 0.04457047722213903
-0.005752197058819411 0.039431552401483605 0.04359953424453411
-0.005754621526106492 0.04002653633037184 0.042600791819638495
-0.00575814060673657 0.04055704114790609 0.04154810798680186
-0.005762043919634308 0.04106564782984573 0.04047561319537524
-0.005767109377883391 0.04150643795873998 0.03934508567294398
-0.005773068476532821 0.04189572560594779 0.0381691640966112
-0.005780492610772067 0.04220016535298987 0.03691931758068656
-0.005788794747432313 0.0424548588679548 0.03562385243162325
-0.005797890049599371 0.042665125038262086 0.0342865661809903
-0.00580777044911425 0.04283174236475845 0.03290749503599377
-0.0058192962958736084 0.042904728908580936 0.03144341038181664
-0.005832705024382959 0.04287087250779248 0.029881689145858703
-0.005848351164021281 0.04271026937950623 0.02820369250212501
-0.005867010771819968 0.04237872366654444 0.02636936758902092
-0.005886392489969492 0.042010141917693866 0.024492902672992978
-0.005908889913779871 0.04146644314164255 0.022452869056669267
-0.005938331965121423 0.04052799406027752 0.020053535200805606
-0.005982041693595975 0.03877605404554818 0.01691897745708726
-0.008410922908231718 -0.08250245437822878 0.03873916841867853
-0.008313642641431989 -0.07622754406118554 0.040946914188190964
-0.008270548646942013 -0.07296096131672225 0.041344691256642585
-0.008239277609747884 -0.07035418759119572 0.041351624005934895
-0.008213128303742673 -0.06803539619098803 0.041191806295066746
-0.008191186402667921 -0.06595282477810388 0.04089458672273211
-0.00817333486461957 -0.0640987183209134 0.0404623767011521
-0.00815710897926832 -0.06233719410563221 0.039978640837272095
-0.008144463047175879 -0.06077422105052466 0.03937508453317323
-0.008133344820375138 -0.059297039801473994 0.038721662182117866
-0.00812366642741025 -0.05790039000070507 0.03802085381704379
-0.008115593566387632 -0.0565927846573942 0.03726630682243848
-0.008108489676845413 -0.05533929385547326 0.036479773631820256
-0.008103076008122437 -0.05417852127748152 0.035635447844205304
-0.008098745286530307 -0.0530772232153065 0.034754175446579105
-0.008096094096807772 -0.05206711259756491 0.03381435041261571
-0.008094969160478012 -0.05113942873004834 0.03282079360356799
-0.008095494203848407 -0.05030030372934796 0.03176849396490966
-0.008098120136992445 -0.04957329467701105 0.03064063007153628
-0.008102851050847239 -0.04895794445127216 0.029436249831312045
-0.008108791264445815 -0.04840592162310303 0.028186934168302424
-0.008113836008513793 -0.04780507832237657 0.026968595562249675
-0.008121679059344303 -0.04735143905282879 0.025647069501688047
-0.008131504201795486 -0.04700093987765358 0.024251110552970467
-0.008143249893313912 -0.04674969574730492 0.022782216293666058
-0.008159192224089304 -0.04671697004956765 0.0211558963326145
-0.008177033132666144 -0.046780622332196264 0.019455399932045758
-0.008199309627765538 -0.04707312191526797 0.017585996105106583
-0.008229192477897064 -0.04775902709165969 0.015428094604325426
-0.008266377988852623 -0.04882002790843687 0.012990112351358052
-0.007149276976574489 0.010304383969294895 0.05375453340425951
-0.007101709905597733 0.013545058833771884 0.05462855384230242
-0.007073197477146622 0.015786231870171363 0.054796524841910166
-0.0070450266780710665 0.018003595022786978 0.054958856369612785
-0.007023490259775581 0.01987188911479998 0.05487662828709211
-0.007005771518952593 0.021538583312656956 0.05465454375160317
-0.0069895952770206255 0.023122056042631012 0.054378057037256566
-0.0069756089572536135 0.024589535885206237 0.054021761762853615
-0.006962713961717989 0.025998059294637332 0.0536270683789109
-0.006952022942085945 0.027291042968167256 0.05315062711479618
-0.0069426147623117135 0.02851623082691851 0.05262725352279751
-0.006934020587195946 0.029697924872561288 0.05207466601210192
-0.006927534001984342 0.03077061011023735 0.05144214422037946
-0.006922210902353282 0.031782868870120884 0.050765791397146764
-0.00691755305925392 0.032760302440995315 0.05006470417025677
-0.00691352133815617 0.03370510198079674 0.04934016771956934
-0.006909894990438098 0.03462859881849922 0.048600657119627244
-0.006908055969420207 0.03546139351847688 0.04779128278646311
-0.006906745600398173 0.03626725292541977 0.046961372517297484
-0.006906709271706694 0.037009004200797335 0.04608101127890529
-0.006907419086202991 0.03771344705191959 0.04517082143294748
-0.0069093853725974465 0.03835536399201811 0.04421004423862518
-0.006911808341431403 0.03897496995075089 0.04323038585230682
-0.006915254404873089 0.039544278098087304 0.04220880386035197
-0.006919324804961532 0.0400833807805312 0.041161056174286115
-0.006924204628040825 0.04058332510458407 0.0400793839929674
-0.006930135448865989 0.041032449875966215 0.03895363177565242
-0.006938095735405822 0.041382911828262536 0.03774339403546789
-0.006946810602020742 0.041698003693969865 0.0365001776536929
-0.006956525646418295 0.04196592706022573 0.03521359006854463
-0.00696748990904692 0.04217482034121062 0.033872971223238346
-0.006980049607135597 0.04230818520225954 0.03246351134826958
-0.006994165848373514 0.04236842868631191 0.030986214226747966
-0.00701137589630053 0.04228134231873942 0.029376457755096008
-0.00703119700735006 0.04207132934653546 0.027653224488898343
-0.007053577940648754 0.041741708207982064 0.025817661561429395
-0.007079560665525757 0.041242998332643666 0.023824992137614465
-0.007109994680521188 0.040535436981163686 0.02163802181504426
-0.007149396526304044 0.03940337689722412 0.019064051774341284
-0.007232656529671477 0.03617650911370812 0.014619762737044517
-0.009768864216987009 -0.08042072604264289 0.04000314036477326
-0.00969436250897928 -0.07599608491588733 0.04108825780696468
-0.009649035368451714 -0.07296383865001593 0.041342924172188544
-0.0096148184577859 -0.07046393655740585 0.04128383419180276
-0.009585798139085926 -0.06821494128147515 0.04108027097989181
-0.009561703198281448 -0.06620267911249605 0.04073848917559675
-0.009540644876424744 -0.06433722924560309 0.04031251753078935
-0.009524214872737422 -0.0626922437945534 0.0397542909811307
-0.00950908294861502 -0.061110904391828924 0.03916113293076806
-0.00949709457462403 -0.05967887919933429 0.03847764089810757
-0.009486460329861744 -0.0583120535105785 0.03775628526735325
-0.009477494273373977 -0.05702463632564603 0.03698719695646663
-0.009470011073165533 -0.055807579977774135 0.03617541015042536
-0.009464179463664088 -0.054668279465546754 0.03531533758216743
-0.009459671504522604 -0.053591143585973444 0.034416385764483026
-0.009457155974860196 -0.05260661405290196 0.03345775817008523
-0.00945630806720668 -0.051699210019945485 0.03244872546108718
-0.009457185371503245 -0.05087111430809055 0.031386974132915135
-0.009460930115873022 -0.05017415209731496 0.030236785971345215
-0.009466347651082308 -0.049552942451043525 0.029034115383100967
-0.009472739512254915 -0.04897517144747915 0.027800061157343958
-0.009481814306307904 -0.04851833383526405 0.026481160472873688
-0.009492703450094637 -0.04814223878792245 0.02510364317684005
-0.009505094437672243 -0.047832220916289914 0.02367670190553589
-0.009520154543534196 -0.047640670632401017 0.022163154536445573
-0.009538712201057767 -0.04760425251315886 0.02053599531208644
-0.009561316222494887 -0.04774672894120968 0.01877670591749192
-0.009589376547662221 -0.048130378425804365 0.016839178651787023
-0.009625805211496814 -0.04888436032325211 0.014628818162010226
-0.0096765440623219 -0.05027243331999631 0.011952865295661086
-0.008386934550843628 0.008243835185150927 0.05227490560949832
-0.008315107439446258 0.012217065620907297 0.05366973310268586
-0.008270898457160955 0.014948028671396496 0.05418802610855977
-0.00823832639504379 0.017154068985139492 0.05433876919894476
-0.008209600324272166 0.0191836773458669 0.05437154764032576
-0.00818812662610178 0.020887259152502446 0.05417393092317879
-0.008168444500118175 0.022507825804801374 0.05392234983861116
-0.008152049688096514 0.023979993343155592 0.053567075035352074
-0.008136781156873277 0.025399648103284267 0.053178262446052005
-0.00812448228468668 0.026686250314118587 0.05269457641340741
-0.008113102839272933 0.027930352397242675 0.05218307350921242
-0.008103214888781783 0.029107221956590823 0.051624406710382265
