# .PCD v0.7 - Point Cloud Data file format
VERSION 0.7
FIELDS x y z
SIZE 4 4 4
TYPE F F F
COUNT 1 1 1
WIDTH 764
HEIGHT 1
VIEWPOINT 0 0 0 1 0 0 0
POINTS 764
DATA ascii
-0.022234132766935998 -0.06953215661898243 0.0624907651677879
-0.022222877535339972 -0.07037106821465805 0.06181117251561674
-0.02221174123575236 -0.0712076211884013 0.06113100743909017
-0.022201045842019786 -0.07203731635784 0.06044647249751467
-0.022190307075426585 -0.07286696300331391 0.05976322923503341
-0.02217995401082637 -0.0736905730699558 0.059076207822054805
-0.022169289200198405 -0.07451788755311528 0.05839364005891273
-0.022158902217666837 -0.07534069145108763 0.05770854428169364
-0.022149487392724515 -0.07614939060067122 0.05701260241668199
-0.022140133990001674 -0.07695666429303627 0.05631661203575472
-0.022130414827388666 -0.07776841046546551 0.055625696522602575
-0.022121130856108912 -0.07857357220074529 0.05493024792203682
-0.022111907960217395 -0.07937732689234522 0.0542347387276399
-0.022102639506893815 -0.08018114118685654 0.05354045449736444
-0.022093698025110135 -0.0809799180676809 0.05284287209363597
-0.022084976411116487 -0.0817751484936165 0.05214326149702081
-0.022076421034277274 -0.08256758255419006 0.051442254444210744
-0.02206760690014328 -0.0833630065758349 0.05074504509803368
-0.02205938318684186 -0.08414989167689252 0.05004121603275746
-0.022050953614843726 -0.0849390561227712 0.04934052671964845
-0.02204306004989323 -0.08572047523048543 0.04863381986996551
-0.022035330895638954 -0.08649919868405143 0.04792564849932446
-0.022028030237964374 -0.08727169593710321 0.04721270756054269
-0.022019888836587818 -0.08805500843488856 0.046510794588525806
-0.022012545594446816 -0.08882715522882001 0.045799482733357266
-0.02200547113281038 -0.08959526849231353 0.04508533171386253
-0.021998084759790985 -0.0903670982369651 0.04437562467006895
-0.02199112500550491 -0.09113281326930373 0.04366106861172131
-0.021984696420254506 -0.09189106826250387 0.04294029264004828
-0.0219775872009547 -0.09265792213842883 0.04222863126997367
-0.021971166527026385 -0.09341526492875063 0.04150871736206507
-0.02196611683035811 -0.09415418545768922 0.04077175734710098
-0.021961857953955947 -0.09488242128407676 0.04002503398934015
-0.021957337991079 -0.09561381385712692 0.039281975830245786
-0.021952557265112395 -0.09634833497908774 0.03854260727509112
-0.021948618671029575 -0.09707159198556348 0.037792706206279725
-0.02194478646313865 -0.09779322511715854 0.0370417139729014
-0.02194111299987837 -0.09851256521283891 0.03628893858227189
-0.021937178510877293 -0.09923505714935688 0.03553983250911297
-0.021931043524764025 -0.09998570728812922 0.034819767483567854
-0.021922606971931474 -0.10076561484991453 0.034130308685098254
-0.021913862868847916 -0.10154895628275412 0.03344550660060336
-0.021904445894723398 -0.10234038453745459 0.03277020852984375
-0.02189571627029499 -0.10312244969871243 0.03208651556502751
-0.021887672361900968 -0.1038952357172474 0.03139437413119217
-0.02188010395241909 -0.10466147996243436 0.03069650211439573
-0.021873948694807778 -0.1054093258880206 0.02998035569460772
-0.0218934174081937 -0.1058323730442442 0.028922350938702934
-0.0226767769343035 -0.09660846591571004 0.017630339160654873
-0.023498518443633723 -0.08694891445538849 0.005765635818681725
-0.02639309866717961 0.057760847735969456 0.05833949722830384
-0.026292243369913423 0.05523147786385363 0.058337648576903045
-0.026192155930176562 0.052721365241991114 0.0583358140001084
-0.026092827612147554 0.0502302907829964 0.05833399333779776
-0.02599424981201999 0.0477580387103112 0.0583321864322629
-0.026010808346058123 0.04719647787043346 0.05716834239273261
-0.026054006036172684 0.047073608099833686 0.05573160120078108
-0.02609734744689789 0.04695032953611372 0.05429007990783408
-0.026140833296675898 0.046826640135762654 0.052843754618734196
-0.026184385846080696 0.0467012501562476 0.05139341034671929
-0.026228162485940478 0.046576731118335934 0.04993741046329436
-0.02627208574779967 0.046451795026246745 0.04847653396953544
-0.02631615636951989 0.04632643978119033 0.04701075632434948
-0.02636037509392252 0.046200663270278663 0.045540052821694044
-0.026404742668829445 0.04607446336639043 0.044064398589199194
-0.02644917978948117 0.04594653950510391 0.042584612499429186
-0.02649384705844748 0.045819484568854596 0.041098987447340085
-0.026538665450439338 0.04569199976690591 0.03960833607153735
-0.02658363573369977 0.045564082914016035 0.03811263282040872
-0.02662875868168734 0.0454357318100978 0.036611851968862186
-0.02667403507312116 0.045306944240103786 0.035105967616844536
-0.026719383990309334 0.045176408641121324 0.033595833707555145
-0.02676496934704177 0.0450467395966867 0.03207967009250745
-0.026810710513958527 0.04491662734505458 0.03055832424900229
-0.02685660829126338 0.04478606961002507 0.029031769562362864
-0.026902663484648554 0.04465506409977671 0.02749997923535663
-0.026948876905342516 0.04452360850674336 0.025962926286619725
-0.02699524937015742 0.044391700507475707 0.02442058354907517
-0.027041781701537277 0.04425933776250446 0.022872923668331713
-0.02708847472760638 0.04412651791619976 0.02131991910106862
-0.027135329282219078 0.043993238596641226 0.01976154211339476
-0.02718234620500847 0.04385949741546169 0.018197764779208148
-0.027229526341437188 0.043725291967714686 0.016628558978520724
-0.021691501227067686 -0.04376509137869955 0.0777818131061557
-0.021527496264680358 -0.04702202499712477 0.07879916172724016
-0.021497890373375853 -0.04817504123784627 0.07830937519545295
-0.021479764604169668 -0.04914771113122629 0.0776916070205527
-0.021463778034734867 -0.05008603364359682 0.07705087478635614
-0.021448604922533213 -0.05101073673021783 0.07640207566917076
-0.021433768688999454 -0.05192926065590642 0.07575057805875143
-0.021419372987958086 -0.05284004006571169 0.07509515134353523
-0.02140431499993717 -0.05376008208571342 0.07444846832267288
-0.021389173456657178 -0.05468043884057339 0.07380390600254108
-0.021374210167302884 -0.055597091697155376 0.07315843339053402
-0.021360886416874267 -0.05648771981763623 0.0724950029945231
-0.021346275536795693 -0.057397125924587566 0.07184764029451748
-0.02133152840764934 -0.058307666884399034 0.0712029948752429
-0.02131690564536936 -0.059215370766480646 0.07055801572843085
-0.02130256257735771 -0.060117895108490915 0.06991085487866133
-0.021288861170294267 -0.06100979181860672 0.06925719320187917
-0.021275125577767263 -0.0619013238054138 0.06860498730186915
-0.021262080238198484 -0.06278157658046862 0.06794560565918034
-0.02124899921496901 -0.06366152712309081 0.06728765007052023
-0.021236605206806567 -0.06453033345710912 0.06662245456414567
-0.02122427719999476 -0.06539735539839298 0.06595741416094597
-0.021212169467380144 -0.06626029554969454 0.06529065867846684
-0.021200435586339765 -0.06711688670981308 0.06462030272160368
-0.0211887660589132 -0.06797176677285932 0.06395006373526191
-0.02117690408192135 -0.06882875203266503 0.0632830643218037
-0.021165362969539483 -0.06968022458825163 0.06261305050106614
-0.02115378321986843 -0.07053152605842933 0.061944394663974334
-0.021142574216761727 -0.07137661832073572 0.06127206451153361
-0.02113142818775244 -0.07222006385589469 0.06059981582252527
-0.021120753344608802 -0.07305587785473011 0.059922587771711056
-0.021110191278542984 -0.07388935420580306 0.059244776981598135
-0.021099639770952985 -0.07472199736385043 0.05856764377186141
-0.02108925149841075 -0.07555158239936932 0.05788927927689569
-0.021079076843006295 -0.07637739212492622 0.057209033299605805
-0.021069267604467697 -0.07719724373099324 0.05652497296898279
-0.02105941673717605 -0.07801706772394029 0.05584218899307947
-0.021049524370683612 -0.07883685821784919 0.055160684516748604
-0.021040097231179406 -0.07964930482811222 0.05447403585849864
-0.021030880995835083 -0.0804581112671437 0.05378542570220085
-0.021021824548545925 -0.0812640316171146 0.053095482200451016
-0.021012674839544988 -0.08207070555976409 0.052407426319706574
-0.021003936978998418 -0.08287090595645208 0.05171478344021596
-0.02099535771828394 -0.08366828336168602 0.05102076751056217
-0.020986886272640653 -0.08446357552950778 0.05032601624524485
-0.020978069116547985 -0.0852632301166143 0.04963639238642836
-0.020969712258401666 -0.08605579935363367 0.048941463467317314
-0.02096161347070507 -0.08684418500417429 0.048243811815020854
-0.020953721917383303 -0.0876291286076809 0.047544072165514206
-0.020945484854129566 -0.08841842464122357 0.046849465837798754
-0.020937655606547003 -0.08920146827751102 0.04615012941534585
-0.020930032736680378 -0.08998111916768753 0.04544867182943341
-0.02092231522442383 -0.09076160211448814 0.04474904959553577
-0.020915154057386188 -0.09153383536787896 0.04404264098957528
-0.02090799779083548 -0.09230554017123044 0.04333671578892667
-0.020901146378952185 -0.09307255590362651 0.0426272728282705
-0.02089484904324476 -0.09383146266044334 0.04191094357062408
-0.020889604161494185 -0.0945754321888237 0.041180979118240646
-0.020884212172254 -0.09532109113729498 0.040453395378931056
-0.02087872319194583 -0.09606773652831302 0.03972753315639771
-0.020873735713062922 -0.09680715264075906 0.03899530665711265
-0.020868999814703824 -0.09754280664489484 0.03826004897985136
-0.0208647642531926 -0.09827132790702875 0.037518346763819765
-0.020860679811118926 -0.09899751937379192 0.03677490716793219
-0.02085520319220118 -0.09974235848046525 0.036050828358215325
-0.020848137625627535 -0.10050837744439273 0.035348970079331354
-0.020839088755864384 -0.101300754314056 0.03467494073233757
-0.020829998083533304 -0.10209311331476784 0.034002181319246316
-0.02082091533902368 -0.10288478131259843 0.033330008608262185
-0.020811443978674453 -0.10368108167084555 0.03266392318009992
-0.020802724067714256 -0.10446671105943972 0.031988109203150206
-0.020794011460908448 -0.105251682372686 0.03131286131566602
-0.020786641149732752 -0.10601820613734025 0.030619504129271446
-0.021043796129547425 -0.10326767772950701 0.02621626347559247
-0.021630075466912757 -0.09616890344487916 0.017164150007186685
-0.021806912441616404 -0.09452459059390889 0.013841663469182364
-0.02507344373381723 0.057760847735909726 0.05833949722833953
-0.02497763120141441 0.05523147786379495 0.05833764857693824
-0.024882548133664462 0.052721365241933826 0.05833581400014304
-0.02478818623153696 0.05023029078294022 0.0583339933378319
-0.024704752584741644 0.04793623739503594 0.05822336709342468
-0.02474577205787271 0.04781462338235409 0.05678869886555721
-0.02478685396282346 0.047691318775086644 0.05535005288384165
-0.0248281467571151 0.047568891915264366 0.053905822178428875
-0.02486957736156558 0.04744605646925959 0.05245677151189304
-0.024911146467217395 0.04732281038823599 0.051002876714768
-0.024952854769741052 0.047199151609636 0.04954411345572113
-0.024994702969473724 0.04707507805706346 0.04808045724019783
-0.025036616261203622 0.04694929084909172 0.046612712146711976
-0.025078746120889395 0.04682437965868125 0.04513920172092223
-0.025121018005903863 0.04669904737612218 0.04366072389660741
-0.025163432635638864 0.046573291868483746 0.04217725351272078
-0.025205990734352805 0.04644711098840215 0.04068876523800141
-0.025248693031212497 0.0463205025739703 0.03919523356952487
-0.025291463205019345 0.04619215676423172 0.03769749716656495
-0.02533445584331653 0.046064684902636543 0.03619380756622986
-0.0253775948957847 0.04593677892748199 0.034684997055075384
-0.02542088111163376 0.04580843661738304 0.03317103942909977
-0.025464315245193908 0.04567965573577076 0.03165190830521364
-0.02550789805595998 0.04555043403077158 0.03012757711970171
-0.025551630308634856 0.04542076923506161 0.028598019126684138
-0.025595512773174803 0.04529065906574398 0.02706320739654522
-0.02563954622483447 0.045160101224211935 0.025523114814355097
-0.025683731444212553 0.045029093396013686 0.023977714078272983
-0.025727989479101387 0.0448963070120707 0.022427904276282384
-0.025772480321301923 0.044764390319231684 0.020871811004587404
-0.025817125304109373 0.044632016594821966 0.019310326574848935
-0.025861925229954785 0.04449918345960874 0.017743422921570606
-0.02590688090684865 0.04436588851781614 0.01617107178411159
-0.02053987749373529 -0.04486893101387174 0.07857445230211971
-0.02045762297846976 -0.04691520862816634 0.07872203953482018
-0.020430535376813712 -0.048051426272573305 0.07821963615366806
-0.020413554174654385 -0.049020452576466866 0.07759871828529749
-0.020397653649810034 -0.049970684671895416 0.0769662198312939
-0.020383029011117496 -0.05089905148667356 0.07631966299755003
-0.020366726259657488 -0.05185371534350919 0.07569452978397995
-0.020352445305871318 -0.05277446954284448 0.07504623917322673
-0.02033748679046117 -0.05370522895856794 0.07440732869975997
-0.020322948270229367 -0.0546281896436811 0.07376450690520295
-0.020308678938306214 -0.05554582597781793 0.07311956660766733
-0.02029442963014859 -0.05646217461785907 0.07247553133728893
-0.020280893954185114 -0.05736610012599658 0.07182386335887489
-0.020267227876517538 -0.05827119927140617 0.07117489678407041
-0.020252987243804404 -0.05918456066500177 0.07053414880279929
-0.02023896398127183 -0.06009349019710769 0.0698918479563409
-0.02022496012484708 -0.061001161906062584 0.06925043595862013
-0.02021097563427525 -0.0619075784010214 0.06860991096586122
-0.020197207027882507 -0.06280962598655732 0.06796780480740544
-0.020184144216624227 -0.0636995759511802 0.06731792442476836
-0.02017129434597062 -0.06458528044517436 0.0666664083196431
-0.02015914617379271 -0.0654590617708945 0.06600703889287712
-0.020147159314816955 -0.06632948545013467 0.06534659894455552
-0.020135235541302077 -0.06719810857163211 0.0646863212848019
-0.020123423436191813 -0.06806417715107016 0.06402557693242161
-0.02011206371219854 -0.06892238144607293 0.06335998110430163
-0.020100570792137753 -0.06978189280273672 0.06269701553113627
-0.020089188230984902 -0.07063891046565823 0.06203355192232274
-0.020078012799319967 -0.07149194414383375 0.06136832367734674
-0.020066801286619775 -0.07234478028412916 0.06070446530879725
-0.02005574764932284 -0.0731944189213023 0.060039453658501885
-0.020045287009651882 -0.07403416888699205 0.05936758183928004
-0.02003459551341376 -0.07487676179501424 0.05869958052471952
-0.020023673916637088 -0.07572216261244857 0.0580354676943865
-0.020013439697357 -0.07655629863781704 0.057363167200257525
-0.02000340873878325 -0.07738663654083533 0.05668900220997075
-0.019993484137511994 -0.07821467427687157 0.05601423436625269
-0.019983761805409752 -0.07903896367566171 0.05533757387070393
-0.019974048924166574 -0.07986245180138468 0.054661571141504106
-0.019964633565265847 -0.08068077710109811 0.05398236653264432
-0.019955323018396053 -0.08149688162818791 0.053302513038249344
-0.019946308708119177 -0.0823078900670694 0.052619418555699515
-0.019937111005855705 -0.08312104722938302 0.051939529534526296
-0.019927873943860877 -0.0839341727898748 0.051260915723606415
-0.01991921898111549 -0.08473795659315031 0.05057513262333191
-0.019910810312001523 -0.08553747494523456 0.04988668892662507
-0.019902122446850256 -0.08634058633673336 0.04920274169310429
-0.019893680528371788 -0.08713945187587158 0.04851612141524231
-0.01988567448200593 -0.08793127814973101 0.04782418551800088
-0.019877532085380036 -0.0887245814594459 0.04713477648243525
-0.019869443912021584 -0.08951653286906569 0.04644527369104523
-0.019861314798806713 -0.09030854038472363 0.04575699126602106
-0.019853714632313023 -0.09109222021013269 0.04506200225521373
-0.019846120280181172 -0.09187530049629594 0.044367544932443215
-0.019838342096479583 -0.09266055756494762 0.04367627345293423
-0.01983147012039136 -0.0934320553980818 0.042972906615736495
-0.019824934315104903 -0.09419819067996815 0.04226536073735365
-0.01981934914373999 -0.09495006637185216 0.04154491894869472
-0.01981329420996424 -0.09570837621612321 0.04083157950377492
-0.019807762857564998 -0.09645870159793646 0.04011129312719858
-0.019802612495460635 -0.09720315373161997 0.0393860271199204
-0.01979741759695184 -0.09794789868749115 0.038661812454288735
-0.019792131045373782 -0.09869360881125827 0.03793932930188254
-0.019787177466823316 -0.09943418909751434 0.03721249031521573
-0.0197817078239517 -0.10018181294432466 0.036493483232412194
-0.019773791630984774 -0.10096396490431053 0.03581025156536333
-0.019764046458716968 -0.1017716083798525 0.03515414705328629
-0.01975468696299644 -0.10257311718842321 0.03449322711227004
-0.019745383293666017 -0.10337320206071088 0.03383224885945085
-0.01973594761884899 -0.10417452252521292 0.033173948601329606
-0.0197269897329834 -0.10496847007427729 0.03250941240345506
-0.019718086811385167 -0.1057610386492317 0.03184479141679836
-0.019713731994305466 -0.10648920660758882 0.031113918611629265
-0.019995217830041583 -0.10321713974035235 0.026162939317328437
-0.02055238725579829 -0.09611563907173765 0.017107659122107433
-0.020756867516658176 -0.09396336552013079 0.013243371101463564
-0.02375378880045537 0.057760847735852994 0.05833949722837334
-0.02366301903291592 0.05523147786373955 0.05833764857697149
-0.023572940337152862 0.05272136524187937 0.0583358140001759
-0.02348354485092687 0.05023029078288699 0.05833399333786421
-0.02343805306342731 0.04855402118097685 0.057846109409200375
-0.023477025203609156 0.04843325977700241 0.05640875385524141
-0.023516127163223922 0.04831209610676629 0.0549666103506532
-0.023555359592012708 0.048190528156941304 0.053519654931932614
-0.023594723144059793 0.04806855390074277 0.05206786347539355
-0.023634147452108654 0.0479448761484757 0.05061202545344812
-0.023673774992101177 0.047822081342830725 0.04915049466678606
-0.023713535642826942 0.047698874063768826 0.04768405453084451
-0.023753430076101884 0.04757525222951753 0.0462126802679132
-0.023793458968270512 0.04745121374427197 0.04473634693326162
-0.02383362300024406 0.04732675649807583 0.04325502941372983
-0.02387385038379237 0.04720057234110192 0.0417695512803275
-0.023914286510858092 0.04707526935488221 0.040278195343417034
-0.02395485984699934 0.046949541186816324 0.03878177889293738
-0.0239955710917759 0.04682338566911659 0.03728027612788537
-0.024036420949511243 0.04669680061923326 0.03577366107156438
-0.02407741012933318 0.04656978383972982 0.03426190757008557
-0.02411846537870382 0.046441016040189076 0.03274587451620148
-0.024159735096156265 0.04631312728813475 0.031223771137102896
-0.024201146291013147 0.046184800118515834 0.029696449810098835
-0.024242699692025145 0.046056032273041725 0.02816388365751854
-0.024284396032956602 0.04592682147788463 0.02662604561677795
-0.024326236052628587 0.04579716544354434 0.02508290843878802
-0.024368220494963087 0.045667061864722136 0.023534444686338862
-0.02441035010902628 0.04553650842016976 0.021980626732483577
-0.02445262564907359 0.04540550277256061 0.02042142675888864
-0.024495047874594614 0.04527404256834877 0.01885681675417511
-0.02453761755035859 0.04514212543762702 0.01728676851224159
-0.02458033544646033 0.04500974899398519 0.015711253630568855
-0.01945291104788066 -0.04497181264105726 0.07864832898461363
-0.01939132369487578 -0.04673454279918893 0.07859159749712522
-0.0193677803219453 -0.04783446758862375 0.07806213366712411
-0.019351433942451955 -0.04880841339487668 0.07744394636100763
-0.019335733127697652 -0.04977006539330092 0.07681898474316495
-0.01932043747811406 -0.05072362745607811 0.07619021740053952
-0.01930540295892514 -0.051671615147471484 0.07555942673787963
-0.019289540153130506 -0.05263271588046459 0.07494049837731714
-0.01927460090275463 -0.053576898083869784 0.07431108106415721
-0.019259307450722227 -0.054526054750713815 0.07368749093502572
-0.019244697528500082 -0.05546248493587974 0.07305638212059179
-0.01923152050874379 -0.05637353372003495 0.07240796540731315
-0.01921751620259231 -0.05729766336472025 0.07177141615228058
-0.01920428257510353 -0.058207757821924555 0.07112601550324738
-0.01919055203472202 -0.05912529398758476 0.07048823810096938
-0.01917730874082084 -0.06003364319028559 0.06984523818210664
-0.01916380352072599 -0.06094544861304407 0.06920681230985626
-0.01915031730878498 -0.06185597069962101 0.06856928500104426
-0.019136756931969645 -0.06276677074602083 0.0679338878740528
-0.01912326224629626 -0.06367550529722643 0.06729877210020613
-0.01911001875751923 -0.06457909018304753 0.06666145654198308
-0.019097813836575394 -0.06546445993778166 0.0660113801395561
-0.019085392909610543 -0.0663525420338586 0.06536524026966811
-0.01907298812890784 -0.06723946969064715 0.0647199403325372
-0.01906156963552432 -0.0681092170983571 0.06406238135293574
-0.01905016480586062 -0.06897792373961964 0.06340560922859151
-0.019038957979606936 -0.06984255879848128 0.06274711793711168
-0.019028362835019255 -0.07069635349528375 0.06208124472209503
-0.01901704368051672 -0.0715612493069907 0.06142617071466089
-0.019005829846592652 -0.07242361551662257 0.06077061590898175
-0.018995133891535603 -0.07327673599599205 0.06010889197141278
-0.018984037525829778 -0.07413560758743948 0.05945360326383181
-0.018973182981980932 -0.07498976065284929 0.05879591210599644
-0.018962523730564538 -0.07583997484954175 0.058136433593014514
-0.018951967791387643 -0.07668775784244669 0.057476423669565124
-0.018941925436493503 -0.07752650382397408 0.0568101384046944
-0.018931802569840384 -0.07836582819224608 0.05614583593204814
-0.018922054727729468 -0.0791984079583209 0.05547712475892208
-0.018912316918633168 -0.08003013078756299 0.05480910186007004
-0.018902816297746473 -0.08085736663860976 0.05413855434802456
-0.018893325217359567 -0.08168377178148561 0.05346868019810963
-0.0188842064182543 -0.08250357466958158 0.05279431875009766
-0.018874960513622627 -0.08332474447291138 0.05212254675263023
-0.01886599520152214 -0.08414080868477547 0.05144754684034253
-0.01885740012816375 -0.08495038036128838 0.05076799666079734
-0.01884845148616782 -0.08576491427156596 0.050094267230915535
-0.01883969185838796 -0.08657583488491655 0.049418570810781104
-0.018831301094171405 -0.08738033890681413 0.048738279257459494
-0.01882260244617399 -0.08818906627841955 0.048063172797174813
-0.01881449695688732 -0.08898790245723348 0.04738016799147077
-0.018806353473196345 -0.08978675215778942 0.04669840805900716
-0.018798172102810855 -0.09058560963409534 0.046017896272835646
-0.01879026721527438 -0.09137959151568958 0.04533401886765531
-0.018782862418779113 -0.09216526479777198 0.044643445857604436
-0.01877519451273621 -0.09295447413976315 0.04395739101878782
-0.01876784637679024 -0.09373820695757956 0.04326725007012211
-0.018761085799138176 -0.09451237943469526 0.042569002352774665
-0.018755045696588455 -0.0952750152553975 0.041860591802217295
-0.018749054180408117 -0.09603647599092169 0.041151969141736244
-0.018743334514831643 -0.09679335738505151 0.0404397815397704
-0.018737662982041863 -0.09754909696040864 0.0397273572363695
-0.01873226258765801 -0.09830031028873687 0.0390113283530486
-0.018726686935823893 -0.09905379549203025 0.038298408534519046
-0.01872098090692214 -0.09980885483856927 0.03758793978020858
-0.018714654848262124 -0.1005728644037322 0.03688738259811286
-0.018706063605548075 -0.10137052836929128 0.03622189634445028
-0.018696280094376717 -0.10218548780164055 0.035575368084256764
-0.018686640014981548 -0.10299759912122697 0.03492747374809513
-0.018676788095876452 -0.10381218885209814 0.03428365645674658
-0.0186679213838922 -0.10461138170427464 0.033625490634882294
-0.018658886006571108 -0.10541245071749877 0.03297068668720604
-0.01865043433757457 -0.10620421075807152 0.03230760417778539
-0.018648002030636955 -0.10690624007957145 0.031551683329926306
-0.01946542967859383 -0.09549792482528241 0.018018162592118747
-0.019468561851324905 -0.09614688990198605 0.017140802984619508
-0.022520521088490664 0.06030969732010477 0.058341360117008134
-0.02243413386709401 0.05776084773579937 0.05833949722840537
-0.022348406864417903 0.05523147786368682 0.05833764857700313
-0.02226333254064174 0.05272136524182791 0.05833581400020699
-0.022178903470317236 0.05023029078283653 0.05833399333789485
-0.02216778283377791 0.04917486862380788 0.05746698086314722
-0.022204695917587492 0.04905496702361184 0.056026922834192694
-0.022241732139418276 0.048934665444752 0.05458206092872636
-0.02227882529069996 0.04881266658537464 0.053133175721519266
-0.022316109420424002 0.04869155721761054 0.05167863938475209
-0.022353518551047776 0.04857004181167085 0.050219226486503565
-0.02239105331225442 0.04844811832216406 0.04875491246143848
-0.02242871433796364 0.0483257846899402 0.047285672578947724
-0.022466434310390793 0.04820173448515075 0.04581231551444459
-0.02250434955442443 0.048078572506292105 0.044333154945668196
-0.02254239298933162 0.04795499411861465 0.04284899335709991
-0.02258056526633062 0.04783099720673889 0.04135980534322914
-0.022618867041057786 0.047706579640925506 0.039865565326175856
-0.022657298973605574 0.047581739276963075 0.03836624755421991
-0.0226957923779848 0.047455158564384536 0.0368626955298908
-0.022734486387791793 0.04732946425508949 0.035353150393015786
-0.02277331256160042 0.047203340621898016 0.03383844922482959
-0.02281227157770176 0.04707678546143401 0.03231856556358337
-0.022851364119036512 0.0469497965552208 0.030793472766140306
-0.022890590873234706 0.04682237166954839 0.029263144006420994
-0.022929952532656034 0.04669450855534296 0.02772755227383017
-0.022969378761802193 0.04656487645312979 0.02618758329450882
-0.023009012082528382 0.046436128179052794 0.02464139020344369
-0.023048782413071046 0.046306934830543156 0.02308985202324254
-0.02308869046511135 0.04617729409571436 0.02153294098947639
-0.023128736955268 0.046047203646640666 0.019970629145090735
-0.02316892260514014 0.045916661139217274 0.01840288833873216
-0.023209248141350558 0.045785664213017385 0.01682969022305908
-0.023249714295590005 0.045654210491159586 0.015251006253026222
-0.018381332629280604 -0.04480365655317503 0.07852758037036892
-0.0183276303085233 -0.0464847718955006 0.07841126109472729
-0.018306670288362643 -0.04756184017644821 0.07786421812608191
-0.01829039616092005 -0.04855163399859891 0.0772565175991069
-0.018275409926859363 -0.0495166945406077 0.07663303511715222
-0.01826044823063245 -0.05048017493280882 0.07601057349935145
-0.01824560065210267 -0.05144045000166353 0.07538792162129856
-0.018229792808089576 -0.05241701709876623 0.07477959840146764
-0.0182145483301357 -0.053382193186748084 0.07416505318090372
-0.018199373920283975 -0.05434495103903725 0.07355092763474469
-0.018185070677452207 -0.05529086119704896 0.07292626666179952
-0.018170612087224616 -0.05623848351165717 0.07230502429157021
-0.01815675345449846 -0.05717424537236171 0.07167683352122145
-0.018142694362231978 -0.05811254915827191 0.07105265776216768
-0.018129409265223346 -0.05903595788448268 0.07041903423513923
-0.018116011051648142 -0.05996037916604424 0.06978817902725987
-0.01810091208657568 -0.06091405235166325 0.06918222895811432
-0.018089670455422906 -0.06179808778962714 0.06852371914554006
-0.01807782676102806 -0.06269194138042172 0.0678746656511911
-0.018065207639809885 -0.06359861019353047 0.06723758888573855
-0.01805216736343456 -0.0645117555388382 0.06660759352615098
-0.01803971546951709 -0.06541355564231666 0.06597044251975787
-0.018027236987747587 -0.06631488121047963 0.06533479136791309
-0.018015474878752144 -0.06720270478658108 0.06469005716945514
-0.01800250627644803 -0.06811074365050168 0.06406362877595573
-0.017990950716476824 -0.0689931373784623 0.06341810726854791
-0.017979932260952965 -0.06986530248908135 0.06276590133637583
-0.01796879688068086 -0.07073866642171178 0.062116375562878856
-0.01795789237151403 -0.07160718464486121 0.06146451162726818
-0.017947217918152156 -0.0724708974545773 0.060810290157089664
-0.017936816039854434 -0.07332909681854982 0.06015306078079696
-0.01792638294627906 -0.07418704734693943 0.05949722489316328
-0.017915616266288525 -0.07504994330705489 0.058847217847984856
-0.017904948835695385 -0.07591032270836745 0.05819672219255345
-0.017894380323116483 -0.07676820248051264 0.05754572939606589
-0.01788399652300928 -0.07762212875556851 0.05689295720315901
-0.017873796814145006 -0.07847213307110656 0.056238389859447735
-0.017863995409975547 -0.07931459444386602 0.055578814998210324
-0.017854247667514627 -0.08015540433492802 0.054919322567394735
-0.01784476778914557 -0.08099094335261015 0.05425669869247085
-0.017835255145284525 -0.08182631881521818 0.05359542114900451
-0.017826009329360504 -0.08265647889858607 0.05293098243765337
-0.017816901310049354 -0.08348362315083191 0.05226529553580167
-0.017807973375588558 -0.08430705784967402 0.0515977011362182
-0.017799097037437518 -0.0851289538618219 0.05093012732347746
-0.017790229543653557 -0.08595003093829318 0.05026321868005562
-0.017781796576388825 -0.08676319787486952 0.04959046725443261
-0.01777315895158394 -0.08757912911420185 0.04892161334296158
-0.017764614690517804 -0.08839285870382918 0.04825210235538485
-0.017756418227163413 -0.08920018702063198 0.047577998129572086
-0.01774810209485828 -0.09000887118584894 0.04690648335979608
-0.01773975137896902 -0.09081749612015988 0.046236254482431516
-0.017731662499070266 -0.0916211865593955 0.04556270511468413
-0.01772375016315338 -0.092421370663121 0.044887130493365845
-0.017716225191855017 -0.09321461978644702 0.04420620825888083
-0.017709044384539487 -0.09400168292557509 0.043520563908191756
-0.017702249102557223 -0.09478192564583576 0.04282950004962072
-0.0176960492675305 -0.0955519815261609 0.04212965176040978
-0.017689980168992 -0.09631944970638273 0.041428293154164575
-0.017684125750386998 -0.09708298771279228 0.04072407426756802
-0.017678233129259386 -0.09784669925811895 0.04002099104238055
-0.017672554676848227 -0.09860651843710094 0.03931502044435525
-0.017667005938434798 -0.09936382553406514 0.03860748534254971
-0.017660746774602668 -0.10013209263099437 0.03791185371984385
-0.017653149324309222 -0.10092127249141758 0.03723832803366289
-0.017644678116425536 -0.10172380760627181 0.036579590938256745
-0.017634749484361306 -0.10254888183725686 0.03594520819292785
-0.017625082957095833 -0.10336904648710288 0.0353074658197301
-0.017615886588029813 -0.10418103801766015 0.03466294193607666
-0.017606491131838306 -0.10499547791481878 0.03402249633443394
-0.017597397533102833 -0.10580445204490507 0.033377956991192115
-0.017588563221662544 -0.10660866366116434 0.03272998176210512
-0.01775001072533139 -0.10474257684199795 0.02928046173425164
-0.01837992257173086 -0.09556196003267681 0.018085728072872675
-0.0183845174641122 -0.09618523389032108 0.01718146967627021
-0.021195784553871097 0.0603096973200532 0.058341360117038776
-0.021114478933733118 0.0577608477357488 0.058339497228435566
-0.021033794695920354 0.0552314778636373 0.058337648577032886
-0.02095372474413107 0.052721365241779394 0.05833581400023624
-0.020874262089708048 0.050230290782788956 0.05833399333792372
-0.020893790175940955 0.04979621125633549 0.057087549923081016
-0.020928631949083187 0.04967717312351333 0.05564478543475948
-0.02096359011823258 0.04955773731967 0.054197201099146886
-0.020998665267631583 0.049437901848717325 0.05274477272331879
-0.021033857985439663 0.04931766470119381 0.051287475952161155
-0.021069168863765433 0.04919702385413666 0.04982528626701893
-0.021104534783968575 0.049074672767479455 0.048359003278067025
-0.021140083560795338 0.0489532165678947 0.04688695938796489
-0.021175752297408576 0.048831350512858696 0.045409948067567096
-0.021211541602043096 0.04870907252426909 0.0439279441303968
-0.021247452087052934 0.04858638050995839 0.042440922219412924
-0.02128341956952584 0.0484619586683529 0.040949710644472725
-0.021319574048659144 0.048338430414320455 0.03945258204159513
-0.021355851569167687 0.04821448176738341 0.03795035839193733
-0.021392252760225865 0.048090110577851675 0.0364430136418778
-0.02142877825530552 0.04796531468136117 0.03493052155985227
-0.02146542869221187 0.047840091898732506 0.033412855734842484
-0.021502138575034028 0.04771311514377752 0.03189088005214502
-0.021539040599323257 0.047587030106177375 0.030362793019096335
-0.021576069504058448 0.047460511549647255 0.028829451955454666
-0.021613225944747044 0.04733355723447796 0.02729082971711083
-0.021650510581420118 0.04720616490551355 0.025746898972646814
-0.021687924078670637 0.047078332292001535 0.024197632201728103
-0.019132777658833713 -0.004362287727382341 0.05829553470924864
-0.019159101172407517 -0.004611016667289802 0.057016260151830644
-0.01920236137712548 -0.0045280246468630825 0.05549994374152306
-0.019245817382311896 -0.0044446569953855986 0.053976764315522785
-0.019289470520303664 -0.004360911156853664 0.05244667517399543
-0.019333375604441743 -0.004275737080773834 0.05090888113240566
-0.0173127599236781 -0.04455571890524884 0.07834954264492452
-0.017268069613576572 -0.046123151044601296 0.07815016821993584
-0.0172468958480789 -0.0472291306416473 0.07762268559982355
-0.017231251316882485 -0.04822597816493995 0.07701881445550096
-0.017215847128652716 -0.04921690856314537 0.07641302129235575
-0.017201189964026767 -0.05019214691339807 0.07579803728751194
-0.017186008455102018 -0.05117633218643991 0.07519196839256792
-0.017170980250982196 -0.05215634363393845 0.07458514967132107
-0.017156146722109564 -0.053131404231697765 0.0739769624816417
-0.01714201133247383 -0.05409187669766119 0.07336009406786295
-0.017127647425774436 -0.05505558913813674 0.07274789662922179
-0.017113014315943316 -0.05602329144930185 0.07214099558503237
-0.017098740766037634 -0.05698296191379587 0.07153024150134249
-0.017085284356754847 -0.05792593708762139 0.07090887420890762
-0.017071473894972527 -0.05887455369576233 0.070294003106259
-0.017057768987061683 -0.05982006067218609 0.0696788968147165
-0.017045041909086144 -0.06074597832518236 0.06905062657203576
-0.017031254908844703 -0.061690871098201316 0.06843931737186171
-0.017019686080585288 -0.06259289461929118 0.06779627704914376
-0.017007677780315672 -0.06350224488005302 0.06716091378734684
-0.016995355856415494 -0.06441650968046753 0.0665314034870173
-0.01698334059160261 -0.06532404792722296 0.0658984597376363
-0.016971424708336583 -0.06622876568173008 0.06526516667468513
-0.016959484389590485 -0.06713298115161498 0.06463338456803569
-0.016947478687332183 -0.06803745244945492 0.06400373882612687
-0.016935407914829156 -0.06894216588527025 0.06337623406745918
-0.016924255700177568 -0.06982891099832095 0.06273584658788367
-0.0169129544857199 -0.07071751139170213 0.062098811332422954
-0.016901913544544886 -0.07160040815201962 0.061458855482525
-0.016890887009233264 -0.07248215293717197 0.06081973462633844
-0.016880404737568123 -0.0733530272989702 0.060173247263295315
-0.016869854046173485 -0.07422431183051437 0.059528825691952725
-0.016860089110030195 -0.0750803971685382 0.05887317977971479
-0.016850051160264345 -0.07594067341058919 0.0582227329533998
-0.016839862889653043 -0.07680287658279794 0.05757560228638431
-0.016829646415067984 -0.07766477287688223 0.056929890404886774
-0.016819320926626177 -0.07852782186344992 0.05628687508890068
-0.016809533546394775 -0.07938032100204556 0.055636341046937154
-0.016799636431663722 -0.08023401153960003 0.05498848434880832
-0.016790154225238725 -0.08107944542843931 0.05433497595665737
-0.01678068271684514 -0.08192392548039501 0.05368220486687125
-0.016771503546150954 -0.08276241079639612 0.05302566290449695
-0.016762294218711355 -0.0836006972643425 0.05237048389375659
-0.016753335898277044 -0.08443377017264153 0.051712146220171396
-0.01674434704057444 -0.08526666632144281 0.05105515938182287
-0.01673588867553304 -0.08608942808029202 0.050390443038418775
-0.016727518904684772 -0.08690994191894152 0.049725097787972516
-0.016718757643633265 -0.087736697732686 0.04906693085609881
-0.016710365049743513 -0.08855625302956144 0.04840358010394469
-0.016702020782260997 -0.08937428433987377 0.047740241187462396
-0.0166936449791148 -0.0901921983812809 0.04707821948553709
-0.01668559617709441 -0.09100371651657485 0.04641161076576439
-0.016677515344883653 -0.09181514722427131 0.045746302161383645
-0.016669879589381615 -0.09261817501905728 0.04507438976494571
-0.016662449399952258 -0.09341701640812017 0.044399791236150676
-0.016655184554904064 -0.09421239363258638 0.043723147613724644
-0.016648481114633133 -0.09499747463140124 0.043037813177301876
-0.01664202077643371 -0.09577782103149429 0.04234904442398474
-0.016635605038039004 -0.09655688034418664 0.0416601443224065
-0.016629668948616703 -0.09732718386933009 0.0409637701309169
-0.0166236580312293 -0.09809829296532246 0.04026922977703745
-0.01661792798083132 -0.09886411641054538 0.039570501781771183
-0.016612399265374146 -0.09962604481835419 0.03886889839420171
-0.01660592744706076 -0.10040357980573211 0.03818390879010647
-0.016597805353319554 -0.10120861476907184 0.0375277629358583
-0.016588470825777944 -0.10203353430301593 0.036893188663189025
-0.01657895019503887 -0.10286084870968387 0.036262708896549756
-0.016569244119836315 -0.10369052445419136 0.035636339005870155
-0.01655986322390832 -0.10451395137694974 0.03500527483212956
-0.016550532128305574 -0.10533578900459084 0.03437424529355221
-0.016541798664398057 -0.10614687377914456 0.033733716510472134
-0.016535147055800604 -0.10692249453368702 0.033057721097902726
-0.016710564778919076 -0.104664747124466 0.029198763005829298
-0.017293872015299354 -0.09564303036078453 0.01817126782383721
-0.017299735276710984 -0.09624060155876452 0.017240191264654148
-0.01987104801925198 0.060309697320004685 0.05834136011706753
-0.01979482400037266 0.057760847735701226 0.05833949722846393
-0.01971918252742324 0.05523147786359073 0.05833764857706081
-0.01964411694762082 0.05272136524173371 0.05833581400026383
-0.01958353836946417 0.05053841436812223 0.058146908646046325
-0.019616187880259817 0.05042064035263555 0.05670623419386739
-0.019648946438839562 0.0503024729776394 0.055260747958817746
-0.019681814592438635 0.05018391026913238 0.05381042579389167
-0.0197147335859325 0.050063647427244506 0.05235605271173266
-0.01974782238673488 0.04994428624973818 0.05089599135520145
-0.01978102244538675 0.049824523731966885 0.049431020685461236
-0.01981433432397351 0.049704357846320546 0.047961115900187756
-0.01984775858837322 0.049583786551508024 0.046486252029703024
-0.019881295808288513 0.04946280779243861 0.045006403935563766
-0.019914886040936434 0.049340105659378186 0.04352239069050756
-0.01994865069107371 0.04921830389396331 0.042032504018169936
-0.019982530028061298 0.049096088410029604 0.04053755671557785
-0.020016524637220673 0.04897345709610279 0.03903752295504881
-0.020050635107862987 0.048850407826312725 0.037532376732848705
-0.020084800479918962 0.04872561529299313 0.03602296643667985
-0.02011914424690596 0.048601721793497754 0.034507522715931827
-0.02015360566650756 0.0484774038678063 0.03298688748790457
-0.020188185344330922 0.04835265933121907 0.031461034029740376
-0.0202228838901468 0.04822748598401716 0.029929935434860833
-0.02025770191792523 0.04810188161132989 0.02839356461138759
-0.02029257721234146 0.047974509453261316 0.026852806291257192
-0.02032763584563725 0.04784803441042834 0.025305815359733086
-0.017999593314617264 -0.002269137045801839 0.05829634621107482
-0.01793702814769471 -0.004361251355621654 0.05829481462369157
-0.017874847664327384 -0.0064398991108575165 0.05829401124220185
-0.017878797521540937 -0.007122835802481631 0.05732280969738762
-0.017918980222063702 -0.007045872825176325 0.055814192975958465
-0.017959343951151077 -0.006968563119133908 0.05429877972974573
-0.0179998899349025 -0.006890904335976111 0.05277652392614801
-0.01624978807784009 -0.04415792559318277 0.07806389737455266
-0.01620831359938132 -0.04571737879267662 0.0778571977136662
-0.016188895242236757 -0.046815221274543906 0.07732220555755995
-0.01617307472445138 -0.047836834632283276 0.07673477028535022
-0.016157922464556287 -0.048843271148694356 0.07613880767724171
-0.01614291785813406 -0.049845361591290105 0.07554214399340412
-0.0161282983047938 -0.05083823537752691 0.07494112896595093
-0.016113705207383904 -0.05182931243311617 0.0743412015511693
-0.016099415332655652 -0.052812919495671906 0.0737381002211751
-0.016085071822838283 -0.05379639963614452 0.07313728625070387
-0.01607099030205286 -0.05477329935684816 0.07253388040597111
-0.016056854733962022 -0.055750093817475366 0.07193275252212744
-0.0160429403683538 -0.05672117770080132 0.07132962051276864
-0.016029206915228238 -0.057687397185156364 0.07072508055262822
-0.016015888342541165 -0.058644036852107284 0.07011543412724658
-0.016002787260331074 -0.059595139421722954 0.06950372466724836
-0.015989941668749473 -0.060539966473780515 0.06888931877348653
-0.01597699983268178 -0.061485629511637885 0.06827774967462963
-0.015964390030576654 -0.06242351542483493 0.06766222523242826
-0.015952110740231434 -0.06335369740264929 0.06704271884733415
-0.015939850325031025 -0.06428244954870177 0.06642416473816015
-0.015927802291028397 -0.06520591315517604 0.06580345485958378
-0.015916158984784202 -0.06612028576944012 0.06517746030250976
-0.015904918671645986 -0.0670256538861051 0.06454614707184603
-0.015893732768435715 -0.06792897997482789 0.06391510047704207
-0.015882485607010062 -0.06883255919480635 0.06328619191442336
-0.015871139045212618 -0.06973713657015446 0.06266005256848733
-0.015860038970827644 -0.07063588656299341 0.06203104128900022
-0.01584899274025684 -0.07153262699962754 0.06140228049340418
-0.015837961885977008 -0.07242811917862307 0.060774394929286935
-0.015825646944896934 -0.07334779282239895 0.06016883173682708
-0.015816442385220918 -0.07420568071288908 0.05951302624586313
-0.01580694351943959 -0.07506851345139487 0.05886304890506883
-0.015796389905213676 -0.07595103569112421 0.058231613499189205
-0.015786839045929205 -0.07681320352113097 0.05758449928661835
-0.015777299729002832 -0.07767432940826718 0.05693816712136224
-0.01576743051312102 -0.07854100833141653 0.05629835583571041
-0.015757270543468177 -0.07941244363336875 0.055664455831978654
-0.01574772907617451 -0.08027111742640308 0.05502113160096461
-0.01573838813067748 -0.08112512701604047 0.05437537986433538
-0.0157290205097148 -0.0819788465912899 0.053731036144778366
-0.015719927974917246 -0.08282651012926512 0.05308295400270113
-0.01571084594635885 -0.08367319420925728 0.05243562070635899
-0.015702075367714962 -0.08451317900083827 0.05178386734244872
-0.015693314575957438 -0.0853522264727749 0.05113284125507417
-0.015684563554713968 -0.08619033819309252 0.05048254122758755
-0.015676009766190255 -0.08702397571037623 0.049829718253351696
-0.01566754021337171 -0.0878552931755966 0.04917630539399198
-0.015659192054031733 -0.08868360298027361 0.04852164224427086
-0.015651151799232144 -0.08950542296009134 0.04786245059794775
-0.015642783753177795 -0.09033268709826825 0.04720982564418075
-0.01563472303601252 -0.09115349684240365 0.04655265289519478
-0.015627080498131055 -0.09196582709880713 0.04588893097728075
-0.015619445428222965 -0.09277736357952271 0.04522585762110565
-0.015611780625737941 -0.09358879692146421 0.04456409132641498
-0.015604903595165611 -0.09438500227039809 0.043889098826887296
-0.015598218243086782 -0.0951770810419682 0.04321139030195714
-0.015591798273083182 -0.09596370093093143 0.04252961817339296
-0.015585309458237547 -0.09675103513951094 0.04184973660304919
-0.015579307481763494 -0.09752889183143881 0.041161760815158044
-0.015573236113716237 -0.09830750276228156 0.04047564978591689
-0.015567132498740484 -0.09908618151302578 0.03979074221540696
-0.015561070614495694 -0.09986357779576477 0.039105701040739516
-0.015554016685266531 -0.10065846388480904 0.03843932603443517
-0.015546120922828892 -0.1014679917747297 0.0377890289036692
-0.015537017549577857 -0.10229866212905664 0.03716163011152601
-0.015527777668520473 -0.10313101285872267 0.03653766535825964
-0.015518401785602588 -0.10396501731653285 0.03591714625069797
-0.015508890413282734 -0.10480064882518236 0.03530008417217495
-0.015499867235562324 -0.10562672811938395 0.03467496288363664
-0.01549100101511557 -0.10644923180054411 0.03404785178165293
-0.015482510685438981 -0.10726428063675253 0.03341465459365195
-0.016206870646306732 -0.09505725849265378 0.0191136743091046
-0.016206870646442897 -0.09575176343345643 0.018285995371820074
-0.016215010716752288 -0.09630233259289456 0.017305661682293305
-0.01854631148463328 0.06030969731995922 0.05834136011709451
-0.018475169067012617 0.05776084773565676 0.05833949722849047
-0.018404570358926522 0.055231477863547096 0.05833764857708701
-0.018334509151110966 0.052721365241690965 0.05833581400028964
-0.018304332932994095 0.05116377385891829 0.05776720649659339
-0.018334838895153516 0.05104557267255516 0.05632461116462145
-0.018365501851492414 0.05092827976947495 0.05487639913932285
-0.018396267540332693 0.05081059389080128 0.053423335055977184
-0.01842713647882979 0.05069251305829492 0.05196539448932308
-0.018458109187616114 0.05057403528041615 0.0505025528498812
-0.01848918619083033 0.050455158552213164 0.049034785382572166
-0.018520311940171195 0.050334568733336416 0.047562896272993704
-0.01855159892920793 0.05021488618178327 0.046085208097674246
-0.01858299180545977 0.050094798578397215 0.0446025188567134
-0.018614491107382534 0.04997430386341567 0.04311480311877958
-0.0186460973770891 0.049853399963086575 0.04162203527981767
-0.018677811160380482 0.04973208478954938 0.04012418956158059
-0.01870957577883394 0.049609032929124275 0.03862210493836893
-0.018741506046107637 0.04948688700439918 0.037114031519444646
-0.018773545485810506 0.049364323451866254 0.035600801863106046
-0.018805694658806757 0.04924134012599729 0.03408238947961506
-0.018837954129809042 0.049117934866542146 0.032558767697470625
-0.018870324467411537 0.048994105498402885 0.031029909661846877
-0.018902747828346975 0.04886851514543156 0.029496690392016855
-0.01893534141900178 0.048743829059204546 0.027957284864636334
-0.0189680476046185 0.048618712243342965 0.026412561441817917
-0.01900086696964767 0.04849316246204349 0.024862492519779567
-0.016799620426975095 -0.0022691370458249316 0.05829634621109081
-0.016741226271180746 -0.004361251355643914 0.05829481462370706
-0.016683191153371267 -0.006439899110879166 0.058294011242217
-0.01662560220346747 -0.008503167020467828 0.05829249829288935
-0.016610252094931676 -0.00961158655642852 0.0576265439121188
-0.016647411923139892 -0.009540545520325572 0.05612554970958278
-0.01668473838927006 -0.009469185910892797 0.054617824513730984
-0.01518789646132317 -0.043679169107858185 0.07772011450655389
-0.015150653593292684 -0.045206904214469656 0.07748863136910791
-0.015132400054650932 -0.04630868468449639 0.07695448221500628
-0.015116431562962844 -0.04735804894308532 0.07638529439186731
-0.015101242349214797 -0.048388678581205435 0.07580518083337151
-0.015086418505578071 -0.04940983385731318 0.07522076756995796
-0.015071586600241079 -0.05042980580915146 0.0746381085409013
-0.015057117406165646 -0.051440428312351516 0.07405111439746997
-0.015042860938555117 -0.05244504734575306 0.07346219760056982
-0.015028705292093813 -0.0534461462685602 0.07287317374097635
-0.01501509226014146 -0.054434070823833225 0.07227669642600798
-0.015001540658973208 -0.055419403815917145 0.07168068628591542
-0.014988050222791231 -0.05640215949857419 0.07108513767565733
-0.01497469400769584 -0.057380757609965194 0.07048881648065553
-0.014961398170541963 -0.058356819049223074 0.06989294197004886
-0.01494867389640631 -0.05931928278133852 0.06928888325057475
-0.014936007718135408 -0.060279322726723206 0.06868523406303251
-0.014923435805037799 -0.06123616698801515 0.068081370928186
-0.014910957735397136 -0.062189837623198685 0.06747728555352633
-0.014898645668883902 -0.0631387982440158 0.06687172978977901
-0.014886607524778826 -0.06408075957473414 0.0662628268356798
-0.014874588818671063 -0.06502119992003891 0.06565490707746319
-0.014863203455995344 -0.06594702557448107 0.0650373788549729
-0.014851402788431216 -0.06688064633695828 0.06442828237589882
-0.01484012488701988 -0.06780207936825616 0.06381140356865078
-0.014829403365502812 -0.06871068422567966 0.06318607134172022
-0.014818984533288478 -0.06961190290976454 0.06255662547366048
