# .PCD v0.7 - Point Cloud Data file format
VERSION 0.7
FIELDS x y z
SIZE 4 4 4
TYPE F F F
COUNT 1 1 1
WIDTH 762
HEIGHT 1
VIEWPOINT 0 0 0 1 0 0 0
POINTS 762
DATA ascii
-0.052095852213415006 -0.009099285954978317 0.036289691134884505
-0.05383049512832505 -0.009071631406160647 0.03628752051274725
-0.05554784735424734 -0.009044331662856649 0.036279461121477785
-0.05725741559149522 -0.009017125948179047 0.036273656763083806
-0.05895506273397322 -0.008990129660687247 0.03626642049120116
-0.06063513453393837 -0.008963501412033685 0.0362526464919925
-0.062297902692912355 -0.00893723610312817 0.03623239173743459
-0.06395258158193312 -0.00891107883537801 0.03621370945387303
-0.06559356845348469 -0.008885187164994838 0.03619151126665804
-0.06722024423592193 -0.008859580255615056 0.036165103917087826
-0.06883201220522533 -0.008834276815691718 0.03613380150429507
-0.07044011436974074 -0.008808962092559205 0.03610771039790123
-0.0720484046639564 -0.008783527154128053 0.03609037213308497
-0.07363192921226097 -0.008758677611258404 0.03605883427328471
-0.07494786260460412 -0.008741307400328906 0.03578768196723797
-0.07562715033990208 -0.008741963279398274 0.03492916082769976
-0.07588632028025982 -0.008754597194247829 0.03367685987316926
-0.07585808727809107 -0.008775500046013376 0.03214959169466508
-0.07583667690652701 -0.00879630371687565 0.030621598930059668
-0.07578803879351048 -0.008817984806674242 0.02906053389358798
-0.0757919964447657 -0.00883825307498789 0.027542289743259563
-0.0757500252358444 -0.008859939578283885 0.025972875148939867
-0.07573361521548772 -0.00888098805344071 0.024420642501924605
-0.07571243092252156 -0.00890227281506911 0.022856454980928143
-0.0756699582963129 -0.00892427501891947 0.021264063096555708
-0.07562255436576348 -0.008946523645060838 0.019659146591668897
-0.07560094522530375 -0.008968124081591674 0.018071892443850213
-0.07553494373949698 -0.008991124076477529 0.016433031377333485
-0.0754900169800014 -0.00901361471042472 0.014807090825900093
-0.07543214170571833 -0.00903659193442206 0.013160245728391584
-0.07536838860090905 -0.009059850983544941 0.011499360338914522
-0.07529790898216887 -0.009083418914503627 0.009823425626172
-0.07520219857402 -0.009107845438785934 0.00811344456463342
-0.07509551295868722 -0.009132713892148479 0.006383542306939771
-0.07495757202389441 -0.009158630360607739 0.004612628434196242
0.004185464065048383 -0.011256475452923364 0.0356727382558123
0.0021235257911088046 -0.011219828426608508 0.0356479556827109
7.932806302501927e-05 -0.011183546471772277 0.035620082919262275
-0.0019981390349361194 -0.011146139677902752 0.03562722531991663
-0.004073531393391672 -0.011108637069757782 0.035643200214941495
-0.006120148017305205 -0.011071822408956086 0.035647804437555275
-0.008165868116606134 -0.011034879337015637 0.03566200071253395
-0.010204238339079907 -0.01099799741388011 0.03568089732152757
-0.012226960993942548 -0.010961422322595527 0.035698075229453785
-0.014235250028167223 -0.010925120048210201 0.03571434553969893
-0.016225202105258962 -0.010889208205547573 0.035726553084113266
-0.018236348335704977 -0.010852513218359831 0.035765485632052174
-0.020209036361153287 -0.010816808542314163 0.03578451645937081
-0.022094567110145902 -0.010783555515337127 0.03574468283288551
-0.024061772087949906 -0.010747714843674958 0.035779275156493984
-0.026019834004242792 -0.010711994899269103 0.03581675017697972
-0.02802082898470759 -0.01067483053983221 0.035898936289826266
-0.0299373016024595 -0.010640053250471989 0.035923404376048185
-0.03183185557889884 -0.010605787873368255 0.035940014601654635
-0.03374241745627515 -0.010570889888148534 0.03597953832818668
-0.03568605050113205 -0.01053483764836305 0.03605626595802425
-0.03749746125842418 -0.01050264793350081 0.03603418504510014
-0.03929142902680405 -0.010470849506241013 0.03600691916538501
-0.04110089089309016 -0.010438439397140724 0.036001790078388385
-0.04290818660376089 -0.010405953920369491 0.03600424523584228
-0.04471051582215535 -0.0103734784460636 0.03601195528881329
-0.04651225018505317 -0.010340878700627124 0.036028623075347155
-0.04830357322907264 -0.010308456185348763 0.03604593448507676
-0.05007586748393661 -0.010276478052820925 0.03605642648549323
-0.05183288568633615 -0.010244831163238733 0.03606313668185013
-0.05357398127983343 -0.01021353776141246 0.036065359054178736
-0.05530786718590314 -0.010182329483642366 0.03607052327101834
-0.05702193174185077 -0.010151599623153224 0.036067553487317605
-0.05871900370164479 -0.010121263095793729 0.03605872620260314
-0.06040430714049083 -0.010091159133905906 0.03604848696920404
-0.06208043620385745 -0.010061207975714333 0.03603903859591068
-0.06374012884609132 -0.010031638818716413 0.03602382208415056
-0.06537959090274836 -0.010002573718651018 0.03599925738253934
-0.0670103817728458 -0.009973651257869772 0.03597555855258405
-0.0686357445259747 -0.009944769817350894 0.035955605875806596
-0.07025093235930024 -0.009916080168066492 0.03593504856431057
-0.07187012841180312 -0.009887132934016427 0.03592681228765715
-0.07348533064200807 -0.009858181207795752 0.03592363384199598
-0.07482608213411329 -0.009837858151819848 0.03567478308791039
-0.07558562862622159 -0.009836037122990473 0.0348904663115035
-0.07587093393486632 -0.009849415237215112 0.03366244634317361
-0.07588507642976494 -0.009871570104407076 0.032175006303601206
-0.07584363436525848 -0.009895617550135512 0.03062818464271616
-0.0758430607992564 -0.00991845631119436 0.02911288732513484
-0.07579743442594578 -0.009942858717445012 0.027547490921273787
-0.07576092918011257 -0.00996707831857756 0.025983358536499135
-0.07572034150329543 -0.009991543138570898 0.024407814377457593
-0.07568581688311604 -0.010015924253854554 0.022830600662438583
-0.07565033851942393 -0.010040450285731415 0.02124490436705767
-0.0756107516319458 -0.010065225544240759 0.01964756136755641
-0.0755725467437049 -0.010090071590547848 0.01804387264545526
-0.07553177984078735 -0.010115118664755847 0.016429893475000512
-0.07548684470352174 -0.010140421149290764 0.01480392830224786
-0.07542577971638764 -0.01016637619646415 0.013153870429442993
-0.07536759115457875 -0.010192358775265377 0.011498557084823668
-0.07530590579337204 -0.01021858072233709 0.009831522385254643
-0.07520300067376845 -0.010246299419345442 0.008114260892655711
-0.07509953575941686 -0.010274168903628028 0.006387657648483536
-0.07496241523942637 -0.01030329717061364 0.0046176086862026455
0.003929584420601762 -0.01249892977957566 0.03586155219576764
0.0018292336972189904 -0.012456950323038759 0.035866295750574595
-0.00016349359149359088 -0.012418286658674017 0.03580121518466517
-0.002188131954916961 -0.01237842421548662 0.03576971927810807
-0.004206232705328383 -0.012338607795711021 0.0357432651658649
-0.006230484280868365 -0.012298423540380412 0.03573145520484872
-0.008246851106673059 -0.012258328211570857 0.035723729470344634
-0.010248028162560985 -0.012218561810789712 0.03571445610624008
-0.012239364151334253 -0.01217895073484775 0.03570763179519615
-0.01421783052857939 -0.01213959565747381 0.03570085158826797
-0.016188631482938254 -0.01210032654233089 0.035698071310372614
-0.018188016692413433 -0.012059945669382866 0.03572764182347837
-0.020100217696370604 -0.012022280923209188 0.03569885357748387
-0.02211238259542997 -0.01198113692906336 0.03575878255046644
-0.024063734340065035 -0.011941840101607211 0.035780836464278876
-0.026030531585656436 -0.01190185990465939 0.035825307497765746
-0.027882962036103243 -0.011865529083541692 0.03578806261650974
-0.029735596026033373 -0.011829035062439876 0.035760324699072865
-0.03161101497993429 -0.01179161906461291 0.03576051141642761
-0.033494354603328 -0.011753774961593121 0.03577683356225858
-0.03536657636492285 -0.011716141577791736 0.03579381713713681
-0.037269360886017566 -0.01167731258168431 0.03584580306371549
-0.039155910798941984 -0.011638864122966623 0.03589440341796257
-0.04097922032592782 -0.011602393167274731 0.03590023510941953
-0.04288118269459834 -0.011563089020087533 0.03598158626456499
-0.04465874317934171 -0.011527851026765172 0.03596828262514273
-0.04646799675418023 -0.01149137622111697 0.03599109554248131
-0.04819209595834184 -0.011457654880930245 0.03595090003261092
-0.049939201353886964 -0.011422995877135895 0.035939302640045245
-0.051667995374939935 -0.011388813100753027 0.03592107816693563
-0.05341045908078007 -0.011354008076040461 0.03592373578329633
-0.05514400397079877 -0.01131935648447494 0.03592785636579238
-0.05685436293747054 -0.011285352989300328 0.03592089171178131
-0.05854277817829173 -0.011251958848694815 0.03590367585632065
-0.060229519117895924 -0.01121847369436353 0.035893892496038915
-0.061902140131363526 -0.011185330423921126 0.03588051253569852
-0.06356001458543525 -0.011152553214944618 0.035862838404321806
-0.06519606739485084 -0.011120392086853384 0.03583436575209048
-0.0668243163806318 -0.011088359631881945 0.03580750642896091
-0.06844639619204096 -0.011056399269095307 0.0357836924690888
-0.07007020757574578 -0.011024233171824948 0.035770105436625566
-0.07168459814197753 -0.01099225369163058 0.035756597231594744
-0.07333004851444441 -0.010959029620302912 0.03578042500590828
-0.07470806368422989 -0.010935139324081392 0.035565371860657724
-0.0754910095025863 -0.010932293710883653 0.0348022897675353
-0.07582476564767987 -0.010945439683250988 0.03361919708708372
-0.07588045005492133 -0.010968576443156866 0.03217064983071671
-0.07586914235107284 -0.010994217580048761 0.03065232970365067
-0.07584073632457128 -0.011020590406408402 0.029110675587764312
-0.07578422756636033 -0.011048095707988552 0.0275348591696295
-0.07573989945183485 -0.011075289433614181 0.025963139908598998
-0.0757000383134433 -0.011102448079837781 0.024388192749179916
-0.07566702772679468 -0.01112948509124635 0.022812347858935822
-0.07563621072900167 -0.011156568640888284 0.021231108567205448
-0.07559737410457185 -0.011184070610522338 0.019634430371374356
-0.0755544005223765 -0.011211852360389057 0.018025968397248182
-0.07552070568246894 -0.011239425507934556 0.016418910308214074
-0.07549794738504512 -0.011266727842784317 0.014814996849754902
-0.07544804552790096 -0.011295155876303307 0.013176182822210725
-0.07539310738804783 -0.011323903824751447 0.011524259151705407
-0.07532589600308748 -0.01135324099057762 0.009851762441942857
-0.07523748700740984 -0.011383501646218822 0.008149358971906828
-0.07517755729916137 -0.011412850701887727 0.006467474001664364
-0.07508102646749554 -0.011443700140917543 0.0047395759624203615
0.00376803397146952 -0.013743082692563342 0.0359807604933568
0.0017173451287819108 -0.013698661560135175 0.03594930769052451
-0.000349484739468775 -0.013653479298345714 0.03593995486191681
-0.0023994921077094 -0.013608709707928358 0.03592823857860811
-0.004440373464891456 -0.013564079625985322 0.03591982169927749
-0.0064721494101493415 -0.01351958919101556 0.035914672153108396
-0.008476988185329382 -0.01347588085827005 0.035899149962720645
-0.01047931787769113 -0.013432078813552545 0.03589170737466829
-0.012466608406143331 -0.01338863519070777 0.035882722265475175
-0.01443903833570409 -0.013345545799361161 0.03587220940428565
-0.016399827816961365 -0.013302696051304266 0.035862554324846696
-0.018330960719566358 -0.013260742568696644 0.035839567386772686
-0.02031379998991073 -0.013216726293742011 0.03586698718600789
-0.02222418408835053 -0.013175167995932059 0.035847265656605176
-0.024149071548544565 -0.013132901211275808 0.035848736835955575
-0.026055814229755336 -0.013091118698362447 0.035845531853861634
-0.02797070793553308 -0.013048857153606267 0.03585862855190425
-0.029869454826500053 -0.013007008400442081 0.035868550016028344
-0.03182806666566129 -0.012962769473878833 0.03593693490526789
-0.033748990088655506 -0.012919733406092057 0.03598490916018493
-0.03555572383935829 -0.012880743951063547 0.03594920227168463
-0.03745869619976927 -0.012838009854886593 0.036002170022586766
-0.03917789398647953 -0.012801932062329626 0.035912655241466584
-0.04093016442121156 -0.012764462904404306 0.035859289538133166
-0.042778528721058806 -0.012723236614281553 0.035895449349204744
-0.04454532359025898 -0.012684886684368945 0.03587260785757307
-0.04632807937818023 -0.0126457689474931 0.03587244363634051
-0.04812622804389405 -0.012605899718871537 0.03589474758876671
-0.049896524617940585 -0.012566905411224186 0.03590272837381414
-0.05165676650607903 -0.012528118946952101 0.035911404121074186
-0.05338733028090742 -0.012490285263294064 0.03590370439729179
-0.05511427028894578 -0.01245242128009365 0.035901968845104826
-0.05681560392465457 -0.01241536344909125 0.03588696853820106
-0.05850349806672711 -0.012378653059675932 0.03586911562472522
-0.06018475619642566 -0.01234203234420677 0.0358543011089445
-0.06185362906083919 -0.012305722190285112 0.03583738052062191
-0.06349558053541776 -0.01227028289671726 0.035805248125571565
-0.06512891112867591 -0.012235015992889928 0.03577402739897534
-0.06676411905634044 -0.01219951768048795 0.035753136897565374
-0.06837712368644416 -0.012164717389519224 0.035720798477989923
-0.06999596312915268 -0.012129533405810496 0.035702344330520164
-0.07161330198134563 -0.012094248003496991 0.03569118644989111
-0.07326866914140195 -0.012057321807100977 0.03572381792104201
-0.07465558202202482 -0.012030700790494123 0.03551671774703574
-0.07536090933860257 -0.012030610443764677 0.034681048073583465
-0.07562146018968263 -0.012047951798330913 0.033428745797827564
-0.07564509224390886 -0.012074679636086884 0.031949022756282475
-0.07574156004111005 -0.012098662678401477 0.030531564282553436
-0.07576710975876916 -0.012125555055289693 0.029040619919663946
-0.0757181762327187 -0.012155517962191855 0.02747168411753359
-0.07568068920260745 -0.012185165885005308 0.025906213352953844
-0.07565395573731093 -0.012214524165826393 0.024343657127657847
-0.07562082795018576 -0.012244273809073006 0.022767466895155908
-0.0756079512516194 -0.012273353749821773 0.021203513162528442
-0.0755958002013109 -0.01230254065578047 0.01963288547319303
-0.07556465734550905 -0.012332626178459202 0.01803608844945398
-0.07553494373960734 -0.012362795605152167 0.016433031377442897
-0.07550270543174825 -0.012393208875111934 0.014819740268348258
-0.07546792299300936 -0.012423868499982648 0.013196101872026633
-0.07542659102197691 -0.01245493841227845 0.011557986645213791
-0.07537386191121254 -0.01248661828260181 0.00990032785037892
-0.07539618488384697 -0.012515395378518845 0.008310871955632348
0.0037016824778470236 -0.014989881983004737 0.03602972135134097
0.001563878472190916 -0.014938033501183822 0.03606316708705809
-0.0005287786547632511 -0.014887726063030035 0.0360736987535587
-0.002598775097670314 -0.014838092272705179 0.036077700053502026
-0.004656082452089261 -0.014788746613488751 0.03608247954269039
-0.006690229557112903 -0.014740101031393667 0.0360800082904385
-0.008713136214598682 -0.014691692087919593 0.03607915226313185
-0.010715520229878539 -0.014643886374022135 0.03607272349338064
-0.012716255583105851 -0.014595943775602603 0.03607507406620575
-0.014685535901396651 -0.014549040754631034 0.03606315783897157
-0.016681720417021373 -0.014500873887380033 0.03608209669915102
-0.018553207258402704 -0.014457448732520554 0.03601358703309809
-0.02053310866970748 -0.0144095289908252 0.03603962864941618
-0.022436712583485008 -0.014364444161621966 0.036015467179690785
-0.024382315570994795 -0.014317489839623618 0.036034322421633014
-0.02618023043765927 -0.01427624285617397 0.03594505616322191
-0.028090204003718033 -0.014230325926641819 0.0359547282201762
-0.029986020524454926 -0.014184780170581062 0.035962793798008486
-0.03188678563485203 -0.014138838681168433 0.035984662732725325
-0.03380719403634369 -0.01409190591559058 0.03603247056428899
-0.03565161653181936 -0.014047842724939565 0.036027978364068125
-0.037493769722779346 -0.014003680189660254 0.036031136304794265
-0.03934542341124597 -0.013958939613478799 0.03605174869583222
-0.0411190432557354 -0.013917180303653619 0.03601694134026001
-0.04303954444271901 -0.013869246618029015 0.03611446755521397
-0.04483006791581079 -0.013826416908611623 0.03611280311294546
-0.04656799294088709 -0.013785554317030695 0.03607589371765274
-0.04830620565300964 -0.013744500151463222 0.03604817862835252
-0.050017558715623744 -0.013704370358035416 0.036006455456346065
-0.051736215986535716 -0.013663761988384813 0.03597985250417712
-0.053456706944945476 -0.013622897992624254 0.035963790123516526
-0.0551618415917659 -0.013582488810442276 0.03594338662484625
-0.056865314902316055 -0.013541968863789226 0.03593047723467019
-0.0585486275941316 -0.013502107210520482 0.0359088224090689
-0.06022454607298694 -0.013462375835597649 0.035889493995236
-0.061882408582842996 -0.013423221261455022 0.03586296888145474
-0.06352820861905539 -0.013384396288729169 0.035834410663566074
-0.06517260638252098 -0.013345455554653392 0.03581328657471766
-0.06680585830427133 -0.013306808298852018 0.03579083530654814
-0.06842490109269816 -0.013268585709054084 0.03576417660814096
-0.07003545924102517 -0.013230548684728675 0.035738391474113396
-0.07166658131633619 -0.013191467764054225 0.03574006766480503
-0.0733013042419503 -0.013152056147389686 0.035753915620232946
-0.07464245881465664 -0.013124959399544712 0.035504551630423764
-0.07529235079228219 -0.013127226891956747 0.03461715765226314
-0.0754603190907292 -0.013150109888949654 0.03327779298844341
-0.0755655292591223 -0.013175787386911034 0.03187410146314312
-0.07564870631561127 -0.013202529424085337 0.03044367185245417
-0.0756608703300406 -0.013232452038259094 0.028939533116590976
-0.0756357665321794 -0.013264121134331938 0.02739286304250388
-0.07560274620615925 -0.013296279370948197 0.02583127655768014
-0.07558441518954884 -0.013327950154303082 0.024276450999539623
-0.07558088135686908 -0.013359125393229176 0.02272866061210932
-0.07556241116260898 -0.013391096633500079 0.021159043225301044
-0.07554700120445262 -0.013423083803058166 0.01958498578115553
-0.07552993918244927 -0.013455293215441753 0.018001833240203047
-0.07550409294931865 -0.013488039259893609 0.016402434074651195
-0.07550270543179405 -0.013519864227392823 0.014819740268393944
-0.07549336239963733 -0.013552190026425976 0.013221594499237821
-0.0754114445667432 -0.01358787459439181 0.011542729879127689
0.0035999877228067856 -0.016234768520098263 0.03610476205031288
0.001411629080366461 -0.016176463175099923 0.03617612337515874
-0.0006720928655428171 -0.016122326857840083 0.036180603665784905
-0.0027462177963758494 -0.016068369845532775 0.036188281509627274
-0.004816103419774842 -0.01601436640318662 0.03620314519432927
-0.006873179483426695 -0.01596067988977525 0.03621871066460097
-0.008904983801933997 -0.015907842208983378 0.036225386839619955
-0.010920263788248674 -0.01585548599352329 0.03622963083966363
-0.012921292068703072 -0.015803517250583286 0.03623305357032014
-0.014882700903251944 -0.015753023948222075 0.036215890984117816
-0.016806304402129324 -0.015703937679515022 0.03617912465903744
-0.01868180540096953 -0.015656709910923362 0.036114279729617726
-0.020533108669685884 -0.015610323073394898 0.036039628649399136
-0.02251276655978779 -0.015558198978497268 0.03607565861257489
-0.0244958876689082 -0.015505702177607376 0.03612468848583672
-0.02642589189976019 -0.015455282519106148 0.0361415682396139
-0.028321258365663904 -0.015406150760269455 0.03614054393673538
-0.030126370458209983 -0.015360736078383341 0.03607626721934776
-0.03199659421291284 -0.01531228521649805 0.036073917107236064
-0.033754623576668974 -0.015268529570850205 0.03598951256958527
-0.03564696276906393 -0.015218700169245558 0.03602415528604885
-0.03755466997572804 -0.015167979673187842 0.03608143219075127
-0.03938659416720314 -0.015120373019420387 0.036085931244198954
-0.041209776165763434 -0.015072944268946632 0.03609267352493911
-0.04301615937704245 -0.015026050636939197 0.03609484515431294
-0.044813121640707 -0.014979368872593908 0.036098508131409746
-0.046569762249748015 -0.014934271974979716 0.03607739411649458
-0.04835796824355021 -0.014887572500093246 0.03609230627354865
-0.05008021806580548 -0.014843607669149564 0.03606015496509701
-0.051807860552245066 -0.014799207622565107 0.036041576692336985
-0.053583393847704885 -0.014752466377212491 0.03607351108893048
-0.05524760494687181 -0.014710513821442147 0.036018056174366375
-0.056928484956042136 -0.014667624893892861 0.03598576576092338
-0.058605439517376956 -0.01462472172756625 0.035958807837992934
-0.06027095520089254 -0.014582143689426062 0.03593054139981272
-0.06192104725697939 -0.014540073400393306 0.03589732318156352
-0.06356246093599177 -0.014498208155429827 0.035865024919222444
-0.06520011204699744 -0.014456325739524082 0.03583799977856855
-0.06682993362841344 -0.014414611441687772 0.03581257986259295
-0.06844161975720103 -0.014373537290441612 0.03577935584162428
-0.07004651636637205 -0.014332588052143632 0.03574848304430123
-0.07164621195881404 -0.014291691667349015 0.035721379763710204
-0.07324768580199797 -0.014250527430166962 0.03570446605060834
-0.07456369610789648 -0.014222337589698224 0.03543153317935205
-0.07518752813183954 -0.014226006650223716 0.03451947232637692
-0.07539396315556873 -0.014249025918689923 0.03321563246641124
-0.075489017268692 -0.01427732176141564 0.03180205316984336
-0.07550544682662741 -0.014309406376708576 0.030308066904414233
-0.07552505612120775 -0.014341490671302755 0.028810305913968492
-0.07551673870986964 -0.014375028782935853 0.027279018424072987
-0.0755044817251403 -0.014408906886302579 0.0257368020618004
-0.07551015178667514 -0.014442100398651908 0.024204680558715663
-0.07550252455926881 -0.014476074383110321 0.022652540577487168
-0.07548229068267409 -0.0145108017154117 0.02108080550572794
-0.0754635347667158 -0.014545621565716779 0.019503057526059075
-0.07544626776527619 -0.01458053406532849 0.01791927755029943
-0.07508739718521074 -0.014631842262732113 0.015989162118013767
0.0031319979618704696 -0.017462433716335525 0.03645009233562041
0.001038635284457301 -0.017403904101281783 0.036452853509615024
-0.0009963244535649562 -0.017347782501837335 0.03642246348743072
-0.00308157356526767 -0.017289137984840865 0.036439797044608924
-0.005082504457513404 -0.01723409282507714 0.036404027961637275
-0.007074958170368795 -0.017179204061795628 0.03637168794914081
-0.009077792618178482 -0.01712360914255922 0.03635710923659097
-0.011081198211207344 -0.017067753749719427 0.03635296460133619
-0.013059228963790026 -0.017012829365283408 0.0363393332025595
-0.015024569864789339 -0.016958257342552872 0.03632578925455293
-0.01698442361771585 -0.016903707300396083 0.036317846695340494
-0.018917667460907506 -0.01685015690542697 0.036298960366116684
-0.02084168478131826 -0.01679680635595025 0.03628254211517906
-0.02275651553973912 -0.016743655074083687 0.03626856897808822
-0.02466317749387731 -0.016690656935879875 0.03625779620632025
-0.026565564037295264 -0.01663763120157569 0.0362532962311613
-0.028433788329334075 -0.01658597565892751 0.036231041409527764
-0.03030665648408931 -0.016533880081062036 0.03622202911341382
-0.03216496009511405 -0.016482243975216943 0.03621076790496247
-0.03400137969708206 -0.01643141491112349 0.03619114953793989
-0.03584231350341349 -0.016380152650200222 0.036184636414499205
-0.03764505803064894 -0.016330473520588886 0.03615608126168374
-0.03956123142318424 -0.01627520329514725 0.036230926066626146
-0.04134850435108789 -0.016225813429028315 0.0362084660036322
-0.04299277109414951 -0.0161830138039521 0.03607522005384667
-0.04469534272342407 -0.01613724574158244 0.03599915606509746
-0.04655472253130072 -0.016083781053814524 0.03606464022335698
-0.0482860226780612 -0.01603621708309866 0.036030972627875635
-0.050098489268061486 -0.015984546395086337 0.036075813515378696
-0.051835474277519555 -0.01593627947203194 0.0360653668396812
-0.05357911547446498 -0.015887477808794157 0.03606980567635776
-0.055265431297469636 -0.015841230219680556 0.036033576620914665
-0.05694953620330134 -0.015794884014421553 0.03600419051075504
-0.058620474637748 -0.015748970400932486 0.035972036345280456
-0.0602850410458623 -0.01570316168659156 0.03594299988380867
-0.06193091096043002 -0.015658059580251606 0.035906093167493436
-0.06357306135526264 -0.015612936845794822 0.035874499429989826
-0.06520011204701959 -0.015568350796409464 0.035837999778588425
-0.0668162913948897 -0.015524097470483838 0.0358002583540773
-0.0684193278096783 -0.015480290898482836 0.03575911650515168
-0.07001571243108695 -0.015436613990158325 0.03572036903950898
-0.07160624893831041 -0.015393027903127524 0.03568471562377318
-0.07321192986046632 -0.01534849325394456 0.03567149015795218
-0.07449880248622015 -0.015319585820543387 0.035371372324879746
-0.075129690962225 -0.015323193293961514 0.034465573267354
-0.0753113640427931 -0.015349225042356095 0.033138255756142376
-0.07534516443801609 -0.015382769416562912 0.03166659269001215
-0.07538531575309382 -0.015416149893696284 0.03019435459048625
-0.07539922394229615 -0.015451002443364056 0.028690576611560603
-0.07540930118615613 -0.015486208973144202 0.027176259391310964
-0.07541317987018786 -0.01552189141267986 0.02564902164887739
-0.07539516820624476 -0.015558846720619567 0.024093556883585332
-0.07538177694327686 -0.015595739830561775 0.022535239807275287
-0.07471274136347611 -0.015666120318660715 0.020329339914382905
-0.018668748792490697 -0.01806608191074217 0.03610405636955283
-0.02105737565451621 -0.017985860661760913 0.03645233561367267
-0.023070829546425975 -0.017923978996295862 0.03651732665464552
-0.02496214891654569 -0.017867927433541545 0.036495679201107634
-0.026765182677536692 -0.01781605070583784 0.036412977253756085
-0.028576031680931535 -0.017763559484263492 0.03634543462020018
-0.030414358577529332 -0.017709462259495313 0.03630910663957332
-0.03224057755940579 -0.017655741095080703 0.036272231131211585
-0.03406418580684589 -0.017601919378893573 0.03624247160259919
-0.035880427775502766 -0.017548236853252828 0.03621594738660949
-0.037698530725371215 -0.017494226968238536 0.036200242926460846
-0.039446045625529336 -0.017443565867416754 0.03613529158025447
-0.04123245186928498 -0.01739070500276522 0.03611160029105176
-0.043012561389094595 -0.017337934205242895 0.03609182608381184
-0.04485682173498462 -0.017281653904677587 0.03613537122002258
-0.0465874543149043 -0.01723094615658403 0.03609239723701019
-0.04833165028307701 -0.017179319142904863 0.036069870193554954
-0.050037577460466054 -0.017129433141034822 0.03602361166305307
-0.051761251947755604 -0.017078411737410596 0.03600142182162358
-0.05350636612331816 -0.017026056605179654 0.03600679893400943
-0.055243360291895416 -0.016973889601634908 0.036014360581131166
-0.056939431943851426 -0.016923614423969342 0.03599534692774514
-0.05861713362034371 -0.016874070642605415 0.035969096782976384
-0.06028586958670684 -0.016824772899589495 0.035943732701958664
-0.061931732908382386 -0.016776449461984644 0.035906823975350055
-0.06356735352464488 -0.016728445514466124 0.03586939784850851
-0.06518878676176132 -0.01668097024245462 0.03582782427152165
-0.06679943759870782 -0.01663384811343522 0.03578503619908241
-0.06839782901084618 -0.0165871593903738 0.035739597285358304
-0.06998806271068342 -0.016540690283345615 0.03569513381015482
-0.0715725466555166 -0.016494314762624963 0.03565379540810931
-0.073140393208729 -0.016448611385538065 0.035605515529747056
-0.07441068888503288 -0.0164185297073178 0.03528968495097273
-0.07503942156775112 -0.016422520522058583 0.034381450281164794
-0.07521017761075843 -0.016451006165771543 0.033043466926437226
-0.07522440986661022 -0.016488007199962594 0.03155288292074587
-0.07526198696112746 -0.016523925091870263 0.03007761541638304
-0.07528417609624094 -0.016560836742704917 0.02858110860050922
-0.07522617310614382 -0.016602244522442456 0.027001105834869976
-0.07461962026444202 -0.016673501007639365 0.02488606902422702
-0.04449439400992927 -0.01845352049507432 0.03582964635683167
-0.04642904410590787 -0.018388329965294818 0.03595806314794331
-0.04822633703529294 -0.018330373079991726 0.03598009057502877
-0.05003409611253273 -0.01827158637751923 0.03602062812311424
-0.051798367270682044 -0.018214931443879433 0.036033397912946685
-0.053550019589088727 -0.018158721103197595 0.03604460631822742
-0.05522043725507808 -0.01810674843883096 0.035994402723481256
-0.05690490433196843 -0.01805376682487465 0.03596512721660905
-0.05858204878209067 -0.018000955301997166 0.035938227722599136
-0.060265983432693515 -0.017947530237089088 0.03592614402821925
-0.06193913025043368 -0.01789446716057238 0.035913401077554474
-0.0635755075060001 -0.01784321976143447 0.035876685766294936
-0.06522114257858802 -0.017791223573424036 0.03585689522516777
-0.06681950143815302 -0.017741645569988786 0.0358031576282567
-0.06840658813546308 -0.017692477445148125 0.035747549882148955
-0.06997937178966213 -0.017643892811363894 0.03568720181727858
-0.07154275717055242 -0.017595618568555852 0.03562646499535238
-0.07311705889639719 -0.017546506642312096 0.03558399547613639
-0.0743318077267856 -0.017517574705315214 0.0352165566872184
-0.07491975236674409 -0.01752416173324731 0.034269929309940106
-0.07512593358404729 -0.01755254249118373 0.03296454930338222
-0.07508650997361382 -0.017595087118947833 0.03142302808517394
-0.07459476668332449 -0.01766373200191927 0.029446045586388636
-0.06845992863680012 -0.018795070195034177 0.03579597886544322
-0.07015230934033873 -0.01873627971082705 0.035845037726342954
-0.07179265532411094 -0.01868034556317012 0.03585573447390067
-0.07330208118449816 -0.018632032803104652 0.03575463215496705
-0.07439909124319655 -0.018608366278991022 0.0352789331386264
-0.07463603546375891 -0.018636567581299376 0.03400553058154959
0.0847637470226123 -0.038106798013690796 0.03573416382121075
0.08191010323335679 -0.0379479291684679 0.035848431741203224
0.07906683186835661 -0.0377892899641964 0.035969980033419946
0.07640112102407282 -0.03764458093085551 0.0359949198547766
0.07372380471093715 -0.03749835342634754 0.03603962628012952
0.07119952816959418 -0.03736414219678012 0.03600084811779358
0.0687317522909523 -0.03723406111701125 0.03593802175187655
0.06645216598069881 -0.037119009831759274 0.03576692401564158
0.06470487404004077 -0.03704755040151332 0.035265683204719844
0.08473957069240046 -0.039516118507254325 0.035748927415294285
0.0819639517595862 -0.039357965943751246 0.0358153598348846
0.07919713136215578 -0.039199943748384015 0.0358894964523957
0.07645537252146922 -0.03904343461047855 0.03596121822010889
0.07375429618808305 -0.03888977736370042 0.036020576588715825
0.07109884244493486 -0.03873941018351638 0.03606411016575589
0.06847523808522771 -0.03859117518971878 0.036100108797968766
0.06591537013049298 -0.038447815819675796 0.03610804096548359
0.06334509976033226 -0.03830299899862168 0.036134671666744056
0.06078858158661671 -0.038158792906622954 0.03616466130164414
0.05826495417813338 -0.03801684995319427 0.03618556311358756
0.0557749760294185 -0.03787724906621564 0.036196597064333924
0.053231891268951614 -0.037732500505878744 0.036254169925326374
0.0507081693974995 -0.03758885405207055 0.03631130443006714
0.04813496283281987 -0.0374403377877263 0.03641336589826172
0.04583171030053684 -0.03731471699622194 0.036348656485533704
0.04359963005790968 -0.037194798470936104 0.03624710540446796
0.04147319204480576 -0.037083627789530275 0.03608481298091759
0.0399794662748964 -0.03702739469028197 0.03550442916559998
0.08463684916126901 -0.040918420703863215 0.035811655669581666
0.0819071120148312 -0.040758624655651526 0.03585026884438475
0.07916158784986871 -0.04059681970539565 0.035911451020810614
0.07644364138267296 -0.0404368105518091 0.03596850573424071
0.07375284412094557 -0.04027856994009183 0.03602148377437786
0.07109021431716689 -0.04012219822619491 0.0360695313218784
0.06845245091983598 -0.039967414181433916 0.03611450762752566
0.0658264989101488 -0.039813069184499374 0.03616451584248004
0.06333252196957245 -0.03966984539550824 0.03614270973248124
0.06083565399386498 -0.03952579876393027 0.036134408718806355
0.058381549204535976 -0.03938499798286682 0.036110206597479766
0.055855148000432675 -0.0392371756167855 0.03614448911203799
0.05320229089068673 -0.039077438177471654 0.03627351700133963
0.050806810598044705 -0.03894016708525812 0.036246469495472444
0.04835279781553892 -0.0387970843908481 0.03626938427297638
0.045948162152529726 -0.038657879848565654 0.03627125475348164
0.04354126843850992 -0.03851791418155665 0.03628611330791437
0.041155595294733616 -0.038379307139519356 0.036298273975566786
0.03874629508263128 -0.03823800097634933 0.03633787870112187
0.03640637814321862 -0.03810242878731427 0.036342051734254865
0.03405674891521088 -0.03796542545183424 0.03636413162629892
0.03168557277591466 -0.037825902842366955 0.036412429772547605
0.02935383950545789 -0.03768941985511619 0.03644511809904083
0.027020642486940027 -0.037552248720337376 0.03649023778779453
0.02472844924387646 -0.03741828237973275 0.03651820534238498
0.022394094558323863 -0.03727989300521001 0.036587041027723255
0.02020815007473198 -0.037154613225038255 0.03656268839963234
0.018138848801343033 -0.03703959044936853 0.03646605217811716
0.016422236514697874 -0.03695672681054848 0.036127258408524154
0.08456587681995908 -0.042322976781971826 0.03585499586344387
0.08186075304060225 -0.04215989021054629 0.035878740926354014
0.07914974122736324 -0.0419956335870105 0.03591876845984654
0.07646417126945654 -0.04183305243341499 0.03595575233982112
0.07378914857618774 -0.04167079787427939 0.035998802398005125
0.07112904347571225 -0.041509271274875144 0.036045134496026976
0.06851369664424084 -0.041351209699823685 0.036075807476294186
0.06583919264477395 -0.04118709840421538 0.03615644937170576
0.06325148209472059 -0.0410303203079189 0.03619449973708794
0.0607955033737036 -0.04088505861529847 0.036160212794557445
0.0583115847967457 -0.040736643403671176 0.03615542528463378
0.05579263852435401 -0.04058440039698824 0.036185117286153534
0.05335571820698248 -0.04043915415883165 0.03617323551424784
0.0509215040543195 -0.04029358125884158 0.036171083726697195
0.04862903831658488 -0.04016061616455081 0.03608679855688168
0.04623891336897323 -0.04001801556955973 0.036078001942437155
0.0437228903812687 -0.039863083774840165 0.03616472032259721
0.041281548452832606 -0.03971452064662809 0.03621361918485838
0.03888508173034144 -0.03956956916654899 0.03624407853144862
0.0366108089321015 -0.039435517270710804 0.03620311662638148
0.034313100637982874 -0.0392987176207566 0.036188942137766356
0.03199283827890975 -0.03915923671974443 0.03620128122110228
0.02957966733044759 -0.03901040644028427 0.03628907280073135
0.027272358612634162 -0.03887100124600896 0.03631534186332308
0.025018860700889878 -0.03873613730632816 0.036315308944913416
0.022782140989760447 -0.03860231964593886 0.036314436671060935
0.020563191005976256 -0.0384696491874821 0.036311896998112825
0.018379400331705598 -0.03833979393668784 0.036295198584532784
0.016192845916585707 -0.038209141572592 0.036291079600068554
0.014029217931633586 -0.03808015105736493 0.036281190435300315
0.011882436088295256 -0.037952248311925216 0.03626971667284917
0.009695628353946717 -0.03781996311433022 0.036297810837531086
0.007810579660840866 -0.0377162513010059 0.03611653807723547
0.006763559676884079 -0.03769314894701127 0.03532879159235519
0.006426315245132708 -0.03773873003766994 0.03401921110213679
0.006829978320557872 -0.03785644633525431 0.03215616237255153
0.006904034431037265 -0.03794258040505108 0.030529208600008517
0.08459305517170218 -0.04373628467919969 0.03583839904542063
0.08192655562750517 -0.04357138639137413 0.03583832724854402
0.0792356430046543 -0.04340355375975173 0.03586570852499066
0.07652723882244056 -0.04323342077374446 0.03591657407319143
0.07386322756207298 -0.04306680728259282 0.035952521208851784
0.07122974259490905 -0.04290242431153879 0.03598186403211617
0.06861913517629842 -0.042739561177492766 0.036009182627361414
0.0660494488551649 -0.04257993769230262 0.03602283813542956
0.06348909608535036 -0.04242057204340457 0.036042648198671534
0.06099910042936724 -0.042267274712149916 0.03602936465756895
0.05849820585996679 -0.04211233148205356 0.03603481024992283
0.05581709663371681 -0.0419395511871088 0.03616922068314121
0.053416311335074906 -0.04179292830301763 0.03613363129552488
0.051013569404928905 -0.04164553426218288 0.03611057096983489
0.04860126610689247 -0.041496633327180864 0.03610515505701478
0.04621532426413716 -0.04134967701611727 0.036093680847844145
0.04389947128348143 -0.04120889782209156 0.036046696682149326
0.04155170011420661 -0.04106446686494575 0.036032046664579376
0.03925349985247395 -0.04092425953145814 0.03599507992144607
0.03673962688258092 -0.0407625438619018 0.03611556946216182
0.03444076869185314 -0.04062109757242631 0.03610169442662309
0.03211438326011978 -0.04047639541491861 0.036117757211840684
0.02980697197629617 -0.04033296073708616 0.03613200703051378
0.027518292755893625 -0.04019077755812742 0.0361444633420292
0.025225171304356087 -0.040047580201039566 0.03617116973417439
0.022973452235034497 -0.039907868820059256 0.03618003966411737
0.020749245091554513 -0.03977029660495434 0.03618047337685021
0.0185544213454642 -0.03963506140095415 0.036170888549554525
0.016348849433628188 -0.039498208532952085 0.03617966839901088
0.014180388678731615 -0.039364471091194175 0.03617263853279512
0.012043727754502187 -0.039233340862264376 0.036153262889034254
0.009903104379517746 -0.03910127516467153 0.036147192303615294
0.008018744901995722 -0.038994217709430755 0.03596459378311989
0.006893629637292842 -0.03896258456723264 0.03523333283357971
0.006310855255394043 -0.03898512633928307 0.03410440918663821
0.006147712645675596 -0.0390498683646991 0.0326623463198874
0.006111015498269923 -0.039127594526528205 0.031120759283922106
0.006044890590226004 -0.03920268030987318 0.02959498408032013
0.0060416949858119184 -0.03928443457795998 0.028015697393439787
0.006182151972708216 -0.039381067169376796 0.02632089050730918
0.006678833311590804 -0.03951422590706384 0.024346723535498216
0.00696654345601988 -0.039626712207785623 0.022521890872092942
0.08450398236776474 -0.04513853280660633 0.035892792524897965
0.0818428101136609 -0.04496881384520153 0.03588976085281137
0.0791630687213154 -0.044796634240705076 0.0359105363139795
0.07648176977589904 -0.04462363163253472 0.03594481995153159
0.07383853189774603 -0.044453656182541684 0.035967949939392896
0.07123262036905781 -0.04428665404563146 0.03598005589211578
0.06863196214053263 -0.044119509692005364 0.03600107748270803
0.06610169066269844 -0.043958597305555666 0.035989640103005816
0.0635674243432538 -0.043796659177543225 0.03599259110214875
0.06100464309619119 -0.04363127982416129 0.03602580248607534
0.05855037819448422 -0.04347593052151283 0.03600109075529473
0.05612033170775371 -0.04332235472567193 0.03597213236695701
0.05371008975341507 -0.043170126697330745 0.035941615053711407
0.0512659485764515 -0.043013935409147434 0.03594468706951448
0.04880633566214532 -0.042855585941896965 0.03596961095159473
0.0462113929989037 -0.042683146638578244 0.03609629383109014
0.04393844262804797 -0.042542100187703984 0.03602064890517426
0.04170751519759741 -0.04240468354211598 0.035927321277199276
0.039392620556359004 -0.042258314549180415 0.03590105397698534
0.037050631094528774 -0.042108640091865636 0.035904205000026834
0.03469633927431792 -0.04195712596975542 0.0359270387654797
0.032378803238508946 -0.041808698560143416 0.03593605150499801
0.03011453861053137 -0.04166504223079796 0.035919480840743034
0.02779867598939262 -0.04151558843779127 0.03594964910557985
0.02552112636873205 -0.04136940625917558 0.035964400287152976
0.02326075755930379 -0.04122437147659121 0.03597820638659399
0.021016182391444538 -0.041080350080570094 0.03599191602003321
0.018789588950949565 -0.04093757122041337 0.03600385893044855
0.016570257568351676 -0.0407949481545344 0.03602154794967016
0.01437673615971058 -0.04065437931694709 0.036031646356586955
0.012214313961185441 -0.0405164196069159 0.03603009837779775
0.010039273281846783 -0.040376594347794184 0.0360483396271325
0.007995104177954848 -0.04024966222434914 0.03598184965689999
0.00684764671662047 -0.04021469904018627 0.035267079845714255
0.006331027792584765 -0.040244796157831046 0.03408952384382746
0.006156689085677902 -0.040310471301725284 0.03265568655375717
0.006120008957559153 -0.04039070846408966 0.031114050633253787
0.006070793127095908 -0.0404699770508592 0.02957555727743627
0.006012357200533391 -0.040548616560182535 0.02803781988794457
0.005969518820542641 -0.0406292151733281 0.02648209703865495
0.0059355702976630065 -0.04071108317271482 0.02491327093685297
0.005902619464799919 -0.04079340079108637 0.02333724004077009
0.005893413256156055 -0.04087856178551538 0.02173642479412008
0.005892145025975293 -0.04096491926695386 0.020122732822976497
0.005957114739071012 -0.041058634687067636 0.018450617119357193
0.006478679486099426 -0.04120104656200768 0.016413551410751848
0.006904710498988664 -0.04133393792979202 0.01444036838117041
0.007289507860924915 -0.04146301616986742 0.012489231080547503
0.08416611641149724 -0.04651547242991438 0.036099114815720035
0.08147827075851105 -0.04633772349522964 0.036113648343280624
0.0788049745610026 -0.04616073668973456 0.036131724436247126
0.07614762851558154 -0.04598465674960699 0.03615239222553457
0.07353513851490989 -0.045812389499762185 0.036157496358949326
0.070956520246868 -0.04564285298133246 0.03615353290915546
0.06839406930652214 -0.045474279782041015 0.0361513979947527
0.06588574248158474 -0.04531050675051407 0.036126868408398294
0.06338283738813949 -0.04514663679783453 0.036110554749960166
0.0609048962652281 -0.044984649631865846 0.036089907966184054
0.058455653349571146 -0.044824935574795076 0.0360623123572939
0.055972061328110834 -0.04466109402008909 0.036068501032608946
0.053498475557199276 -0.04449762183458266 0.03607992801387133
0.051107008963272416 -0.04434188682514107 0.0360491549730681
0.048844725156162894 -0.044198751915746376 0.03594423678224162
0.046506437875329876 -0.04404725119627008 0.03590018716487875
0.044159414709515454 -0.04389424638974859 0.035872954963387105
0.041909859035408614 -0.043750663060691086 0.03579132329588963
0.03956760875657361 -0.043596939727059775 0.035782786671435696
0.03711896200624548 -0.04343159872208973 0.03585776599422774
0.034836785640418366 -0.04328283392642608 0.03583105841950296
0.032633610248738676 -0.04314166726874565 0.03576095169527754
0.03033627051117349 -0.04299013537545651 0.03576626579480263
0.028068448737567975 -0.04284106445158666 0.03576220718441092
0.02579330007439873 -0.0426906219848745 0.03577424572185389
0.023538872825343393 -0.042541734507013027 0.0357828291661515
0.02129654947704146 -0.04239350798459314 0.03579387222240582
0.019048591647570223 -0.04224408276986745 0.03581990025265924
0.0168164249992927 -0.04209570721924924 0.0358457454443013
0.014612609526337528 -0.041949712859039597 0.03586227163833505
0.012422880979866602 -0.0418046064493697 0.03587951143753226
0.010190304127150163 -0.04165436214081015 0.0359386978290836
0.00807279157907509 -0.041515710880265656 0.035925143949168015
0.006748988278691692 -0.041460913846551435 0.03533948558796107
0.006201063658327011 -0.041488592732277556 0.03418542455642676
0.00613312681420547 -0.04156765672415327 0.032673167784341095
0.006117760553900453 -0.04165267743946828 0.031115727824890804
0.006044890590430729 -0.04173188549117728 0.029594984080166586
0.005976255230393024 -0.041811880372218786 0.028065042993862754
0.006007956541229764 -0.04190301833151136 0.026452955714446114
0.0060171337640262945 -0.04199210831482096 0.02485109971475835
0.005967312818977499 -0.04207519214565332 0.023287661618831224
0.005957102653001312 -0.04216292037273122 0.021687352458034825
0.005954828889344399 -0.04225188190785576 0.02007417499825004
0.005935411858246531 -0.042339354589004605 0.018467519663036724
0.005903325112265212 -0.04242581692167423 0.01686405545536207
0.005877987238003313 -0.04251338523249946 0.015248612753696433
0.005852544550916217 -0.0426013157788548 0.013626487603296211
0.005905301996868728 -0.04269820755273099 0.011935332933899923
0.0058532626831726 -0.04278398489298472 0.010320490578413721
0.006169005336807254 -0.042910680847303775 0.00840320537183592
0.006686708872232161 -0.04306023749100526 0.006312761459885574
0.08384529472354346 -0.04789212172617101 0.03629502879987895
0.08112622702180883 -0.04770571347253073 0.036329861456164625
0.07842972002750531 -0.04752090270728341 0.036363512202805925
0.07576572076337079 -0.04733872513432139 0.03638963757652902
0.07313799823394168 -0.04715958584764971 0.036405611586827646
0.07055447533480047 -0.0469843234006702 0.036406142547674714
0.06800287524457732 -0.04681168640910417 0.03639858699456011
0.06547559008001763 -0.046640899187178834 0.036387507413225384
0.06299318935050469 -0.046474115977696795 0.036359566408739
0.060536775434210155 -0.04630938750056507 0.03632649255120346
0.05811826916136065 -0.0461479729920775 0.036280367087395515
0.05570162396323225 -0.045986113827685846 0.03624427240419753
0.053311293939636795 -0.04582637567566975 0.036202271618769155
0.05094551733759228 -0.04566858579739154 0.03615530026459629
0.04858275328629358 -0.045510484472391415 0.03611739141118142
0.04621794514847105 -0.04535153557338639 0.03609193883186518
0.04384362476220144 -0.045190943380402526 0.036084023537235166
0.04155556191662896 -0.0450388571860782 0.03602945109587147
0.03927901972277398 -0.04488738431075757 0.03597783209390881
0.037036714560048645 -0.04473894789817909 0.03591366294532844
0.034787869493513646 -0.044589214562196354 0.035864487470279593
0.03251300407870594 -0.04443609325640563 0.03584383056664303
0.030263565505043666 -0.044285076144420725 0.035816504397466586
0.028063562824803878 -0.044138753919795576 0.03576560198570705
0.025850199932325124 -0.043990399026573306 0.035734492551270924
0.023660067866109857 -0.043843943873169845 0.03569768910701865
0.021469001972305335 -0.043696789615515284 0.035672056400125274
0.019277262132241568 -0.04354896009358879 0.03565748526409568
0.01711199274668951 -0.04340339556302862 0.03563466329464421
0.014895100571998332 -0.04325162164222298 0.035659421939991776
0.012699399346763007 -0.04310153075897555 0.03567986311795884
0.010473373402121344 -0.0429475107280863 0.035733201897322764
0.008251927953988658 -0.042793354733687505 0.03579438844990379
0.006801674640366073 -0.04272307938161157 0.03530081889909592
0.006037611380460717 -0.042727871930785255 0.03430603621604261
0.005921194689052556 -0.04280395915381417 0.03283040365832185
0.005979533638428736 -0.042899635936159364 0.0312188378806586
0.005972832113044169 -0.04298852477320662 0.02964902766065941
0.005931137189104652 -0.043073910537232266 0.028099064771955173
0.005935609492130456 -0.04316477801798598 0.026507805189796618
0.005996739690783348 -0.0432623284453243 0.024866644964531726
0.006053604110693667 -0.04335981453700817 0.02322153139379124
0.006048123699332331 -0.04345074971041859 0.021617221233723893
0.006076835408007408 -0.0435458962862045 0.019979663096297895
0.006063379579720918 -0.04363671716644671 0.018367856396243554
0.006056739390475907 -0.04372869000996039 0.01674393165692062
0.0060535143827301074 -0.04382143918331441 0.01511043644821869
0.006046825143775192 -0.043914193177471576 0.013472728025766711
0.0060389549473944815 -0.044007210287396015 0.011828989110635901
0.00604722200613711 -0.04410245528789644 0.010165336615861442
0.006195648085901617 -0.044214031049066876 0.008381779065609163
0.006188041425680524 -0.04430832406579105 0.006715935866575928
0.006065263103583796 -0.04438988423200739 0.005136559320666201
0.08637603633678037 -0.049472012998395126 0.036387222283986775
0.08353242900400848 -0.04926767525398624 0.03648608436726214
0.08075536911080211 -0.04906958439354258 0.0365576295855668
0.0780300218597294 -0.048876204264818944 0.03661039834897184
0.07534796062884125 -0.048686667385852166 0.03664915482689696
0.07270685554041995 -0.048500748335702296 0.03667496997925873
0.07010302514869526 -0.0483180758059433 0.03668979411221007
0.06752298998435602 -0.048137228731714034 0.036701818482550164
