# .PCD v0.7 - Point Cloud Data file format
VERSION 0.7
FIELDS x y z
SIZE 4 4 4
TYPE F F F
COUNT 1 1 1
WIDTH 768
HEIGHT 1
VIEWPOINT 0 0 0 1 0 0 0
POINTS 768
DATA ascii
0.0472914650887683 -0.023388505815201084 0.022889913701152398
0.04913255405464617 -0.023312443254912982 0.02296777013837853
0.05026885744325732 -0.02328535792332497 0.02242261259213052
0.051097724168429726 -0.023279712729690833 0.02160342910341001
0.05193500753685304 -0.023273450389071734 0.020792649166070987
0.05197410191376134 -0.02332339464622479 0.01925422859836945
0.051151398682527605 -0.023434419777264032 0.01691837907767635
0.04689421127354243 -0.022096947868904027 0.0272034366159723
0.04869988655938762 -0.022027232674273506 0.027243501524624347
0.050182542140546904 -0.021978536086091394 0.027007659391180605
0.051484363907082054 -0.02194158924487986 0.026617891111077818
0.052540259246869725 -0.021920788827130493 0.026013530755096603
0.053463741257627595 -0.021908697544734082 0.025293141862639756
0.05428561930757636 -0.021903321500943256 0.024482699351611237
0.05499114255128895 -0.021905691260468138 0.02356737958384736
0.05556027365194588 -0.021917200549793868 0.022527240585313968
0.05605140410384163 -0.02193399455140059 0.021413897239100255
0.05631954118147514 -0.021965857914865564 0.02009249623627407
0.05648895039605306 -0.022004519665250435 0.01867499966644165
0.05596156950244535 -0.022090420891522904 0.016602601811383566
0.045896241050544184 -0.020903125358820225 0.02941582345257787
0.04780899029670954 -0.02083065037006418 0.029541653702760073
0.04938443798688441 -0.020778860046427136 0.029382965631636004
0.05086715501118061 -0.02073262695315712 0.029150352005438862
0.052184034601178264 -0.020696561744591557 0.028777916116450752
0.053343040452258406 -0.02067023340961553 0.02827047193237281
0.05435761168419451 -0.020652862999706634 0.027637855679955692
0.05523974794692543 -0.020643755216661074 0.026888842827826276
0.05599840580364146 -0.020642400578904024 0.02602966842819171
0.05671328584371538 -0.020643809407101765 0.025130950353690173
0.057323097401750456 -0.020651886783780778 0.024136127076316738
0.05784710780503366 -0.020665453638226156 0.023061368600280907
0.05825396042843478 -0.02068654473171399 0.02187651306557198
0.05854373973358162 -0.020715206133554785 0.02057993083090648
0.058788995900702024 -0.020746847439759908 0.01923750983572453
0.058499111913995705 -0.020812954340174238 0.01738897324907318
0.05752034603905215 -0.020923646884217995 0.014881671309711186
0.04303517148861885 -0.0198216052505003 0.030022499942740866
0.04595609394226485 -0.01969472789607592 0.0310000841558688
0.04785788775409128 -0.01962696807907457 0.03111476600643487
0.049433023006934196 -0.019578078855994857 0.03095561180559564
0.05095056220834271 -0.01953235995357912 0.03075368949565771
0.05228661821294389 -0.019497135820847465 0.030399253167886775
0.053472794545266766 -0.019470609577053988 0.029917783492000027
0.05456202243021724 -0.01944970533323888 0.02935428947099028
0.05551955491243593 -0.01943652308782433 0.028676384755626894
0.0564151493252017 -0.019426965695409828 0.027944913801600912
0.05719146212262649 -0.019424476217289613 0.02710722318258102
0.057948025295792904 -0.01942315552905673 0.02625199674055617
0.0586518982692773 -0.019424984223481507 0.025348891406972995
0.0592390365025226 -0.01943382776752464 0.024338395909628385
0.05970822368114048 -0.01944980720019947 0.023217706357116286
0.059999556511022845 -0.01947658318334528 0.021929573199809482
0.06019166362739081 -0.019509477997911227 0.02054467045741759
0.060411583052601636 -0.019540838868747565 0.01918052669579612
0.06011656875382465 -0.019603605349556717 0.017326430811762605
0.05933197521145234 -0.019696451401162916 0.014998764926885289
0.04206914095427994 -0.018667485055947466 0.030731076543306313
0.045439675029977644 -0.018523689548500588 0.03208317657897053
0.047587325433746885 -0.018446508481522992 0.03240544461155287
0.049235608505416084 -0.01839650804773092 0.03230798209755115
0.05076336241494456 -0.018352943357259625 0.032113866915628175
0.052068057320321215 -0.01832153337452909 0.031731758282877
0.05329323853583279 -0.018294395034803745 0.03128491846011694
0.05439027532353041 -0.01827426117936476 0.0307292661980178
0.05540448373109491 -0.018258653321925614 0.030103336093506017
0.05638115935403698 -0.018245071871723636 0.029446475103056757
0.05727992449119018 -0.018235790936299692 0.02872189430249239
0.058120171796192 -0.018229751505390746 0.02794602308521199
0.05892353237430353 -0.018225759118836567 0.02713768050475962
0.059670912816342236 -0.018224903835349106 0.026278921274729083
0.06031474560393352 -0.01822989412459273 0.02532530702216851
0.06084211473718276 -0.01824150116641594 0.02426343660910235
0.06123488040343272 -0.01826079961435357 0.02307480348589319
0.06156038837703093 -0.018284011720204107 0.02182019926628931
0.06178408939375796 -0.018313133957196588 0.020466255100534236
0.061803695271840264 -0.018354051652957278 0.01891513064194761
0.06139853260332051 -0.018419484255865218 0.016954903467748694
0.06053594980654692 -0.01851147564520865 0.01454817314081941
0.0403776638824524 -0.01754898868914943 0.030826407460692706
0.0446829486712344 -0.017366603205608264 0.032959349478259015
0.046964192859045906 -0.017287534535178343 0.033389699201141876
0.04878768292057928 -0.01723171635593063 0.03343959270977642
0.05038933526920575 -0.017187113329182876 0.0333072015242612
0.05177476711284046 -0.01715350923279909 0.03299444269395596
0.05293404724488521 -0.017131492879894163 0.03248970138811608
0.054027655646296635 -0.01711279432188995 0.031931088351552284
0.05506669893291094 -0.01709685678834128 0.03132754146869243
0.056073131831782586 -0.017082551726469112 0.030697842453560664
0.057044772096376484 -0.017070004400707176 0.030039603158847072
0.05798876076185294 -0.01705885188512907 0.02935876730982495
0.058874179847362484 -0.01705072994951117 0.028627034490505743
0.05968139909077508 -0.01704669405146789 0.027825763924137603
0.06043706488806261 -0.01704536395468714 0.026978169692718323
0.061096331493675105 -0.017049133103358663 0.026042374302698956
0.06166474554172591 -0.01705774187721773 0.02502210730673443
0.06213011540751934 -0.017071871986609234 0.023904747961298933
0.06251018958189647 -0.01709061488046805 0.0227053288731191
0.06281251908685964 -0.017113598687933097 0.02142966140988728
0.06297423227395693 -0.017144220501008525 0.020017378704929478
0.06286384133009365 -0.01718959273959158 0.018341918842198712
0.06247214522283906 -0.01725031260234963 0.016390462835896957
0.0614729204679581 -0.017344082718113683 0.013846754453870513
0.043526714994705396 -0.01622852552621479 0.03349684717079382
0.04602425445441999 -0.016144571681826595 0.0341028136109805
0.04799905024312473 -0.016085346000240825 0.03427657933939937
0.04977168237133889 -0.01603558647969092 0.03428734112790932
0.05124724025280181 -0.01599993308695004 0.03405021568739358
0.0524755548331336 -0.015976071287880984 0.033604580943781714
0.05358852144077747 -0.01595769077854187 0.03306251891204187
0.05466213677738435 -0.015941138744334386 0.03248933052449654
0.05567216614452819 -0.015927606607650014 0.03186305805163164
0.056686425421527686 -0.01591380760268157 0.031243132179665067
0.05767947761950415 -0.015900983154499303 0.030606894334729018
0.058634699120802936 -0.015889954137841566 0.02993912799711207
0.059512172472833635 -0.015882692437255545 0.029203262096782256
0.06033273108335352 -0.015878198461415305 0.028417122186564336
0.06106008163530813 -0.015878280897257294 0.027546781970844814
0.061743237645402405 -0.0158805482060795 0.02663587943254575
0.06233749067289901 -0.015887230224253947 0.025642546044473136
0.06283656654376818 -0.01589866868702997 0.02455967679562443
0.06325401928858104 -0.01591422164318616 0.023398511501708408
0.06358161073225277 -0.015934328298831738 0.022150126550686322
0.06381261651959647 -0.015959356207216304 0.020806851749454902
0.06387504637534297 -0.015992946878077896 0.0192990938858299
0.06374449689772721 -0.0160363852624936 0.017601105294523356
0.06326691312677551 -0.016097495262068634 0.015562625632117855
0.06180130829990832 -0.016208743766155262 0.012562149452065352
0.04154857917656524 -0.015123956307292538 0.03334471274205775
0.04490193244542506 -0.01500830271367773 0.034663050944411966
0.04709797422191375 -0.014943623459547719 0.03501816047529305
0.04888739640464035 -0.014896787432324437 0.03503789831790466
0.05047174499806384 -0.014858907484582441 0.034890468481224235
0.051838919350661705 -0.014830584981952288 0.03456265699283567
0.0530547025907675 -0.014808931206563259 0.034108813807744276
0.054183896815348576 -0.014791075868690108 0.03358361118735037
0.05522340572654855 -0.0147771839496243 0.032983157657307194
0.0562686076574026 -0.014762972747374821 0.032390591689736514
0.05727627501973809 -0.014750397544970735 0.03176757745551517
0.05826958732931414 -0.014738417387944165 0.031134326378376376
0.0591949585918819 -0.014729473681657269 0.030442508183765038
0.06005308095698492 -0.014723555405830119 0.029691804422497914
0.060891315746169294 -0.014718519074244376 0.028924273162387493
0.06165738338216409 -0.014716764798733096 0.028091924791660172
0.06232689111228129 -0.014719434515546888 0.027171353280986577
0.0629277781878651 -0.014725273126790183 0.026186938301983542
0.06343465037472712 -0.014735473177633083 0.02511414167810555
0.06387759874000154 -0.01474867396337828 0.023979631668576418
0.06423185963848788 -0.01476604312803259 0.02275926289040775
0.06450902770579187 -0.014787071092782841 0.02146263441983154
0.06461597947966669 -0.014816116343847453 0.02000043797008927
0.06461516452914146 -0.014850321735163343 0.01842954543630604
0.06438805604758346 -0.014895263848227785 0.016634947090656327
0.06359577339391737 -0.014966895739346734 0.014287403413336286
0.06085344833975104 -0.01513044276079533 0.010039990728906933
0.04325306687334485 -0.013890889942099378 0.034782528427458215
0.04590851648869476 -0.013812575075725083 0.035516648394844696
0.0478721745037195 -0.013762322845807985 0.035678166765346575
0.04954773365216286 -0.013723705392772664 0.03560381203547519
0.050982506136376005 -0.013694848457203264 0.035330506274653506
0.05232592088661053 -0.01366964008960765 0.03498443917803806
0.05354864436790541 -0.013649319799350315 0.03453886239833981
0.05469519140291751 -0.01363207195372964 0.034031113169072646
0.055779359460676026 -0.013617342953057185 0.033472308248852334
0.056788396423607945 -0.01360568150938414 0.032850328399813666
0.05782943345467606 -0.013592630285679096 0.032259399996176386
0.05880465426931453 -0.013582277692653614 0.03161256194196915
0.05972650360416598 -0.01357411942493218 0.0309200890928083
0.06059468691302433 -0.013568182716190145 0.03018097669680625
0.061402210285250725 -0.013564777601355112 0.02938812525372797
0.06214874051394481 -0.013563935362749415 0.028540374531271173
0.06284051108490124 -0.01356540935004533 0.02764257478309745
0.06343236656704215 -0.013571132858889503 0.02665229459004509
0.06395697026253411 -0.013579744769870904 0.025598368169810037
0.06437322688248664 -0.013593017937482556 0.024441512681828814
0.06476056403162861 -0.013607588383131686 0.02325453947717976
0.06504628796446732 -0.013626580267406352 0.02196855100202527
0.06522445748577632 -0.013650279299224646 0.020576404204418086
0.06526153162147219 -0.013680162042499687 0.0190445636433621
0.06514748334040715 -0.013716704056109754 0.01736130424564586
0.06469045000546392 -0.013768249924964969 0.015339859193438443
0.06336799180740316 -0.013857552824870759 0.012470123016965151
0.044359401187422876 -0.012691854381852715 0.035715773550367313
0.04666174067476869 -0.012633237087957806 0.036155393116794055
0.04848248378300257 -0.012592489811785392 0.03619845585935905
0.05009065899835452 -0.012559581844062324 0.03606910291854948
0.05147786576975605 -0.012534882747124602 0.03575727515677091
0.05275904357635863 -0.012514091845779335 0.03535955798374529
0.05398209147522948 -0.012495416174272569 0.0349162415272779
0.0551359505764647 -0.012479290744940573 0.0344168802169158
0.05623514154840814 -0.012465178725376008 0.03387332377252672
0.05727530655351881 -0.012453260208814371 0.03328098499684379
0.05827733563013171 -0.012442749517413908 0.03265763741241495
0.059244172616289004 -0.012433543081023304 0.032005397470874275
0.06017285672295347 -0.012425763653898043 0.03132112705440793
0.06103049351153017 -0.012420689774522401 0.030574592207441742
0.06182519793462771 -0.01241802604212372 0.029772164797637557
0.06256658038956181 -0.012417416433035256 0.02892172685384853
0.06328228163811384 -0.012417801442930925 0.0280478779153166
0.0638636064222331 -0.01242341887973744 0.02705000525195761
0.0643836541132557 -0.012431452611268237 0.025993933471696984
0.06483931378453311 -0.012442040849234788 0.024875863906320295
0.0652166990856265 -0.012455745392476066 0.02368183498594062
0.06554055093212424 -0.012471615805410206 0.022433978748195083
0.06572260058379642 -0.012493142471877387 0.02104793086839396
0.06583176979024213 -0.012517644586693709 0.019587145189225164
0.06572856198748578 -0.012550660617402279 0.017917079152480975
0.06538445072526466 -0.012593380726468869 0.01600709284148133
0.06454142476529895 -0.012656125639855154 0.013604164784601303
0.061095606848022066 -0.012822835876531515 0.008656880870044348
0.04518287782431302 -0.011509994057742244 0.03641041489469532
0.04723811183741444 -0.011465081254150114 0.03664416398319803
0.048937666355589826 -0.011432141978372473 0.03658649932574687
0.05047217344795124 -0.011404717737117837 0.03639606351525693
0.05186049523918895 -0.011382196782565657 0.03608692323451357
0.0531378470459013 -0.011363398636762372 0.03568763201093428
0.05436405066020522 -0.011346282852744369 0.03524879288609517
0.05551947732969065 -0.011331539806936625 0.0347525555522018
0.05662286989279813 -0.011318535421222043 0.03421446285906388
0.05769426900960367 -0.011306584846393767 0.033651544027221536
0.058683755052822195 -0.011297433973061256 0.03301899181002821
0.05963989134552827 -0.011289406283776882 0.03235908549634231
0.06055303773744891 -0.011282846655207032 0.03166271090959927
0.06139705649086974 -0.011278681607409812 0.030905667677128268
0.062187465696222854 -0.011276381955476597 0.03010107545529167
0.06293708110276336 -0.011275508915792234 0.02925987387078255
0.0636016800799985 -0.011277633549282998 0.02834091054952098
0.0641842149651583 -0.011282671837768092 0.02734568626169437
0.06471299478954795 -0.011289639657760628 0.026299254949931627
0.06519476586145839 -0.01129831041471211 0.02520711338830034
0.06560088107351197 -0.011309716504998034 0.024041726725309187
0.06592400796813624 -0.011324138620604276 0.022795064962827072
0.06615750495515871 -0.011341835307906313 0.021459597733180458
0.0662863240978171 -0.011363369088338118 0.02001965355571128
0.06622907113434795 -0.011391693458685946 0.018395793050962672
0.06592536635673846 -0.01142903186456205 0.016527145774820173
0.06530280255660448 -0.011478062914822354 0.01433998374254103
0.06393823327748871 -0.011554190600352822 0.011418362054263276
0.042941485520527956 -0.010404935123846767 0.03603218634592559
0.045729345332565785 -0.010342238598701026 0.036871385986720184
0.0476833767551435 -0.010304890233928507 0.03702175490675974
0.049329703647193024 -0.01027685406042651 0.03692071139525194
0.05081990054661867 -0.01025351327364336 0.036694068111916
0.05216389677887895 -0.01023459184567703 0.036348313802498866
0.05343957961964624 -0.010217704474949182 0.03594895649331592
0.05467613609117172 -0.01020195784021917 0.035520508918114646
0.05585718882345292 -0.010187869541419264 0.035048131852799036
0.05697002706681348 -0.010175847360881477 0.03451990578822278
0.05800043170166985 -0.010166349905105575 0.03392233523694005
0.05898204295050308 -0.01015833954470646 0.03328420463590215
0.059932918426861936 -0.010151258932143426 0.032620989121689536
0.06085421115134004 -0.010145078031902913 0.03193330826158591
0.06170810374584906 -0.010140996482615633 0.03118660198266704
0.06249024708917511 -0.010139166085623852 0.030375977165128687
0.06321109637207034 -0.010139270662251483 0.029509960962679993
0.06387517788719393 -0.010141179559584127 0.028591831569732162
0.06446555511934576 -0.010145444486961641 0.027605152026738078
0.06498665204625109 -0.01015194034149789 0.02655295406504521
0.06546903907772511 -0.01015970435549085 0.02546271144696194
0.06590952671779388 -0.010168847519666591 0.024330857973706654
0.06620401996630387 -0.010182725006682606 0.023058741106369574
0.06643856873912951 -0.010198597435918052 0.021725643913378334
0.06656205023669737 -0.010218129304456182 0.020282006942176467
0.06657313190350189 -0.010241389113981581 0.018724871296882606
0.06635776689286221 -0.010272102277279788 0.016942868956225987
0.06584608249119872 -0.010312592543484668 0.014865026211480503
0.06491659073373257 -0.010366887409087833 0.012368791445495131
0.0437584115901371 -0.009226614110389404 0.03671766874165988
0.046190021716924545 -0.009180544990860294 0.03725998822337817
0.04803540694290431 -0.009150286597553882 0.03732028146572636
0.04964075658493383 -0.009126466174188427 0.03718588424557656
0.05109167836867756 -0.009106777580965189 0.03692698363835589
0.05242117936097773 -0.009090340627430535 0.036569971346940566
0.05368433120924021 -0.00907565928749209 0.0361609308972356
0.05490938614808172 -0.009061964966111561 0.035723587221820174
0.05609520416918834 -0.009049295804055271 0.03525645077790901
0.05720863817457922 -0.009038578208868574 0.0347298454960584
0.058236388720933174 -0.009030195031355992 0.03413103175138704
0.05922211746377076 -0.009022945285134653 0.03349765895496459
0.06014796745222961 -0.009017335315087026 0.03281319701972696
0.06104527233325252 -0.009012499120761299 0.03210497231793469
0.06189858191001746 -0.009008875378020222 0.03135863967119934
0.06267032087154228 -0.009007528832232442 0.030539470007891922
0.06339323815970893 -0.009007552045397181 0.02967619735563265
0.06405697566170127 -0.009009246910643273 0.028758622241727982
0.06466679491673483 -0.009012475883675352 0.02779074529243314
0.06518605110358766 -0.00901828921773412 0.02673781071752429
0.065674843241744 -0.009024995481550578 0.025654502484758868
0.06609065820489635 -0.00903381260375958 0.024500537261136324
0.06639506359127684 -0.009045853112138146 0.023238639277201156
0.06662648787272402 -0.009060038850678409 0.02190352228309428
0.06675025561304238 -0.009077379886781214 0.020461084334097268
0.06675517303964768 -0.009098220117289398 0.018898985241682043
0.06660326193926014 -0.009123678933176279 0.0171788954482901
0.06619921520378891 -0.0091565429929132 0.015206304546046767
0.06551677301616693 -0.009197624709963985 0.012951841002363962
0.06332228069116824 -0.009282801976103835 0.009206544985880638
0.0442815090293483 -0.008060839464307103 0.037156599630478904
0.04648790401478653 -0.008025872790766804 0.03751126597743787
0.04828515397617483 -0.00800053158319823 0.037532070468620116
0.049862582450957316 -0.00798034439317701 0.03737499095389574
0.05127751193832386 -0.007963969203424024 0.0370862443292263
0.052627404496879304 -0.00794908640507601 0.03674764119483004
0.053881749971259496 -0.007936441591444734 0.036331911296059616
0.055095577785633454 -0.007924719812909818 0.03588569428588295
0.05627708182772723 -0.007913728773059963 0.03541563613720283
0.05738715704021913 -0.007904422589335793 0.03488691361768326
0.05842926598197168 -0.007896728316035256 0.03430162558335054
0.059403401182643034 -0.007890656962376211 0.03365884138221309
0.06030448962608259 -0.007886343424555037 0.0329530944128032
0.06117473272957258 -0.007882765955536868 0.032221289492079475
0.062013587530806435 -0.007879942861209304 0.03146251142602824
0.06276523242704612 -0.007879252628097447 0.030625642241386475
0.06348628934279105 -0.00787931352640622 0.0297611229141006
0.0641769637905431 -0.007880125590970505 0.028868705551027496
0.0647833155151254 -0.0078830300905603 0.027898206334715125
0.06535161648432158 -0.007886892529778776 0.02689130122273392
0.06583372832296619 -0.007892917350521616 0.02580256914202661
0.06622657569391477 -0.00790119611192348 0.02462786124579963
0.06649664097058772 -0.00791258221746141 0.023334290648653555
0.06673470674734189 -0.00792482248870963 0.022005958882397925
0.06687669583365091 -0.00793953203987585 0.020581392188103287
0.06688519175437274 -0.007957669825591847 0.019023342141434696
0.06675516228086859 -0.007979386635897322 0.01732493711104144
0.06645547017022074 -0.00800549481783955 0.01545395724162052
0.06586145784221459 -0.008039184774340286 0.013286686500087297
0.06481219821123785 -0.008084598161763691 0.010661450762993518
0.04453131006616645 -0.0069041957800848016 0.037366207598133694
0.04669443242530341 -0.006875097751707307 0.03768548242304964
0.048460192809291536 -0.006854012562845754 0.03768050586522126
0.050005091019260706 -0.00683736926745437 0.0374964796095798
0.05141998733832459 -0.006823327623040714 0.03720834676033902
0.0527561646068464 -0.006810847302663108 0.036858572333520134
0.05400811036934283 -0.006800052608750492 0.03644134948237415
0.0552093990936966 -0.006790259307169576 0.03598479238889407
0.05638019685758017 -0.006781055433574625 0.03550588583146219
0.057506621637119726 -0.006772733761243204 0.03499202340408364
0.05855576957601444 -0.006765986335315496 0.034413514007878676
0.05952609099688849 -0.00676085611711409 0.03376792697567821
0.06040015978787794 -0.0067577190051853735 0.03303860310400586
0.061246886587419225 -0.006755141782213431 0.03228611806581266
0.062063204795651916 -0.006753192757674602 0.03150732516933874
0.06282132758799636 -0.006752462163522207 0.03067657223912662
0.06353485206322279 -0.006752670888831996 0.029805444931476244
0.0642098214977666 -0.006753697308546172 0.028898850909423124
0.06482268347295844 -0.006756047070012814 0.02793451340693831
0.0654220523764486 -0.00675869468498824 0.026956600143435483
0.06590165634593481 -0.006763908882705378 0.025865871972087173
0.06625849120601662 -0.006771771520750098 0.02465775887120991
0.06654249326580891 -0.006781230849259018 0.023377467928397344
0.06678714986120426 -0.006791578703044335 0.02205559989243361
0.06692182855814899 -0.006804341655055926 0.020624335969786634
0.06695838308667768 -0.006819280700401522 0.01909334627271264
0.06685249989870667 -0.0068373692720595704 0.017418520492137324
0.06658220031668044 -0.006859105717624555 0.015576433160109815
0.06607307176534749 -0.006886132219024124 0.013492259719625699
0.06526745739572132 -0.006919741393765879 0.011106011759603351
0.044678341799733956 -0.00575099731270297 0.03748958187730572
0.04680553506993351 -0.0057273555244906375 0.03777920273880231
0.048533654542500526 -0.005710422989480347 0.03774280244998318
0.05005980275754357 -0.005696871623985278 0.03754312140532057
0.05147608041597673 -0.005685144503744105 0.037256418926831514
0.05280592494809233 -0.005674850941440984 0.03690144253079969
0.05406784163211831 -0.005665681737505117 0.03649308152155395
0.0552679777606197 -0.005657538265475313 0.03603579368968546
0.05642919593518492 -0.005650031848054639 0.03554877144938934
0.05754109862976636 -0.0056433470224809545 0.035022357657300385
0.05860182254883656 -0.005637521673871328 0.034454246404557964
0.05958031193817198 -0.005633102445945682 0.03381613573363029
0.06045005214069399 -0.005630561623333957 0.03308319621130551
0.06127093068460304 -0.005628864180079213 0.03230772113145114
0.062075606715328524 -0.0056274431774775814 0.03151852644064379
0.06282710097430821 -0.00562695034430488 0.030681814020179277
0.06353814391674767 -0.005627167760300958 0.02980844932636656
0.06419914348574524 -0.005628269592276348 0.02888905434945177
0.0648194031818135 -0.005630097264592 0.027931488160670315
0.06541140709440019 -0.005632434351715293 0.026946731234171573
0.06587383392713181 -0.0056370852591430915 0.02583994397105921
0.06623475977162069 -0.005643565709246737 0.02463552787790002
0.0665326688923254 -0.00565120113060273 0.02336821670727174
0.0667838726760791 -0.005659707570881003 0.022052497811574867
0.06689967410372816 -0.00567068212447028 0.020603256009191717
0.06693289332322827 -0.0056831922153791825 0.019068966490427497
0.06687229004839895 -0.005697451081341887 0.017437547351040694
0.06661697123638594 -0.005715293357047658 0.015610036848313635
0.06615713901222431 -0.005736921457340164 0.0135739271937802
0.06543093142566453 -0.005763484518248827 0.011265644294538024
0.0625890881134632 -0.005828655070204141 0.0068658709126835915
0.04465874494918193 -0.004601064328009267 0.03747313816646697
0.046804653591884404 -0.004581896432174672 0.037778459170533796
0.04855988305808406 -0.004567980170863311 0.037765044600731046
0.05007195848033125 -0.004557330915022678 0.037553484167629714
0.05147435475809664 -0.004548139275391425 0.03725494002575508
0.05281364503649244 -0.004539774615807727 0.03690809364500913
0.054076372899254044 -0.004532427840707917 0.03650047027955461
0.055275616912889736 -0.004525925121641512 0.036042444689497855
0.056435108622812424 -0.004519943647244513 0.035553946429713656
0.05752848594309212 -0.004514852565810234 0.03501126050520126
0.05857084289726722 -0.0045104480110501515 0.03442684588338896
0.059565298728091576 -0.004506691134228219 0.0338027872340706
0.06045005214068705 -0.004504449298667262 0.03308319621129935
0.061257665420174634 -0.004503276998945275 0.032295802597934686
0.06204749432136841 -0.004502348877721572 0.03149313564954115
0.06280400617975479 -0.004501884960624587 0.03066084576169692
0.06350933789804974 -0.004502140103400846 0.0297821587715974
0.06417203455025872 -0.00450299852289073 0.028864183211292083
0.0647677296738608 -0.004504809236692781 0.027883832303253975
0.06534342423661649 -0.004506911954794988 0.02688370644516941
0.06582226771575295 -0.004510401449276325 0.02579188888314221
0.06617418758125582 -0.004515715841814557 0.024578785418244986
0.06647370984017453 -0.004521803117344179 0.023312697316674957
0.06670274069470006 -0.004528927669885931 0.021975700817551513
0.06682580348874856 -0.004537605786641137 0.020532968128329665
0.06682431022508134 -0.004548115605793044 0.01896511176859267
0.06679888913255466 -0.004559019092424846 0.017366977451830024
0.06657392039980498 -0.004572856794562325 0.01556843119331136
0.06613466995741779 -0.004589862612153997 0.013552099537696982
0.06541584856216381 -0.004611006587483253 0.011250915864979338
0.04458211729224665 -0.0034515797327940054 0.03740883992479055
0.046693550364588055 -0.0034375578912456076 0.03768473836327474
0.04849780225108791 -0.0034266210380802108 0.03771239920174313
0.04999466769713212 -0.003418791637386173 0.03748759372006283
0.05142861827794787 -0.0034115750127682205 0.03721574353698104
0.05273728607135675 -0.003405618310789936 0.03684230784415926
0.054012377607466355 -0.0033999822068077282 0.03644504525104769
0.05523741759009898 -0.003394839468386941 0.036009186589680775
0.05638442149508094 -0.0033904838652631017 0.03550958337432619
0.05748138994146834 -0.0033866293681312732 0.03496982353726752
0.0585356696355423 -0.0033832027362014913 0.034395736246783826
0.05952025073427619 -0.0033804890873790263 0.03376273429919585
0.06040099145354283 -0.0033788507924584757 0.03303934643548129
0.061228643840527175 -0.0033777623792808566 0.032269727379336866
0.062003662236855495 -0.0033772227865079283 0.03145354701461245
0.0627479049491047 -0.003377005257605781 0.0306099102531463
0.06344924005437985 -0.0033772401902366156 0.029727308926949192
0.06411040618514863 -0.003377901657441466 0.02880764216474424
0.06469059830988277 -0.0033794257582649553 0.02781269795550606
0.06524426454166432 -0.003381239050718022 0.026791778581946035
0.06572318080314626 -0.0033838578062737905 0.025699548760232005
0.06609311557979852 -0.003387653459542898 0.02450283926632063
0.06637539592245595 -0.0033924056272359336 0.023220119016994112
0.06656988943738396 -0.0033981223332368747 0.02184994797581541
0.06667713689267624 -0.0034048044302419553 0.020391511880865354
0.06670741781140643 -0.0034123477188775556 0.01885330956996345
0.06668170696118658 -0.0034205313884424072 0.017254314906307078
0.06643143797916845 -0.0034311868095618083 0.015430731791680863
0.06600395340151693 -0.0034438169526620414 0.013425114399641502
0.06519027274333394 -0.0034607111214787632 0.01103064087822897
0.04008857767625945 -0.002326520906639772 0.03515684096933386
0.04439218067330053 -0.0023023445336531716 0.03724946417043967
0.046511747159996064 -0.002292944047170448 0.03753137879387902
0.04829391026767743 -0.002285806371306347 0.03753949592718148
0.04987040620605676 -0.0022800448533545335 0.037381660710674225
0.05130342566224111 -0.002275242031515953 0.03710845257492673
0.052601640426069685 -0.0022713446491494983 0.036725444586634126
0.053892853083578385 -0.002267478247494573 0.03634152747718167
0.05512701395572317 -0.0022639886063279026 0.035913064071688816
0.05627116341665156 -0.002261106318937086 0.03541045614752686
0.05737874073530963 -0.0022584648244606555 0.03487950861206429
0.05844602709196428 -0.002256091585757957 0.03431645025457514
0.05940590598660944 -0.0022544559682371114 0.033661068445876574
0.06031114677788607 -0.002253194497678349 0.03295904448466652
0.06114735555918649 -0.0022524104239346494 0.03219669173719919
0.061925065325230455 -0.0022520331015701517 0.031382559187420944
0.06267032087148489 -0.0022518822080585137 0.030539470007839797
0.06336605369515635 -0.0022520795345637133 0.029651386754012077
0.06400846168325625 -0.0022526542997902558 0.02871411301113941
0.06457236709216968 -0.002253787271525185 0.027703659295722216
0.06511058787514584 -0.002255107603188246 0.026667851109984764
0.0655904220219723 -0.002256849081060022 0.02557582947330994
0.06595052481172259 -0.002259451740990783 0.024369263926614593
0.06622699018506811 -0.002262663717825411 0.023080371246291143
0.06640490026543477 -0.0022665960111984103 0.021693774390051546
0.06652010500081945 -0.0022709963704759042 0.020242096055514303
0.06659126303730095 -0.0022757338505907158 0.01874221288953737
0.06648345502698194 -0.0022817833666015945 0.017063709396086757
0.06621166434557085 -0.002289045799660325 0.015218335780261716
0.06573719056493926 -0.0022978098915696775 0.013165966540386431
0.06490049603237968 -0.0023092442355666662 0.010747673663493162
0.04002191215230533 -0.0011634865885200643 0.035101197148692975
0.04401434981115876 -0.0011524567022306975 0.03693242641855693
0.04622982878800569 -0.0011474325034321346 0.037293567363490765
0.048031022089548625 -0.0011438007964272466 0.03731656304830261
0.04959374378989301 -0.0011409691463017365 0.037145805804417176
0.0510778405699896 -0.0011383946539930887 0.03691512454646323
0.052434935712333264 -0.0011362452971499335 0.03658182290345513
0.05371938818764743 -0.001134336651526676 0.03619129303753227
0.05494511051774331 -0.001132622289338764 0.035754690512803
0.056079968016501947 -0.0011312146923390858 0.03524311559172327
0.05717746151650549 -0.0011299303872643535 0.034702415010744614
0.05823638872089243 -0.0011287743789196406 0.034131031751351015
0.059226296793879474 -0.0011278536031004939 0.033501374868204814
0.06015546399515209 -0.0011271407436549653 0.03281989732797164
0.06101455170097092 -0.001126669878253221 0.032077370539811745
0.06178515038320109 -0.0011265072014764702 0.03125618961995402
0.06251338716207783 -0.0011264926790787355 0.03039698653279388
0.06320449911076464 -0.0011266088690430286 0.029503939802258516
0.06382249186469052 -0.0011269837449508116 0.028543494690351
0.0643981445533997 -0.0011275101544043987 0.027542982678335826
0.06495052011147306 -0.001128121522299515 0.026519457274238434
0.06540256720573467 -0.0011290923374764911 0.025400765619120524
0.06575938323648217 -0.0011304069075809258 0.024190207447789158
0.06600370983493997 -0.0011321292325807363 0.022870117035629245
0.0662306953110875 -0.001133921553698697 0.021528877433137084
0.06634233124745798 -0.0011361359748937963 0.020072944351550326
0.06633971418022871 -0.0011387714800464549 0.018501618017730093
0.06618561076731078 -0.001141965194913006 0.01677735275947395
0.06589681579904189 -0.0011456603346985776 0.014914056443431356
0.06538387371062682 -0.001150184323773218 0.012822735423157205
0.0644172021043079 -0.0011563762320690133 0.01027573671495502
0.043530785587892806 0.0 0.03652666783820668
0.045787885603254364 0.0 0.036920767463384796
0.04761921183810097 0.0 0.03696734215308961
0.049276496473862286 0.0 0.03687535224220129
0.05078524720627503 0.0 0.03666436995278033
0.05214495047076434 0.0 0.0363319909247562
0.053489243959216726 0.0 0.03599196977381791
0.05471616969818954 0.0 0.03555536403074394
0.055839387281083064 0.0 0.035032551352473185
0.05691264086171205 0.0 0.034469415082883925
0.05797017755505546 0.0 0.03389557640193824
0.0589602764525744 0.0 0.033264851673646845
0.059898717587554995 0.0 0.03259042087603925
0.06077273356503288 0.0 0.03186010253331084
0.06157048774150836 0.0 0.031062308789296667
0.062284318653328286 0.0 0.030189010328869725
0.06296516448662759 0.0 0.029285504894261627
0.06356952155575019 0.0 0.0283114066577142
0.06415292426939323 0.0 0.0273168284388966
0.06468831785593959 0.0 0.026276377733754075
0.06513311241249287 0.0 0.025149657898916877
0.06547429419728046 0.0 0.023923143417125148
0.0657439150516016 0.0 0.022625478637877006
0.0659434965904338 0.0 0.02125702411390773
0.0660439473797294 0.0 0.019789032138935736
0.06601665120132727 0.0 0.0181926231890549
0.06580670566830155 0.0 0.016413061737489798
0.0654496381121169 0.0 0.014481890147849175
0.06489562293561718 0.0 0.012348422191424402
0.06366662794209554 0.0 0.009542800381201921
0.04283166438918645 0.0011564772394078266 0.03594003547081609
0.04522470286511354 0.0011508569102408489 0.03644569628735017
0.04716319834497623 0.0011467639115763162 0.03658063628615593
0.04885022746865675 0.0011435134076516818 0.03651195761253995
0.05036623669093332 0.0011408350810780412 0.03630527496105029
0.05180268246605457 0.0011384183836966155 0.036037115598000435
0.05311296376143809 0.001136425578158291 0.035666081101294045
0.054369171597761834 0.0011346106062353636 0.035253251411534126
0.05551777852639678 0.0011331598585245027 0.03475106870321287
0.056604266424568006 0.0011319180532845987 0.03419809477493935
0.057637009828722885 0.0011308574856127012 0.03360090009424077
0.05862839413388499 0.0011299362317664235 0.03296976947862135
0.059550458259434336 0.0011292528428550929 0.032279151418688534
0.06043974415028275 0.0011286810674857645 0.03156091923984944
0.061240891388740004 0.001128415797142214 0.030764621151837035
0.061950467591856406 0.0011284711729980506 0.029885899801717852
0.06263776980116886 0.001128605263323098 0.02898669970360146
0.06325997418746182 0.0011289698001529498 0.028027411907441402
0.06383967918619177 0.00112948638728516 0.027027938374860838
0.06437953304192778 0.0011301466719889587 0.02599011295488768
0.06477669829292554 0.0011313172117556898 0.024817511879407617
0.06511782971445046 0.0011326927616150844 0.023589216718856665
0.06540785334797156 0.0011342571416079366 0.022309022719611438
0.06563267048060284 0.0011360621199523642 0.020962805847655086
0.06567637818406408 0.0011385251800890464 0.019439290095491057
0.0656183205765562 0.001141365568603278 0.01781163833100735
0.06536114414000116 0.0011449367965791681 0.015984685173210778
0.06488909862414671 0.0011493008554024618 0.01394016751470667
0.06413556581058089 0.0011547045090701989 0.011610061558468054
0.06191944754393064 0.001165441826942015 0.007836677175919016
0.041901651034645604 0.0023192776366016397 0.03515966157157141
0.044491713081126205 0.0023067083294279634 0.03582738486706449
0.046573300811612706 0.0022975561395669744 0.03608039486681053
0.04831498010035762 0.0022906899741417844 0.036055658850948025
0.04990087988790448 0.0022848620203786228 0.03590646087114874
0.051338587144586056 0.0022800270058155638 0.03563728196564009
0.052679048750340796 0.002275840536636252 0.03529027608208363
0.05390679131199827 0.0022724137681496095 0.034850681717259746
0.055096782060214455 0.002269232998441173 0.03438259863234738
0.05618767050535539 0.0022667253621278687 0.03383155682796801
0.057214522287312 0.0022646516332825604 0.033227223237476844
0.05817725414561137 0.0022630153064562572 0.03256865326812464
0.059113448266938595 0.002261556924404652 0.03188855782294758
0.06004843651979341 0.0022601004208277604 0.031209338377333917
0.060863143239767326 0.0022594809523555277 0.030423443365499514
0.061575196357493756 0.0022595802782853914 0.029545183012706977
0.062259939164995504 0.0022598724638642643 0.02864186284370912
0.06285956381113084 0.002260767021178502 0.027660054738612883
0.06343981160959267 0.002261802785164446 0.02665916077545233
0.06398837084340259 0.0022630680548150514 0.02562747866984344
0.06438561851486346 0.002265414888626414 0.024453060572732166
0.06472008384411909 0.002268219858857811 0.023216618685596213
0.06500330771927776 0.0022714036913671267 0.02192807821737941
0.06522280266715275 0.0022750583963651702 0.02057483780490732
0.06523582683779294 0.0022802114465162835 0.019020105544924337
0.06506596244550794 0.00228670363127838 0.01728333327218895
0.06473224241613457 0.0022944070584281005 0.015380039703107529
0.06413582454962774 0.0023040443288971893 0.013212180238370175
0.06297930834036453 0.0023177827503201008 0.010486810463981477
0.03929609478640361 0.003505489207644322 0.03297334018251358
0.04356155564703518 0.003469569474445405 0.03504275324364192
0.04579835232073126 0.0034542722092984037 0.03542322762831113
0.04766794932502999 0.0034426772446980777 0.03550406465547912
0.049289157750461776 0.0034335866862798456 0.03538221064867647
0.05076987978803621 0.003425904537003745 0.03514732156828071
0.052115408172468625 0.0034195854572748774 0.034802118371984214
0.053399329402482654 0.003413876392307597 0.034408861873162666
0.05458161291726932 0.00340919692738571 0.033931705511248134
0.055667128902448404 0.0034055032824573286 0.033373563262396544
0.056711338204672224 0.0034022238115028803 0.03278217284440116
0.05772907566368246 0.0033992062773029754 0.03217017018311724
0.0586735746989705 0.003396942235217895 0.03149540480234303
0.05955817440620853 0.003395296753014669 0.03076884919868611
0.060386784843852126 0.003394232878481039 0.029993201937543845
0.0611115409578441 0.0033942592475775008 0.029124220347544194
0.06180469888468315 0.003394619665034891 0.028226376078661797
0.062416623575538455 0.003395842137710531 0.027253678479339905
0.06299332374404265 0.0033974441171551175 0.026247387646400555
0.0634976510994052 0.003399823466331774 0.025172547686756253
0.06389334350866693 0.0034033722342072677 0.02399430438201061
0.06420202120115914 0.003407867357055445 0.02273131101486725
0.06446673153593174 0.0034128541627481213 0.021422805801671163
0.06463591206395802 0.003418889731962894 0.02001930553046033
0.06461433203072126 0.0034270062836331823 0.018428753314163937
0.06433038845314953 0.0034379906880947554 0.016579790698169672
0.06390018464985558 0.0034506074742208814 0.014580073762242074
0.06299750744124549 0.003468403487605355 0.012112075509732645
0.04206335018093932 0.004646509835581491 0.03377894633956441
0.04488316911978818 0.004618195560048027 0.034647139379915814
0.04682288297729231 0.004601803360290276 0.03478364499389153
0.04855668516606615 0.004588163564785558 0.03475447643436552
0.050075433462627106 0.004577420105289407 0.034549032846280636
0.051463192286289705 0.00456843392713661 0.03423724737797329
0.05277141528846829 0.004560506194248928 0.03386217076047404
0.05399796615054686 0.0045536735351882195 0.03342087850254466
0.05512359418831575 0.004548210294727132 0.03289533942716938
0.0561632613040306 0.004543917653685097 0.03229741617486065
0.05716880351342235 0.004540081249146788 0.031672022717584014
0.058129640732399124 0.004536851894478014 0.031009244010834713
0.059026075279111356 0.004534509365728094 0.030290770430289327
0.059839449754360396 0.004533321369371679 0.02949885517575168
0.06055873941738782 0.0045334507250540295 0.02862231999233983
0.0612630459184772 0.004533791788841878 0.027732022550558455
0.06188164134220414 0.004535344865272068 0.026762858135441436
0.062449063661623505 0.004537629348964349 0.025745444157119823
0.06290978573052619 0.004541438006453229 0.024627556022046693
0.0632764804834316 0.004546601084168444 0.023419443322456934
0.06357495337494429 0.004552760108845649 0.022143890110725872
0.06380761930137868 0.004559887443009243 0.020802146068138627
0.06391175779150327 0.004568887775303652 0.01933384376324604
0.0638482579928707 0.004580335327558569 0.017699833963501832
0.0634771502291066 0.004596260360053189 0.015763707717217357
0.0627509861372218 0.004617378059965568 0.013475198948668166
0.06096412070251839 0.0046539215712730715 0.010146947910445625
0.04348978126895792 0.005796532509992406 0.03346552685100157
0.045781253249256304 0.005770076124255447 0.03389565491100616
0.047585343134904035 0.005751860417756247 0.03392202940529088
0.049244917181715586 0.0057360477649866905 0.03383351530932183
0.050699597241561756 0.0057236940396579354 0.033575913146352054
0.052041589324619164 0.0057132306524605445 0.03322675047075496
0.053292607539842385 0.005704294563665436 0.03280352525103469
0.05449346676348077 0.005696188318472833 0.032340927821155885
0.0555544930865402 0.005690475760858722 0.031758979956718114
0.0565445775095087 0.0056859731552292144 0.03111701279673551
0.05750685227078861 0.005681935765131707 0.030452604142676976
0.05843485953480804 0.005678479705765732 0.029759576747572236
0.05924903162306816 0.00567700403935483 0.0289655963057992
0.059965420747335296 0.005677240094631581 0.02808363326761959
0.060672654095740186 0.005677638482314056 0.027193186249932555
0.06126624998993241 0.0056800447508222355 0.026198266311014684
0.06180018885823135 0.005683517503076607 0.02514701981287365
0.06224542856753418 0.005688579059471757 0.024011651198615425
0.0625628381942806 0.005695935835468204 0.02275439266177398
0.06282004438688726 0.005704398832826023 0.021436710916115098
0.06301776268977449 0.005713962892887331 0.020058369563338008
0.06305686567265284 0.005726409696044022 0.018524629642920065
0.06283959409948253 0.005743512814593083 0.016740090395807428
0.062188691900536164 0.005768491548220615 0.014531356793426986
0.060914468843482394 0.005804819110761082 0.011709514708531765
0.04428979578688513 0.006954713333869069 0.03262418636514569
0.04641723985259677 0.006926268381145128 0.032920956584581496
0.04816520628539417 0.006905523445396535 0.032903308281573285
0.04976882127490323 0.006887670094185678 0.03276978689792809
0.05120242409268183 0.0068732591096384785 0.03249613434963533
0.05250724272780111 0.006861457570685093 0.03211614791845918
0.053722405082938574 0.006851468824719449 0.031662516554169906
0.05484410416962676 0.006843384406733678 0.031130663446684026
0.05588809676983414 0.006836887801574099 0.030533324643597093
0.05683321967726046 0.006832432987976969 0.029850520479985765
0.05772712235256561 0.006829033420433082 0.029123691245784455
0.058578742243516446 0.006826508184985495 0.02836019864245415
0.059312603617220905 0.006826454855281031 0.027490926617024125
0.060002713438707334 0.006827326014942465 0.026581747657167365
0.06059053824777788 0.0068303679265654775 0.025578333444097823
0.06110923889425973 0.0068348913283130044 0.024509791680520476
0.06151874363579851 0.006841759099986906 0.02333796424300988
0.06178220395145528 0.006851773259631125 0.02202691150372721
0.06196912239650898 0.006863469600431646 0.020639589226809085
0.06203882400272753 0.006877731251856222 0.019136542000754098
0.06192731607974988 0.006895950250786755 0.017455433354837957
0.06143097436820377 0.00692253716832637 0.015399788898664446
0.06037997563962444 0.006961214075416027 0.012801403169329262
0.044683000241469595 0.008122279153685515 0.03143470090360451
0.04683060220007029 0.008088553734210023 0.03175350225140372
0.04859049844592839 0.008064027569576413 0.03174926531638811
0.050152498920388866 0.008044174929096683 0.03158202086202627
0.05150851085301805 0.008029223000953132 0.031242024655587064
0.05279372482109551 0.008015922957825912 0.030845426081435257
0.05398256341859231 0.008004908120078874 0.03036865792399923
0.05508413782538196 0.007995971683313065 0.029818511118802626
0.05605090147886954 0.007990289547956995 0.029151295099856533
0.0569396737109214 0.007986492038486021 0.028416186839929247
0.05777751501653039 0.007983927633274858 0.027636539420298145
0.058541147760018564 0.00798317738732315 0.02679050532580507
0.059199834306518206 0.007985011571661826 0.02584897934165631
0.05982506287027012 0.007987680981107493 0.024876046779936156
0.06033183749291976 0.007993296732440265 0.023792833769100796
0.060689265171331885 0.008002645965750075 0.02256898060641216
0.06086439163370466 0.008016574308246116 0.021171592673015605
0.0608396332352345 0.008035551775319588 0.019581513024209518
0.06082493990045834 0.008054364759389901 0.01799347570042248
0.0603382826872062 0.008085089724324632 0.015951304084533158
0.05943056103480143 0.00812653081571592 0.013496395863533572
0.04464432488106457 0.009304176180766437 0.029869951262268435
0.0470010369126464 0.00925983275860825 0.030372664814509454
0.04875458030538521 0.00923195110912431 0.030364928164111515
0.050258372111315563 0.009210858530484855 0.03014786176409301
0.05162286742117517 0.009193536224100582 0.02981525836310006
0.0529085743037655 0.009178327119646456 0.02941874854847787
0.05403824184722261 0.009167398068933765 0.028888587276452937
0.05504493547834127 0.009159854423438803 0.028252176351803326
0.05598831794907905 0.009154048996990122 0.027561415674620282
0.056873311982378216 0.009149855440831405 0.02681987363270749
0.05760763683251746 0.009149879393364058 0.02594295076632752
0.05829266139753031 0.009151292799237236 0.025021024625005772
0.05884801938943063 0.00915637508273159 0.02397965660585405
0.059303872201766195 0.00916429742647632 0.02284479348143592
0.05958567147247695 0.009177194491434872 0.021545873277860284
0.059644648352633056 0.009196487309730652 0.02003490124192714
0.05938046131970248 0.00922507995830788 0.018214598553260575
0.05902198426871469 0.009256497687023161 0.016295704208245776
0.05773702460131985 0.00931458995453892 0.013489034603628491
0.04645215407900899 0.010457483098928463 0.02836032924287707
0.04848906334676323 0.010417311854046547 0.02859930404870542
0.05007983676183536 0.010390885095875707 0.028457637551409898
0.051564709225960514 0.0103676527381729 0.028230142426479476
0.05281275395633522 0.010351740662824904 0.02779898522037405
0.05389779315275606 0.010340878703666562 0.02722687612189756
0.054872800053680615 0.010333432805993189 0.02655914862624903
0.05573897270788419 0.010329388258754065 0.02579535143801226
0.056464696796305835 0.010329768148885766 0.024905251034741505
0.05704917606667603 0.010334627775767224 0.023886125715915585
0.057580294491758 0.01034120504817598 0.022816580280185794
0.05793072435466545 0.010353566840953675 0.02157840881730888
0.05793405563406817 0.010377064652995002 0.0200147117009305
0.05775759412947978 0.010406422089072179 0.018276335813656786
0.05707407291911498 0.010452173872249537 0.016054033614452567
0.0470936294771615 0.011648980458859825 0.025830251547667993
0.04919440677010051 0.011601992645242226 0.026133684934909973
0.050773035118608756 0.011572982038080507 0.02598543662806585
0.05212521348050286 0.011551746690998113 0.025642568486347384
0.05318343840913142 0.011540700937036257 0.025041296231322452
0.054008690726891406 0.0115377752194138 0.024232580640537127
0.0546852951771612 0.011540060810126984 0.02328969420405208
0.055052851593191565 0.011553243460823813 0.02206412877640107
0.055228602382354386 0.011573257939279755 0.020659016424865395
0.05506557502955112 0.011605351758971864 0.01893602680912254
0.05449473323949483 0.011652056082027889 0.01682622308343318