# .PCD v0.7 - Point Cloud Data file format
VERSION 0.7
FIELDS x y z
SIZE 4 4 4
TYPE F F F
COUNT 1 1 1
WIDTH 755
HEIGHT 1
VIEWPOINT 0 0 0 1 0 0 0
POINTS 755
DATA ascii
-0.020042416692254428 -0.02541314911794723 0.031035232240079924
-0.0221646111779098 -0.02531882733048777 0.031189320340867743
-0.024078676146624733 -0.025238733943692776 0.03118668482775777
-0.02598066942548538 -0.025159145692587714 0.031184065936335104
-0.02775902772378741 -0.025087944219255087 0.031090206448097624
-0.029480113905735017 -0.025020487467950586 0.030958073155030075
-0.031174745150124805 -0.02495461413349903 0.03081242334586537
-0.03274455384508018 -0.02489732640547433 0.030571292047366472
-0.03430717150157403 -0.024840301103221264 0.030331265332105173
-0.035827947758013234 -0.024786013617873973 0.030063219154159992
-0.037261938313413234 -0.024737697512584277 0.029728729193239323
-0.0386912756735196 -0.024689502971292 0.02939632650003199
-0.04008742410445687 -0.02464348138956375 0.02904166152147536
-0.041406942044079964 -0.024602775753741615 0.028627095728494478
-0.04272119706284633 -0.024562270123966078 0.028213112364133597
-0.04402478951102734 -0.02452235642801956 0.027794997106927954
-0.045241230542995614 -0.024488583926122364 0.02730604312235696
-0.04645432558688278 -0.024454904320129846 0.026818434072825026
-0.047663195808846814 -0.024421382229325272 0.026331379053368298
-0.04881367914938295 -0.024391971688609033 0.02579694340611155
-0.04993486148054105 -0.024364572750404722 0.025240202239231235
-0.05105440839314879 -0.024337170741458164 0.02468549744314591
-0.051121457131546255 -0.024386979590288457 0.023188653707695406
-0.05107473107951083 -0.02444539163117657 0.021582662009779652
-0.051028667309587994 -0.024504018719561257 0.01996976346711865
-0.0509814931473897 -0.024562993451339474 0.01834829864635734
-0.050934982550336794 -0.024622186665578638 0.016719827735578396
-0.050888247244378904 -0.02468166586293289 0.015083489112367343
-0.050840389843847034 -0.02474149983826037 0.01343839519622081
-0.05079319790506287 -0.024801557578946296 0.011786142644447939
-0.050744875926767796 -0.024861974967149463 0.010125005741700888
-0.050697220650229025 -0.024922619733485807 0.008456605951065621
-0.002568675804474174 -0.027550688428695343 0.02667687663041346
-0.006566470147756576 -0.027318988278966186 0.02820418127914981
-0.009907630463373562 -0.0271340559713789 0.029244076812478426
-0.012738722316008255 -0.026985508856587896 0.029903828334904015
-0.01533776310513929 -0.026853275279663514 0.03039714238136082
-0.017766248134148455 -0.02673295907642201 0.030770107127926105
-0.019974038229640334 -0.02662831439704314 0.030980534227807777
-0.022103857850567954 -0.02652895138874575 0.031140462042074768
-0.024078676146603306 -0.026440578417203535 0.031186684827740452
-0.025980669425467118 -0.026357200249378952 0.031184065936320227
-0.02781438951465065 -0.02627851252742178 0.031135445381396065
-0.02953409557250558 -0.02620793700134606 0.031002419232498413
-0.031244589231037012 -0.02613773954565566 0.030870105699521422
-0.03284432807952631 -0.026075483834907133 0.03065413088564911
-0.03440532963427834 -0.026015847445803007 0.030413195139398053
-0.03596014446118484 -0.0259564131261052 0.030174145364216642
-0.037398921507412475 -0.02590541584163088 0.029844280971841386
-0.038826501092404764 -0.025855035827359842 0.029510999560434514
-0.04024945905440447 -0.025804782111102355 0.029179796431378136
-0.0415754081980923 -0.025761625996993817 0.02877147242064626
-0.04288873894046635 -0.025719233335730955 0.028357455291981526
-0.04419775441812135 -0.025676979965776253 0.027944798516353342
-0.04543855316674428 -0.025639720176221636 0.027477841338590936
-0.046650669303825554 -0.02560447796234706 0.026990280606245975
-0.047859457867858946 -0.02556933249748746 0.026504058354487325
-0.049037428512152814 -0.02553638633448545 0.025994842634816828
-0.05015760990083068 -0.02550772108414379 0.025438251635345743
-0.05127615862024476 -0.02547905257801636 0.024883694784271104
-0.05176156026934281 -0.025498992001775047 0.023763771583633575
-0.05171733576097631 -0.025559881511080886 0.022163055172019497
-0.051672016318558056 -0.025621130808346933 0.02055387380779511
-0.05162736461870088 -0.025682605732798253 0.018937769876950727
-0.05158161041782905 -0.02574444532317132 0.01731307755308875
-0.051536525326296156 -0.025806514146146254 0.01568136313064078
-0.0514912223127284 -0.025868882983314297 0.014041761697192123
-0.05144480525740158 -0.025931623973986743 0.012393382303261147
-0.05139905933673977 -0.025994599742370644 0.010737827822654533
-0.05135219153961862 -0.026057952774793575 0.009073365944840872
-0.006092958117198066 -0.028596684652413645 0.02783540268961482
-0.009498512172342821 -0.02839852688923441 0.028923736074291106
-0.012459910655780448 -0.02823336572404486 0.029684345672012502
-0.01518053364540789 -0.02808588367124611 0.03027270619889022
-0.01760872381990125 -0.02796014678265638 0.030644769544519335
-0.019904627862899427 -0.027844014741277772 0.030925010764034755
-0.022036108712843172 -0.027740019005758707 0.03108597765811172
-0.02407966351716706 -0.027642346852808718 0.031187483120358073
-0.025981648467006735 -0.027555179247066255 0.03118486171877899
-0.027868763245597283 -0.027468784918956872 0.0311798769207145
-0.029589024271343578 -0.027394949288387448 0.031047543299235036
-0.031299105744550415 -0.027321583814623466 0.030915129426249632
-0.032943096068354716 -0.027253044185859637 0.03073613427559707
-0.03450437555140701 -0.02719065860355209 0.030495865955151524
-0.03605758675702697 -0.027128631223062902 0.030255909162538897
-0.037535796204482774 -0.027072209284573222 0.0299597412281718
-0.03896254545022565 -0.02701958093791107 0.029626367092592587
-0.04038467775536336 -0.02696708444486164 0.029295070469973872
-0.041743708277237 -0.026919333839253975 0.028915706785455297
-0.04305702513349563 -0.02687498600784818 0.028502439472434138
-0.04436511768353385 -0.026830855694974 0.028089748457159502
-0.04563654482052104 -0.026789440867498973 0.02765022204335693
-0.04684767904887999 -0.02675263991038445 0.027162710069561113
-0.04805549034446238 -0.026715939922349285 0.026676535659713285
-0.04925999236399875 -0.026679340488426444 0.02619169331663651
-0.05038094274782351 -0.026649270831921895 0.025636820655148274
-0.051497612792504865 -0.026619409908169214 0.02508162751560511
-0.0524000745482312 -0.02660665297308385 0.024337461906562663
-0.05235657966976642 -0.026670135512751856 0.02274041292300749
-0.052313756546829515 -0.026733850589260925 0.021136523502028104
-0.052269846296656985 -0.026797942288954928 0.01952414732534563
-0.05222660926543593 -0.026862270227048325 0.01790483282358324
-0.052183164155477635 -0.026926907744198803 0.016277725349198358
-0.05213862069569791 -0.026991929581882106 0.014641944564125875
-0.052094752629561314 -0.027057193350348976 0.012999075009306138
-0.05204977859629034 -0.027122846692506128 0.011347404777183934
-0.05200548138735456 -0.027188745857889923 0.009688542968660285
-0.051960968400319996 -0.027254966027698342 0.00802160060279744
-0.0053621475839286115 -0.02989787418596661 0.02726623599419098
-0.009043000320705541 -0.029669383167965756 0.02856706905156048
-0.012181721498659925 -0.029483020302969273 0.029465353048309162
-0.014988181597862582 -0.029322334291216442 0.030120472930851072
-0.01745208117458441 -0.029188312198155444 0.030520133479818523
-0.019836197471969907 -0.02906009949224644 0.030870271212723455
-0.0219693310048637 -0.02895146143970129 0.031032274505512103
-0.02407966351714358 -0.028844188020324027 0.031187483120339088
-0.02598164846698675 -0.02875323051867944 0.031184861718762724
-0.027872646446525096 -0.028662766517107162 0.03118305008157185
-0.02964297268714322 -0.028581670637654807 0.031091862060945663
-0.03135360536335802 -0.028505061209428265 0.03096013920009333
-0.033041808357694824 -0.028429940460204854 0.030818091420330318
-0.03460242271105873 -0.02836487912564829 0.030577703136387135
-0.036155910505601574 -0.028300114894235423 0.030338412587558428
-0.037671632516085685 -0.028238154984195633 0.030074325557433057
-0.03909848230667967 -0.0281832058325015 0.029741643462076917
-0.04051887104522206 -0.028128545573822192 0.029409470344878563
-0.04191184252696917 -0.02807590096896769 0.02905979903327849
-0.04322423657614499 -0.028029670518886114 0.028646497719509667
-0.04453231569149835 -0.027983592066853236 0.028234555271830775
-0.045834304367586565 -0.027937813734842994 0.027822400665268865
-0.04704356422610195 -0.027899531941268603 0.027334155273809557
-0.04825040414416348 -0.027861280886890986 0.026848028707734117
-0.04945393936910314 -0.027823134575483712 0.026363233303364098
-0.05060397610897899 -0.02778928977943322 0.025835123397016435
-0.051719648528575135 -0.027758172301292187 0.025280080040773645
-0.05283369825772638 -0.027727051116815844 0.024727062788101495
-0.052994235735408846 -0.027776039778142407 0.023316336552315076
-0.05295213939980714 -0.02784234252434003 0.021716124963343353
-0.05291072022935639 -0.027908888281910987 0.02010905742362984
-0.0528691025933587 -0.027975752902542925 0.01849428940085701
-0.052826402000709205 -0.028043013680559864 0.016870951012630975
-0.0527843808916979 -0.028110523302911937 0.01524060871896854
-0.05274126942033691 -0.02817843447261193 0.013601570720931377
-0.05269883896218258 -0.02824659847480324 0.011955427723084722
-0.05265620272663635 -0.028315093055893355 0.01030130133039281
-0.05261246483539678 -0.028383997458485535 0.008638286735446643
-0.004626335678758642 -0.03120429744093209 0.026693174151957322
-0.008587436863378706 -0.03094325518791392 0.028210361621434143
-0.01190207008309735 -0.030734639058331938 0.029245209323620902
-0.014712160272320474 -0.03056700594490856 0.0299020212482618
-0.017295304174942572 -0.030417531026223316 0.03039539051323087
-0.019706310095423563 -0.030281762862937014 0.030766370349136818
-0.021900534104295266 -0.03016351875226954 0.030976947502513674
-0.024017448559535748 -0.030051237019575364 0.03113718210551597
-0.025981648466966045 -0.02995128179029282 0.031184861718745904
-0.027872646446507887 -0.029857048455321406 0.031183050081557806
-0.02969786755687831 -0.029767948630314747 0.031136958336987597
-0.0314071324033961 -0.029688252593434248 0.031004345747209616
-0.033107269451951804 -0.02960898214848478 0.030872441333722855
-0.03470135668308694 -0.02953835927532139 0.03066028051474262
-0.03625324292001725 -0.029471014313531472 0.030420084184412
-0.03779899825136562 -0.029403896579938988 0.03018176455644378
-0.039233388141503456 -0.029345990444457782 0.029856045510692764
-0.040653877313615416 -0.02928901875359153 0.029524563284561378
-0.04206886175663255 -0.029232267841407013 0.02919436562985056
-0.04339128361419187 -0.029183219728142015 0.028790414326524683
-0.04469844624873648 -0.029135268482933952 0.028378437589007155
-0.04600042281263855 -0.029087552018065232 0.02796703107814963
-0.04724011414446688 -0.02904501095348249 0.027506182281554437
-0.04844597970180925 -0.029005212678658965 0.02702010399717225
-0.04964854516054773 -0.028965523319984327 0.02653535596575607
-0.05082583080043418 -0.028927857616056082 0.026032378163675318
-0.051941387050676247 -0.028895410362806382 0.02547826692013344
-0.05305357162258062 -0.028863112087363623 0.02492461392494738
-0.053628566368363495 -0.028877763345429606 0.023889256689041405
-0.053588935431927054 -0.028946486439862428 0.02229428571602482
-0.053548240195796515 -0.029015614485824744 0.020690906438237122
-0.05350822755016055 -0.029084996048766947 0.019080655660417445
-0.05346802309102594 -0.029154710214657483 0.01746268562494757
-0.05342674357681804 -0.029224837574286042 0.01583612314734617
-0.05338614909678546 -0.029295224538492693 0.014202540788713303
-0.053344472263401777 -0.02936603032092014 0.0125602402835302
-0.05330348207930641 -0.02943709987022875 0.010910818510455111
-0.05326229301096591 -0.029508514248861695 0.009253393745864869
-0.053220010460805156 -0.029580356079977943 0.007587057773506378
-0.008124382075998693 -0.032220782871688454 0.027847788459435474
-0.01149854654888921 -0.0319987795005123 0.02892755252348911
-0.014436756857977961 -0.03181345688325867 0.02968405859941281
-0.017138392648049228 -0.03164780462272853 0.030270540507163712
-0.019550120936619286 -0.03150657220212921 0.030641429889839478
-0.02183270860479658 -0.031375951394330207 0.030922401707817626
-0.02395027169965519 -0.03125913460551252 0.031082869375032074
-0.02598262750313396 -0.031149247647735398 0.031185657496838437
-0.027872646446489957 -0.03105133039353583 0.031183050081543096
-0.029751782752417855 -0.030953942467054435 0.031181249808169498
-0.03146159855239916 -0.030870999953070615 0.03104932787923914
-0.03316132754079765 -0.030788584195016296 0.030917323755568715
-0.0347992930577713 -0.030711256222222198 0.030742025226910497
-0.03635145582443822 -0.03064117414622406 0.030502494600138708
-0.03789562193954277 -0.030571493466582802 0.030263271190199392
-0.03936911110627722 -0.03050778126527319 0.02997114049701871
-0.04078877719174323 -0.03044857743472611 0.029639565526467182
-0.04220203213411333 -0.030389684241631694 0.02930849359048454
-0.04355907301405959 -0.030335554299157252 0.028934970503062762
-0.04486441381249939 -0.03028581496996766 0.02852217874082974
-0.04616637765900655 -0.030236158002769478 0.02811151905443826
-0.04743643423106564 -0.030189150522434493 0.027678008132914544
-0.04864132688021944 -0.030147808668169365 0.027191978349317747
-0.04984292401595347 -0.030106579888406922 0.026707277910405225
-0.05104036049026783 -0.030065543293762022 0.02622312014723216
-0.052161954273840405 -0.03003120654357369 0.025675406908412135
-0.05327402312380952 -0.02999758183808542 0.02512268450396471
-0.054261330761848026 -0.02997518080266113 0.024460762216280463
-0.05422240941009204 -0.030046457636888693 0.02286943030478855
-0.05418417437022677 -0.030117994399775003 0.02127130813892969
-0.05414575683044853 -0.030189872615330793 0.01966555796389402
-0.054106279252197076 -0.030262175352224516 0.018051316933657968
-0.05406749056596666 -0.030334744235334582 0.016430139714336045
-0.05402763474743044 -0.030407743391892117 0.014800347928600743
-0.053988469529848426 -0.03048101294538907 0.013163520248959504
-0.05394911511385003 -0.030554636447823733 0.011518785418323851
-0.05390868275107141 -0.03062869905296795 0.009865246040901277
-0.053868943540889225 -0.03070303859254948 0.008204517517586996
-0.007399896052607102 -0.03352470492477683 0.027280513926304817
-0.011046941928814724 -0.033269893822249444 0.028572045926286205
-0.014159907477178935 -0.03306186594189846 0.029464951568676734
-0.016947676116208177 -0.032882158736167386 0.030118792827252105
-0.01939379742891789 -0.032732435082945474 0.0305163819607725
-0.021763859623921467 -0.03258892958657525 0.030867032821431162
-0.023883069694842773 -0.03246748431888554 0.03102853631478114
-0.02598360653393189 -0.03234720693534379 0.031186453270566072
-0.027872646446471305 -0.03224561233175044 0.031183050081527885
-0.029751782752403033 -0.03214447871578865 0.03118124980815734
-0.03151509272496622 -0.032053468042555024 0.031093507281992394
-0.03321442097878019 -0.03196790845666738 0.030961405263658648
-0.034897174374960316 -0.031883493794397325 0.03082372398414973
-0.03644867854318545 -0.03181075711533158 0.030584074151393026
-0.03799311984699971 -0.03173835155320096 0.030345515269109558
-0.039504726950331415 -0.03166865513094275 0.030086144643465262
-0.04092265420066521 -0.03160730738484749 0.02975369577164866
-0.042336009579552525 -0.03154611250202667 0.029423313214098967
-0.043725791079258225 -0.031486834889035725 0.02907860368897275
-0.04503111929140896 -0.031435149422554313 0.02866655898604331
-0.04633127341672527 -0.03138371685395805 0.028255084939091735
-0.04762718000150412 -0.03133245231307317 0.027844955157881546
-0.048835559688914676 -0.03128915418459059 0.02736287223389583
-0.05003619433344031 -0.03124638937368285 0.026878219388355218
-0.0512335514950959 -0.031203741301815923 0.026394889544255007
-0.05238310132440743 -0.031165408052943495 0.0258730651385482
-0.05349331064754914 -0.031130618878089805 0.025319709276108437
-0.054601909853903174 -0.03109582531643802 0.024768369337629048
-0.05485431816453301 -0.031142124425711515 0.023443153793418603
-0.05481765837725355 -0.03121612699467754 0.021849473631245397
-0.054779953284071314 -0.031290565102027185 0.02024740255997759
-0.054742940782269656 -0.031365275673310204 0.018638477594926817
-0.054704876079770204 -0.03144042765734583 0.017021039962282325
-0.054667505767835634 -0.03151585644023892 0.015396650377799248
-0.054629076267601384 -0.03159173261976051 0.013763624054892842
-0.05459134295138224 -0.03166789002079374 0.012123545787823375
-0.054553427270067956 -0.03174441549060622 0.01047554102113385
-0.05451444174903047 -0.031821397542161664 0.008818708981446044
-0.006670461237858749 -0.0348338747381847 0.02670936447603861
-0.010595289711263944 -0.034544004561295714 0.02821650185998742
-0.013883677241187165 -0.03431205556576228 0.029246334547995745
-0.016674002836397528 -0.034125509262336415 0.029901038839885707
-0.019239359069614215 -0.03395916432885281 0.03039284201925374
-0.021634072815845395 -0.03380806860910046 0.030762657260028692
-0.023815842530977738 -0.03367628641359528 0.030974182913346582
-0.025918978980818297 -0.033551323662076714 0.031133922840510586
-0.027873617233419967 -0.03343980286336903 0.031183843360887753
-0.029751782752387712 -0.033335014964523006 0.03118124980814474
-0.031568570620449155 -0.03323557633333148 0.03113767324193828
-0.03326844596773615 -0.033146785022208025 0.031006260203896296
-0.034958322259942554 -0.03305855620591349 0.0308747623881509
-0.03654678079078544 -0.03297959534869565 0.030666391715017782
-0.0380896349164751 -0.03290463905742236 0.030426930277872244
-0.03962641326492711 -0.0328299346131577 0.03018933635267812
-0.041057342396808416 -0.032765043376124875 0.029868517554512364
-0.042468971393008925 -0.03270171934439952 0.029537262433880662
-0.04387605931882321 -0.03263855253081756 0.029208064800245237
-0.0451967607044414 -0.032583438017081336 0.028810017665311605
-0.04649690267098483 -0.03253006626109245 0.028399289439809294
-0.04779190237938935 -0.03247695528341518 0.027989125646538826
-0.049030452340856456 -0.032429088552760395 0.027534346675262333
-0.05023012153304435 -0.03238479153656246 0.02704974185774467
-0.05142651778247942 -0.0323406153716797 0.026566459141189047
-0.05260308059247376 -0.032298179645642175 0.026069679620546182
-0.05371317515824853 -0.032262064864791294 0.025517252457700812
-0.054819925388633395 -0.032226115649899335 0.02496527846273988
-0.055482939671508025 -0.0322336727773656 0.024013892719687513
-0.05544784119013563 -0.03231012210441111 0.022424626203713605
-0.05541257582529735 -0.0323869349267399 0.02082780316750288
-0.055376272908562174 -0.03246419999338675 0.019222567715833527
-0.055340668014561945 -0.03254174803915109 0.017610462852785003
-0.05530401877854868 -0.032619754431864406 0.015989823462891517
-0.055268069447651336 -0.03269804830773362 0.014362216321746835
-0.055231947130568115 -0.032776718929502124 0.012726777222941466
-0.05519477012328583 -0.032855857264649145 0.011082616091017405
-0.05515829584010923 -0.032935290009399085 0.009431336068126905
-0.05512075984616749 -0.033015196859754334 0.007771205996658037
-0.010142539368521108 -0.0358212131110992 0.02786009334117201
-0.013485676129186386 -0.03557580224800433 0.028931344347806587
-0.01640094351941329 -0.035370621468988075 0.029683773365148824
-0.01908377877918399 -0.03518703375521847 0.030268388612290142
-0.021479205073821117 -0.03503050502442271 0.030638111416298297
-0.02374760100108325 -0.03488563719455573 0.030919009393364283
-0.02585236854175771 -0.03475606705881511 0.03107978068532352
-0.027874588015060597 -0.034633986866462796 0.031184636635910146
-0.029751782752371725 -0.03452555121325753 0.031181249808131584
-0.03161916864292941 -0.03441760546060808 0.031179460791990965
-0.033321506901464404 -0.034325390498589 0.031050314724912043
-0.035011926576008656 -0.034233945844275325 0.030919504389290975
-0.036643893999203925 -0.03414786409007175 0.030747879376191334
-0.03818702325327733 -0.034070182638957155 0.03050908192877233
-0.039722226627867785 -0.03399294501181735 0.03027058743436417
-0.041191924578374506 -0.03392186810050847 0.029983248959873754
-0.0426027390925634 -0.033856334059376776 0.02965190230378012
-0.04400901710299543 -0.0337909626239821 0.029322612375575097
-0.04536223984315413 -0.03373060166496508 0.028953335802072044
-0.04666147507305568 -0.03367537787148481 0.028542573796057846
-0.04795646303668272 -0.033620334607405516 0.02813315459197019
-0.04922423347868998 -0.03356778304158053 0.027704843161539816
-0.05042294303123268 -0.03352195717513659 0.02722028636923235
-0.05161838415137421 -0.03347625625868414 0.026737050781950766
-0.05281057018860369 -0.03343067978188109 0.026255131003404486
-0.05393187917916953 -0.03339209003977894 0.025713752966047332
-0.055038515082225126 -0.033354818529052296 0.025162706161534987
-0.05611001719640285 -0.033320959668289685 0.024583229831565967
-0.056076470470280804 -0.03339983607986636 0.022998360904523285
-0.05604190056469949 -0.03347917526753692 0.02140517820123433
-0.056008032161069976 -0.0335588033992138 0.019805207254966484
-0.05597313398012954 -0.03363890052324934 0.01819680234086224
-0.055938939269023435 -0.03371929117270118 0.01658151246183487
-0.05590458072858634 -0.03380006697968523 0.014958483609768924
-0.055869182357812686 -0.03388132131888515 0.013326836250228957
-0.05583449040798599 -0.03396287622820755 0.011688155288330837
-0.055798751808851854 -0.034044916179655084 0.010040729841832352
-0.05576372159279286 -0.03412726151787045 0.008386169232057983
-0.009424310918023426 -0.037127804215545984 0.027294698433545483
-0.013037937863824234 -0.03684714479996985 0.02857699064982372
-0.016126451860196678 -0.0366176934581111 0.02946536821673762
-0.018893669110499056 -0.036419394127700386 0.030116314105300024
-0.021325204971546607 -0.03625388932854863 0.030514263335208958
-0.023680323106201495 -0.03609534816371651 0.03086461497572207
-0.02578573324838035 -0.035961259980784206 0.031025618328103688
-0.027874588015039947 -0.03582826227565326 0.03118463663589327
-0.029752745374168055 -0.035715990139710656 0.031182040604401995
-0.031619168642917084 -0.03560441944200961 0.03117946079198075
-0.03337549882092561 -0.035503542250236775 0.03109514220877735
-0.035064574388975533 -0.035409069157948767 0.030963448024443063
-0.036740952783376024 -0.0353154781095124 0.030829321369997664
-0.03828342988710248 -0.035235162965636405 0.030590405466954684
-0.039818907047621255 -0.03515521230136783 0.030352573792443382
-0.04132640087048023 -0.03507778263347766 0.030097890094394952
-0.04273640174674287 -0.03501004207613919 0.029766452149046052
-0.04414096726526151 -0.034942562649252364 0.029436291850951923
-0.045528454966134724 -0.034876549217253194 0.029097291359928446
-0.04682588659072645 -0.034819569836237664 0.028685718078895583
-0.04811997400089557 -0.03476268413479228 0.0282762648112011
-0.049408956583309904 -0.03470607589747595 0.027867370023669236
-0.05061642014740081 -0.0346577141768969 0.027391410754069923
-0.051810903195525115 -0.034610492316337726 0.02690822272734572
-0.05300213565634054 -0.03456339896223378 0.026426349616589573
-0.054151159040668584 -0.034520524327392214 0.025910770853845022
-0.05525595153010693 -0.034482109642302534 0.025359092262060345
-0.05635914632436645 -0.034443689846443186 0.024809419501213847
-0.05670183309001303 -0.0344854663816978 0.023569114203584984
-0.056669672796675064 -0.034567136193696904 0.02198112888443321
-0.05663649701557388 -0.03464928534645007 0.02038480853779051
-0.0566040281171028 -0.03473173385373912 0.018781684635630236
-0.05657053723654787 -0.03481466814364321 0.01717010516713524
-0.05653775528871002 -0.03489790653646606 0.01555162514412628
-0.05650481620851461 -0.03498154391257232 0.013925387325021965
-0.05647084525208845 -0.03506567695747086 0.012290508864917837
-0.0564375863058354 -0.03515012140682213 0.01064858078536296
-0.056403288772781446 -0.0352350682712739 0.008997885721142629
-0.008700123221177247 -0.03843976574230814 0.026724612361796463
-0.012590155920655766 -0.03812146456354126 0.02822260238389479
-0.015851548865739418 -0.03786663422771563 0.029246635780661112
-0.018623331338493865 -0.03766131385170928 0.02990006269797868
-0.02117107361994902 -0.037478316283672784 0.030390309702392204
-0.023548662595857472 -0.03731219237093597 0.030758166984160618
-0.0257180926046659 -0.037167004670006006 0.03097063880416434
-0.027808562770095857 -0.037029420518644385 0.031130684052252777
-0.029753707990719636 -0.03690642257855971 0.031182831396363853
-0.03161916864290443 -0.03679123342341126 0.031179460791970315
-0.03342852728023915 -0.036681429600233954 0.031139169767493646
-0.035118145985389704 -0.0365837381596443 0.031008162715418286
-0.036797856188999556 -0.03648666397906895 0.03087706899889986
-0.03838070883785355 -0.0363993942585299 0.030672464845566516
-0.03991461303745619 -0.036316922516228735 0.030433733820222963
-0.041442495905034016 -0.036234726710427115 0.030196861193799385
-0.04286995947923744 -0.036162844462287985 0.02988091207568183
-0.04427371746386499 -0.036093170392960054 0.029550660584375554
-0.04567297392899611 -0.03602366847348714 0.029222456312108958
-0.04699102968907942 -0.03596254830870151 0.028829499309762086
-0.04828332545734548 -0.03590391928052342 0.02841923542394731
-0.049572296966558904 -0.03584538623817046 0.028011083502300416
-0.0508096722983698 -0.03579215057905026 0.02756233616430992
-0.052003198693297004 -0.03574341133875155 0.027079195913865928
-0.05319260974701401 -0.03569489872844954 0.02659659277177867
-0.054369281884646126 -0.03564754963877486 0.026106749188139378
-0.055473960997083294 -0.03560781345971134 0.025555995906845652
-0.056575322815750284 -0.03556825917436019 0.025005690766526978
-0.057325663236755364 -0.03556685815440487 0.024138468851708617
-0.05729418174167694 -0.035651021394600996 0.022554085659545253
-0.05726341039443078 -0.0357354896113676 0.02096297897325866
-0.057231631271430994 -0.035820453775100285 0.019363515962940003
-0.05720056442726196 -0.03590572773456917 0.017757234049212978
-0.05716934931509032 -0.03599140866823529 0.016143286075394503
-0.057137116818024636 -0.036077595595616616 0.014520799619374358
-0.05710559980225527 -0.036164099728353855 0.01289134765335681
-0.057073058885634464 -0.03625111670998371 0.01125323286511537
-0.05704123558471996 -0.03633845596264949 0.009608052402973744
-0.05700925857075234 -0.03642621708191666 0.007954925379869304
-0.012141288787419546 -0.039398872614095706 0.02786735526549944
-0.015458996690497107 -0.039129928752413654 0.028934293262357913
-0.018352591857752953 -0.03890507900781284 0.0296834899516199
-0.02101681085116569 -0.03870378722329037 0.03026625038285169
-0.023396093000674467 -0.03853215855628787 0.030634813923032855
-0.025651407194886566 -0.03837310072686896 0.030916435711437373
-0.027742512971173083 -0.038231025457639775 0.031076711404308233
-0.029753707990702094 -0.0380969523391603 0.03118283139634942
-0.03162012318252655 -0.03797794424249988 0.03118024912064965
-0.03347491398923741 -0.037859677350668204 0.031177682927794992
-0.035170761667447814 -0.03775814748380285 0.031052079531812826
-0.03685101132410068 -0.03765787071422124 0.030921671455242272
-0.038477007218668535 -0.037563069607597685 0.03075369706723402
-0.040011185142783456 -0.03747788453707133 0.030515628326142685
-0.04153750711854881 -0.037393184965048926 0.03027785832079488
-0.04300341241353822 -0.03731474228374946 0.02999528218952019
-0.04440636369852996 -0.03724287703284533 0.02966493974939105
-0.04580392142398848 -0.03717128806346009 0.029335867290324946
-0.04715511927373045 -0.03710450291805393 0.02897236330280084
-0.04844740411861653 -0.03704394352394116 0.02856284251047303
-0.04973459585439899 -0.0369836793202978 0.028153880631127504
-0.05100182298567846 -0.03692536620618887 0.02773228736480865
-0.052194398482019455 -0.03687511287591526 0.02724919488689781
-0.05338373233473409 -0.03682499614360974 0.02676741554482004
-0.0545698377429763 -0.036775015453079866 0.026286943991818745
-0.05569082066228975 -0.03673211728255562 0.025751861063888104
-0.05679206951699739 -0.03669124477911234 0.02520247973758427
-0.05789001802814692 -0.036650559210220715 0.0246535417851787
-0.057917159232226345 -0.03673066977082232 0.02312563739921092
-0.057887063871112865 -0.03681762612316908 0.021538142966172624
-0.05785768398836871 -0.036904897759182306 0.019943909928059056
-0.05782730406225478 -0.03699268199003311 0.018341299223971652
-0.05779764182673841 -0.03708078648857793 0.01673185423314133
-0.057767837962429514 -0.037169311661362975 0.015114724594360085
-0.05773702460273328 -0.03725835981799378 0.013489034604966421
-0.057706932260930655 -0.03734773590550081 0.011856363301984418
-0.0576758240149825 -0.03743764206564004 0.010215006947734584
-0.05764543900663266 -0.03752788139574297 0.008566568827685583
-0.011435522622103733 -0.040707404221757636 0.027308790429883822
-0.015016113167462097 -0.04040136076537704 0.02858190353272677
-0.018080433500909765 -0.04015080552232343 0.02946578220310575
-0.02082831168245297 -0.03993406374476823 0.03011465788396883
-0.023243393841775206 -0.039753160749854584 0.030511356109179044
-0.025583715669077023 -0.03957975571901805 0.030861414829621847
-0.027675466739340904 -0.03943318519072555 0.031021924520385713
-0.029750820125243882 -0.03928780326329042 0.031180459007481343
-0.031621077716960766 -0.03916464861452224 0.031181037445044357
-0.03347586052858492 -0.03904268654387702 0.03117846880423264
-0.03522430057415665 -0.038932096509410076 0.031096766937618925
-0.03690321802077001 -0.038828822446874245 0.030965478077209174
-0.03857325179988513 -0.03872609483910256 0.03083488390640543
-0.04010678393990258 -0.038638296750723514 0.030596697452988986
-0.04163337829651126 -0.03855089586570828 0.030359588568092732
-0.043135853895265086 -0.0384658392272068 0.03010878548130902
-0.04453890609134198 -0.03839168362704894 0.02977912945117922
-0.045935663154212936 -0.038317915230198604 0.029449966139619477
-0.04731904868128789 -0.038245342801118465 0.02911508783824246
-0.04861043639523421 -0.03818295182415844 0.028705533766443525
-0.04989761759870992 -0.03812076407686936 0.028297313758327447
-0.05117973686036964 -0.038058879030351274 0.027889646555205816
-0.05238624906524597 -0.038005407623367744 0.027419772492354333
-0.053574633555491136 -0.03795378462801767 0.026938040463076518
-0.05475979404394643 -0.03790230168214872 0.026457615338175644
-0.05590825220982404 -0.037854833967505386 0.025948242738475846
-0.05700767358423142 -0.03781283931276735 0.025398231286754946
-0.058105509535365696 -0.037770838781106604 0.02485021565851886
-0.05853690745008422 -0.037806295358948055 0.023694226437249777
-0.058509186918249245 -0.03789552752722485 0.02211189552148335
-0.0584804801993295 -0.037985281986124525 0.020521284887964564
-0.0584524943046239 -0.038075362066020704 0.01892392050365338
-0.05842437536032474 -0.03816587040175222 0.01731896198060351
-0.05839526105206433 -0.03825691156526463 0.015705543922556908
-0.05836687101345095 -0.038348286111229445 0.014085227502234843
-0.058337479389955815 -0.03844020067411593 0.012456328815944995
-0.05830881433703117 -0.03853245392518734 0.010820432975747918
-0.05828001136573402 -0.03862515104159064 0.009176666221002272
-0.05830164577771174 -0.038712265671499345 0.007573850103964219
-0.01071758687585972 -0.0420219952780842 0.02674059421732672
-0.01457216108028525 -0.04167586041709417 0.028228663577224866
-0.017807868609015676 -0.04139839283396036 0.029247749254837807
-0.020560265133657996 -0.04117463620610353 0.029899092762773583
-0.023090564954045267 -0.040975200271880875 0.03038779340910358
-0.025452183479436896 -0.040794148389386393 0.030754503115421772
-0.027609367429758724 -0.04063568757908692 0.030967911414764848
-0.029686312159407147 -0.040485734171217466 0.031127465548378253
-0.03162107771694689 -0.040351456148297236 0.031181037445032922
-0.03347586052857571 -0.0402257982573289 0.03117846880422498
-0.03527688415470953 -0.040105792496502944 0.03114065695979823
-0.036955408973042 -0.03999942104614945 0.031009271488057433
-0.0386259784265206 -0.03989350521959238 0.03087936130038016
-0.04020232946419733 -0.03979806231985598 0.030677721403729707
-0.04172828336566531 -0.039708063039859486 0.03044049520694536
-0.04324735125925183 -0.03961846988992661 0.030204339515236045
-0.04467044417095356 -0.039539696475137116 0.029892453903574867
-0.0460673019890373 -0.03946364683666278 0.029563975873288073
-0.04745790701422736 -0.03938799361750509 0.02923598433482777
-0.048773309863859415 -0.03932085062858413 0.028848086028391562
-0.05005960003365789 -0.039256840750198745 0.028439832459095038
-0.05134083404034362 -0.03919314234105309 0.028032131911448932
-0.05257700673030202 -0.0391344952877204 0.027589378365740325
-0.053764447564678464 -0.039081369271812244 0.027107693646398645
-0.05494866881088012 -0.039028387300044654 0.02662731495119608
-0.056125395089086705 -0.03897606010201449 0.026144363691198658
-0.057223846731125794 -0.03893285027388165 0.02559449951553444
-0.058472803871353896 -0.03887141865761703 0.02518543629271941
-0.05985038407791715 -0.03879426800826809 0.024899277764202254
-0.0599036788695268 -0.038876098154358815 0.023397964771109447
-0.05995719896967944 -0.03895827424470263 0.02189030484315535
-0.06001009689252895 -0.039040901082250105 0.02037546653156619
-0.06006407025740346 -0.03912377611107827 0.01885498570673233
-0.060117421007942096 -0.03920710721840093 0.017327233345512838
-0.060171853436708056 -0.039290690140887805 0.01579376736549143
-0.060225662837581184 -0.03937473456077729 0.014252935128874766
-0.06028056022883299 -0.03945903448573768 0.012706316917324656
-0.060334834202867504 -0.03954380141646315 0.011152236128330162
-0.06039020255675803 -0.03962882760966228 0.009592295730176503
-0.06044322231885546 -0.039714538759549035 0.008023119225005648
-0.014127136557035624 -0.0429534388231111 0.02787457031506757
-0.0174206973418769 -0.04266117071613971 0.028938039180762265
-0.020290815393914974 -0.04241716389041433 0.0296823991844945
-0.022937606172097502 -0.042198278444854874 0.030264125689090315
-0.025300900014499028 -0.04201174341580524 0.03063153721170725
-0.027542270930923207 -0.04183875188506717 0.03091308345511884
-0.029620817295059942 -0.04168421627440215 0.03107366134962186
-0.031622032246194476 -0.04153815084951857 0.031181825765144167
-0.033476807062796377 -0.041408797839872405 0.031179254676406032
-0.03532006591689263 -0.04128024795974985 0.031176699551041076
-0.03700851574533209 -0.041169555832805765 0.031053833363181016
-0.038677764307006035 -0.04106066850425112 0.030923045130650584
-0.04029873969711578 -0.04095707208704385 0.030759478639566185
-0.04182404746843993 -0.0408644778124909 0.030522134172569493
-0.04334156839421616 -0.04077240997143458 0.030285084269990603
-0.044802779949875804 -0.040686709156435324 0.030006465600590615
-0.04619794359276369 -0.04060859177009058 0.02967712192526245
-0.04758864920710365 -0.040530666349940674 0.02934981454393376
-0.048936908643651134 -0.04045753451932716 0.028991273106729776
-0.05022142501667087 -0.040391813121855955 0.028582212627278947
-0.05150264913460734 -0.04032619855644459 0.028175252240156157
-0.052768413941300274 -0.040262174860883175 0.027759561761433404
-0.053954908205602725 -0.040207549609421106 0.027277924780384544
-0.05513818730660869 -0.04015307238151953 0.02679759293966144
-0.05655026261875207 -0.04007026774178854 0.0265280991605904
-0.058027913275899456 -0.039979022236204746 0.026324528748261744
-0.05947859482363732 -0.03989068861670435 0.026103397306167897
-0.06075427702098002 -0.03982357923242202 0.025728555855170643
-0.06132982790212094 -0.03984287859159098 0.0247132297423579
-0.061304632886627686 -0.0399368403391458 0.023139468839469934
-0.06127931875510029 -0.04003124631565466 0.021558267566606504
-0.06125388466080728 -0.04012609967889672 0.019969573034273658
-0.06122832974897757 -0.040221403616650844 0.018373331850508157
-0.06120265315669515 -0.04031716134705392 0.01676949011488732
-0.06117685401280687 -0.040413376118962493 0.015157993412466209
-0.06115093143782857 -0.04051005121231959 0.013538786807628655
-0.06112402975195025 -0.0406072977701033 0.011910993014612459
-0.061097855518185695 -0.04070490399140901 0.0102761933570929
-0.06107241420432524 -0.04080287169468858 0.008634350280545433
-0.06104598893986346 -0.04090142150817522 0.00698374407592639
-0.013432619817647817 -0.0442638586550629 0.02732196324506414
-0.01698159127625415 -0.04393276349864363 0.028586784881557525
-0.020021972396609855 -0.04366141910887015 0.029466193553207343
-0.022750700951456593 -0.04342647275823859 0.030113012152483243
-0.025149488483044713 -0.04323036917714505 0.030508467213239687
-0.02747612205499106 -0.04304215273103387 0.030859029846313946
-0.029554334447601194 -0.042883259682098544 0.03101904552020973
-0.03161630499281992 -0.04272565150701082 0.031177095780150266
-0.03347680706278666 -0.04259190634958422 0.031179254676397983
-0.035320065916887855 -0.04245968361574329 0.03117669955103708
-0.037060674949343064 -0.04233944551193514 0.031097600134073977
-0.03873045894437799 -0.04222736746682789 0.030967495540174306
-0.04039050856555498 -0.04211599399660232 0.03083729993293216
-0.041918846571008805 -0.04202035606676855 0.030602950474833024
-0.043436638470493505 -0.0419255985174454 0.030366560001516718
-0.04493501225121993 -0.04183282495181228 0.030120388148213995
-0.04632937769603196 -0.04175253839529294 0.02979095434506912
-0.04771928956040472 -0.04167244901541243 0.029463556086788467
-0.049099464331678444 -0.04159321623889314 0.02913354723655842
-0.050383970977200654 -0.04152557316929736 0.028725227140656062
-0.05166343301929033 -0.04145825903455749 0.028317460496631586
-0.05293962231572946 -0.04139105386013494 0.027911786029158225
-0.054405076044816925 -0.04129976080014536 0.02768027868081019
-0.0559848919487968 -0.041193652025768704 0.027558337492544716
-0.05755576060973494 -0.041088194424846985 0.02743625338891237
-0.058787432385946914 -0.04102517864443198 0.02701411241114854
-0.05987815755561793 -0.04097975173554814 0.026468068522937538
-0.06096646989146126 -0.04093442531722493 0.025923232558756282
-0.06194136304106179 -0.04090334146872602 0.025277217606566926
-0.06191765547353273 -0.04099962030703445 0.02370778297707432
-0.06189383603634646 -0.041096353459570835 0.022130942602975268
-0.06186990393580938 -0.04119354414962162 0.02054664394169775
-0.06184501521722152 -0.04129130402885082 0.018954039988407112
-0.06182085331162335 -0.04138942010216974 0.017354659030970276
-0.061796576305917506 -0.0414880035713945 0.015747659096415623
-0.06177218337568524 -0.04158705778430255 0.014132985612935522
-0.061747673688614724 -0.041686586120719786 0.012510583486305182
-0.061723899995494935 -0.041786480979041266 0.010881222030345528
-0.06169915638435941 -0.041886967297508564 0.009243201559623049
-0.06167515131587398 -0.041987825984987744 0.00759812169298868
-0.012720866112841178 -0.04558102125445932 0.02675564121555629
-0.016541429164726895 -0.04520741444967765 0.02823468581910954
-0.01975172144388293 -0.044907644837682954 0.029248855633209503
-0.02248492206392999 -0.044665690074198974 0.029898128975266947
-0.024997948722389862 -0.044450026982786994 0.030385292987786472
-0.02734375042045417 -0.04425423803251139 0.03075086225541701
-0.029487826581559795 -0.04408275430939301 0.030964409137967885
-0.03155233797936835 -0.04392046862218117 0.031124267138924744
-0.03347775359188071 -0.04377489632154916 0.03118004054432255
-0.035320065916882804 -0.04363911927173679 0.03117669955103286
-0.03711374942118045 -0.04350886543710007 0.031142134905898344
-0.03878221341111754 -0.043393825889133986 0.031011152871469938
-0.04044279483411761 -0.0432792772084395 0.03088163942533334
-0.04201359300990826 -0.043175592196944036 0.030683721881280934
-0.04353075067326634 -0.043078256527812865 0.03044721482863688
-0.04504108311981625 -0.04298135874135221 0.030211771747049476
-0.04646070926402229 -0.04289559259698307 0.02990469796114431
-0.04784894051853156 -0.04281345604083638 0.029576436216375512
-0.04923274788058768 -0.04273152047960666 0.02925020141932899
-0.050545480891674766 -0.04265833882657043 0.028867330098790556
-0.05208649199903276 -0.04255547561098264 0.02869164277251124
-0.053809426240965574 -0.04242870565799338 0.028685143442454653
-0.05541925274802617 -0.0423159767161793 0.02858673604340034
-0.05668998864071556 -0.04224663903611969 0.028191850574800836
-0.05786409555889077 -0.04218952645272294 0.027714737971006487
-0.05900125251065347 -0.04213696093008594 0.027208244280700566
-0.06009102258014726 -0.042090333687091655 0.026662345269214793
-0.06117838351488769 -0.042043809522091614 0.026117653066664803
-0.06226334329479977 -0.04199738809365421 0.02557416367566384
-0.062527512481861 -0.04205846721476234 0.024273162405424487
-0.06250517452750215 -0.04215750966707172 0.022700655291845895
-0.06248273111866115 -0.04225701968571563 0.021120724579842154
-0.06246018150681504 -0.04235700058950643 0.01953331757629201
-0.06243752493634441 -0.042457455728739824 0.017938381088204447
-0.062414760644440126 -0.04255838848557038 0.016335861416767905
-0.06239188786102179 -0.04265980227439043 0.014725704351328028
-0.0623697540018644 -0.042761587428822315 0.013108670642330567
-0.06234666398775918 -0.04286397311336634 0.011483080341768759
-0.06232431552093631 -0.04296673606515185 0.009850514984596603
-0.062301005147862076 -0.043070107683864454 0.008209268513884593
-0.016100207193033955 -0.046485134614823787 0.027881738942274803
-0.019369861832393864 -0.04616984643507777 0.028941761160998336
-0.022217753111960614 -0.045906864060383946 0.029682121925997507
-0.024846280569567558 -0.04567071814433186 0.03026201440288523
-0.02719373996388974 -0.045469467574613794 0.030628281086477804
-0.029422258106557575 -0.04528257690538692 0.030910544467870005
-0.031486437157093705 -0.04511596600066417 0.0310698414168446
-0.03347775359187033 -0.04495800162753831 0.031180040544313947
-0.035321004531735756 -0.04481843394095701 0.031177482986209426
-0.0371528465076682 -0.04467973012085974 0.031174941258283073
-0.03883487608832914 -0.04455981408198274 0.031055576321092404
-0.04049414826157227 -0.04444232439991344 0.03092518785533216
-0.04210919709123534 -0.04433006837348407 0.030765224428507487
-0.04362571489687744 -0.04423015799208361 0.030528599843675175
-0.04513451414382347 -0.04413081425291579 0.03029226569727017
-0.04659193841667714 -0.044037755419058675 0.030018352877367926
-0.04797937824009518 -0.04395346466331727 0.029690001338653627
-0.049586183643689996 -0.04383995693014856 0.02955954012199713
-0.05138909554492238 -0.043700101752122855 0.029609576406965488
-0.05311388999290617 -0.04356993843156044 0.029600343776366
-0.054489757325275334 -0.04348537711112566 0.029290037341276887
-0.05570199869239284 -0.04342214282171811 0.028839450528166777
-0.05687835306935257 -0.04336339555687377 0.02836109166065609
-0.05805068106178468 -0.043304919992249745 0.027883259852617637
-0.059215634275708584 -0.04324716517625314 0.027402886075551025
-0.060304447048369625 -0.04319934104899095 0.026857132606185052
-0.06139001844213454 -0.04315173473088804 0.026311817884297817
-0.06247486426777171 -0.04310400940711941 0.02576923874851811
-0.0631358880162729 -0.04311318776702104 0.024837168405471677
-0.06311502248705386 -0.043214520780943 0.023268978938835172
-0.06309322394575734 -0.04331644427513212 0.02169261845395365
-0.0630729957856192 -0.04341862259364522 0.020110380369316117
-0.063051833213781 -0.04352139818967642 0.018519866074875324
-0.06303057021704145 -0.04362466149742153 0.01692180414764477
-0.06301004893530548 -0.04372830082397603 0.015316946888283
-0.06298858499837956 -0.04383254947805187 0.013703633805258242
-0.06296786547071193 -0.04393718010368715 0.012083428596047552
-0.06294619771309762 -0.04404242827505811 0.010454645008384666
-0.0629244258993501 -0.04414818188513204 0.008818039429518587
-0.06290340255789367 -0.0442543266232785 0.0071743929328159095
-0.015417818706907616 -0.04779715406513401 0.027335875634420637
-0.018934494047208594 -0.047441571941995664 0.02859163499895717
-0.02195018790593878 -0.04714987890501052 0.029465794503915288
-0.02466095296178411 -0.04689683198600528 0.030111376811502055
-0.027043602917532827 -0.04668572261627482 0.03050559647458473
-0.029355700524069606 -0.04648297143844702 0.03085586724343997
-0.03142051161729148 -0.046311911776233 0.031015395281221214
-0.033470181215489836 -0.04614210651401719 0.031173753481668176
-0.03532194314152093 -0.04599774224312278 0.031178266417156042
-0.0371528465076682 -0.04585551249246131 0.031174941258283073
-0.03888659916989612 -0.04572556828215031 0.03109920717751613
-0.04054548629534582 -0.0456050229568601 0.030968723231272588
-0.042196559637879494 -0.04548499012540781 0.030839701061563918
-0.043719722342658474 -0.04538153607020785 0.030609164893308283
-0.04522879115437828 -0.04527951410986966 0.030373488493179723
-0.046839833716706025 -0.045163341022972855 0.03023304998534293
-0.04874663413994368 -0.04500683152790661 0.030358009864411173
-0.050640264512110456 -0.04485140302591369 0.03048210665992296
-0.05210854547678434 -0.044752805932466506 0.030242577569031037
-0.053380332444611656 -0.04468040155047078 0.029836003690808244
-0.05464887053556283 -0.04460811429158397 0.029431507593547623
-0.055890224999062044 -0.04453920367393598 0.02900768464454273
-0.05706564931379576 -0.04447897970520664 0.028529373007699865
-0.058237899205835275 -0.04441891838100721 0.028052353128450003
-0.05940698751739926 -0.04435901904335454 0.02757661978095055
-0.06051675100759252 -0.04430699870719629 0.02705089728176191
-0.06160221007377514 -0.04425808886465371 0.026506493451306956
-0.06268527533791152 -0.044209286884753056 0.02596329021424354
-0.06374113071370657 -0.04416402614912584 0.025398270049980354
-0.06372172461726294 -0.0442676321865654 0.023834370954789408
-0.06370305877762245 -0.04437160992787635 0.022263895935168865
-0.06368347151682024 -0.04447619336451078 0.020685241045225566
-0.06366379170397185 -0.04458127097009807 0.01909912682649123
-0.06364485626134447 -0.04468672906272255 0.01750629724153746
-0.06358384482224783 -0.04479857548111606 0.015865756171176193
-0.06351157948794423 -0.04491252206856822 0.01420645680129018
-0.06343810109526621 -0.04502716877213298 0.01253787879304158
-0.06336509347049901 -0.04514228268896356 0.01086158302184359
-0.06329086236956732 -0.04525810691003605 0.009175864967028213
-0.063216249370596 -0.04537452701408288 0.007481474367847574
-0.014712186087151191 -0.049116823363374834 0.026771418637004718
-0.018498082560248486 -0.04871634614065187 0.02824066948382381
-0.021682225563648738 -0.048394738706546835 0.02924914599574574
-0.024397418482227762 -0.04813468650362991 0.02989717127719671
-0.026893339121073556 -0.047903004456130195 0.03038280828874046
-0.029223475670996202 -0.047692666633923374 0.030747244188087497
-0.0313555173237704 -0.0475081770540383 0.030961718236931446
-0.03340580276729338 -0.04733395353548811 0.031120302449058057
-0.0353219431415156 -0.0471771715314087 0.0311782664171516
-0.037153777282959655 -0.04703116829729903 0.03117572227152332
-0.038938306708326154 -0.04689097216531143 0.031142824922571533
-0.040597725278405106 -0.046767247885754 0.031013022624900688
-0.04224750044911074 -0.04664429928639504 0.030883128139315208
-0.043813677725717315 -0.046532276498038136 0.03068968532481825
-0.0458523853529757 -0.04635479429378851 0.03091073573961839
-0.04790482138007468 -0.04617463454509838 0.031155414271102466
-0.04955080842379256 -0.04604980264843392 0.031058161245341664
-0.05092698246033245 -0.04596175742969116 0.030733051718103144
-0.05226925370094626 -0.045878022289691164 0.03038397516758906
-0.05354102767867214 -0.04580371339239363 0.029978133538614282
-0.054807829698619526 -0.0457297644814967 0.029572840879814266
-0.05607054787359289 -0.045656053962934234 0.029168854780619202
-0.05725273056263186 -0.045593283284929446 0.028697461186159456
