# .PCD v0.7 - Point Cloud Data file format
VERSION 0.7
FIELDS x y z
SIZE 4 4 4
TYPE F F F
COUNT 1 1 1
WIDTH 757
HEIGHT 1
VIEWPOINT 0 0 0 1 0 0 0
POINTS 757
DATA ascii
-0.02504526969837871 -0.05692415350339791 0.02993178548420089
-0.025002078064889674 -0.05821702462378214 0.029563846594862164
-0.024959683260172498 -0.05949704340716183 0.029189587077090295
-0.024921502059903768 -0.060720091583963964 0.02876880436932544
-0.024883437493922977 -0.061939403645824176 0.02834930705046107
-0.024857632795027246 -0.06299865469618288 0.02778765305701647
-0.02483393456305966 -0.06402934018892231 0.027202842216764223
-0.024811049971202297 -0.06504821340207156 0.026610014752939948
-0.02479946352419478 -0.06592128442430761 0.025884152652762893
-0.02478878286063389 -0.06678212295881364 0.025148272611664857
-0.024788591076754254 -0.0675088331165386 0.024287420775375046
-0.024789166438152068 -0.06822579012553365 0.023417360880208626
-0.024801319189078602 -0.06879609829453376 0.022407692609124008
-0.024813419805657874 -0.06936777561745666 0.021397808323339207
-0.024835153695476838 -0.06981867194270636 0.02027027897801098
-0.024864770385298326 -0.07017165625276789 0.019045383520851444
-0.024905681460470345 -0.0703845943275333 0.017680695832267
-0.024971549689468735 -0.07028736845876471 0.016007949322999926
-0.025049316370162167 -0.07004532724722767 0.014184691092537505
-0.02515874361080832 -0.06941317475608172 0.011966624251270874
-0.029339695227705038 0.06837108093606248 0.024701823214287433
-0.02923778582755837 0.06590826013371937 0.024665817116945488
-0.029136766981039074 0.06346532472072247 0.024628175463508983
-0.029039108880144715 0.061079970172848774 0.024563551137137873
-0.02894246842171651 0.05871612595184639 0.024495612417481327
-0.02884782951409742 0.056388685529874694 0.02441411890148898
-0.02875542960002298 0.054101074577375896 0.02431639848727002
-0.028662903356020803 0.05181720362247688 0.02422672900315187
-0.028571682412958186 0.04955875944441457 0.024130229398856673
-0.028479714175091268 0.04729460829768384 0.02404818717924151
-0.028389390162270954 0.0450608804909402 0.02395562796127737
-0.028299724554392756 0.0428425900506631 0.02386273629404362
-0.028211490980381098 0.04065129469506956 0.02376127830561464
-0.02812165091316975 0.03844132404555062 0.023683264716968466
-0.026020935780480595 0.006161105386871146 0.0449733332333509
-0.025852450363438077 0.0028498294666894353 0.04582010029545236
-0.025751303742902375 0.0005519014142398859 0.04595890657548074
-0.02568311295821666 -0.0012499553729004576 0.04575139577673132
-0.025626586430653495 -0.002874608775722598 0.04542324856334545
-0.025575297509181808 -0.004418266830426398 0.04504263094484434
-0.025525491640655738 -0.005936876103776911 0.044649676124223825
-0.025472979498200824 -0.007492333029213871 0.0442897947638764
-0.025420401252921155 -0.009045547757053296 0.04393446601279327
-0.025395353179806297 -0.0101913714598163 0.04328148186116021
-0.025452275146723345 -0.010134763152317039 0.041729656036606555
-0.02673922795505803 0.007901225649609045 0.026613494714210983
-0.02672699908370605 0.006904356569235437 0.02577335326254876
-0.026706849768496452 0.0057929252937868325 0.025021998887605257
-0.02667222360206322 0.004472407500508813 0.02443329541725986
-0.026622769652270516 0.00293904494395425 0.024012747098247134
-0.026573729644536793 0.001414698271085424 0.023591167866803098
-0.026511380778823344 -0.00029877555183333016 0.023322799677928552
-0.02647091902474902 -0.001693135831429493 0.02281210215742946
-0.026418099863636715 -0.0032626565776912586 0.022444194105049886
-0.02637913553757378 -0.004630204987030151 0.021922851615385763
-0.026406618883263826 -0.005044252078965861 0.020647576279723412
-0.024030196755946188 -0.053035020632849705 0.031057717803782303
-0.02399149034233711 -0.054300898293726474 0.030650204848674867
-0.0239500322812738 -0.055602024126589045 0.030278962304827184
-0.023908717254748267 -0.056898660942672985 0.029909000585597367
-0.023866799498817582 -0.058200971540412594 0.029549423274205566
-0.023828555373772244 -0.059450831255043024 0.02914784880329785
-0.023791729111074494 -0.06067913978653566 0.028731623365228276
-0.02375815358230624 -0.0618612507074458 0.028277978777177915
-0.02373584296247597 -0.0628893727906818 0.02768739221619726
-0.023713451628763836 -0.06391721520881682 0.027099435057228005
-0.023699792222029753 -0.06482645114629193 0.026404425929273556
-0.02368877816385684 -0.06569941513917943 0.025677390415251744
-0.023684619961289233 -0.0664800771678778 0.02486532400816127
-0.023684191994079316 -0.06721074466020033 0.024006722823838922
-0.02368382517738093 -0.0679405724273659 0.02314738280458395
-0.02370126153805341 -0.06843407516714067 0.02206322773786551
-0.023716087317827327 -0.06896321580316445 0.021010865632858422
-0.02374124775080318 -0.06935672427549777 0.019826148390093667
-0.023775699600514632 -0.06962930072122048 0.01852123455863086
-0.023824657280078054 -0.06971322557397958 0.01702849205212803
-0.023894458666860918 -0.069526677834014 0.01526513444598826
-0.023973311307565286 -0.06922592767974184 0.01338039224713039
-0.024126750072565477 -0.06795599991456497 0.010528880665182594
-0.027940154558422147 0.06833211145030915 0.024727437088857107
-0.027844623005805917 0.06589395481846466 0.02467527244835227
-0.027751064425442565 0.06349368405198735 0.024609325950185446
-0.02765953322061999 0.06113198252356222 0.024528786985627105
-0.027569212680113114 0.05879556633256111 0.024442219497431306
-0.027478183913902155 0.05645362873404336 0.02437022648135262
-0.027391102461949285 0.05418054736632938 0.024262387261969498
-0.02730312085575315 0.05189872461348222 0.02417101798021959
-0.027216211241572263 0.04963959889151387 0.02407467767826632
-0.02712993739369423 0.047396146088871716 0.023978025362448974
-0.027043706593108556 0.04515892042633474 0.02388750844647508
-0.02695827171856673 0.04293981383443285 0.02379481077146084
-0.026874201430235896 0.04074771657649401 0.02369354152073594
-0.02678950398264974 0.03855115395138792 0.023605683835579372
-0.026704930655510033 0.03636198480646985 0.023522929893561306
-0.024667114713249585 0.0035665742981176862 0.04530823119159061
-0.024550959739816056 0.0009571137138301156 0.045667933918667414
-0.024462641192964873 -0.001210410840489895 0.045722844337776236
-0.02441111367170413 -0.0027992081050290385 0.045368510984258426
-0.024361228930034944 -0.004359158408353436 0.04499948644599577
-0.024311209459905118 -0.005917992028429797 0.04463581704488989
-0.024260923455120997 -0.007477736255645018 0.044279023787616
-0.024213327283223195 -0.00899269761449939 0.04389525564728447
-0.02417032920627472 -0.010433719364617178 0.04346226068486336
-0.024174675645061934 -0.011143677475522473 0.042486337687555165
-0.025456657794921306 0.007758868227074889 0.026720840937326962
-0.025441389645668146 0.006706818904534673 0.0259231152013481
-0.0254204443080048 0.005568966303140355 0.025192710126445472
-0.0254053672798935 0.004521977719841919 0.024395306776567316
-0.02536090573834134 0.00302865886265391 0.023943700076758723
-0.025314325966978656 0.0015060217208587856 0.02352042451058084
-0.025269597617627003 1.4442533034564331e-05 0.023078860590629358
-0.02522517268952047 -0.0014696720632937366 0.022637129464119776
-0.025177566199643987 -0.002998952703628599 0.02223660446204978
-0.025111434690218388 -0.004804189452580709 0.022060548182913975
-0.025086706845456757 -0.00598290113947525 0.0213944322434792
-0.022888719175056516 -0.05299439562587677 0.03102197428810949
-0.022851906615614533 -0.05425963455650573 0.030613708388795402
-0.022810804967165966 -0.0555840750389992 0.030263003470965333
-0.022769850904870697 -0.05690375977365958 0.029913557850294314
-0.02273282798762881 -0.05816463501809094 0.029516775757156777
-0.022697163256687254 -0.059403765315936885 0.02910533939911214
-0.02266161025672903 -0.06063901364853197 0.028695191994807134
-0.022635311681263683 -0.061740621007198015 0.02816788300338008
-0.022615744836228392 -0.06274520528366428 0.027555125530270563
-0.02259849085533708 -0.06371585210943115 0.02691372812445275
-0.02258727528219117 -0.06460026398668783 0.02619473491622004
-0.022578695880696695 -0.06544687648438008 0.025442047081025876
-0.022578462518869868 -0.06617581647414733 0.024580300541602373
-0.022578229161866747 -0.06690474139617103 0.02371857181513659
-0.02258418127780879 -0.06754724738530671 0.022775073727579698
-0.0225988415226491 -0.06806877331163969 0.021715643158030096
-0.02261931589793865 -0.06851039859924607 0.020577766988380597
-0.022641587266460914 -0.06892841129106864 0.019414355212878154
-0.022686026244756706 -0.06904104939400352 0.017952730496717917
-0.022743182266043164 -0.06898094512425523 0.01631711536844399
-0.022807292252448704 -0.06882871686524439 0.01458357511778513
-0.02290966235677787 -0.06815476732860226 0.012328972319840481
-0.026891470156052383 0.08699187927242702 0.036013305202127754
-0.026927758022834255 0.08671513449166518 0.034542530450609676
-0.026987461547689634 0.0868436132968613 0.032818447351153524
-0.027056598645793694 0.08713197676371409 0.030988297004548748
-0.027110322210709095 0.08714834749699046 0.02931863057810563
-0.027176709741838216 0.08738028418861232 0.02750768528923625
-0.02722448187722491 0.08728614427673093 0.025893442222105933
-0.027276275539582194 0.08725810864833772 0.024231534339119454
-0.02737666385151735 0.0880627628943334 0.0220340748572333
-0.026538310077686905 0.06824986462834087 0.02478149630316101
-0.026453740586650905 0.06591684376038665 0.024660143628919107
-0.026368116933584457 0.063571690792045 0.024557477439643816
-0.02628204722452681 0.06122479156644728 0.024466755033904608
-0.026197033599299306 0.058901531296897736 0.02437099905742296
-0.026109365130930883 0.0565393278627373 0.024312305992055694
-0.026026360738675206 0.05426142003059414 0.02420742465466985
-0.025942909488234137 0.05198163562813923 0.02411435702232484
-0.02586111955057293 0.04973529794326048 0.02400891464828342
-0.02577840271474583 0.04747901504730945 0.023920763562564562
-0.025697406503728697 0.045257005278384 0.023819357722954404
-0.02561707578451108 0.04305154459714067 0.02371674992923445
-0.025537088612739577 0.040857221641088015 0.02361661374361773
-0.025456428385500093 0.03865716176799028 0.023530802774875126
-0.025375965805823825 0.03646582681077193 0.02344917532353885
-0.023497569652758978 0.004619264728017214 0.044556443828265235
-0.023349259028077076 0.001382644094105212 0.04536237136435045
-0.023266083551226984 -0.0007738083595429934 0.04540761418274497
-0.02320021500164496 -0.0026408756040063874 0.045253568534581734
-0.023146523045535262 -0.004304255488153663 0.04495941163272438
-0.02309860514135527 -0.005869724130632026 0.044600393090443224
-0.02305210142674133 -0.007408907607302284 0.04422823504763601
-0.02300693226707448 -0.008923244328836566 0.04384372714452117
-0.02296162220719039 -0.010436811130982104 0.043464566980381314
-0.02293789311881229 -0.011597859886400608 0.04282697265386548
-0.022989028723168308 -0.01154758095494357 0.04127908710797046
-0.024149703108941434 0.006390494891838572 0.02616293426320604
-0.02414246901649806 0.005457083530865936 0.025277992019370255
-0.024128294344067137 0.004412714752404956 0.0244790415606132
-0.02409432895787435 0.00305218941225488 0.02392556992033318
-0.024050003109258106 0.0015283023151306252 0.02350316493463045
-0.024006117736744884 1.4442533022296367e-05 0.023078860590638905
-0.02396633553454151 -0.0014311173539350852 0.022606941029580552
-0.023923444126898268 -0.00292338497350475 0.022177116985142187
-0.023871366615022493 -0.004558389753406278 0.021866014867720107
-0.023825121109215294 -0.006097605788630611 0.021485699421912974
-0.023836888129256162 -0.006717869888985817 0.020376518656600673
-0.02178239687022371 -0.051679000072864134 0.03139123249861481
-0.021749239564270228 -0.05291916974409283 0.03095578753061956
-0.021712604645751418 -0.05420976038359743 0.03056959627309358
-0.021675074187458256 -0.055511403862533226 0.030198390313000756
-0.021638406465886707 -0.05679750117790899 0.029818585385344765
-0.02160304313114911 -0.05806149643126801 0.029424108144613104
-0.021569084093699065 -0.05930202249948774 0.029013446480590344
-0.021540484396858052 -0.06045999632857041 0.028532658379069764
-0.021517146066935618 -0.06153742566472131 0.02798243158953989
-0.02149847837796069 -0.06254365047213478 0.027370208779574745
-0.02148445715144336 -0.06347950439872613 0.026695756666139825
-0.02147678660814138 -0.06432016945678648 0.025935068072936107
-0.021470176550751497 -0.06514461444136965 0.02516036601691901
-0.021469676796113134 -0.06587835254086455 0.02430164410260932
-0.021470176551122697 -0.06659732617106734 0.023429091219283937
-0.02148212205917667 -0.06714803468139907 0.022397191575601494
-0.021494581758638803 -0.06769200814581511 0.021357151242679284
-0.02151714606861016 -0.06808892964680285 0.020174651491855544
-0.02154926331521829 -0.0683478805789699 0.018856215265930343
-0.02159422035321488 -0.06842194520634176 0.017354409287485495
-0.021649467151250993 -0.06834949111580008 0.01570368692227575
-0.021723229706818184 -0.06801227691702572 0.01378632099108651
-0.021853214492525818 -0.066866673449831 0.011064616734871913
-0.025428435361489938 0.08792807857800938 0.03871193850320909
-0.02535465270761447 0.08565615302337581 0.03845311857171041
-0.025396328209742466 0.08551960732492359 0.036907230746193065
-0.025472746422770393 0.08601981955987875 0.03496713353496028
-0.025547882929313266 0.08649101902764861 0.03303499851822389
-0.025618622770843397 0.08687620826569464 0.03114628041629003
-0.02567558115155379 0.0870040568897828 0.029408265484735796
-0.025734898523918245 0.08717093779703516 0.0276384753776428
-0.02577943997101627 0.0870641441822601 0.026032927502413927
-0.025823457501446753 0.08694463450342582 0.024429613362655367
-0.025869752879320317 0.08686335476839546 0.022796260933500956
-0.02591126207037713 0.08669200552707684 0.02121441551316572
-0.025961214991397745 0.08667045640890025 0.019530857890689757
-0.025140994306128275 0.06823976620791233 0.02478813379578393
-0.025060799561578053 0.06590539899760867 0.02466770823151687
-0.024980876746833795 0.06358162087780866 0.02455087723873789
-0.024900121760555782 0.06124870320811354 0.024450772908075735
-0.02482027886224956 0.05893779413867989 0.02434662632664497
-0.024739234143534017 0.056611230327200446 0.024263710096311786
-0.02466235140485637 0.05436426746494072 0.02413752757390525
-0.024582794133155794 0.05207545832863575 0.02405023907485543
-0.024505199196163004 0.04982699307083316 0.02394590305816008
-0.024427789063926245 0.04758732742008387 0.023845920563065948
-0.024352072894937484 0.04538299091565934 0.023731821144633347
-0.02427607526927226 0.04317912074705105 0.023627618686695273
-0.024200103697196697 0.04098113487014965 0.02352956416922053
-0.024122904174361623 0.038767104208341896 0.02345314240214219
-0.02404612210240606 0.036565871428683394 0.023378117875960613
-0.022420337190299497 0.007396414924115635 0.042573119610448795
-0.022159992442111347 0.0020715344259185087 0.04486769672021096
-0.02206028683430851 -0.00044892013946068454 0.04517304253358195
-0.02198984447799119 -0.0024558102564385953 0.04511921921108647
-0.021935869293258043 -0.00417326886884728 0.04486380170358656
-0.021889528071285858 -0.005755300855404821 0.04451641750678992
-0.021845627257315793 -0.007292049725394489 0.04414200548012698
-0.021802023062862424 -0.008820572097401114 0.04376755297492291
-0.02175624504652379 -0.010383213249862966 0.04342458577274649
-0.021714195609576787 -0.011878855270173239 0.04303771805217299
-0.021715154924509737 -0.012637915718002102 0.04210126635695427
-0.022871014570653082 0.006260259839162452 0.02626167114975353
-0.022868753358768392 0.005405119515772383 0.02531760124142529
-0.02284975025953749 0.004266376427418894 0.024591189421208415
-0.022827266469562082 0.0030701193754527623 0.023911754984303424
-0.02279279786294695 0.0016731891377825825 0.02339092891932204
-0.0227520466030929 0.00017290679871700965 0.022955446170429383
-0.022706653892869366 -0.0014024716684080674 0.02258451138566031
-0.022667124425326448 -0.002876276838106484 0.022140033112011792
-0.022621679174702855 -0.00444625998219389 0.02177727197584861
-0.02257077869192346 -0.006104096417614502 0.02149086382804627
-0.022550780025085922 -0.0072433596532006095 0.0207968737920865
-0.02064072106718148 -0.05160247211538038 0.03132425270942285
-0.02060762025981841 -0.052869865224336676 0.030912407430381872
-0.020572741683178557 -0.0541633122042105 0.030528514339423773
-0.02053739100132187 -0.055461797953831105 0.03015428487022659
-0.02050205470306624 -0.05675753003109252 0.029782859726510236
-0.02046982302836504 -0.058001443002670794 0.029370151540934586
-0.020442633211599844 -0.05916317915226954 0.028888044797813206
-0.020416734545482977 -0.06030256464722611 0.028389722821739405
-0.020396031074597566 -0.06135816745315148 0.027818827008977642
-0.02037811496023822 -0.062368431973498395 0.027209454316886594
-0.020372097142307713 -0.06319061966945966 0.026429332990891674
-0.020367928984602136 -0.06398340488926396 0.025622864217297536
-0.020362233502563536 -0.06479976155310235 0.024838994112064527
-0.020357437003672756 -0.06560169416897266 0.024042477769809778
-0.020362866176971552 -0.06624420698166261 0.023096573032126977
-0.020374524957800632 -0.06679041817009584 0.022058683067351537
-0.02038952689851416 -0.06728569243165561 0.020970541991562952
-0.020412601087694975 -0.06765732576667843 0.019761842407271912
-0.020455447585648524 -0.06772584044399055 0.018258166892775984
-0.020500451399329534 -0.06776423983517166 0.01671878271470556
-0.02056322050078636 -0.0675332914552721 0.014910786595701442
-0.020649934619436587 -0.06694030738111101 0.012739542060109577
-0.02388192421509682 0.0853038538424909 0.04028709532999214
-0.02388399768713999 0.0844414362019334 0.03918644179069719
-0.023991154170272814 0.08563159991732999 0.0368392317333287
-0.02409239751921935 0.08669837403391734 0.03455276544158936
-0.0241480892143895 0.0868711104169756 0.03280155957397801
-0.02420869343803943 0.08713504154662943 0.030986403945532648
-0.024262784578663706 0.0872681452723188 0.029244210887081623
-0.024315844243494894 0.08737720421456041 0.02750960951671161
-0.024360264861762626 0.08731545161503729 0.025875028075443063
-0.02440075916273782 0.08717468061972494 0.024284251102882515
-0.02444042321252466 0.08701488000810842 0.022699971417518228
-0.02447255382141514 0.0867074819672718 0.02120452501569753
-0.02450266720328954 0.08635901147046832 0.019731017849160593
-0.024531234261042728 0.0859787003054866 0.018273903910319522
-0.024559624379894743 0.08559285272064049 0.016816409742101468
-0.023601521766169548 0.06374198195845332 0.024444290510794497
-0.02352117553032919 0.06133171064346049 0.02439529218053038
-0.02344670237264544 0.05903824538210206 0.024279111730658498
-0.02337093428423422 0.056726046473750014 0.02418611062139664
-0.023295800438499503 0.05443148725481872 0.02409184372080836
-0.02322136592790866 0.052155715640856526 0.023995391643457986
-0.02314870411976193 0.04991872706441197 0.02388286475986906
-0.02307577868183483 0.04768231272917767 0.02378028645997332
-0.023005234982069005 0.04549577775231439 0.023653455277110935
-0.022933138470598413 0.04328571195796638 0.023553148598992213
-0.022861844275354565 0.04109598230501421 0.023448883354094674
-0.022789593401262426 0.03889393254835727 0.023363554285604216
-0.022716477624496006 0.03668136683928397 0.023296086385855452
-0.022644519854278726 0.03449568153237953 0.023219959732836637
-0.020989088534196926 0.0031793460249760486 0.04407220535789941
-0.020865091531112216 0.00010885658118786612 0.044770323699411585
-0.020782074570044246 -0.0022013175568300625 0.04493446867579587
-0.020724493449352864 -0.004040076717292174 0.044766581909386816
-0.020680235345222942 -0.005631351496272641 0.044425450701689184
-0.020636567218020953 -0.0072085352824142745 0.04408038007513615
-0.020595938283993396 -0.008727184787970244 0.04369826743736854
-0.020552852547111884 -0.010287317039497534 0.04335305223041319
-0.020511419323782757 -0.011814284489105875 0.04298929022822667
-0.020482741262278614 -0.01310776283003462 0.04245555988110511
-0.02053654309496521 -0.012912619625091604 0.04079746919759519
-0.02158571331468329 0.005179350538439154 0.025489692130480468
-0.021571670432995627 0.004111153579333282 0.02471014602625332
-0.021555330998632716 0.003002890599105912 0.02396355437922354
-0.02153383327259323 0.0018036806568539343 0.023289844170108598
-0.021497995154831192 0.00035036496772594683 0.02281723900464555
-0.021452605860323055 -0.0012702050603931592 0.02248094629843217
-0.02140709932898126 -0.002889424469100177 0.02215038302451866
-0.02136528795974365 -0.004439726102876573 0.02177210086616488
-0.02132945691790185 -0.005881123501083052 0.021313450714377236
-0.021292586032956216 -0.0073381581615913904 0.02087270598245844
-0.021302906801377253 -0.007961544494618666 0.019767100198224252
-0.01952958663280596 -0.050259270071247586 0.03167497092878624
-0.019498261840514407 -0.05153025993576249 0.0312610502311792
-0.01946530278051983 -0.05282660351772378 0.030874344040278834
-0.019432454957774188 -0.054118571923530645 0.030488942987704104
-0.0193982484982668 -0.05543100052060018 0.03012690235744747
-0.01936385935222829 -0.056743920597264685 0.029770695802565417
-0.019336435700638064 -0.057937135858833755 0.02931237307341389
-0.01931044504175341 -0.05910423992607833 0.028834811579988573
-0.019289181775140114 -0.060190258868718205 0.02828775802719885
-0.019271264783553968 -0.06121879167645877 0.027691622150206263
-0.019258622835404124 -0.06215808309266241 0.027016469434702317
-0.019251933816577693 -0.06299746298858733 0.026251194420024937
-0.019248042347781578 -0.06378993916721426 0.025443508221498656
-0.019244850522562605 -0.0645705438022578 0.024625383764807496
-0.019249239555610594 -0.06522575042146156 0.023690303491782028
-0.01925368050070494 -0.0658804338661318 0.02275402246976127
-0.019267615404698502 -0.06637943000156865 0.02166965463203263
-0.019285325310323485 -0.06681758451283837 0.020525137480664424
-0.019312101934103338 -0.0671087620333145 0.01923716665009273
-0.019346156154904027 -0.06728319039113756 0.017832589620347783
-0.019395513134005463 -0.06721102385312122 0.016184137881180394
-0.019471273128572532 -0.06671367586867644 0.014114567854496995
-0.01957415760457 -0.0657824485619472 0.011608892189623965
-0.02246222704622235 0.08589626079346557 0.04154860768630125
-0.022423319534401173 0.08418319330457702 0.04095975726816742
-0.022427492027345664 0.0833691230989223 0.039833796040330494
-0.022696105436399525 0.08804328044363036 0.03537492153558258
-0.02273448736858691 0.08792657044636504 0.033802751367285166
-0.022782202235795416 0.08799973493282004 0.03210839755340372
-0.02283533817304729 0.08818092842871827 0.030340379203598833
-0.022887523529867924 0.08833827566418984 0.028579434158964856
-0.022931820736153293 0.0883292930926941 0.026914787759317826
-0.022971231194309886 0.08821650308760215 0.025308886797340224
-0.023006309304807408 0.08801184547831703 0.023755260752577667
-0.023040583387842494 0.08778793993853484 0.022208716187251454
-0.02307122814722836 0.08748726490750941 0.02070619070244273
-0.023105619706051985 0.08726038849048434 0.019151719345221585
-0.023169411469500432 0.08762796776207304 0.01720796638523764
-0.023111730914391004 0.0855277820886397 0.01685870253310645
-0.02312610498593753 0.08489011809101094 0.015562073919585528
-0.021968247305428252 0.05528518890472295 0.023511651773859388
-0.021865588981924013 0.05235853122685469 0.023856788522676142
-0.02179034334759588 0.04998485360857735 0.02383742353733609
-0.021723171706147192 0.04777733995187944 0.023714623394906487
-0.02165721803718446 0.04559932852629095 0.02358150675478382
-0.021590329926612913 0.04340816022742294 0.02346759995678044
-0.021522197049577186 0.04119783092034146 0.023377334265395122
-0.021454163614901326 0.03899493207872279 0.02329221094313383
-0.021386558943433977 0.03680591643995512 0.02320762408867899
-0.02131918394132549 0.034626832021312615 0.023126297553079544
-0.019856278074840913 0.0051703655552066685 0.042642504820516125
-0.01966214678978236 0.0005851642759846509 0.044426426092261606
-0.01957394876201094 -0.0019219425630638276 0.044731654686536004
-0.019512211074745104 -0.0039078490731007665 0.044670066129697705
-0.019469876605230196 -0.005512577862128276 0.04433828237662513
-0.019423622899633234 -0.007189739416087526 0.044066510583426644
-0.019386347757252665 -0.008689816811477458 0.04367054353832489
-0.019349322521451832 -0.010182083782389328 0.04327455374101996
-0.019310197863982446 -0.011711745037396193 0.0429123860552732
-0.01927038113254408 -0.013251542584410969 0.04256397862961919
-0.019271443614586402 -0.01400537030513671 0.0416259312567967
-0.02030593326935815 0.0049876531581302674 0.025635812173174455
-0.020298857677555016 0.004036960540369283 0.02476700461467618
-0.020280131184402972 0.0028651447750538406 0.024069686763693088
-0.020255040140993982 0.0015739856062952362 0.023467776550285757
-0.02001070995924753 -0.003869192526173959 0.026103495621349615
-0.01999062444516093 -0.005052870675280263 0.025442783002647573
-0.02001237125180227 -0.0054456779791456356 0.0241626847226048
-0.02006205072314162 -0.005314344779223434 0.02246430053610632
-0.020065275468918512 -0.006059739330562808 0.021455570174227057
-0.02004163222759313 -0.007309077342274373 0.020849443356663444
-0.020018503235085205 -0.008546895880915839 0.020237844214651246
-0.01838465461842829 -0.05018925888323689 0.03161401596150948
-0.018353666135873303 -0.05148761387451878 0.031223724993633517
-0.018322733918429795 -0.05278246489537608 0.030835509104429837
-0.01829195365201208 -0.05407209797611717 0.03044783826303643
-0.018259845637794862 -0.05538308188968699 0.030084297101564572
-0.018229656422644992 -0.056657133759334066 0.02969312692575854
-0.018203121175892886 -0.05786348985673001 0.029246203859751296
-0.018179830195810275 -0.059009892529482355 0.028749598117940756
-0.018163344850239273 -0.060033402925108004 0.028145345194349303
-0.0181468893751792 -0.0610550587779749 0.0275421871427603
-0.01813813158254436 -0.061939127271584904 0.0268155881028585
-0.018131027976053815 -0.06279327596797707 0.026062883128503578
-0.01813220368565633 -0.06350095780265524 0.025175602672863506
-0.018134790783392855 -0.06418391966616305 0.024265084810364157
-0.018137331561332563 -0.06486790191342717 0.023355080361208203
-0.018143121547244852 -0.06549522315741874 0.022391284985144255
-0.018160089110292835 -0.06592783726908202 0.021242191197378912
-0.018177891972439006 -0.06634726304750743 0.020077626781080327
-0.018207862416311924 -0.06655663802578538 0.01870908565587409
-0.018239264229178875 -0.06674360037450972 0.0173138113077147
-0.018295496261798362 -0.06650351398372828 0.01550037871909521
-0.018378564519453116 -0.06580474742679293 0.013231585793544054
-0.021021322631072592 0.08507202081099785 0.042040504587670224
-0.02098248895018679 0.08330813605440052 0.04148499902158348
-0.020294839460905878 0.06715561954786481 0.04962187043366645
-0.02021521129344532 0.06452304404152603 0.04965580229130795
-0.02015472128761541 0.062320173400781054 0.04943962994937978
-0.02164156137539205 0.09053668980649116 0.023851086089540396
-0.021653645690279614 0.08987320495431705 0.022579099102758182
-0.02167441356662052 0.08939795319786376 0.021185603484969895
-0.021718659850230665 0.08943165586057417 0.019463592691771947
-0.02179558473646643 0.09017103556041062 0.01728109977576242
-0.02182919740492984 0.08996534806493639 0.01569729486543081
-0.021825489849708984 0.0889497371950192 0.014634595778758752
-0.02168969260730798 0.0850836905821139 0.015435553217947928
-0.02167907390278361 0.08392551565420908 0.01447819998264438
-0.020250941480448113 0.04361898860831159 0.0233203044351305
-0.020182279164010573 0.04130756876387065 0.02330024296007749
-0.02011747676168564 0.039083022413040236 0.02322998630835782
-0.020055052850177682 0.036913833566480814 0.023130975132233556
-0.0199928931561636 0.03475551593300663 0.02303439689935738
-0.01993002658614559 0.032587784885020066 0.02295475261400859
-0.018479678195111704 0.0015511007366380003 0.04372901296812709
-0.01837506767173368 -0.0014133255268142797 0.04436242103130911
-0.018304602342202155 -0.003661130295231463 0.044489980827901565
-0.0182573315328228 -0.005423185582086987 0.0442726771151461
-0.018213998789961168 -0.007099910987278468 0.044000226080920135
-0.0181777256630124 -0.008627520267196265 0.04362432473638489
-0.018142701606455678 -0.010126347998417606 0.04323297777000895
-0.01810746203896085 -0.011626594260287504 0.04284852331775402
-0.01806946906102224 -0.013180176537736787 0.04251016425568055
-0.01803932830915968 -0.014570121411368209 0.042054093758041255
-0.01808572509621304 -0.014397488557991445 0.040412006457228866
-0.018821027863341184 -0.00021701423355302563 0.028027081357845707
-0.018802884291449492 -0.0013917911554870432 0.027349632010321367
-0.018772722615718523 -0.0028084220618302402 0.026862591655789747
-0.018761007256559624 -0.0038496554791146442 0.02608827986702883
-0.01874480186050923 -0.004980439092077682 0.02538606889055961
-0.018747804720137814 -0.005723268280001803 0.024381205863637956
-0.018785691039926822 -0.005765821132722004 0.022821612575432304
-0.01882654266474847 -0.005752198503505224 0.021210868815167816
-0.0187972755123426 -0.007144200954748103 0.020717553753979046
-0.01875440366561856 -0.008805157129260943 0.020445539865809548
-0.018758214927924365 -0.009532945310702867 0.01942640614031793
-0.01726872149301309 -0.04880991405734064 0.031939287039691844
-0.017239603516505678 -0.0501122125424715 0.03154693586597629
-0.01721053837374113 -0.05141099747510475 0.031156667797150928
-0.017181165680254087 -0.05271320406255753 0.030774570637022047
-0.017151129996018713 -0.05402561089334906 0.030406721920566426
-0.017121959561579737 -0.055318883187520596 0.030027216962148662
-0.017093289419574716 -0.05660010159080975 0.029642152361414653
-0.017068003868855357 -0.05781437398136691 0.02920207439232214
-0.017051617211425306 -0.05885730416183138 0.028611782093917737
-0.017040754551600926 -0.05979405100774471 0.027928032519960733
-0.017026322005133376 -0.06079742732580795 0.02730705322447402
-0.017017082091308727 -0.06170151813538205 0.02659759326031985
-0.017011648933614367 -0.06253310006134732 0.02582293613846598
-0.017014254649625592 -0.06321311331916796 0.024908751090970183
-0.017018142624783242 -0.0638693028112543 0.0239718901717188
-0.01702057351177507 -0.06455308885999289 0.02306017171984648
-0.0170321186485257 -0.0650669385836552 0.021987986568269224
-0.01704740351747011 -0.06551212478122254 0.020848690870413134
-0.017070493487483834 -0.06581358440662644 0.019569831752491218
-0.017101139591669094 -0.06597693656755549 0.018154628109675275
-0.01714448959108028 -0.06590793672099715 0.01651037876311856
-0.01720141352798034 -0.06559216253081929 0.014619620820493895
-0.01729104658801057 -0.06467906364181364 0.012138035913662804
-0.019724736887587597 0.08847883637582737 0.04162711328159302
-0.019056867865511935 0.07163909678937674 0.05005711849030703
-0.018986652917126375 0.06909215732250407 0.050017955687173765
-0.018909760297194326 0.0663929618619441 0.05008228604605608
-0.01883157454869792 0.06367015368230172 0.0501736553141075
-0.018759611848234607 0.061101852490194175 0.05018361342034455
-0.018699680609379737 0.05882444562304884 0.05002684802554269
-0.018649337824541104 0.056778663258354733 0.049736970364877287
-0.02033334905329662 0.08995710869599832 0.017418586653899393
-0.020353646964137474 0.08949475870140094 0.016001441327239463
-0.020381656809101506 0.08920922597202435 0.014465940514831244
-0.02036713361659127 0.08793760757319236 0.013570207692510494
-0.020256718986105475 0.0844543777462024 0.014130589357892409
-0.02022403495170038 0.08277155431498517 0.01351974782350901
-0.01868893934391553 0.035402683678879 0.022572216832473846
-0.018610017028338595 0.03278125021734207 0.022815830074381982
-0.018546817604102428 0.03051763851427891 0.02281496279012457
-0.017183161366548107 -0.0006768518045568439 0.043827773418140537
-0.01710101280954517 -0.0032899186240203937 0.0442190255061477
-0.01704630203952977 -0.005287438742778594 0.04417305210408623
-0.017006491037660956 -0.006950450011453557 0.04388993865234064
-0.016969219047003242 -0.008553775899148686 0.04356961261101239
-0.016934688351133074 -0.010093311521673476 0.04320833429141152
-0.0169028665022099 -0.011570147529054997 0.04280618849823842
-0.016870186867052807 -0.013062872496043376 0.04242170981749338
-0.016833926243011676 -0.014630962456737007 0.04210022001414948
-0.016830730172316666 -0.015473660768035247 0.04123231150795137
-0.01729940639261794 -0.006033008925471595 0.03248422791869349
-0.017578660998446988 -0.0007545792520812222 0.026858663814470385
-0.017573004746359405 -0.0016844170805720982 0.025991885555855132
-0.0175652837819991 -0.0026584453983147793 0.02516054703827314
-0.017543872213552858 -0.003927596496148822 0.02456169048605278
-0.017552329838938913 -0.004550727952743527 0.023458173432643115
-0.017582096929170912 -0.004716129817972647 0.021990855125059938
-0.017570228455691627 -0.005778207279171665 0.021231563247233742
-0.01754558321849903 -0.007112933559910217 0.02069254202037657
-0.01750571314411961 -0.008770885690770225 0.0204179785155138
-0.017481398317829383 -0.010093338139086472 0.019879485617735337
-0.017522813965597073 -0.010014354157626526 0.01820635616034283
-0.016120489262372674 -0.048747376923914176 0.03188512490683132
-0.016093768094626655 -0.05004038724919807 0.031484401455041056
-0.016067050957798198 -0.051330860640408704 0.03108652939974771
-0.0160386138318714 -0.0526543095084549 0.030722752838713507
-0.01600881061295091 -0.05400322353746051 0.030386921018102697
-0.015985716080955503 -0.05521182942429059 0.029932033671459468
-0.015954277747491082 -0.05658903333860099 0.029632259710495268
-0.015937442104152426 -0.05766524183453664 0.02906808263980759
-0.015921512202914156 -0.05872145556193731 0.02848908523179977
-0.015910992723922983 -0.0596662515431719 0.027812000679741156
-0.01590085914452587 -0.060602256710325764 0.027128925782476165
-0.015895033016071976 -0.06145018739868002 0.026367009515738227
-0.015891440300308323 -0.06225250151319517 0.025564154386111593
-0.015892307359025297 -0.06296466964806113 0.024678426764990324
-0.015896933270005728 -0.06360138989014508 0.02372221940275815
-0.015905572755609824 -0.06415807348268043 0.022690131637424893
-0.01592064195586086 -0.06458694704674806 0.021535997776688465
-0.015936279472878557 -0.06500586332325048 0.02036947974479142
-0.015959980823184085 -0.06526566797553407 0.019048489471804042
-0.015992570541325777 -0.06535109343469492 0.01755603819270174
-0.01603714206141049 -0.06520205905968429 0.0158317264330593
-0.016104954748782277 -0.06459759681165445 0.013658442111625313
-0.017840006577374046 0.07711197547384913 0.049946323245144475
-0.017760846778031577 0.07419207623511359 0.05010420713234559
-0.017705812973679434 0.0718998834303089 0.04990148403514644
-0.017653258735914504 0.0696767187768122 0.04966708026367622
-0.01760188828827834 0.06748904973313608 0.0494205789948271
-0.017529690796766334 0.06477443302935965 0.04950316538336286
-0.017445106900367442 0.06175115718275653 0.04978710708552875
-0.01737147719150534 0.05901498778361075 0.04990982364128954
-0.017296780677017603 0.05625900630596831 0.050057952733342514
-0.01724845622392554 0.05417887111598163 0.04979963065321691
-0.01890226805022761 0.0895560868114571 0.01596180437594319
-0.01889975214890948 0.08855868449403947 0.014888761285469676
-0.01892986105979404 0.08837396234005845 0.0132850023363556
-0.01893446772886122 0.08755246036044051 0.012094280744791741
-0.018791079259175066 0.08305972556431612 0.013329276336805806
-0.01876847731713315 0.08157111037871712 0.012593856148799987
-0.015992092029958813 0.0001929816745643853 0.043196312471997345
-0.0158965335567198 -0.002882873654963536 0.043921914695490116
-0.01583554931764837 -0.005124202927649535 0.0440532528515184
-0.015798462151562095 -0.006790405559291612 0.04377184166421416
-0.015760629847662348 -0.008470648837801298 0.04350793931550928
-0.015728769186855295 -0.01000552994833337 0.043142853842615014
-0.015697514285907318 -0.011522924357654063 0.04277077131119206
-0.015670143671059227 -0.012945494019313053 0.04233319925072554
-0.015636193469550152 -0.014520419648197558 0.042016412678711645
-0.015617276454081867 -0.01573844063533264 0.04143413818629027
-0.015648643465078563 -0.015774508104253293 0.039949724684455734
-0.01636687993134856 0.00027204847539291643 0.026067652911386907
-0.016375515194516424 -0.00033541369425948986 0.024946885313970102
-0.016384112312678886 -0.0009446193502601896 0.023825792813821578
-0.016394516491982074 -0.0015126238489247545 0.022670760820455604
-0.01637471262813925 -0.0027831217421602217 0.022066700730453637
-0.016344320306523705 -0.004297013498039182 0.02165915379490224
-0.016325341272369776 -0.00554399911995046 0.021045210575256712
-0.01629410334727304 -0.0070719546158922175 0.020659761725235093
-0.01626177412659435 -0.0086219462470421 0.0202982002872798
-0.016223129466193136 -0.010313831056598166 0.020057754879546807
-0.01622234176657298 -0.01113404441237581 0.019116460166703708
-0.015007152730257697 -0.04715392764453247 0.03203204841437801
-0.014971827241543985 -0.04868481638246336 0.031830942500759296
-0.014945864838841213 -0.050003586680537115 0.03145236118373257
-0.014920893799721465 -0.0512977493395298 0.031057549298544707
-0.014894052999492166 -0.05263091908062989 0.030702172999204413
-0.014866335755644432 -0.05398083313456359 0.03036711742065734
-0.014846634064351901 -0.05515099173391019 0.029877941863814206
-0.014822186632145061 -0.056423771735186035 0.02948455117240506
-0.014806537710142818 -0.05750069898160226 0.02892024472761351
-0.014791037349170139 -0.05857281993327873 0.028354839275274824
-0.014781452645215154 -0.059513937402967176 0.027673711446382532
-0.01477449324377153 -0.060396779219863694 0.026941391508048085
-0.014771380937664627 -0.061195115356608376 0.026132993305183372
-0.014769268390781246 -0.06197141118838473 0.02530491909318744
-0.014770305383929865 -0.0626791898883487 0.024413767444252776
-0.014777568414582151 -0.06325234671230195 0.023396942524540554
-0.014785954754543992 -0.06380197017676154 0.022356543366585047
-0.014802485975801674 -0.06417698238143771 0.021149950483316582
-0.014821529100154522 -0.06449964722163015 0.019890311552061335
-0.014848264174828216 -0.06465927144010752 0.01847150339356246
-0.014882423357425824 -0.06466272561636727 0.016897646315272963
-0.014931091998430185 -0.06435989404124676 0.015022043277774177
-0.015017151582351068 -0.06326571913973467 0.012371274822025102
-0.016539701199999618 0.08000981062546708 0.04981530102632192
-0.01646299284632256 0.07698049524929607 0.05002388750314812
-0.016417781382516528 0.07483778481545106 0.04972107392496722
-0.016393397505244652 0.07327964323347153 0.04907805932117282
-0.016360964078571502 0.07150048998742714 0.048572385272805774
-0.01635392143685521 0.07042883082958079 0.04764583635629066
-0.016385712374650235 0.0704325986825925 0.04606767317110222
-0.016410073378516427 0.07022774425224554 0.04461076921338708
-0.016419426694895947 0.06960656812041188 0.04340484246795495
-0.015981638411446196 0.056682139184958125 0.049796591477518026
-0.015909525139032606 0.05384587595472323 0.050006490897035405
-0.01585875545082517 0.05160227987422683 0.049860152470706465
-0.016158960542106825 0.058964125856226735 0.04368850076786834
-0.016202555564329982 0.059288654363212345 0.04190496062818677
-0.01623104632817815 0.05919699288137881 0.04037736227444483
-0.016263975187667763 0.05922295853353754 0.03876900405689182
-0.01630063539891572 0.059346658417921694 0.037091362481570134
-0.016336748557837944 0.059451614169157285 0.03541861651037154
-0.016367093049207665 0.0593967681758657 0.03384260873135142
-0.016408840771004192 0.05964630132656623 0.0320616570517232
-0.01645462261779662 0.05999997627416148 0.030203985243749065
-0.016487843604997245 0.06001123235475553 0.028563553795385943
-0.016528282278161558 0.060212484274166034 0.026790231358408856
-0.016574157631460116 0.06055490679410169 0.024914494376602314
-0.016615389914163267 0.06076840000722977 0.023116252152915684
-0.016655716637839837 0.06095333732915997 0.021329059931651295
-0.016690286722010717 0.06098081349632767 0.01964079651515832
-0.01672943007303591 0.06112600140911373 0.017865144820135292
-0.01677530317044724 0.061445302840691385 0.015961965497643282
-0.0168208888516316 0.06175209003158022 0.014058180770506967
-0.016854143814902488 0.06172860787301315 0.012374658455789445
-0.016903265296020403 0.06211940233379659 0.010394966399765782
-0.016943031930394852 0.06225907879032877 0.00858171738703617
-0.014808504001483265 0.0014019998777157205 0.04231861829628275
-0.014692186135875923 -0.0024045726013504076 0.043572792547864336
-0.014631503726378637 -0.004760364621028246 0.04378623083092609
-0.014588552127962163 -0.006652218494794082 0.043669873267967174
-0.014552069387285196 -0.008372927369175776 0.043435438195971954
-0.014523046494503273 -0.009898070382192259 0.04306269464347279
-0.014494499770476045 -0.011407895978324478 0.042684500493170074
-0.014467581945612568 -0.012872988373550387 0.04227852554921663
-0.014435674556678216 -0.014462586437385183 0.041972566793465504
-0.01440723240052917 -0.015960480392427534 0.04160338650222539
-0.014404896962087148 -0.016791589099048265 0.040729175027550635
-0.01476995722210501 -0.0083014448858868 0.032673481435979146
-0.01513606488652176 0.00017610700459047557 0.024550637788240348
-0.015144984328838915 -0.00040933087186695305 0.023408901870515697
-0.01515352009863509 -0.0010053965977891433 0.022273600605214994
-0.015123141616582658 -0.002581311889909288 0.02190783451989231
-0.015097535064304765 -0.004034184637770388 0.02145114308663676
-0.015071408512454296 -0.0054973396342058445 0.021008084969255214
-0.015046235777376215 -0.006933854520097094 0.020549291287118576
-0.015018178093489494 -0.008439628863049609 0.020151579266788178
-0.014987182485511369 -0.010015517529896545 0.01981656739473492
-0.014966988495632601 -0.011319829390328773 0.019267469476679844
-0.014996356200574712 -0.011393777028699204 0.017717324759762676
-0.01384657348473685 -0.0473038352893404 0.03216119882739771
-0.013823245409503209 -0.048609889154587915 0.031766049560377985
-0.013798688296342189 -0.0499431109414154 0.03139970821777177
-0.013774109718384943 -0.0512742188713734 0.031036954657729432
-0.01374940219745231 -0.052605792339000146 0.030680065480949814
-0.013723992779656325 -0.05395154877833863 0.0303412163413066
-0.013706090005987898 -0.055114992609829494 0.029845934440734967
-0.013689020142964022 -0.05625663638821449 0.02933516790820928
-0.013675059543717269 -0.05732239789765847 0.028760045366036158
-0.013660593474408234 -0.0583986755306658 0.028197554093295163
-0.013653229690755816 -0.05930500863743188 0.027484020595791747
-0.013647045982245656 -0.06018263655491557 0.026745948741033365
-0.013644950479067096 -0.06096310888038875 0.02592013863107584
-0.01364786304796717 -0.061625420411148935 0.024985829417844663
-0.013650066059851456 -0.06230471549100508 0.024066603989532254
-0.013655505568796286 -0.06290837626008244 0.023076392970790727
-0.013665471460369333 -0.06340675426668785 0.021986315430313375
-0.013679126956881152 -0.06382010307652514 0.02081389154609664
-0.01370211397558921 -0.06401766378747997 0.019434081237916234
-0.013732368219943685 -0.06404888511282664 0.01789072102985323
-0.013770636642647962 -0.06389762478007477 0.016165862866632408
-0.013825979376615333 -0.06335569387461704 0.014056574584995762
-0.013935305788944065 -0.0615744422311556 0.010736773125453236
-0.015145959683491847 0.07953848108505562 0.050091746137947035
-0.015114141818876964 0.07768355860689252 0.04960912864608885
-0.015099326536278367 0.07634962995605171 0.04882401587832491
-0.015093683484344998 0.0752959466444938 0.04787475273425856
-0.015115330199477557 0.0750699792136007 0.04642984570802072
-0.015139518630535252 0.07491836382056283 0.044935510190901085
-0.015176713555064957 0.07515658228083588 0.04319939220210306
-0.01520032976123096 0.0749813112248951 0.041707941867124565
-0.015228988383748854 0.0749549193285689 0.040120070714247946
-0.01525756152231486 0.0749226123458741 0.038529792774586624
-0.014604382899388315 0.054464509926331006 0.04962218869361118
-0.014523749533758394 0.051200369987899785 0.05011124745814888
-0.014493659144291215 0.04945380473056138 0.049663947810784426
-0.014716856483742193 0.055253803543162394 0.044454514789258104
-0.014755488648669197 0.055542050232595896 0.04269996317752006
-0.014779856227120183 0.05540264186841032 0.04121044613454461
-0.014817860817144769 0.055664112687509815 0.039458067184422074
-0.014849497401900731 0.055732987669001643 0.03782200082044823
-0.014881131132930128 0.055798081116602116 0.036181582781703636
-0.014913270132130535 0.05587434752587711 0.034527039600082965
-0.01494327122846493 0.05588406441838889 0.03290929294734435
-0.014976192818078514 0.05597588368205031 0.031230783308532684
-0.015007478783415346 0.056016005799739754 0.029579492366602067
-0.015039413409045483 0.05607140992527393 0.027911185783703607
-0.0150728550003455 0.056166991441377934 0.026208919099671213
-0.015108392701430235 0.05631961808179148 0.02446079872715856
-0.015146246083000544 0.05653529452373235 0.02266205611820349
-0.015178582895787041 0.05658677364910136 0.02096722955578806
-0.015211346943850748 0.056646822373210726 0.01925941316400831
-0.015242463880966069 0.056655530070097215 0.017579863703596377
-0.015280166989021423 0.05685019820182213 0.015764245550794753
-0.01531322516018399 0.056907016890634265 0.01403660624756442
-0.015351132479286532 0.057098998478963325 0.012206695917264754
-0.015382184494837638 0.05709040694909279 0.010510055856184752
-0.015419296523733753 0.05725122039121466 0.008686192110956226
-0.015455743043891069 0.05738873287995083 0.006870702418219021
-0.013488437436550762 -0.001822387111978574 0.0431478429333263
-0.01342693772915947 -0.0043450507983257 0.043481430775242635
-0.01337700828776548 -0.0065348892347043 0.04358329586994719
-0.01334313743963043 -0.008267871925158488 0.04335749588286636
-0.01331504248173751 -0.009835012400998544 0.04301565669744778
-0.013288902559014262 -0.011344188918111231 0.04263672045636169
-0.013262535672516567 -0.012856645150327528 0.0422662017570653
-0.01323346684306959 -0.014441274888793265 0.04195640957686192
-0.013210223481742405 -0.015860595733486804 0.04152725009073471
-0.013193867632250523 -0.01708617280501523 0.04095493224045815
-0.013216544566777481 -0.017229532687276616 0.03955252298686479
-0.013877610747958513 0.00025577522464664826 0.024488923110520533
-0.013880015499458333 -0.0004888911614872038 0.02347086465418896
-0.013890606314042857 -0.001008708970967609 0.022276194201756916
-0.013867920036568516 -0.0024429923946338583 0.02179894838863522
-0.013842835256366861 -0.003940306749201816 0.021376845286647628
-0.013817483519702684 -0.0054419843579934235 0.020964040373778636
-0.0137921057305888 -0.006941409491571626 0.020555334737008657
-0.013766347786994693 -0.008448212485882844 0.020158482281255385
-0.013741078739566728 -0.009938731135919254 0.01975448533819546
-0.013708273491651447 -0.011630471300256628 0.019519964705221604
-0.013714571528070743 -0.012261255700897034 0.01842618548811109
-0.012729909326767925 -0.04557558105478654 0.03219963966300099
-0.012695106358826808 -0.047239985674577545 0.03210619026443656
-0.01267411522909997 -0.04853581042315219 0.03170189148541791
-0.012652260704674166 -0.049851917588800365 0.03132031108165034
-0.012628423753258062 -0.05121755775400827 0.030987362981415578
-0.012605469894890786 -0.05255726091719176 0.030637365583391973
-0.012585202315219486 -0.05382401494578881 0.030228416732826335
-0.012567135436969957 -0.05503096390349149 0.029771223113077838
-0.012552004543116588 -0.056159346307241564 0.029248211377870537
-0.012540933872215339 -0.05718046659534104 0.02863252340421646
