# .PCD v0.7 - Point Cloud Data file format
VERSION 0.7
FIELDS x y z
SIZE 4 4 4
TYPE F F F
COUNT 1 1 1
WIDTH 757
HEIGHT 1
VIEWPOINT 0 0 0 1 0 0 0
POINTS 757
DATA ascii
-0.017062732692837868 -0.04566991007529469 0.04033234662451618
-0.01699179220145458 -0.04575506933439471 0.038834637428158736
-0.016921752265136092 -0.0458406803740767 0.037330504450096835
-0.01684677941828966 -0.04592607598388401 0.035824067585096764
-0.016742290727092768 -0.04600842561489254 0.034333001256932394
-0.016638597798154908 -0.046091206161057635 0.032835732508792737
-0.016535704021325925 -0.04617442068159429 0.031332214614748666
-0.0164195158257337 -0.04625643979460904 0.02983269010432915
-0.016285268078296777 -0.046336703110849836 0.028340779429018192
-0.01614701966839799 -0.046416834512016024 0.026846289999844786
-0.01601183113213389 -0.04649765590746624 0.025343997154328946
-0.015856090158926306 -0.04657641443931155 0.02385144282487628
-0.015686811349591323 -0.046653917973424275 0.022363580648507797
-0.01551815233802506 -0.046731818714934155 0.02086986570543592
-0.016691554607286996 -0.04140633103619822 0.09100968043156632
-0.015998099708541325 -0.04141328347371112 0.09006458536393666
-0.01597771774633816 -0.04149025236665163 0.08872655066913002
-0.015959428962301125 -0.041567733879075516 0.08738226087529827
-0.015939985220476016 -0.041645391904732494 0.0860335818383535
-0.01592046869195035 -0.04172334063937457 0.08467985408800224
-0.01590087896724901 -0.0418015817184451 0.08332104922166778
-0.01588121563381384 -0.04188011678967723 0.08195713862333043
-0.015904167757192778 -0.041963438059487324 0.08056232186064347
-0.016062183720563117 -0.0420613168752789 0.07907999226502135
-0.01622093854494855 -0.04215965335902922 0.07759073149887602
-0.016379333696258547 -0.04225833394922053 0.07609516870640026
-0.016520764773012786 -0.04235560042106433 0.07460352581354726
-0.016646205034721973 -0.04245154787557267 0.0731153394730546
-0.01677110252299585 -0.04254781262901432 0.07162109045998313
-0.016897683000702546 -0.04264463388517125 0.07011934848258372
-0.01699912486465388 -0.04273914924160133 0.06862700574958808
-0.017092051311928758 -0.04283312464805003 0.06713373088124808
-0.01718538731551733 -0.042927514233931624 0.06563387467674664
-0.017278009381007153 -0.04302219970441266 0.06412811732437806
-0.017338303877171557 -0.04311377842569196 0.06263686106170335
-0.01739885561127602 -0.043205747854672856 0.061139242564422436
-0.01745853229451927 -0.04329798790125331 0.05963596218264733
-0.017510508768904864 -0.043389760810407296 0.05813147839038968
-0.017537648543704543 -0.043479203689531405 0.056637165518156896
-0.01756604178011484 -0.04356914021767761 0.05513592060927991
-0.01759340893576572 -0.04365932493305576 0.05362921667848092
-0.01760484298094228 -0.04374813149401339 0.05212704745167224
-0.017599096700812833 -0.0438354151238237 0.05063039767940014
-0.01759447814110826 -0.043923173896947346 0.04912698188288378
-0.01758984105150868 -0.04401128476217539 0.04761753431523319
-0.01755977037691958 -0.04409695210945779 0.046119483397106975
-0.017522638627730458 -0.04418218767235101 0.04462038733527601
-0.01748536305565057 -0.04426775337920064 0.04311548480615568
-0.01744678127534771 -0.044353522505817214 0.041605553526208316
-0.01737663261458633 -0.04443613797618114 0.040111830523111014
-0.01730622214011468 -0.04451906178971366 0.03861253254374469
-0.0172367158304379 -0.04460242576907619 0.03710679913049708
-0.017156424071196497 -0.04468492733127316 0.035602932297024714
-0.017053581146703245 -0.044765244671291504 0.034109471454182694
-0.016950367853731885 -0.04484585125831991 0.03261063220754373
-0.016847956985214296 -0.04492688065045547 0.03110553259930965
-0.016727526774575063 -0.04500621640336485 0.029607866277152617
-0.01659253203029032 -0.04508423775847021 0.028115277434694663
-0.0164558886231036 -0.0451623967129884 0.026618375175303022
-0.016321133520617148 -0.045241094824293414 0.025114520705949994
-0.016161063984515833 -0.04531724727620349 0.02362394828767317
-0.01599216340027826 -0.045392713297433475 0.02213456778661471
-0.015823885260135895 -0.04546856627726495 0.020639324278224624
-0.01669155460694033 -0.04022329300655767 0.0910096804317661
-0.016297656576744868 -0.040260248740791454 0.0898909193697193
-0.01627781644656945 -0.040335130933091594 0.08855155529196104
-0.016260074726856033 -0.04041051205832368 0.0872059254880076
-0.016241178405158985 -0.04048606512430717 0.0858558985935847
-0.016222211292501065 -0.04056190123338284 0.08450081411767632
-0.016203172990326586 -0.04063802197907395 0.08314064358625967
-0.016185157242272707 -0.040714540557057644 0.08177470156452524
-0.016232854116352557 -0.04079806965840189 0.08036389420540316
-0.016390668346237647 -0.04089319629370165 0.07888054481555826
-0.01655032275496826 -0.04098888066797507 0.07738958869797755
-0.016709620499378908 -0.04108490023842338 0.0758923179512182
-0.01684749573507416 -0.04117908757561475 0.0744017101572352
-0.016973779554566082 -0.041272446350314566 0.07291184653140212
-0.01709952307382212 -0.04136611421077084 0.07141590820143831
-0.01722695573606392 -0.04146032391261444 0.06991246247518196
-0.01732361246204539 -0.04155170910984619 0.06842196745158746
-0.01741732852253325 -0.041643147832945454 0.06692702740190487
-0.017511457955931342 -0.04173498988385433 0.0654254933089321
-0.017601491349717113 -0.041826766849598525 0.06392022132697717
-0.01766139320961485 -0.0419157547552313 0.06242804523794376
-0.017722683677966866 -0.04200524089530729 0.06092876978649592
-0.01778423640479959 -0.04209510994160309 0.059423079018687985
-0.017832392847918876 -0.042183926823112776 0.05791991027184901
-0.01786021853875308 -0.04227095404400051 0.05642395755873891
-0.017888159278059035 -0.04235834108887471 0.054921819658213245
-0.017916215780835965 -0.042446090193958334 0.05341345813075998
-0.01792372427845562 -0.042532011542210035 0.05191272309562395
-0.017919760384366934 -0.042617058783069914 0.05041367432436783
-0.0179146280639898 -0.042702324074188516 0.04890940181916509
-0.017910630003389383 -0.042788054480927235 0.04739830874577261
-0.017876532145565893 -0.04287091274767085 0.04590180914486919
-0.01783998373546758 -0.042953844136556306 0.04440110429517169
-0.017803293649557184 -0.04303709699960253 0.04289458213261538
-0.017760644147312876 -0.043120047370402446 0.04138627276271262
-0.01769102548429552 -0.0432004283632654 0.039890968123554804
-0.01762114678125848 -0.04328110959562803 0.03839007821475032
-0.017551006578520933 -0.04336209275282202 0.03688357168455486
-0.017467719843648866 -0.04344198202589724 0.03538061784828278
-0.017365356738151427 -0.04352012612749682 0.03388559326176732
-0.017262624704353136 -0.04359855186932204 0.032385180436648564
-0.017159521744161133 -0.04367726077671642 0.030879350190603727
-0.017036013106678738 -0.04375406342075875 0.029382695457491503
-0.016901449201961793 -0.04382997271840894 0.027888562137176887
-0.016766417573629955 -0.043906145865185646 0.02638923543757249
-0.0166309157788313 -0.043982584239132434 0.024884688234450503
-0.016465319739485396 -0.044056022516052784 0.023396989393629053
-0.01629798351830808 -0.044129575348959976 0.021905203876017354
-0.016130087617154232 -0.04420337418984225 0.020408428868220807
-0.019051307868763412 -0.039196163920489475 0.09099951027463532
-0.016691554606603543 -0.03904025497692014 0.09100968043196025
-0.01659657968759931 -0.039105375405897376 0.08971762079188192
-0.01657945275074707 -0.039178377054760224 0.08837566329783794
-0.016562261749387297 -0.039251651771345944 0.08702868611884121
-0.016543916508721945 -0.03932509383166866 0.0856773039530292
-0.016525502489387445 -0.039398811235670204 0.08432085528259123
-0.01650701930386883 -0.03947280553470685 0.08295931156155426
-0.016488466561734805 -0.039547078291811144 0.08159264402909452
-0.016560984219471664 -0.03963067038359298 0.08016580236142726
-0.016719694165889754 -0.03972315117817024 0.07868076876697647
-0.016880250911910144 -0.039816174556399436 0.07718811372873546
-0.01704045401875459 -0.03990952416944602 0.07568913142178113
-0.017174761510650727 -0.04000064894096694 0.07419956415653253
-0.01730077833223692 -0.04009129893995062 0.07270871124720274
-0.01742848364736188 -0.040182472722964185 0.07121038856120487
-0.01755565219304045 -0.040273949640158756 0.06970593855039858
-0.017649748572242052 -0.040362453960756974 0.06821588748585439
-0.01774425942666341 -0.04045134812472533 0.06671927305212139
-0.017839187500861664 -0.040540634713518785 0.0652160517880424
-0.017924366703936878 -0.04062928588617217 0.06371271518971278
-0.017986136851620094 -0.0407159109019502 0.0622181602175898
-0.018048170960247745 -0.040802906090437546 0.060717218597676925
-0.018109333098468627 -0.04089015786318246 0.059210592867741274
-0.018153654558629384 -0.040976036710492436 0.05770875122383895
-0.018182165904918335 -0.04106063989312866 0.05621116113615243
-0.018210795229467447 -0.04114559315879395 0.054707374108109
-0.018240690745332855 -0.04123101659200383 0.05319658464068133
-0.018243113610970807 -0.0413139540936142 0.05169805728250232
-0.01823978571536372 -0.04139663163942913 0.05019738240549437
-0.01823529008709074 -0.04147952142431087 0.04869147372225813
-0.018230776419189132 -0.041562743820864424 0.04717952228226452
-0.018193795271871593 -0.04164293286060285 0.0456837903666677
-0.01815783209655636 -0.041723552664653024 0.044181473510853886
-0.01812172940327128 -0.04180448523054257 0.042673328466895755
-0.01807499937783502 -0.04188463727520682 0.04116664801217684
-0.01800591246406069 -0.04196277666895743 0.03966975860947053
-0.017937736440550633 -0.042041330746228026 0.038166447761545375
-0.017866962414728904 -0.042119933386722305 0.0366591615968338
-0.01777950030213299 -0.04219710146063312 0.035157957257005434
-0.01767761863659273 -0.04227306545011067 0.03366136586455998
-0.017575369491023618 -0.04234930343634976 0.032159376372293214
-0.017472750873625542 -0.0424258169044597 0.030651959521586503
-0.01734497592344819 -0.0424999763761512 0.029157176841407728
-0.017210844352225696 -0.04257376699040488 0.02766149604964563
-0.017076246198796774 -0.042647814288335625 0.026160612470883526
-0.016938808778030057 -0.04272186643356654 0.024656257434794104
-0.01677122624158295 -0.042793000699174424 0.023168799128488793
-0.016604272780738893 -0.04286449967938858 0.021675488108926222
-0.01643676049109527 -0.042936237981906725 0.020177178659518347
-0.019030540893480496 -0.0380064382550816 0.0910114100704881
-0.016916803562104787 -0.037878550459293954 0.0908798530662065
-0.016897036162811352 -0.03794887474806107 0.0895434332568083
-0.016881545119218744 -0.03801987420217055 0.08819950536073318
-0.0168638170522159 -0.03809093226870808 0.08685181726724586
-0.016846022594607823 -0.038162256443615164 0.08549908215939495
-0.016828161372752948 -0.038233848224537036 0.0841412716328257
-0.016810233010198683 -0.03830570912037812 0.08277835706963946
-0.01679333460915533 -0.03837794599769924 0.0814096508871647
-0.016889654117499486 -0.0384613506626923 0.07996738464375727
-0.01704926251809069 -0.03855117676862262 0.07848066330652989
-0.0172107243643031 -0.038641530231052365 0.07698630576765278
-0.01737183561296085 -0.038732200915581536 0.07548560828369899
-0.017501451313952754 -0.03882017199620312 0.0739977739232229
-0.017629427169055967 -0.03890832703959001 0.07250455092787508
-0.01775798557665431 -0.03899688336916013 0.0710045307064604
-0.01788040592087259 -0.03908518812968153 0.06950189188960748
-0.017975292997859438 -0.03917114986536778 0.06801018139573334
-0.018070598373263025 -0.03925749055318391 0.06651189487280784
-0.01816632481922409 -0.03934421270451404 0.06500698874030225
-0.018247762908910947 -0.03942987319012705 0.0635048743111103
-0.01831027305050903 -0.03951400891052447 0.06200866779371611
-0.018373050531624635 -0.0395985044574163 0.06050606239192241
-0.018434957596286106 -0.03968324950925407 0.058997761739210564
-0.018475431627615002 -0.039766208937281736 0.057497253440899954
-0.018504630796453814 -0.03984838018116138 0.055998022646635226
-0.01853395088703519 -0.03993089171870369 0.054492583126341754
-0.01856454198428975 -0.04001386018693078 0.05298012803803476
-0.018563012193537343 -0.04009395451436521 0.05148304919565627
-0.018559168405291038 -0.040174139250818974 0.04998152482120821
-0.018556465440095482 -0.040254761258056306 0.048473196756445736
-0.01854795894323552 -0.04033512566732491 0.04696276132759525
-0.018511560947076622 -0.04041300783752855 0.04546542624389904
-0.018476184909053395 -0.0404913086193397 0.043961494154474645
-0.018440671521722685 -0.04056991340793898 0.04245172297179445
-0.018388681107934235 -0.04064716949041757 0.04094749380371582
-0.01832012572199576 -0.04072305969645246 0.03944902238799036
-0.01825365583866967 -0.04079947193255212 0.03794329076287539
-0.018183417070566088 -0.040875812944430635 0.03643439721859515
-0.018090591734962413 -0.04095016117067021 0.03493578873909409
-0.017990367980726174 -0.04102405809158182 0.033436788444889454
-0.017888603358323374 -0.04109810138743454 0.03193321918808234
-0.017786470726843084 -0.04117241244434339 0.030424212608554824
-0.017654416329700662 -0.04124395078508232 0.02893130962247137
-0.017519534952967153 -0.04131549397566935 0.027434947033255996
-0.01738537011764335 -0.04138740831597082 0.025932509507953116
-0.017244802670360715 -0.041458958733148726 0.02442923561326199
-0.01707760159686006 -0.04152804308888849 0.022940259123376938
-0.016911032267942883 -0.04159748182644554 0.021445419675066357
-0.016743904967301826 -0.041667153168948715 0.019945572833702074
-0.019029447953897993 -0.03681863697161407 0.09101203634165828
-0.01721608381875467 -0.03672230505057835 0.09070735607390526
-0.01719903191202743 -0.03679073366962624 0.08936835333842233
-0.017183005459259992 -0.036859518095380385 0.08802371597588632
-0.01716691896771183 -0.036928560203382185 0.08667404129313014
-0.017149678977757266 -0.03699776038015726 0.08531994579709798
-0.017132374254690108 -0.03706722039131056 0.08396076591286639
-0.017115004433227998 -0.03713694170304227 0.08259647295011213
-0.017097569145341218 -0.03720692579260528 0.08122703800224199
-0.017218865143528272 -0.03729010575291467 0.07976864024760663
-0.01737937474582274 -0.03737726828928532 0.07828022761879402
-0.017541744465137454 -0.03746494288282652 0.07678416398850821
-0.017702655590610406 -0.03755282151472589 0.07528243007112273
-0.01782978883937758 -0.03763787076801511 0.07379496592251364
-0.017958616063801558 -0.03772341120006906 0.07230005511854604
-0.018086910485583918 -0.03780923579100198 0.07079903334785709
-0.018206809211029518 -0.037894603588920724 0.0692968087890305
-0.01830249217092128 -0.03797801482580939 0.06780342969831532
-0.018398597282723583 -0.03806179407195459 0.06630346183908786
-0.01849512734640557 -0.03814594376821866 0.06479686151060765
-0.018572814724970077 -0.03822863198341756 0.06329596940127535
-0.01863493367372704 -0.03831016234567269 0.061798836429223514
-0.018698456854943035 -0.038392150036523284 0.06029456382256254
-0.01876111118465723 -0.03847438011184048 0.05878458479228976
-0.018797725295954026 -0.03855443883723354 0.057285416107295484
-0.018827614462234188 -0.038634170213136435 0.05578454126472304
-0.018858776225398832 -0.03871434270396277 0.05427668236243399
-0.018886614020416637 -0.03879451527187199 0.05276486062398361
-0.018883421245089238 -0.038872008155814396 0.05126769801582415
-0.01888137146185065 -0.03894992325693849 0.04976376106746683
-0.018878155356635395 -0.03902803887114183 0.048254570083328174
-0.018865643316962277 -0.039105565162855786 0.046745657411357944
-0.018829830366191236 -0.03918113305310349 0.045246715955369
-0.018795043374818687 -0.039257107348583405 0.043741165395557946
-0.01876012121367604 -0.03933337685286484 0.04222976480744478
-0.01870402270329269 -0.03940787930437008 0.04072717992791647
-0.018636002581967015 -0.039481513604827226 0.03922711747862628
-0.018568900622156714 -0.039555539114708375 0.03772061029390705
-0.018501546565215132 -0.03962984273295536 0.03620844327307643
-0.018403343134840322 -0.03970140006850833 0.034712434741995535
-0.018303605912809162 -0.0397730994901504 0.033211860182529584
-0.018202327454408918 -0.039844941136296365 0.031706708055038335
-0.018097135969845857 -0.03991668986284494 0.030198683209141708
-0.017964335433662826 -0.039985982149216566 0.028705092991763936
-0.017829887559504654 -0.040055396966869924 0.027207178265512
-0.017696159211354645 -0.040125172080448364 0.025703177810210254
-0.0175512651281039 -0.040194117154710524 0.024201866155466156
-0.017384446884037896 -0.040261145231388254 0.022711368573623825
-0.017218263063604966 -0.04032851731414457 0.02121499776167829
-0.01705152213445793 -0.04039611525265542 0.019713610569837225
-0.019029447953584633 -0.03563093900476004 0.09101203634183783
-0.01751689911153359 -0.0355644243725526 0.09053397432856919
-0.017501484105165388 -0.0356308421478644 0.08919300879987266
-0.017486011414961478 -0.035697508462251254 0.08784702530224606
-0.017469387942476877 -0.03576432712751211 0.08649663655274553
-0.0174527021215804 -0.03583139640448063 0.08514118300241119
-0.017435953600846377 -0.03589871770573152 0.0837806361034587
-0.017419142026196766 -0.03596629245447485 0.08241496709315727
-0.017403367873983444 -0.036034221148414904 0.0810434862308253
-0.017548618635041147 -0.0361169308958446 0.07956956836553805
-0.017710032196506964 -0.03620142094860953 0.07807946088564927
-0.017873312571883238 -0.036286407686691544 0.07658168756234479
-0.018029571181888582 -0.036371087906834944 0.07508164979790244
-0.01815866512937031 -0.03645362951790468 0.07359182513692172
-0.018287227702980413 -0.03653644478088187 0.07209591790680694
-0.018417497296610463 -0.036619739488913707 0.07059249770823012
-0.018532620029425073 -0.03670197601977799 0.06909209794556453
-0.018629098596181115 -0.036782827864691864 0.06759705254834203
-0.01872600317223211 -0.036864036717804145 0.06609540565097344
-0.018823336585441164 -0.03694560494894697 0.06458711343248336
-0.018897258251775406 -0.0370253384609348 0.0630874554279171
-0.01896125793389053 -0.03710447152005851 0.06158792983975658
-0.01902439121233246 -0.03718383807459969 0.06008272205627446
-0.019088938337810335 -0.037263650826313104 0.058570313988230926
-0.01912053680871345 -0.037340721729105845 0.05707323840466727
-0.019151118155155744 -0.03741800527897317 0.05557071616229342
-0.019182976923654504 -0.037495716660065646 0.05406119677634813
-0.019206897030106085 -0.03757299754906215 0.05255078896445836
-0.019204341988453777 -0.037648110354465324 0.05105200292112749
-0.019202934333779398 -0.0377236326503707 0.04954642998810732
-0.019201521020203505 -0.037799458551506855 0.04803480454020281
-0.019183830732360685 -0.037874057693993816 0.04652820971895161
-0.019148604728019547 -0.037947303867307006 0.045027658677276095
-0.019114408699540175 -0.03802094418556211 0.043520486400982605
-0.01908007969174641 -0.038094870871489016 0.04200745313130455
-0.019019860142199085 -0.03816664045678254 0.040506519630282956
-0.01895237705593278 -0.03823801165386423 0.039004862993201606
-0.01888581579427645 -0.03830976224816463 0.0374967499071619
-0.018817827573712143 -0.0383816702254411 0.03598380222921044
-0.018716582625659173 -0.038450690105443434 0.03448873217071746
-0.018617333578670126 -0.038520185069792226 0.03298658025468992
-0.018516542931035163 -0.038589818082288604 0.03147984214158567
-0.01840709919380029 -0.03865890513874503 0.029973663444899934
-0.018274734347001775 -0.03872606595629089 0.02847852613785562
-0.018140721481303634 -0.03879334571664979 0.026979056258962575
-0.018008620124710162 -0.038861090089623844 0.02547261247446303
-0.017858197228348582 -0.03892733725285598 0.023974148262296824
-0.017691763185149534 -0.03899230265919366 0.022482126672089375
-0.017525966254745284 -0.03905760165273521 0.020984221553501048
-0.01902944795328143 -0.03444324103790873 0.09101203634201158
-0.017820343791036475 -0.03440498872536281 0.09035907707630808
-0.01780548420798711 -0.03446928998312373 0.08901676687153587
-0.017788384120643652 -0.03453364379663791 0.08767070389320405
-0.01777340891209256 -0.03459842730649849 0.08631832153307104
-0.01775728096871987 -0.034663359503645186 0.08496150244986267
-0.01774109237564736 -0.034728535880547834 0.08359958100190543
-0.01772374231062679 -0.03479386227052631 0.0822331851071999
-0.01771624961798335 -0.03486029807220292 0.08085568297013118
-0.017878915933938866 -0.034941821317372654 0.07937016818744722
-0.018041236222018864 -0.03502362993920559 0.07787836228627154
-0.018205430046508875 -0.03510591980162811 0.07637887565745863
-0.01835813529711583 -0.035187522303485624 0.07487985705816866
-0.01848808151109288 -0.035267443466917334 0.07338835074668384
-0.018617498872806504 -0.03534762989329881 0.07189074977613885
-0.018748629484348134 -0.03542828084729257 0.07038562134197968
-0.018860086644853613 -0.03550750947872985 0.0688863467449708
-0.01895736603828102 -0.03558579392794571 0.06738962582954527
-0.0190550753289625 -0.03566442433194571 0.06588629060222856
-0.01915321737291198 -0.03574340298907422 0.06437629712095772
-0.019222226430056444 -0.035820099115340794 0.06287860427056602
-0.01928697307593974 -0.03589671828731969 0.06137741692933757
-0.01935199730161613 -0.03597366593864521 0.0598697937440939
-0.019412720729311383 -0.036050533890206855 0.058358686877115484
-0.01944386741496429 -0.03612505291660134 0.05686071951202537
-0.01947514313215265 -0.03619988065341154 0.05535654650855498
-0.01950770111495298 -0.036275122877509065 0.053845363241581845
-0.01952769091695128 -0.03634953140729199 0.05233637584342177
-0.019525775650360233 -0.036422256431913845 0.05083596308706528
-0.019525012182351698 -0.03649537816343936 0.04932875085727928
-0.01952424564265276 -0.036568794085603325 0.047815474660988455
-0.019501358358743837 -0.036640492674878164 0.04631121292306695
-0.019467885235172677 -0.03671151562538373 0.044808253583202784
-0.0194342820927349 -0.036782814448604456 0.043299456334981556
-0.019400548172414767 -0.036854390755016786 0.041784787098145704
-0.019336194595075906 -0.036923448347922036 0.04028551209309794
-0.019270424853949253 -0.0369926572219306 0.0387814329901342
-0.019203231547927246 -0.037062017621991065 0.037272535923034866
-0.019131071632535357 -0.03713120334567613 0.035761318202448045
-0.019030311350909768 -0.037198026715720506 0.03426468020862644
-0.018931552127721296 -0.03726531024016294 0.03276094783600636
-0.018831250943567912 -0.03733272761034151 0.03125262061354156
-0.018717541833671802 -0.037399175016078465 0.0297482956456388
-0.01858561418482041 -0.037464197680058965 0.028251608246808835
-0.018452037838918023 -0.037529335675331704 0.026750580191229556
-0.01832037785872298 -0.0375949236700288 0.025242566015715562
-0.018165600051487374 -0.03765861456855388 0.023746081132193286
-0.017999551585552165 -0.0377215108910987 0.022252532609153886
-0.017834142931728747 -0.0377847303386495 0.02075309023276517
-0.019029447952988332 -0.033255543071060045 0.09101203634217953
-0.018124248592823022 -0.033243794991118 0.0901839146220891
-0.018106669893325433 -0.03330570120140805 0.08884215658200384
-0.018092307814149833 -0.03336811144617702 0.08749347806271993
-0.018076795717552108 -0.03343066466962235 0.08614037846469358
-0.018061225352489052 -0.03349345286320194 0.08478219618702604
-0.018045596390031504 -0.03355647735334285 0.08341890253754553
-0.01802990849877001 -0.033619739476474716 0.08205046860771331
-0.01804618561555693 -0.0336859303131972 0.08065764311209236
-0.01820975838654565 -0.03376477222762956 0.07917043890055944
-0.018372988178707028 -0.03384389043777755 0.07767693099712075
-0.018538098255499624 -0.033923474370561625 0.0761757274393875
-0.018687238210061963 -0.034002015823442124 0.07467773340747164
-0.01881691989898504 -0.03407921288475609 0.07318523337251659
-0.018948314106035424 -0.034156856643249585 0.07168524366722281
-0.019080308399487766 -0.034234855006154016 0.07017840340525544
-0.01918695972355189 -0.03431099694939443 0.06868096847062083
-0.01928503966839773 -0.03438670507549678 0.06718257433063157
-0.01938355340238973 -0.03446274804441856 0.06567755307481565
-0.0194825038097593 -0.03453912808250358 0.06416586063999796
-0.019548859548882358 -0.034613007155379495 0.06266868308610779
-0.01961321648043224 -0.034687006255059945 0.061166562597688656
-0.019678993447781734 -0.034761421211797636 0.05965726186581033
-0.019735878092613013 -0.03483536256600214 0.05814746829010653
-0.019767718367795617 -0.03490742768830673 0.05664785860573884
-0.01979969065421061 -0.03497979159595074 0.05514203147003838
-0.019832950068260358 -0.03505255658642442 0.053629180914694985
-0.01984899690425851 -0.035124112181012766 0.05212162044323698
-0.019847723461469124 -0.03519444169478978 0.050619577686494166
-0.019847606245642024 -0.03526515507468952 0.04911072283821927
-0.019847488557814263 -0.03533615318416065 0.0475957925400482
-0.019820553601739344 -0.03540508086969501 0.04609307648630834
-0.01978767309408369 -0.035473763657785005 0.04458849984410529
-0.01975466476777399 -0.03554271344113165 0.04307807435912481
-0.019719183103393212 -0.035611724447091014 0.041563395041245565
-0.01965302723602269 -0.03567829836356674 0.040064156496074976
-0.019587799943951656 -0.03574522610193955 0.03855847556746067
-0.019519970670553388 -0.03581219573385615 0.03704879989293525
-0.01944362407173922 -0.03587868018049786 0.03553932540389437
-0.019344530457656994 -0.03594340531931127 0.03404027803653664
-0.019246262712981688 -0.03600847039654276 0.03253496209852513
-0.019146452650998236 -0.03607366509090569 0.03102504263410588
-0.019028465002582873 -0.03613749497797 0.02952257900328009
-0.018896976065686355 -0.03620037278023853 0.02802433850215691
-0.018763837756383295 -0.03626336227910467 0.026521749237379766
-0.018632620685113177 -0.0363267871062997 0.02501216160663866
-0.01847228045650373 -0.03638783639533876 0.023518549975787784
-0.01830781317394048 -0.036448765432118786 0.022022585572707865
-0.01814279418827902 -0.03650989885444891 0.020521602979182152
-0.019030540891964487 -0.03206793227760418 0.0910114100713568
-0.018426431085736883 -0.03208066468134547 0.09000974485981603
-0.018409402265000263 -0.03214045000985413 0.08866664961191173
-0.01839669277144329 -0.03220081017192581 0.087315983257294
-0.018381739927715413 -0.0322612210185276 0.08596152194402784
-0.01836673087347579 -0.03232185896065078 0.08460196896070002
-0.01835166529117055 -0.03238272528124786 0.08323729554245232
-0.018336542860843075 -0.032443821272952963 0.08186747270734926
-0.01837666534662269 -0.032509627199840185 0.08045927688498683
-0.018541147343635545 -0.032585778820921854 0.07897037968941367
-0.018705289427411287 -0.03266219760505727 0.0774751661919297
-0.01887131856987645 -0.03273906652029563 0.07597224207089939
-0.019015762899255106 -0.03281447240872788 0.07447596488184732
-0.019147418621016654 -0.03288912607216257 0.07298109044074091
-0.019279674748150066 -0.03296412018766105 0.0714793987442299
-0.019411408276647668 -0.03303936455407753 0.06997154722518795
-0.019515494868726835 -0.033112629401908254 0.06847454589997637
-0.019614380619759175 -0.033185753110513395 0.06697446927924633
-0.019713704082689798 -0.03325920049688608 0.06546775265812266
-0.019808915142645933 -0.03333259697085319 0.06395726154646814
-0.019874882700760932 -0.033403858632744705 0.06245915391634954
-0.019941132926865557 -0.03347542564764581 0.06095462696252402
-0.02000652150400828 -0.033547204580487176 0.059444384271390205
-0.02005955486712313 -0.03361823809554205 0.05793591021121541
-0.02009209092433989 -0.033687841317632645 0.05643465485951904
-0.020125915655155202 -0.0337578299538745 0.054926407674179556
-0.020158725056644622 -0.033828013001513946 0.05341264894952091
-0.020170816219249654 -0.033896735189768726 0.05190652194364992
-0.020170186656381095 -0.03396466143469634 0.05040284588962268
-0.020170717765703394 -0.03403295864751991 0.04889234509147489
-0.02017125101524664 -0.03410153108214676 0.04737575732815802
-0.020140255480706137 -0.034167708182985534 0.04587459381705428
-0.020109139412967325 -0.03423414262850431 0.044367592690815694
-0.020075557941895028 -0.034300636451597775 0.042856339632310336
-0.020035974556241343 -0.03436688847207254 0.041343283859025026
-0.019970359242847402 -0.034431185874950365 0.03984245201633685
-0.019905676193886612 -0.034495825191293863 0.038335166077689165
-0.019838389286922054 -0.03456050516003062 0.036823877513453174
-0.01975784491881455 -0.03462431021168775 0.03531614760568602
-0.019659241096552482 -0.034686821321858206 0.03381552483270067
-0.01956146649107665 -0.034749660919778776 0.032308622211702664
-0.01946214921595585 -0.03481262587989519 0.030797107363851273
-0.019339869817097344 -0.03487386049354969 0.029296512707247202
-0.019208821111639074 -0.0349345867024563 0.027796716084899087
-0.01907612236122258 -0.034995420949968305 0.026292562569920352
-0.01894534973695744 -0.03505667579656469 0.02478139841113358
-0.018780626144863644 -0.035115218419365664 0.023289783318715507
-0.0186165490423591 -0.035174061773437675 0.02179228474814321
-0.01845192112149041 -0.03523310266877082 0.0202897589699354
-0.019030540891691483 -0.030880231082116395 0.09101141007151323
-0.018727975811303255 -0.03091569654688615 0.08983594268927941
-0.018713687303831383 -0.030973523110158933 0.08849024249392112
-0.018700442640717296 -0.031031651173326357 0.08713885878825209
-0.018686048747896866 -0.031089912735709827 0.085783038093633
-0.0186716007046685 -0.031148393480409587 0.08442211674759151
-0.018657098204877265 -0.031207094646615086 0.0830560659126062
-0.018642540940062957 -0.03126601748287527 0.08168485653335641
-0.01870769015639323 -0.03133138394399939 0.08026058348136797
-0.018873084160448972 -0.03140483627566635 0.07876998973585245
-0.019038141333481917 -0.03147854658573833 0.07727306704169279
-0.019205092365213006 -0.03155269136144469 0.0757684187119822
-0.019345945553536525 -0.03162507306173699 0.07427317809128761
-0.01947846143797266 -0.03169708003811645 0.0727766114316202
-0.019610456114143138 -0.03176932681882232 0.07127391367401809
-0.019744182851736847 -0.03184199294944545 0.06976364476984126
-0.01984343541123923 -0.031912212887419036 0.06826849692531373
-0.019943126694017377 -0.03198274321661033 0.06676674012077571
-0.020043259615430575 -0.03205358599959839 0.06525833043906304
-0.02013585631196202 -0.0321241073974112 0.06374832385134027
-0.020201434341905966 -0.032192750059105775 0.06224928509611982
-0.020268438577342285 -0.03226177832363597 0.06074308609081336
-0.020335730773537786 -0.032331103247519644 0.059230413968614726
-0.02038490287036121 -0.03239924817253844 0.05772325980205245
-0.020416986345775323 -0.03246628906275125 0.056221107444418106
-0.02045151393085043 -0.03253379432227412 0.05471119812271297
-0.02048502735730201 -0.03260148732198913 0.05319576649714919
-0.020493150093071122 -0.0326673957381369 0.05169107952178348
-0.020493166473645963 -0.032732910928149395 0.05018576686400511
-0.020494347988576522 -0.03279878413012157 0.048673616774898676
-0.02049319943261968 -0.03286473283606143 0.047156954972887466
-0.02046046520282807 -0.03292836994248988 0.04565576409032135
-0.02042994747278304 -0.03299244561419636 0.04414713788394092
-0.020396962836217947 -0.033056578753430155 0.04263425131075377
-0.02035326476996352 -0.033120092609976344 0.04112282613069457
-0.020288191797072974 -0.03318210623870406 0.0396203978284107
-0.020224054791743218 -0.03324444982062771 0.038111503686252046
-0.020157312052592857 -0.033306832795921885 0.03659859901641127
-0.020072556798308105 -0.03336798004094217 0.03509262104788724
-0.01997444442185725 -0.03342827011461924 0.03359041977279348
-0.01987716462226269 -0.03348887717622939 0.03208192734238807
-0.01977834180472432 -0.033549605318630465 0.030568813960712315
-0.01965175739725067 -0.033608267017900165 0.029070095944443264
-0.019519957429373125 -0.03366673509970717 0.02756961098363664
-0.019388892784476253 -0.03372550709567913 0.02606301935877725
-0.01925378055169863 -0.03378418321756182 0.02455380689067138
-0.01908944581301275 -0.033840644213038513 0.023060665008365733
-0.018925760286215676 -0.03389739539235423 0.021561629318343045
-0.01876152483184207 -0.033954337236274876 0.02005755737966991
-0.021397972807946863 -0.02981076393307735 0.09100749454388693
-0.01904584266497661 -0.029693659958138444 0.09100264192035987
-0.01902997388289851 -0.02974897698512447 0.08966187922243368
-0.019017336948858654 -0.02980474448029047 0.08831420374103366
-0.01900575161274165 -0.029860803085429134 0.08696082516574291
-0.01899192041050274 -0.029916909082348914 0.08560363760160647
-0.018978037135021608 -0.0299732263132809 0.0842413403488233
-0.01896410149166844 -0.030029755973390516 0.08287390449669496
-0.018950113183586803 -0.030086499266876596 0.08150130091600777
-0.019039261394524887 -0.03015119574173486 0.08006156209112175
-0.01920557019671104 -0.030221939754324318 0.07856926821901106
-0.01937154526679774 -0.03029293250840942 0.07707063271465461
-0.01953942102166245 -0.030364343988367765 0.0755642565198272
-0.01967667099333331 -0.0304337184675041 0.07407005794059773
-0.0198100496945669 -0.03050306994047841 0.07257179551454973
-0.019942909767940553 -0.03057265263505469 0.07106738975998922
-0.02007298487274195 -0.030642295625429267 0.06955822418603735
-0.020173044324655498 -0.030709925203088323 0.06806139969320946
-0.020273546429193434 -0.030777853966991137 0.06655795340389986
-0.02037449413024095 -0.03084608390689231 0.06504784127948549
-0.02046218666677352 -0.03091356709817745 0.06353977650832077
-0.020529660330644073 -0.030979764530902353 0.06203834020304361
-0.020596276365919264 -0.03104615783487624 0.06053120129299744
-0.020664328422061895 -0.03111292495066123 0.05901684119028294
-0.02070962408419491 -0.03117819984521325 0.05751101906813555
-0.02074356080150458 -0.03124285553147296 0.056006456432868446
-0.020777638563583944 -0.03130777993400057 0.05449564066687895
-0.020811858251560122 -0.031372974731506804 0.05297853270592323
-0.020815999760802617 -0.03143608911566665 0.05147529235213166
-0.020816664155792253 -0.031499185436518175 0.04996833977452142
-0.020818498164299426 -0.03156262675541625 0.048454537043641444
-0.02081332386796325 -0.03162577471497329 0.04693939223099125
-0.0207811839791201 -0.031687061461092104 0.04543658647850801
-0.020751266531193024 -0.031748770764850824 0.04392633192598688
-0.02071888067576033 -0.03181053560496939 0.042411808547977214
-0.0206710549233744 -0.03187133222864591 0.040902021037197145
-0.02060652608394653 -0.03193105479679835 0.03939799310422193
-0.02054175495382743 -0.03199100160919056 0.037888317898984614
-0.02047674016583273 -0.03205117393117486 0.036372963555385995
-0.020387760862123183 -0.032109685069861504 0.0348687449123497
-0.02029014159144238 -0.03216774707441023 0.03336496202991185
-0.020193358270438055 -0.03222611451770713 0.031854876654815345
-0.02009264860306842 -0.03228440788685456 0.03034188211229949
-0.01996412886654403 -0.03234070999200052 0.028843327899255422
-0.01983277033066161 -0.03239701663470829 0.027341282107918308
-0.019702150160697374 -0.03245361610969355 0.02583311877129829
-0.019562685049517192 -0.03250973636496806 0.024325865838817906
-0.019398740554673277 -0.032564109262299516 0.022831194233288332
-0.019235448004293665 -0.03261876175222895 0.02133061846367229
-0.019071606423209986 -0.032673597997589024 0.019824997380482823
-0.021386935553615316 -0.028617552337046357 0.0910137821439985
-0.019347744200697126 -0.028527317844068697 0.09082964770267665
-0.019334619668695652 -0.02858065784353537 0.08948628968520361
-0.019322544664516217 -0.02863427587833983 0.0881372617076216
-0.019310424269147808 -0.028688095468837837 0.08678316259546262
-0.019297155454909454 -0.028742038970754155 0.08542461050022748
-0.019283836646769636 -0.028796185719575745 0.08406093968818651
-0.01927046756164824 -0.028850536866153298 0.08269212117548694
-0.01925704791431737 -0.028905093570042138 0.0813181257590446
-0.019371380415133477 -0.028969057773233626 0.07986221190145762
-0.019538606816650095 -0.029037084403335526 0.07836821431530602
-0.01970550260178322 -0.02910535048548746 0.07686786237629989
-0.01987430592396422 -0.029174019479099592 0.07535975464882508
-0.020007940558165516 -0.029240403800731916 0.07386660360709063
-0.020141057933289574 -0.029307009010572004 0.07236733786376254
-0.020275912889166636 -0.029374000631323394 0.07086052451067126
-0.02040232417341864 -0.02944063793337178 0.06935246793427297
-0.020502057568528353 -0.029505585554039777 0.06785467672742107
-0.020603370221235817 -0.029570903755971795 0.06634954325354558
-0.02070513243235539 -0.029636511796812155 0.06483773099440227
-0.02078904573613566 -0.029701065503438987 0.06333089128066038
-0.020857274671873538 -0.02976471815278545 0.06182778840473363
-0.0209257966798973 -0.029828644217342784 0.06031822906241191
-0.020993461894667054 -0.029892760245013146 0.05880292015188837
-0.02103486848568481 -0.029955184176747394 0.05729843637401594
-0.021069507617939853 -0.03001735378540486 0.05579221795636857
-0.021104290830738726 -0.030079781986932053 0.05427973446237028
-0.021136895448598758 -0.030142297105151643 0.05276249112649284
-0.02113936646148623 -0.03020281059682062 0.051259159606539983
-0.021140680949335855 -0.03026348020596383 0.04975056378337178
-0.021143169546936735 -0.030324481740996063 0.048235105050132676
-0.02113395664086365 -0.030384849205997468 0.046721484013084846
-0.021103586329267676 -0.030443866424918743 0.04521625832072035
-0.02107309781008282 -0.030503113351113977 0.04370517397729112
-0.021041312689452973 -0.030562502249409124 0.04218901049479895
-0.02098934619900561 -0.030620602681315775 0.040680867756893
-0.02092536329246869 -0.030678026876486464 0.03917523701307346
-0.020861139954961416 -0.030735666856684933 0.03766394850473609
-0.02079786071493822 -0.030793614271171946 0.036146132603009196
-0.02070345826576886 -0.03084942068565178 0.03464451837836402
-0.020606333766812368 -0.030905247563549152 0.03313915077455776
-0.020510048603157582 -0.030961368281421528 0.03162746931059274
-0.020406252950883774 -0.03101714268767817 0.030115457438398108
-0.020276985351977028 -0.031071184842673096 0.028616207753531353
-0.02014606977977834 -0.031125323255131333 0.027112598090458295
-0.020015895627983782 -0.031179743371113684 0.02560285997222983
-0.01987206432246419 -0.031233330733310867 0.024097574449747194
-0.01970851146693431 -0.03128560903919171 0.02260137017953512
-0.019545613298765585 -0.03133815630243024 0.02109925136196783
-0.01938337165936954 -0.031390974352455074 0.019591174654186916
-0.021386935553368236 -0.027425154322986 0.09101378214413927
-0.01965119577199481 -0.027359297355472753 0.09065576529079658
-0.019639727481241542 -0.027410566825525572 0.08931043384833379
-0.019628216128183384 -0.02746202880736007 0.08796005081955219
-0.019616661469817553 -0.027513684387309483 0.08660458769862678
-0.019603958807505595 -0.02756545904440499 0.08524466355142477
-0.01959120824785998 -0.027617428925731737 0.08387961160306068
-0.01957730096971333 -0.02766951895009081 0.08251006055767987
-0.019565562348828114 -0.027721958794531255 0.08113400785282915
-0.019704048576812516 -0.0277849652027441 0.07966253209689717
-0.019872195389016523 -0.027850265353051806 0.078166827198424
-0.020040014717435273 -0.027915795613150985 0.07666475518933702
-0.02020525724969585 -0.02798140123398516 0.07515765486810172
-0.02033862987234164 -0.02804504595071612 0.07366350564351012
-0.02047373926063839 -0.028109059478724958 0.07216184677715701
-0.020609466841153556 -0.028173365900268324 0.07065331707914724
-0.020731067546981785 -0.028236935720074668 0.06914708399072977
-0.020832745522979257 -0.028299358477185194 0.06764690152089775
-0.02093487404939065 -0.028362057838940854 0.06614007151640694
-0.021037456127550203 -0.028425035647939325 0.06462654969480464
-0.021116434806006557 -0.02848659784284773 0.06312166734654412
-0.021185421377682534 -0.02854769735669205 0.061616894465358785
-0.02125470451729211 -0.028609059532638176 0.06010565268148599
-0.021323132503028364 -0.02867060426793804 0.05858865000090491
-0.02136063734028243 -0.028730196408666142 0.0570855108925829
-0.021395981111812012 -0.028789871826378283 0.05557763330507576
-0.021431472013834718 -0.0288497956633956 0.054063478662145115
-0.02146129264717822 -0.02890955362276371 0.052546874933077414
-0.02146325143813632 -0.028967555440913766 0.05104268045419902
-0.021465218104789907 -0.02902579046737799 0.04953243805006963
-0.02146836339458913 -0.02908434428906134 0.04801531994407404
-0.021453925982913846 -0.02914186710790861 0.04650402667558279
-0.02142532873136166 -0.029198599792740823 0.04499638116814031
-0.02139426515962789 -0.029255383457495947 0.04348447227154495
-0.02136426011015552 -0.029312473914735505 0.04196585629932231
-0.02130813978311502 -0.029367899306553483 0.040459365465553454
-0.021244704615391463 -0.029423017790244768 0.03895212872164733
-0.021181030886155472 -0.029478343558753773 0.037439223692353585
-0.02111592948506763 -0.02953379098377663 0.035921457345537366
-0.021019650168372206 -0.029587182261068223 0.03441994062265141
-0.020923022113117085 -0.02964076692979901 0.03291298517462987
-0.020827236791647052 -0.029694633789921782 0.03139970446869261
-0.02071915042240402 -0.02974781614589866 0.02988954313444442
-0.020590327984042534 -0.02979968698252704 0.02838873468658243
-0.020459856912772745 -0.029851650349730134 0.02688355810202947
-0.020330130327973372 -0.029903884244629877 0.025372242123720246
-0.02018191946594977 -0.029954961803257504 0.023868931915154545
-0.020018759650266504 -0.030005139001805552 0.022371192030649134
-0.01985625727520557 -0.030055574478280375 0.02086752718852919
-0.019694414201066768 -0.030106269990600405 0.019357893945954108
-0.021386935553131425 -0.02623275630892777 0.09101378214427416
-0.01995620336885956 -0.02618958514479313 0.09048099125236339
-0.019945298372402553 -0.026238699897186326 0.08913431110555708
-0.019933250353781018 -0.02628792731591265 0.08778320936578604
-0.01992226112486667 -0.026337411962133763 0.08642638457126628
-0.019910124311304955 -0.026387010822551606 0.08506509071504231
-0.019897941699158705 -0.02643679684550994 0.08369865998238155
-0.019885713028706398 -0.02648677109240527 0.08232706324212186
-0.019873438038256697 -0.026536934632674716 0.08095027114241521
-0.02003726724265209 -0.026598913178510163 0.079462521859263
-0.020206337287101472 -0.026661477717670343 0.07796510603931037
-0.020375082997330596 -0.026724262971271784 0.07646131031369366
-0.02053675272916844 -0.02678682207310862 0.07495522279273811
-0.020670989867587086 -0.026847799878941602 0.0734593816052776
-0.020806970083825038 -0.02690913127174942 0.07195601627716242
-0.020942439494232634 -0.026970667840411015 0.07044647075698168
-0.021061483507624046 -0.027031346174839585 0.06894065509067077
-0.021162836740081736 -0.02709107641870895 0.06743950125160492
-0.021265780867486872 -0.027151147908572152 0.06593097701996192
-0.021369182544048293 -0.02721148639434468 0.06441574794711136
-0.021445502674804662 -0.027270236698483656 0.06291137054546792
-0.021514101746746006 -0.027328697326144052 0.06140565755028421
-0.021584148406449455 -0.02738748717711559 0.0598927298450162
-0.021651030536256666 -0.027446295399331574 0.058375531939103054
-0.02168693191752402 -0.027503231767136416 0.056872241794056144
-0.021722982560691828 -0.027560404850955733 0.05536270163926765
-0.021759183398545268 -0.027617816130104014 0.0538468724164165
-0.021785045503002365 -0.027674749953751594 0.0523316870131883
-0.021787655937747563 -0.027730318892052047 0.05082585406163903
-0.02179027687669649 -0.027786111436322505 0.04931396173142072
-0.021795253562224504 -0.027842290234234936 0.04779438836531902
-0.021776752050288062 -0.027897077250037712 0.04628462785244036
-0.02174758384832931 -0.02795134875716413 0.044776153628773296
-0.02171712268013909 -0.028005750239455222 0.043262609103976
-0.021687724174670242 -0.02806044581366621 0.04174234510692659
-0.0216274368657165 -0.028113217428202858 0.040237513336340014
-0.021564551249247776 -0.028166022835715464 0.038728667393984006
-0.021501428950512325 -0.028219026986641787 0.037214142616652124
-0.02143212045399756 -0.02827181522083414 0.03569810851652255
-0.021336337732700827 -0.028322965154359222 0.034195010819346894
-0.021240207799165578 -0.02837430050631069 0.032686464395413395
-0.021144924010817856 -0.028425906351039077 0.031171581285440675
-0.02103253363466162 -0.02847651910686912 0.029663278122062153
-0.02090415789675859 -0.028526211809904438 0.028160907875161234
-0.020774132869224915 -0.028575993292890865 0.026654161310827984
-0.020646057587508204 -0.02862611933312726 0.02514038210036229
-0.020491047818919028 -0.02867453949974231 0.02364082568027892
-0.020329486208533754 -0.028722694594225016 0.022140658967655824
-0.020167381042603405 -0.028771011701001346 0.020635445116107876
-0.020005937960248188 -0.02881957804790475 0.0191242523264617
-0.01981128298888757 -0.02886596788241873 0.01763258114798366
-0.021386935552905273 -0.025040358294871598 0.091013782144403
-0.020262773024874614 -0.025018167796396745 0.09030532213004125
-0.02025133339724089 -0.02506505301235462 0.08895792084876444
-0.020239850812296067 -0.025112114288429393 0.08760545989946655
-0.020229430793758107 -0.025159421608440476 0.0862472659278963
-0.020217863617300047 -0.025206838253204442 0.08488459480888
-0.020206252758399712 -0.02525443396277778 0.0835167776816193
-0.02019348602349158 -0.025302139977845948 0.08214444511742586
-0.02020295242802761 -0.025351427440973687 0.08075362070170347
-0.020371037780257395 -0.02541089683270489 0.07926218036766766
-0.02054103388875328 -0.025470716595166493 0.07776305000615935
-0.02071070882965198 -0.025530747623347616 0.07625752690650078
-0.02086766721996075 -0.02559020578284406 0.07475314550575501
-0.021003898028388424 -0.025648579174059626 0.07325492090267965
-0.021140751765388655 -0.02570721948327224 0.07174984552216354
-0.021277097336997286 -0.02576605618773397 0.07023857757620666
-0.021391302472044682 -0.025823709116567953 0.06873459916676317
-0.021494609042938317 -0.025880890567351194 0.06723104473597763
-0.021598374132680342 -0.02593832581393779 0.06572081688573816
-0.021702600800710292 -0.02599601654976746 0.06420387108798403
-0.02177395748475952 -0.026051819136419678 0.06270146553078537
-0.021844469124586263 -0.026107787518336607 0.06119333642524993
-0.021915284383795364 -0.026163996897155997 0.05967871339525288
-0.021977146056322727 -0.02621984938970791 0.05816357242572712
-0.02201375349104423 -0.026274285462904622 0.05665862824597634
-0.022050513246283376 -0.0263289480401513 0.05514742211650531
-0.02208742627471183 -0.026383838538092456 0.05362991487264235
-0.022108149668960297 -0.026437891821340005 0.05211693025620767
-0.022112581211325644 -0.026491096179072478 0.05060867959270915
-0.0221158585236243 -0.026544438312966517 0.04909513398152415
-0.022121498021179464 -0.026598149910311487 0.047573893194422956
-0.022098917121939787 -0.02665022137852665 0.04606567825474245
-0.022070352906708557 -0.026702108571016174 0.044555574864409364
-0.022040496105742047 -0.026754120189711614 0.04304039141365146
-0.022009339412734252 -0.02680625650724474 0.04152011143945511
-0.021947238640576794 -0.026856552355324467 0.040015310539806614
-0.021884904394360638 -0.02690703729564739 0.038504852191476036
-0.02182114587334416 -0.026957633191612738 0.03698954004592375
-0.021747615097430117 -0.02700778371404842 0.035475251553182985
-0.021653522125164082 -0.02705676470920844 0.03396972813999938
-0.02155789199744118 -0.027105843611565567 0.032459587599569795
-0.021463111439280924 -0.027155181257828613 0.030943098914506195
-0.02134640371962998 -0.0272032469785377 0.029436661583957857
-0.021218476227663874 -0.027250754708823446 0.027932726493464233
-0.0210888987922751 -0.027298347444577247 0.026424406882451013
-0.020961276070364354 -0.027346269719004158 0.024909042250469304
-0.02080185614809299 -0.02739223412161858 0.023411479788661815
-0.020640692249006498 -0.027438271246473616 0.021909770169053377
-0.020478985713376918 -0.0274844633776603 0.020403004314898388
