# .PCD v0.7 - Point Cloud Data file format
VERSION 0.7
FIELDS x y z
SIZE 4 4 4
TYPE F F F
COUNT 1 1 1
WIDTH 769
HEIGHT 1
VIEWPOINT 0 0 0 1 0 0 0
POINTS 769
DATA ascii
0.005638456390560598 -0.017805188438223294 0.011372090461383266
0.007875566018391011 -0.017738064861440278 0.011570256035206283
0.009762659849237243 -0.017687235018964232 0.011490279692654537
0.01152114123676623 -0.017642291221449127 0.01131241261830257
0.012696454005485802 -0.017624905736421465 0.010653590371004773
0.031010765542261676 -0.016900998357732164 0.019717498526857447
0.032247124878808764 -0.016878845608636554 0.019189349069781647
0.0330694081698904 -0.01687656368200251 0.01830676279820509
0.03392325009531849 -0.01687274632722621 0.017452085094926628
0.03471619014778199 -0.016871862064987506 0.016544828604599715
0.035421802028175464 -0.016875213445808643 0.015560905466119712
0.03604535379556417 -0.01688257253291675 0.014503763805072567
0.03628935434797986 -0.016908473438201264 0.013107750553305986
0.036056693272191076 -0.016957787213694533 0.011280743369814716
0.035135899576170526 -0.01704103062581378 0.008825999685123376
-0.04086817071999799 -0.017580694497981032 0.018668992451302102
-0.03291538144887418 -0.017286304944473987 0.022719512530175234
-0.030655605217979887 -0.0172277909741582 0.022715348795312618
-0.029668584516053642 -0.017222149348390267 0.021798316899278025
-0.02945488545286834 -0.017248822885510835 0.0203178929867025
-0.0244553276131525 -0.017075058922597936 0.022344746679654803
-0.02151079241344922 -0.016986866467780005 0.02288835474786921
-0.02051277430126558 -0.016980213869418642 0.022004674564960136
-0.020419767935139 -0.017011694614449867 0.020447177682984596
-0.02003735856123895 -0.01703107832625354 0.019100686996741167
-0.019633528062515226 -0.017049636169882414 0.017766619295189967
-0.01941626566382637 -0.01707618830388249 0.01628752768569458
-0.019210437306961925 -0.017103338274464617 0.014794589842116457
-0.018858503321366404 -0.017124377001137014 0.013408364276048801
-0.018499642172704056 -0.017145208773778675 0.012023393539278282
-0.018289090609858394 -0.017172475000079932 0.010519484419780512
0.0023487936212484573 -0.016641462100903486 0.010326212586308225
0.0054032261754196065 -0.016543694828583998 0.0111788482373541
0.00796366466999826 -0.016467192199309907 0.011643014349329017
0.010047382706954155 -0.016411332947293165 0.011726674498354572
0.01197383532880808 -0.01636216505712403 0.011690263527868394
0.013679801216782084 -0.01632252636382079 0.011478716691873114
0.014789520896462294 -0.01630912195735504 0.010772186231969405
0.029841510982678066 -0.015711278944209296 0.020307013308814015
0.031283862798920314 -0.015681608649671115 0.019951544818133382
0.032228732970609186 -0.01567403556045236 0.01917350382609717
0.03314470446129891 -0.015667723034894995 0.018371975394025852
0.03415228686161914 -0.015657270998509044 0.01765149511266778
0.03498690642162455 -0.015654552301507366 0.016781768466617497
0.035859502969453894 -0.015650109480430267 0.015946012465503756
0.036624735670552244 -0.01565049758804639 0.01501620873348053
0.03693320657731891 -0.01567157047868883 0.013680210483849098
0.03710201634018678 -0.015699076258595464 0.01221503893021525
0.0357280386407442 -0.015796880358400406 0.009358022949764622
-0.04083143626470853 -0.016226927031011723 0.01869522666615564
-0.03745059157178904 -0.01613057317304139 0.019462892472698334
-0.03656847423088483 -0.01612987841376241 0.018446213346792528
-0.0362320097142404 -0.01615020002017412 0.017033556835575614
-0.035561612699459844 -0.01615771556651619 0.015860461209466936
-0.02435000643945412 -0.015757518935231456 0.022422042224932326
-0.021073301042607018 -0.015663226741844435 0.023211180229371742
-0.019646038651110864 -0.015640377960180533 0.02264771977277852
-0.01937003467749715 -0.015662244134887936 0.021230223838412388
-0.019260533837648475 -0.015690695991660016 0.019683302547344184
-0.019018041678187103 -0.01571406891190136 0.018230733884133876
-0.018530145142213517 -0.01572792795443751 0.016959334570880003
-0.01815220299409176 -0.015746161000655977 0.015601222068860443
-0.018134036028639333 -0.015778621862938578 0.013963567288419576
-0.017847415859903293 -0.015800638471607325 0.01252593038859312
-0.017402896426030823 -0.01581651133570179 0.011205971492195155
-0.017061384563426762 -0.015836528863718616 0.009802437771491757
0.005100513468282775 -0.015283344773562576 0.010930168973366072
0.007857070923026899 -0.015204805170269124 0.01155498143186462
0.010411280790408872 -0.015134142463550623 0.012028805551065502
0.01234117108640087 -0.015088584561398458 0.011996868258441429
0.014185397230022934 -0.015046322138816726 0.011902962139929196
0.015886936283273922 -0.015009708133370209 0.011697907819481379
0.01687018931029327 -0.015002363777001416 0.01089173782721925
0.030226984863741202 -0.014486890246380543 0.020635630066172472
0.031240156862716473 -0.014477129721758646 0.019914088519961792
0.03225486826318302 -0.014467262577391353 0.01919602025425149
0.033303878358920236 -0.014455933969071277 0.018509832688941963
0.034358931604324905 -0.014444304728584361 0.017831409597466985
0.03543142560623225 -0.01443189962374513 0.017170826400853267
0.0365211385005047 -0.014418722698655144 0.01652814617831838
0.03697658077069349 -0.014431939350508072 0.015327404587089699
0.03727758725749952 -0.014451670398230114 0.01398640518392641
0.03761469329043843 -0.014469977699288284 0.01267326262507562
0.037857271539424364 -0.014492336257677905 0.011271089500698717
-0.04074618439140504 -0.014871691289973924 0.01875610999607813
-0.037665445542267195 -0.014793914302754688 0.019308611252925878
-0.03698584012623629 -0.014800429202754734 0.018144872063067252
-0.036606868078680854 -0.014817586699378226 0.016761426033365168
-0.035995500404016945 -0.014826592023336676 0.015543757226474386
-0.024331642043273316 -0.014443741202093175 0.022435519913858948
-0.02096709248750317 -0.014354184140025547 0.023289551667590225
-0.01884881291590995 -0.014308627888424352 0.023239194449606315
-0.018507599622644366 -0.014326286080625044 0.021873555321998694
-0.01841115621087286 -0.01435276951264988 0.020320332495884663
-0.018309552520104744 -0.014379178953203052 0.018764978284574296
-0.0177834854212931 -0.014390459348855467 0.017525410098046423
-0.01732257445818003 -0.014404131450799105 0.016233601027994482
-0.017338810123324777 -0.01443506474265496 0.01457299689632352
-0.01720091763669196 -0.014460559813906046 0.013024053775834543
-0.016408791689437763 -0.014462474487570785 0.011976051078307792
-0.01635326723774111 -0.0144911244692042 0.010353930641237075
0.007461710565176194 -0.01395242608185724 0.011228463913339537
0.010178812482521227 -0.013881619130978977 0.011835795755802958
0.012738653106658282 -0.013816371288821828 0.012328635218803008
0.014650549316059358 -0.013775067839185027 0.012293271101999181
0.016412759016955936 -0.013739193192887115 0.01214146407140193
0.028877556997171816 -0.01330118657468658 0.02107415479722652
0.030214311772822078 -0.013280126423347745 0.02062482624716383
0.031226557245037256 -0.013271215279850614 0.01990243355088761
0.03235550115889391 -0.013257852678450595 0.019282718857675685
0.033484100450089815 -0.013244443960685229 0.018665919398786035
0.034716856043699396 -0.013227020359650083 0.018143035193472712
0.03596926592626226 -0.013208771218637467 0.01764156208809764
0.03724764402698477 -0.013189450174661756 0.017167355138028417
0.03761076142012354 -0.013205033097889719 0.015888317296866072
0.0378949887696895 -0.013223708508898532 0.014535347333506754
0.038211374054721914 -0.013241232824033666 0.013206567787962087
0.03851434263993664 -0.01325935234442505 0.011861452698991692
0.03854405640425396 -0.013288094236763904 0.010265100669912763
-0.04065965603342525 -0.013516958792132269 0.01881790493808222
-0.037877926640306814 -0.013455805835505012 0.01915603393303189
-0.0371915978001261 -0.013461527074912114 0.017996313490656668
-0.03642711097506829 -0.013464762971703226 0.016891921840447244
-0.03582622891169146 -0.013473274993601085 0.015667312135414002
-0.02424229228012098 -0.01312779371335633 0.02250109398999922
-0.020921246959689888 -0.0130477774527701 0.023323381145329614
-0.01824192800682628 -0.012988199760398484 0.023689452186684334
-0.01730233751312804 -0.01298480292963074 0.02277261787362217
-0.017037201769875943 -0.013003314015693655 0.02135079303458265
-0.016896462084059205 -0.01302595438059282 0.019830535384723236
-0.016639450380674103 -0.013044894646125212 0.018392753307503285
-0.0163076609912306 -0.013061468690383835 0.01700721222150936
-0.01590457493854841 -0.01307577565608104 0.015672137883128434
-0.015692931318078807 -0.013096431265668583 0.014185949085012695
-0.015390907861469905 -0.013114199331602473 0.012764551050291173
-0.015144310982069253 -0.013133871038580991 0.011295484718015891
0.009683852928658865 -0.012636406681957564 0.01142484923572773
0.012739717596359501 -0.012560301426884898 0.012329523718142554
0.014995482635968338 -0.01251106294208811 0.01258270453703808
0.026145651312092566 -0.01215858152924931 0.020351617323138893
0.028953990933206664 -0.012089378019219325 0.02113897185186009
0.030129476107839392 -0.012075745220735786 0.020552503782518328
0.03127609364843781 -0.012063042325367323 0.019944886600914202
0.03243383871244693 -0.012049900842509181 0.019350209278583663
0.03378534031532171 -0.01203002690816481 0.01892681715628497
0.03512856589818719 -0.01201035048282972 0.01850148886322034
0.03667366988724213 -0.011983601576484643 0.01825807979850469
0.03789171426289556 -0.011968074855337454 0.017734034193412074
0.038321087475734594 -0.011979888572072318 0.01651657820806801
0.038590600055124935 -0.011997323493331304 0.015153827118152607
0.03887225496510749 -0.012014412768807848 0.013797254169456208
0.039192586600041435 -0.012030225656724867 0.012470839222304353
0.03959992591461564 -0.01204305866625256 0.011218749875570477
-0.04059805889265922 -0.012163494261824054 0.01886189504525776
-0.03738074661550711 -0.012095920286384215 0.019513046375026266
-0.03585068939393338 -0.012076714031453438 0.01896445934296659
-0.03570704351027121 -0.012097483246464187 0.01741465937395098
-0.035507439908829985 -0.012116718335746438 0.01590000309641626
-0.024130965938638782 -0.011811784690811197 0.022582796747065592
-0.02078980039371714 -0.011739178437647022 0.023420375746320943
-0.017721328323996366 -0.011674213995303023 0.02407569351779354
-0.01642622592676307 -0.011660747081786323 0.023426151335036893
-0.016213776974017824 -0.011678894877225596 0.021968358459897364
-0.01594725912956152 -0.011695533668364495 0.02054629279263398
-0.01582966840733052 -0.011716617139762688 0.019006684586513833
-0.015455916141462245 -0.011730248478923998 0.017656449197130497
-0.015150265780552008 -0.011745946239434315 0.016250210517990915
-0.01487593062793846 -0.011762636024395555 0.014815443701610032
-0.014509119111182855 -0.01177665687035398 0.013447625469780344
-0.014178353303306912 -0.01179180727215763 0.012047787695205925
-0.014111459520469438 -0.011814872346360061 0.010437063817221037
0.012254741811389136 -0.011319077000965735 0.011924728195758072
0.014851047944106022 -0.011264375697389507 0.01246150943470492
0.027598625585349257 -0.010898171570497711 0.0215772695848237
0.02887461657136281 -0.010882879374303045 0.021071661274712883
0.030089481936152296 -0.010869402414229254 0.0205184087227524
0.03129454482041699 -0.010856168592479972 0.019960699386528613
0.032654156618689034 -0.010838095563670032 0.019540020519188406
0.034115817090112355 -0.0108167787929304 0.019213036410107798
0.03567854289461703 -0.010792227238817592 0.018980324311286878
0.03716315916576268 -0.010769998796757423 0.01868649705050668
0.03867931999434032 -0.01074668677840321 0.018427001585824943
0.03915176128534059 -0.01075591708558614 0.017251282898135656
0.03950557846706376 -0.010768907474276996 0.01596734993329396
0.04108939998275135 -0.01074331021522033 0.015778908272546632
0.042325834300401766 -0.010728537048351992 0.01528598986884283
0.04293433431977023 -0.01073351551838441 0.014230349221615313
0.04078345280764317 -0.01082580208993339 0.010667913849575827
-0.040529929731304204 -0.010810256049340246 0.01891055004892378
-0.03713905532565198 -0.010745747817829344 0.01968659879727963
-0.03524436030950234 -0.010719317941095314 0.019402233456034867
-0.035266932542317275 -0.01074201602274065 0.017734160716677272
-0.03531923401314535 -0.01076557301958762 0.01603737863428001
-0.02398914364655358 -0.010495706961592766 0.022686880579540047
-0.02074881621489394 -0.01043376621397599 0.023450618027984982
-0.017393223960770754 -0.01036858298777017 0.02431911945556231
-0.015644773453374783 -0.01034483095744403 0.024009074044669676
-0.015246178100192687 -0.010356079644471458 0.02269405388837309
-0.01519870079891289 -0.010376524588717328 0.02111075181362232
-0.015183017096139395 -0.010397885512426404 0.019496939345969855
-0.014640942121564748 -0.010405562295352036 0.018277657846683226
-0.01406730763096925 -0.010412443875910414 0.01708014671104735
-0.014082424032058838 -0.010434825280344248 0.015426836245543973
-0.013994266507552644 -0.010454581895713523 0.013846454149815945
-0.013143592483612243 -0.010454300472018244 0.012853675636728734
-0.012944324800053253 -0.010471244143179235 0.011350933487922543
0.010376472843951823 -0.010112371779769942 0.010356990400563093
0.024273922339738074 -0.009756514027667258 0.02036824023411693
0.02754049731745789 -0.009688847935821096 0.02152823565193157
0.028765786479983235 -0.009676643288461328 0.02097937182391829
0.03004557545772457 -0.009662892994293638 0.020480978418711715
0.0314052112144273 -0.00964689141748872 0.0200555412732758
0.03290313000512268 -0.009627016849780696 0.019754519413820226
0.03456537355387107 -0.009602525925297763 0.019602388175265162
0.036191618904158285 -0.009578920519369264 0.019427032050911786
0.03774759017571505 -0.009557155292022694 0.01919801045489683
0.039252428152584506 -0.009536711553206371 0.018931245333849156
0.04028520305277722 -0.009529301496428295 0.01825377626294894
0.040770940930882016 -0.009537101876013544 0.017092405148048495
0.04205636511239497 -0.009522603368926697 0.016643168571920275
0.043053971088327814 -0.009516096003577713 0.01594020394488377
0.04363747226986664 -0.009521176691410518 0.014865415336316912
0.0436351561883776 -0.009542752115572702 0.01325703640981063
0.04257547436326414 -0.009594223161407804 0.010676329133583129
-0.043904641579819825 -0.009514827503387715 0.018165697650673218
-0.04040682876561502 -0.009456224892111178 0.018998463620994444
-0.03728248560748254 -0.009405739078184396 0.019583605127747317
-0.035614114867519586 -0.009387694745658542 0.019135267912330445
-0.03571606130169619 -0.009409356272526054 0.017408112851190816
-0.035556452781680736 -0.009425217893589024 0.015864227544616305
-0.023874291135951298 -0.009181152076499615 0.02277117120336969
-0.020634345682121857 -0.009126957178440793 0.023535085990836146
-0.01741222983275581 -0.009072940744457829 0.024305018691507863
-0.015090983829432303 -0.009039153304040334 0.024422172165346645
-0.014397199569824326 -0.009042253373145457 0.023330784516145342
-0.014065833332898237 -0.009053629574188378 0.021965003559404284
-0.013825380280393373 -0.009067130685407319 0.020526223442380753
-0.013415887993126874 -0.009076818257606556 0.01921144739355929
-0.013124392996378853 -0.009089254000626873 0.01780275910609752
-0.012876869575622951 -0.009102753277047364 0.01635570943928749
-0.01260620361898529 -0.00911577644400787 0.01492171197263803
-0.012222685655349452 -0.009126249071310665 0.01357089230558367
-0.011872497575953433 -0.00913753742899344 0.012190177128954538
0.02591962634856121 -0.008497787797414608 0.02174914992546434
0.027427141791229515 -0.008480445314624042 0.02143261492439802
0.02870104498094972 -0.008468610260296001 0.020924470120596395
0.030007514338888153 -0.00845594306759282 0.020448531287873717
0.03153908265808952 -0.008437816229745088 0.020170270052613404
0.033160416209518706 -0.008417449603216443 0.019976180078992156
0.035005179205414405 -0.00839160531469667 0.019983294959082354
0.03661976407501022 -0.008371208840015437 0.01979979506837115
0.03826699750220597 -0.00834993089619053 0.01965261297480797
0.03983858861562534 -0.008330394227203919 0.019446973027785364
0.04127933023881969 -0.008313953588382874 0.019133050290446596
0.042174346598534085 -0.008310745511151766 0.018340196915194507
0.0427192596499853 -0.008316078608565477 0.017235654706060533
0.0434598158180301 -0.008316643956507257 0.016304846055076427
0.04402807939357767 -0.00832144119671466 0.015218207200837774
0.04429360572662605 -0.008333708328839612 0.013854856844352559
0.04444719563581884 -0.008348791211634678 0.012384603753022305
0.04515481032547791 -0.008350250066380757 0.011416799069531969
-0.04380770502886083 -0.008153714656489612 0.01823454758921267
-0.040325673667195805 -0.008103782140031067 0.01905642120527362
-0.03719331472905496 -0.00806035163848877 0.01964763648756518
-0.036300144884353014 -0.008059781657149028 0.01863994913269562
-0.03650727137225762 -0.008080401722665016 0.016833728892758304
-0.035910201485621185 -0.00808558570492002 0.015606018744644123
-0.035497077995139126 -0.008094348774110954 0.014241170858911745
-0.02050669725617771 -0.007820632249948698 0.023629277939100524
-0.017409854000059954 -0.007776760211530024 0.024306781360240115
-0.014611493295888012 -0.00773851412559839 0.02477984704715358
-0.013685257473256662 -0.007736618543848086 0.02386473834638919
-0.01336764730263279 -0.007746609337755091 0.022491478767782347
-0.013264968559247081 -0.007760851250995598 0.020951096181045514
-0.012999819163898807 -0.007771964550642407 0.01952859315430172
-0.012483793258695919 -0.0077781908342553965 0.018293689349127062
-0.012199314226712221 -0.00778900672394316 0.016877762174044353
-0.012055103448727289 -0.007802638631106544 0.015348619697143295
-0.011565664753220795 -0.007809495758713826 0.014082590479959967
-0.0111858527362097 -0.007818556315537151 0.012727821912036363
-0.011151194236442619 -0.007834515663573894 0.011097504033744987
0.025835267757692737 -0.007285538773428106 0.021678364659672877
0.027222919560245196 -0.007273127767921861 0.02126034384988601
0.028620575601912 -0.007260457332304529 0.02085623095344108
0.0300885063552922 -0.0072462883063736 0.020517577039376345
0.031677697013796025 -0.007229561665139033 0.020289063541305496
0.03351633070000126 -0.007207617025581373 0.02028281230939044
0.03528855135455505 -0.007186947829338904 0.020228717848883304
0.03707900824435678 -0.007165809156818775 0.020199634314427783
0.038696610417754906 -0.007148164904509863 0.020028624447950616
0.04028948545805655 -0.0071309564714208 0.019843690314966078
0.041813598036899824 -0.007115105031804084 0.019605593245891118
0.04327482442926617 -0.007100496890196188 0.019318650407841143
0.044582777286984177 -0.00708903369153576 0.01890124145936395
0.04592018859538821 -0.007076900498866823 0.018515434134055597
0.047004905896232074 -0.007070029458275537 0.017906842682569535
0.04834541640766726 -0.007057733151726351 0.017533582519314694
0.04952890113659775 -0.0070487000495979245 0.01702255314096529
0.05046734552126114 -0.007044816862738957 0.016290793361857236
0.051237223305648616 -0.007044495034660688 0.01540533204652228
-0.04371612052920765 -0.006793304267935159 0.018299596191725387
-0.04026809859616509 -0.006752233358582826 0.019097538918105506
-0.037596823730572715 -0.006723409611902089 0.019357886845960792
-0.03690954104219457 -0.006726245700902052 0.018199960569790674
-0.03688780429651717 -0.006739775855008399 0.016557478607931886
-0.03617784633251475 -0.006742292809870894 0.015410659004904181
-0.03567678059119794 -0.006748186918332342 0.014109286550539502
-0.020406802473147245 -0.006515580190984906 0.023702990436262006
-0.017242428822193734 -0.006477923883453639 0.02443099680964017
-0.014313569841436058 -0.0064439300950311145 0.02500208237591167
-0.013128745427982869 -0.006438137837319925 0.02428212023683135
-0.012697593331379653 -0.006444595447435479 0.022996740673417948
-0.012618414206781836 -0.006456824325809085 0.02144127743183316
-0.012352773695859354 -0.006466055192468558 0.020021799356691516
-0.011801986874687365 -0.006470651781283104 0.018816198732304668
-0.011553333493727058 -0.006480229805936714 0.017375486837863052
-0.011395337706178621 -0.0064913404074652846 0.015859704808450947
-0.010960037970506431 -0.006497924567849559 0.014554262108768645
-0.010529713302282584 -0.006504618936054622 0.013241580879127524
-0.010390481786181183 -0.006516163239867687 0.011696342669624493
0.02372368234656258 -0.006093857940190643 0.02149752733131932
0.0256803411893492 -0.006073915674281312 0.02154836582724262
0.02700956785760278 -0.0060645741921374315 0.02108037163586196
0.028476227989413683 -0.006052845427461046 0.02073382214433228
0.030093384205609197 -0.006038490130315119 0.02052173541023572
0.03181426570110407 -0.006022292927057451 0.020406103877630866
0.03364120988720182 -0.006004201440745956 0.020390399903392975
0.035489589397455334 -0.005985660651484828 0.020402832833712026
0.03734924996932015 -0.0059668428461950255 0.020434919277797448
0.03908768727244499 -0.005950038490375222 0.02037090788246071
0.04072897022970845 -0.005934843729438434 0.020230366800494115
0.04230003121476972 -0.005920801341211271 0.02003582799393866
0.04379579978776971 -0.005908007373467215 0.019781858429734234
0.045322482186124 -0.005894616379467948 0.019562379651404393
0.04676440567859058 -0.005882647962658137 0.019273943672679927
0.04817708942853727 -0.00587113827598578 0.01896554537594014
0.04962807520251877 -0.005858903483010777 0.018698135903537416
0.05095749070249289 -0.005848754536308629 0.018326392196918007
0.05225667148329244 -0.005839093265975913 0.017932413455588048
0.05351727529166994 -0.005830070602873815 0.01750810843335221
0.05493659671774265 -0.005818192139524418 0.017235860944979364
0.055995508982154385 -0.0058126654057348345 0.016634230364997726
0.05642036355815533 -0.005818409088691794 0.015441655610340055
-0.043672333138616626 -0.005434085768521879 0.018330696526131396
-0.04013861192704321 -0.005400134252741482 0.01919001289306016
-0.03807505208714257 -0.005384843104760718 0.01901448311915427
-0.037531085179758505 -0.005388961013962066 0.017751201075084655
-0.03701739464684328 -0.0053934846784166315 0.016463401672912437
-0.03631244435298908 -0.005395566116454648 0.01531241301005476
-0.03585145967410136 -0.005400801781943212 0.01398108901449352
-0.020203555052236977 -0.005209838114899219 0.023852966986412483
-0.017103607797050335 -0.005180541751859203 0.024533990375148806
-0.014211627811030025 -0.005153821452015225 0.025078125803520424
-0.012790458723783649 -0.005146112074973587 0.02453583396200454
-0.012181109250832156 -0.005148947291875009 0.02338620143622755
-0.01197163502361459 -0.005157015151921832 0.021931629136650366
-0.011688010425594475 -0.005164146798652955 0.020528510838666636
-0.011330086048446986 -0.005170334355688969 0.019177844817502843
-0.011047173322954906 -0.005177533591422802 0.017765480514101373
-0.010667698616843524 -0.005183491914668463 0.016423367758770346
-0.010301364748313446 -0.005189648889479819 0.015067247135903628
-0.010022968621446027 -0.005196994775598597 0.013638363346913818
-0.009741443999498278 -0.005204330490963939 0.012207270159608263
0.023894988803171535 -0.004872762007120213 0.021640511968366916
0.025342214620678927 -0.004863730382316009 0.0212646439349245
0.026837515040984194 -0.004854004050322652 0.020935236978146976
0.028364203964178214 -0.004843806330463902 0.02063882419262858
0.030007514338881103 -0.004831967467195994 0.020448531287867777
0.03176294382709105 -0.004818538369800265 0.02036212066659082
0.03351729164983458 -0.004805064805720549 0.02028364019979273
0.03541720438114221 -0.004789525888587798 0.020340141634397846
0.037448358660943204 -0.004772105663172043 0.02052120789544626
0.03942926838154448 -0.004755303332718013 0.02066987099874895
0.04113115155258085 -0.004742296414154776 0.020584222202329305
0.04276297802417994 -0.004730205293465852 0.020445289792531796
0.04440844455284004 -0.004717869983915799 0.02032657127482257
0.04590919793843434 -0.004707500111025705 0.02008677822193594
0.047541325249791044 -0.00469524494110297 0.019971987952077885
0.0490692252835091 -0.004684396529935685 0.019771312225994542
0.05061319350639215 -0.004673273201657089 0.019592545905043945
0.05222220979576453 -0.004661182931080863 0.01948067064608433
0.053752847290862105 -0.004650144697286688 0.01930508245027024
0.05533453266235333 -0.004638333678489712 0.01918407280227602
0.05710578641458225 -0.004623779397627468 0.019246849117672493
0.059141017676348606 -0.004605404994340403 0.019565562584318075
0.06085402308344273 -0.004591538787599038 0.019594993061442467
0.06170836587922157 -0.004589874665805901 0.01882536275065566
0.062154369640230855 -0.004594049310941962 0.01767035514807963
0.06267282958446979 -0.0045972034212087955 0.016581413980747584
0.06296790067165958 -0.0046035852847146515 0.015276634019416035
-0.04355428465871586 -0.00407443678873919 0.018414541376246596
-0.04001573828808719 -0.004048924657717718 0.019277764117865526
-0.038416567476377894 -0.0040419077121613585 0.018769249527682663
-0.03780358967846564 -0.00404433966057042 0.01755445079822704
-0.03710296810382874 -0.004045937608101323 0.01640127908020428
-0.036404383043245336 -0.004047561816549584 0.015245304979360552
-0.03594209140628607 -0.004051477765400676 0.013914574097191823
-0.02012423591482454 -0.003906609959963028 0.023911496686502887
-0.017063284699691983 -0.003885014758022219 0.02456390673374792
-0.014135498358848309 -0.003864625295634311 0.025134914396633734
-0.012471366500223902 -0.003856472576158913 0.02477515190062929
-0.011869307874039614 -0.003858663716626909 0.023621318851505868
-0.011813182057356986 -0.0038662097998986952 0.02205175928950609
-0.01163436622992603 -0.0038725837131488223 0.0205694007781419
-0.01103397304798548 -0.003874839024144568 0.019404774081955234
-0.010613355711361516 -0.0038788753653883723 0.018099734639439036
-0.01068287903689985 -0.0038877688399888135 0.016411608302081604
-0.010167093046404896 -0.00389090794627238 0.015171820041445017
-0.009610813412577746 -0.0038936588255735786 0.013961082000054414
-0.009396710248228246 -0.0038998219370416686 0.012478647194756387
0.02367055418151448 -0.0036568554100521507 0.021453182759919143
0.02509916443096205 -0.003650276532916279 0.021060700600847138
0.026515706225862246 -0.003643792190690418 0.020663776079393237
0.02817733985861265 -0.0036347688457237276 0.020480360798384833
0.02982978719924234 -0.0036258001102805206 0.020297018775109144
0.03152647592932689 -0.003616336658955021 0.020159465996402393
0.033346159295888356 -0.003605563176089377 0.020136203956574006
0.035287598013836186 -0.0035934837664765226 0.02022789217975912
0.0373700203073119 -0.003579890591082885 0.020453002896136607
0.03961147900014861 -0.0035645861625062236 0.02082934777573553
0.0415851375251442 -0.0035519994553228768 0.020983657431199676
0.04311441824002882 -0.0035439897396331026 0.02075612753880074
0.044852118999397395 -0.0035337662360053926 0.020721049745636766
0.04658615396404281 -0.003523535241657217 0.020691832323081027
0.04826710689154606 -0.003513815412254042 0.020624085983713736
0.04996285242845716 -0.0035038961404417947 0.02057842599201465
0.05159073997420871 -0.003494647550896148 0.020480081274465767
0.053435297432151974 -0.0034830673149333384 0.020587826316526503
0.05503486003128072 -0.003474029493316421 0.020481267181140017
0.05691322163749657 -0.0034619908110427693 0.020640017631355423
0.0588135977721006 -0.00344966299675415 0.020830107809230947
0.06090829629046807 -0.0034352064792482415 0.021212507878618503
0.06253550932936713 -0.0034256806933755934 0.02117016584114717
0.06401237702101686 -0.0034177219040330514 0.020994958255573626
0.06494123282128811 -0.003415611142464418 0.02030831260236121
0.06537093771248809 -0.003418862978984561 0.01914866352520317
0.06570867446331147 -0.003423121984177275 0.01789805765349678
0.0659892238101642 -0.003428019080547358 0.01658854029558693
0.06627223620565992 -0.0034329122262769093 0.015276874292259546
-0.043461483419791724 -0.002715700266396738 0.018480454177280836
-0.03987204056703797 -0.0026983662114620933 0.019380387033007818
-0.038637613779798075 -0.0026960184724509765 0.0186105217497321
-0.03819869860864561 -0.0026987578990564295 0.01726917920905824
-0.03731705436834126 -0.0026986662174145 0.016245861801491568
-0.03649895359961408 -0.002698982962575305 0.015176275892891333
-0.03598612668604351 -0.002701269064212364 0.013882256464936349
-0.019990905898716438 -0.0026035453014342925 0.024009881087927787
-0.01705854134018675 -0.0025899791318758714 0.024567425908940788
-0.014004389891966285 -0.002575566345057109 0.025232714461734695
-0.012277135505889436 -0.0025697190817006075 0.024920824398262098
-0.011592821818579901 -0.00257064136421687 0.023829806342449245
-0.011405982655973701 -0.002574815014923126 0.022360475039587935
-0.011281378270195541 -0.0025794133363393926 0.020838463556118736
-0.010741793967131319 -0.002581310643064911 0.019628688546376838
-0.010315368963474736 -0.0025839593408215726 0.018329331818334738
-0.010200015343445723 -0.0025886670970965715 0.016785656890239753
-0.009879010460435544 -0.0025920380996643302 0.015396183273775232
-0.009313618230599785 -0.002593807735830598 0.014193786638462713
-0.009004800770838484 -0.002597284785325398 0.012787161320886031
0.023386603687875818 -0.0024398299757723172 0.021216177342399556
0.024826835295436056 -0.0024353692535214475 0.020832189312992244
0.02630646654278257 -0.002430620529174766 0.02048727254762317
0.027911457143717455 -0.0024249949012458377 0.02025488851013807
0.0296088438220366 -0.0024187121793856664 0.02010866438913378
0.03133435391257583 -0.0024122088609376145 0.019994816061638554
0.03317582210107978 -0.0024048796992541424 0.019989452769531457
0.03514262941756746 -0.0023966545796865273 0.020102337809174198
0.03727275584228085 -0.002387265300614675 0.020368319947583424
0.03965350016315039 -0.0023760999899689193 0.02086612609135785
0.04178580348416566 -0.002366607940010199 0.021160211461747513
0.04363930325054405 -0.0023590114113951934 0.021220371715651165
0.04535100133715747 -0.0023523687198549986 0.021164614488305256
0.04714325286365939 -0.0023451337853963744 0.02118975975293652
0.04897188320190726 -0.0023376117365366622 0.021257311210544694
0.050740086759813174 -0.0023304795832218856 0.02128041510661055
0.052648622466813066 -0.0023223287528359574 0.021440555440952913
0.05443768709737823 -0.0023149827220444582 0.021502683057753158
0.05633625363623168 -0.0023068301215306416 0.021675232918559384
0.0583880257111159 -0.0022975561406466255 0.022000154680957895
0.06036168311511003 -0.0022887939807366663 0.02226528949004347
0.061991136031116056 -0.0022824389726831544 0.022221617478595357
0.06350503436872246 -0.002276878297007264 0.022078391795975094
0.06483706322634614 -0.002272591068411661 0.021771532401242077
0.06604971378435809 -0.002269138715636069 0.02135756598492239
0.06687259221954006 -0.0022684671703249665 0.020577487599793
0.06730988654057202 -0.002270565595710137 0.019429543103077263
0.06757652234176426 -0.0022739039435995174 0.01811461794875796
0.06789239734749081 -0.002276902028682466 0.01684264794193785
0.0681088654424864 -0.0022806339850320145 0.015469939894584783
-0.047408349791322024 -0.001367617408904195 0.017349196071784145
-0.043412447646216545 -0.001357694011800736 0.018515282216482576
-0.03995040903792196 -0.0013494331290277953 0.01932441954181424
-0.03860639318669418 -0.0013479094267473295 0.018632940470574788
-0.03819869860863856 -0.0013493789495281922 0.017269179209063346
-0.0374287252447959 -0.0013496915839210737 0.016164793621944618
-0.0366078272977397 -0.0013498416999125351 0.015096806635114812
-0.036022397985187415 -0.001350751449274203 0.013855636842814711
-0.019932076558534573 -0.0013015826260718232 0.02405329133858969
-0.017014670596181003 -0.0012948475642188396 0.024599974324009788
-0.01389208008305648 -0.001287418887921917 0.025316491710329403
-0.012155111875748081 -0.0012844629218737435 0.02501234165087063
-0.011430363744657945 -0.0012847915316685922 0.023952309722083287
-0.010974107606540884 -0.0012859978740259424 0.022687898482192215
-0.010912755878505154 -0.001288500960791016 0.021119443578237307
-0.010472117089462218 -0.0012897713913462361 0.01983535821435456
-0.010018994407229587 -0.0012910061811911718 0.018557686812283036
-0.00969741875337543 -0.0012926791974684313 0.017174991494347314
-0.009472681483204737 -0.0012946787381823645 0.01571263864859146
-0.00904710848179302 -0.0012960228942918977 0.01440246449897048
-0.008740471370433822 -0.00129776676586217 0.01299524343852032
0.021010469578211233 -0.001225303399020208 0.020828918032942068
0.023033800763474443 -0.0012211117257980655 0.020921702755198113
0.02446508514075535 -0.0012189143958258573 0.02052864487743955
0.026104928166208796 -0.0012159968943650436 0.020317265430766118
0.02770833035515957 -0.0012131910108857283 0.020082634131592225
0.029361176388331578 -0.0012102035904957315 0.019897527726014108
0.03112549858583369 -0.0012068206944061176 0.019815825561201816
0.03296965595152035 -0.001203148453163116 0.01981183374034745
0.035045280069150475 -0.0011986626253569562 0.020018025506496673
0.037248194993788675 -0.00119371744185095 0.020346936135225813
0.03980375836802891 -0.0011875301041214049 0.020997637056050178
0.04219196063691982 -0.001181895540688861 0.021517564959591673
0.043976135418750006 -0.001178335064967343 0.021518289106189747
0.045840256551991476 -0.0011744801746084738 0.021599619592798325
0.04776138901626342 -0.0011704089546880024 0.02174224145049286
0.04959893093546802 -0.0011666118963058571 0.021820699107499397
0.05154192593768636 -0.0011624279193312248 0.022004627035774105
0.05347627575698671 -0.0011582554226552495 0.022191999584869893
0.05543659369660858 -0.0011539725533882114 0.022414360889103813
0.05759912259867972 -0.0011489563076024954 0.022833854158341882
0.059688749829877374 -0.0011441752177146595 0.023199746611089533
0.06136427667753436 -0.001140841039367203 0.023194762739428332
0.06285501580579289 -0.0011381485175625532 0.02302667601230829
0.06422108529138226 -0.001135887860366297 0.022749169760998555
0.06542929028135952 -0.001134180586522829 0.022329209025777286
0.06668306606591917 -0.001132302340711915 0.021957077429792304
0.06788540518226627 -0.0011305999687330765 0.021541179006440647
0.06864549500340139 -0.0011304800291415905 0.020706990954119653
0.06901466459863476 -0.0011317685164782987 0.01949729216951629
0.06926994963782324 -0.0011334744120181058 0.018173956921993473
0.06952030361186079 -0.0011352061043604738 0.016841087333098914
0.06981543567491805 -0.001136783354787429 0.015547116574773034
-0.047116177161008244 0.0 0.01755557898990362
-0.04328924534281753 0.0 0.018602787609783844
-0.039878570163742966 0.0 0.019375723867554095
-0.038828940847135784 0.0 0.018473134605996033
-0.03824683817569846 0.0 0.01723442208324788
-0.03746509600968356 0.0 0.016138390034977412
-0.036622088752432336 0.0 0.01508639689209379
-0.036032762366942805 0.0 0.013848030389989385
-0.019828866577816795 0.0 0.024129450124663443
-0.01690918306677064 0.0 0.02467823722949869
-0.013928339845327431 0.0 0.0252894438224624
-0.012012265687094792 0.0 0.025119475742161057
-0.011298175230637586 0.0 0.02405198799183844
-0.01100194197101001 0.0 0.022666796028023684
-0.010889522057856038 0.0 0.021137153407013443
-0.010412884190795002 0.0 0.019880751959664544
-0.009922623716544288 0.0 0.018631939908658968
-0.009929942548190851 0.0 0.01699486778999154
-0.009605315396776615 0.0 0.015609341278271516
-0.008934329207304914 0.0 0.014490770978621503
-0.008650889919365579 0.0 0.013065762639224043
0.020964777533369006 0.0 0.02079098162646903
0.022590561758770833 0.0 0.020551743738664585
0.02407553827589709 0.0 0.020201776231539237
0.025872330257042275 0.0 0.020121058134683623
0.02749015424392881 0.0 0.01989761771539017
0.029176914003380516 0.0 0.01974044391198565
0.030913475565938597 0.0 0.01963412032520384
0.03286937529276679 0.0 0.019725438600835976
0.034908708328472926 0.0 0.019899743482790833
0.03730203537104765 0.0 0.020393812061557715
0.03986158671003226 0.0 0.021048250339029073
0.042433349817280974 0.0 0.021729948928109366
0.04437434399547169 0.0 0.021870491987223573
0.04633713353252067 0.0 0.022041401338361577
0.04828506344592859 0.0 0.022210294543083153
0.05027240425108104 0.0 0.022425799316990125
0.052332005223926226 0.0 0.022718217565981857
0.05436758149955567 0.0 0.0230012351532472
0.05654893943603595 0.0 0.02342957187300826
0.05873588388735196 0.0 0.023876777702099727
0.06055096616762501 0.0 0.023994925039682535
0.06209583972377808 0.0 0.023872972042984775
0.06351587037253131 0.0 0.023642533246256148
0.06473660761324834 0.0 0.023232097724698475
0.06590921352224427 0.0 0.02278113362251244
0.06719381227057425 0.0 0.022440533800013096
0.06851370313203031 0.0 0.022139004426617148
0.0697131442733584 0.0 0.02172814820456448
0.07035267716620325 0.0 0.020783698625754854
0.07073875913091865 0.0 0.019593459674717928
0.07092318260638625 0.0 0.018203919925858958
0.07133922370808682 0.0 0.01703509693790689
0.07144519137387434 0.0 0.015558767204336188
-0.047233267849474125 0.0013670611168351621 0.01747286926468311
-0.04330646288991552 0.0013573565747201086 0.018590558713172944
-0.03967755107636828 0.0013485626150784706 0.01951928331021613
-0.038439961408064105 0.0013473773590534583 0.01875245093509542
-0.03795946514967169 0.0013486125664258777 0.017441907547526225
-0.03731056370013813 0.0013493122729822532 0.01625057374315425
-0.03659745593951519 0.0013498083379263244 0.01510437691291766
-0.03605090126873989 0.0013508433269645785 0.013834718192110185
-0.019734103989493823 0.0013009431548980969 0.024199375568323966
-0.01679309259654821 0.0012941303560297655 0.024764366628395096
-0.013840625986305422 0.0012872519930124092 0.025354873777724773
-0.011998335002419924 0.0012839533428440448 0.025129923702010504
-0.011234431748683493 0.0012841533516179107 0.024100054497740497
-0.010909176046680735 0.0012857859384257588 0.02273712594946775
-0.010751337470588485 0.001287972985904337 0.02124248371049514
-0.010186569809564339 0.0012888354421374043 0.020054190329434285
-0.009856468801880292 0.0012904723400722737 0.018682911912899558
-0.009605647653677218 0.001292377122959999 0.017246081639954003
-0.009293651579392437 0.0012940881923951119 0.015852069943155633
-0.008764701230091876 0.0012950893699427142 0.0146235901476221
-0.008554373964850648 0.0012971502930990643 0.013141740733867424
0.020523510373286424 0.001226951612842069 0.020424613905219102
0.02208353145361336 0.0012243351211584127 0.020128539934265277
0.02364997697273824 0.001221685354723304 0.0198446878823319
0.025528843929726874 0.001217959580568704 0.019831311232979487
0.027215325664558587 0.0012148743361881512 0.019664559208030508
0.028989514530143645 0.0012114753916304586 0.019580685727965674
0.03076938766620968 0.0012080419675878354 0.019510635970355683
0.03274587404198659 0.0012039176029616514 0.019619038145118672
0.03489342090566139 0.0011991857287102462 0.01988650335493991
0.037251973812983896 0.0011937043962140007 0.020350226150252393
0.03999116333155772 0.001186881686097853 0.021161660096001567
0.04267255855240404 0.0011802289734773733 0.021940414452676527
0.04477707885565574 0.0011755514323503482 0.02222669822270279
0.04676675749693143 0.001171252964635933 0.022423387287340446
0.04882852338732202 0.001166683545954699 0.022696031657325755
0.05094669483540404 0.001161896216700889 0.023031633823528963
0.05311745361967524 0.001156902892945431 0.02342762552912553
0.05532320264576962 0.001151764027059536 0.023868864053719574
0.057544465618932505 0.0011465472387316461 0.024338164480340263
0.05955049525027539 0.0011420666862396525 0.0246241442581846
0.061228377743146156 0.001138726959890631 0.024619667402533962
0.0626525387712582 0.0011362718928520207 0.02438907038231547
0.06395382212004358 0.0011342424186073826 0.02405066502804387
0.06510793939383297 0.0011327280008094872 0.02357995172257321
0.06641964474162737 0.0011306438553766202 0.02326178636722115
0.06780388369053719 0.001128290493274362 0.023018008310019322
0.06900838707764423 0.0011265711049495912 0.02260969613865005
0.07027042023761992 0.0011246368945000854 0.022261156943873706
0.07145527096285842 0.0011229719082249865 0.021843766231250727
0.07202362914387528 0.0011235263556552805 0.020835197646087766
0.0723815563748687 0.0011248453650990955 0.019620663145958506
0.07266272768234305 0.0011264491144925967 0.018327499740235953
0.07295590970603838 0.0011280166696588318 0.017041644876518047
0.0731665944615622 0.0011298924006314937 0.015670002843340025
-0.0471444345952346 0.0027335577295955096 0.017535618695443622
-0.043245545506824135 0.0027143252486773674 0.018633825757856604
-0.039531475366233415 0.0026961931632118845 0.019623604485917878
-0.03871698693481146 0.002696525970380649 0.01855352588809922
-0.03809205012003075 0.002698074603334211 0.01734618021183426
-0.037328738076256474 0.002698741229267655 0.016237379939782304
-0.03655079117105087 0.0026993164587878595 0.015138438532739662
-0.03596022245931624 0.002701102064468753 0.01390126765954769
-0.019659764568610738 0.0026014060622855757 0.024254230728769754
-0.01674099226458481 0.0025879234332249934 0.024803020707973855
-0.013778664897915571 0.0025741020359025617 0.025401093511830175
-0.011999495855287645 0.002567914232034249 0.025129053066830942
-0.011217050739273149 0.0025681934780996075 0.024113160847845594
-0.010801390548527301 0.002570868256476728 0.02281884286947633
-0.010453235746438139 0.002573995881654046 0.021469709812146853
-0.010188889661194467 0.0025776860920071224 0.020052412487113203
-0.00990869451471943 0.0025812877674127642 0.018642672283390116
-0.009530171943239296 0.002584257372978428 0.01730454862206976
-0.009178647146162733 0.0025874176804384593 0.015941637197923575
-0.008807675251330194 0.002590462849411417 0.014589941371734638
-0.008456743585389448 0.002593653758590824 0.01321859611231807
0.01998419576276228 0.0024575540686558187 0.01997684103026154
0.021534496353139754 0.0024523949910320985 0.019670275919460467
0.023163967282642695 0.0024466750877557876 0.01943687731157101
0.02518170078114762 0.0024382845550338715 0.019538479630234806
0.02701734432319952 0.0024311006554615386 0.019496668241203385
0.028780295530233202 0.002424382649112258 0.01940232638196082
0.030642726651184615 0.0024169526965210552 0.01940208657964204
0.032626149098646584 0.0024086582073557373 0.019515891104488536
0.03490584203896829 0.002398285884231029 0.019897261047394976
0.03724819499379012 0.0023874348837018902 0.02034693613522709
0.04018115624077051 0.002372448627651476 0.021327948191852852
0.04291877613235945 0.002358750331784456 0.022157046642534928
0.0451379955906101 0.0023485941742011035 0.022545917650146408
0.04732920240748556 0.0023385876864805157 0.022923466590879793
0.04937289002750744 0.0023295662805205676 0.023182579166633632
0.05155843902173701 0.0023195115803783584 0.0235812718369785
0.053945252741387006 0.0023079999697927013 0.024175284181181977
0.05621315118354714 0.002297272248268146 0.02467686738680619
0.058341965527248296 0.002287475836505925 0.025066023308659036
0.0601674070371922 0.002279777168529581 0.02519013100791706
0.06172662887891034 0.002273927612385347 0.02507917917218644
0.06304864374399116 0.002269734013275548 0.024756286959303375
0.06420873996599691 0.002266672444404824 0.024288225616098225
0.06542906012661376 0.0022631676964432676 0.023880769310883065
0.06684592950746188 0.002258243033985543 0.02366320174885378
0.0682395996096517 0.0022534617890000662 0.023430443360505426
0.06956204117586273 0.0022491695778308085 0.02313649794346928
0.07079763822770768 0.002245482099836099 0.0227654166181811
0.07206748291159976 0.0022415306601458527 0.022432365637965135
0.07314242434707191 0.002238969099753445 0.021916435804023193
0.07374790311634133 0.0022397955105153628 0.02094800633062155
0.07407259899400898 0.0022426639791214274 0.019704240323991595
0.07446156250378688 0.0022450782538795825 0.018519550365783566
0.07459354571665994 0.002249378010152407 0.017077926233470708
0.07477771046842518 0.002253316515092789 0.015682019961998306
-0.04325878693526364 0.004071614348250186 0.01862442093041833
-0.039454565362487426 0.004043553634014364 0.019678530400750682
-0.03821652550143373 0.004039989162594165 0.01891289462686979
-0.03818959236060304 0.004048049333134396 0.0172757539879409
-0.03741054222172885 0.004048899643535663 0.01617799370262374
-0.03650154517398302 0.004048499453143272 0.015174384246928019
-0.03576733674029969 0.004049787849037504 0.014042827103903477
-0.019567478000026617 0.003901214808922925 0.024322329114075114
-0.01674691207301754 0.003881942633907561 0.02479862870627969
-0.01379970611668685 0.0038613577997841674 0.025385397862154935
-0.012035485678482338 0.0038522222861481713 0.02510206083805666
-0.011327156355053825 0.0038533661089216018 0.024030134441560047
-0.011001941971023443 0.0038582661748744196 0.022666796028013525
-0.011060354622854596 0.0038669512010250694 0.02100693739470949
-0.01047444031167366 0.0038693370187808276 0.019833577788953505
-0.009995768231443769 0.00387278967340301 0.018575582455209405
-0.009952046631062472 0.003880551998070205 0.01697774494331089
-0.009541314161298109 0.0038847153872113164 0.01565918644338893
-0.008884355024798674 0.003886454691229556 0.014529900899882264
-0.008557861664758082 0.0038914855397266398 0.013138995189931335
0.019374649041427383 0.003692520512616077 0.019470757044204146
0.02091864936861626 0.003684859504619752 0.01915624592139703
0.022569515202841173 0.0036760751482821366 0.018938072767352487
0.02464770265496824 0.0036628847362148607 0.019088027049529277
0.02680526014344964 0.0036488234168799965 0.019316817868726188
0.02855705268144798 0.003638865738363767 0.019212011694830944
0.030499392493861355 0.0036269037271295535 0.019279248187396292
0.032541133346134066 0.0036138639214225365 0.0194426471919506
0.03486570902924374 0.0035978435601989275 0.019862502658989867
0.03740494661098881 0.0035795288623092568 0.020483411353906633
0.040375587701109494 0.0035566547527240136 0.021498121054868202
0.043208635113211435 0.0035351100696574644 0.02241207630281944
0.045502673895804036 0.0035190890061924684 0.02286846406739651
0.04766038738275402 0.0035044207557384716 0.02321792876604961
0.0499314441866448 0.0034884996161107726 0.02368180728768321
0.05227397038636267 0.0034717566708158064 0.024224160231506975
0.05466942179681161 0.0034543814535645035 0.024829345348485687
0.05696577289230864 0.0034379726518138764 0.0253601887513778
0.05892821508355073 0.0034250182823821534 0.025601079063152843
0.060682084525864155 0.0034142143086255267 0.02566232272989688
0.0620607212301611 0.003407344676048291 0.025387295614941963
0.06328616887857869 0.0034020736914769987 0.02497648910993533
0.06454827255474882 0.0033963876975438905 0.024604639561720043
0.06601118253980148 0.0033885292413611398 0.024426086515785428
0.0673215840597906 0.0033822686110773557 0.024111106691632023
0.06866115947201512 0.003375665897474119 0.023829478730776343
0.07006389094471044 0.0033683529857441246 0.023614007935407855
0.07135586320747123 0.00336220111812773 0.023299333047017257
0.07256919907208503 0.003356871026263706 0.022914730993636168
0.07380715800291687 0.0033512493168164773 0.02255885489154691
0.07488131195651881 0.0033473808755975516 0.022049061029097927
0.07545321704921643 0.003348963117783086 0.02105241507692268
0.07572795192334397 0.003353796062607888 0.019762601803346047
0.07597830412187623 0.003358918398823295 0.0184442193997012
0.07625304234058189 0.003363797405737034 0.017145229675207596
0.07644663575504063 0.003369591260087574 0.015760768578014006
-0.04319655937360606 0.005428026643949349 0.01866861853960905
-0.0392331167388581 0.005388578845849588 0.019836679765578125
-0.03746352836950839 0.0053770231555450715 0.019453602884390298
-0.03830409955323061 0.00539886640355487 0.017193078942359774
-0.03734431736390453 0.00539768250311804 0.016226070057310138
-0.036281375600223764 0.00539516635577571 0.015335090762026216
