# .PCD v0.7 - Point Cloud Data file format
VERSION 0.7
FIELDS x y z
SIZE 4 4 4
TYPE F F F
COUNT 1 1 1
WIDTH 763
HEIGHT 1
VIEWPOINT 0 0 0 1 0 0 0
POINTS 763
DATA ascii
0.060786938137866564 -0.03296770412667852 0.029686726581613476
0.060538495387980173 -0.03301493285484979 0.028215046444333536
0.060287942018522445 -0.0330621928483561 0.02674007272521517
0.06003806928251321 -0.033109692883989836 0.025259935125820365
0.05978747753547614 -0.03315732960139614 0.023775538417370623
0.05953616366949549 -0.03320510359137928 0.022286864189944966
0.05928412455872578 -0.03325301544815405 0.020793893927361806
0.059031357059244005 -0.03330106576936902 0.019296609006423493
0.05877926311475029 -0.0333493612204698 0.01779402512708883
0.05676989498718432 -0.033264935880160176 0.017500833636707513
0.05435408738691161 -0.03314936317143097 0.017498573659857464
0.051953637852774515 -0.033034486681556015 0.017497286725615124
0.0495697679982644 -0.03292040363281725 0.017496008680034647
0.047203652689924436 -0.03280720847701735 0.017493788619935058
0.04485241905458437 -0.03269468714392291 0.017492531334758255
0.04251858098609845 -0.0325830362641746 0.017490338319202547
0.04019931795910181 -0.03247204479665784 0.01748910134884063
0.03789710110772099 -0.03236190680524971 0.017486934850113767
0.035609161055768224 -0.03225241421347251 0.017485717761312802
0.03333792705719246 -0.032143758567581636 0.01748357726560934
0.031080679721641913 -0.032035734693087244 0.01748237963702981
0.02883855320025419 -0.03192843444728512 0.017481190031038374
0.026612639197937327 -0.03182194715456009 0.01747908606580928
-0.007095871842155377 -0.02926423246001456 0.0409724071018826
-0.01085848276666418 -0.029031858826157123 0.04227244899139526
-0.01385908221938903 -0.02885807984128203 0.04302210739280726
-0.01677988825095672 -0.028689822330453817 0.04372942167650712
-0.01962729201342378 -0.02852661941219907 0.0443983965816791
-0.022221908123187084 -0.028382614514428757 0.04489076301566691
-0.024552002425470065 -0.028258854262266868 0.04519445304665337
-0.026196435563523357 -0.02818873657557814 0.04498003402042222
-0.02774126687303685 -0.028126206637180455 0.04469544478691878
-0.028772975023820535 -0.028104119243627865 0.044015693078831575
-0.02980684782068649 -0.028081765691414337 0.043339986755513205
-0.03069388512552329 -0.02807101554787593 0.04255044498148147
-0.0317635379908926 -0.02804563880553316 0.04190734961187581
-0.03236931073638938 -0.028057270371960392 0.04089588976186298
-0.03307019924164256 -0.028061324926627076 0.039959679158142025
-0.03419702533796665 -0.028031169106243106 0.039367406188486664
-0.03484539562501604 -0.028039414256974014 0.03838947380265051
-0.0355842923961881 -0.02804038900510776 0.037484627962237504
-0.036326021953539955 -0.02804113885767227 0.03658200414478041
-0.03724533279996062 -0.028027497830938813 0.03582595891171986
-0.03810293192071945 -0.02801881047347777 0.035020154194280284
-0.03868221683440343 -0.02803274281072637 0.03398299149213774
-0.03931080260565323 -0.028042713680169154 0.03298568150879794
-0.040192973613862815 -0.028031993409594703 0.03220119557560813
-0.04057481540572627 -0.028062226105964604 0.03099359473009239
-0.04142330453236576 -0.02805426776393278 0.03018050053497051
-0.04203144587791535 -0.02806605673065396 0.029162299955681092
-0.042669262012616394 -0.028075449937744735 0.02816836858237226
-0.043170968977106206 -0.02809613714057981 0.02705552040308906
-0.04374619476748626 -0.02811082473121592 0.026004395726032026
-0.04443191180904171 -0.02811640250434273 0.02504835045478887
-0.04496286567977004 -0.02813488526018048 0.023955519338929976
-0.04569376980340428 -0.02813677262280294 0.02303748234863162
-0.045855664545096375 -0.028186236122952023 0.021613319100636796
-0.04636442670748847 -0.028206859342372416 0.020493655512713982
-0.04690741177530777 -0.02822470151329258 0.019402431345577953
-0.047309123609471315 -0.02825451405483453 0.018181608624506962
-0.04781205005732858 -0.028275923563485458 0.017049327789365742
-0.04822900520963369 -0.02830469837020685 0.015836169648665632
-0.04854197035917884 -0.028342415448390217 0.014524354702208864
-0.04890189021520547 -0.028376316321125278 0.013251572698896374
-0.04952470880938403 -0.02838799328809153 0.012218668307790281
-0.050209334234113445 -0.02839445047304153 0.011242034025863046
-0.051481547580727816 -0.028350691442369826 0.010815100673913669
-0.052684747167112356 -0.028312646561857547 0.010328180492834238
-0.05364225429984654 -0.02829553293472868 0.009613053208573308
-0.05445683178314881 -0.028290647126876723 0.008763893106155496
-0.05507650765425254 -0.028302559243601765 0.007728880817506445
-0.05564012867904655 -0.028319375441262735 0.0066386017706523415
0.07088283805623247 -0.03450473439224288 0.037814533341201995
0.06831469809493301 -0.03437670088506868 0.037813421441012296
0.06576695362150636 -0.03424972142321128 0.03781142855689584
0.06323796142151811 -0.03412367657376213 0.037809450341014184
0.06072751521934522 -0.033998556055954005 0.037807486632017884
0.05823541175369673 -0.03387434973925386 0.03780553727091546
0.05651930957400797 -0.033809341811450976 0.037313790447016715
0.05626870227659625 -0.03385702484421212 0.03587569858311007
0.056017387092395066 -0.033904842566540326 0.03443354456207942
0.05576536101782276 -0.033952795549925946 0.03298731114811004
0.05551262103228177 -0.03400088436909709 0.03153698100773972
0.055257797866259006 -0.03404900346252265 0.030083444798683467
0.055003619781243185 -0.034097365388788124 0.028624874654076593
0.05474871861916475 -0.03414586489339276 0.02716215521942894
0.054493091290146234 -0.03419450256423953 0.025695268763888446
0.05423673468668988 -0.0342432789925866 0.02422419745542842
0.05397964568353458 -0.034292194773069946 0.022748923360136453
0.05372182113753626 -0.03434125050372813 0.02126942844148083
0.05346325788754708 -0.0343904467860272 0.019785694559570244
0.05320532819051782 -0.034439892814718064 0.018296747797864277
0.051953637852915846 -0.03441092362663203 0.01749728672551637
0.04956976799840096 -0.0342920871175288 0.017496008679938724
0.047203652690056275 -0.03417417549690355 0.01749378861984191
0.044852419054711434 -0.03405696577492981 0.017492531334667993
0.04251858098622091 -0.03394066277519164 0.017490338319115062
0.04019931795921955 -0.03382504666319466 0.017489101348756086
0.037897101107834064 -0.033710319588810836 0.01748693485003211
0.035609161055876914 -0.03359626480570926 0.017485717761233865
0.03333792705729666 -0.03348308184123925 0.01748357726553329
0.0310806797217415 -0.03337055697197391 0.017482379636956702
0.02883855320034928 -0.03325878588259634 0.017481190030968208
0.026612639198028254 -0.03314786161934079 0.017479086065741833
0.024400291204377367 -0.033037574875443766 0.017477915330022742
-0.009549411597627344 -0.030347892955379718 0.04129065065675691
-0.01318528156726334 -0.030115366592416065 0.04251402025935619
-0.01628520723644805 -0.029925597372411 0.04335438227338784
-0.019011334459794527 -0.029765596124556024 0.04392888693998531
-0.021778966934443034 -0.029601519583184067 0.04455131044857025
-0.024092536555424815 -0.029474036235634937 0.04484043707678437
-0.026123518378686372 -0.029369267636397772 0.04492354899077411
-0.0280678348158363 -0.029271201591090056 0.04494978101823033
-0.029312392600414516 -0.029230546794296885 0.04443805851314642
-0.03070226122534686 -0.02917768481922548 0.04404486300883442
-0.031468428009158333 -0.02917635987519351 0.04316344180640197
-0.032383439173639894 -0.02916264986785347 0.042400587221370356
-0.033332119094494295 -0.02914607486558305 0.041666069455498
-0.03402004476584353 -0.029151208767972735 0.04072355232293984
-0.03484111780946253 -0.02914521939283481 0.03988815724581918
-0.03550795807761531 -0.029152142400643066 0.03892801640401555
-0.0364406539993643 -0.02913674513389765 0.03818440455619049
-0.037164893832344004 -0.0291388438043454 0.03727113954109196
-0.03802914019795506 -0.029129130281546154 0.036473284425046604
-0.03840220611576539 -0.029160937029565435 0.035268630434495796
-0.03938683616602234 -0.02914102052435975 0.03457111724864809
-0.04039478602025076 -0.029119035086937903 0.03389525163468471
-0.04084336155054824 -0.029144597267970116 0.032749828445606755
-0.04140311640857186 -0.029160781329769323 0.03169600565041969
-0.0417483526765724 -0.029195388281572813 0.030457604308746278
-0.042414342115392634 -0.029202647442697433 0.029490444754429745
-0.043259657007453156 -0.029194529911599865 0.028677013605049928
-0.04363383690582101 -0.029226948942714548 0.027456400958944083
-0.04432458493977992 -0.029232189610827377 0.026507969001106024
-0.04474031095227965 -0.029261242879070868 0.025318271613971544
-0.04530266956460666 -0.02927771373626969 0.02425449254672396
-0.04567385521698458 -0.02931086844860188 0.023019868527328846
-0.04622774733610874 -0.029328261438947158 0.02194414421701152
-0.04666843543388344 -0.029355612482994876 0.020765374383262203
-0.04709458389480087 -0.029384358369733292 0.019570601169222712
-0.0473335457663806 -0.02942964439650017 0.01820366643592064
-0.04765378947953225 -0.029467993010172323 0.01690563962209829
-0.048185621327587747 -0.029487881468201256 0.01579657423150682
-0.04859530210727586 -0.029518642026864394 0.014573284003614906
-0.04930647211838507 -0.02952287063918899 0.013624698082773778
-0.050162714622885796 -0.02951425512745652 0.012810143616257208
-0.05126221895743455 -0.029483981219050902 0.012223228234099659
-0.052400480685098894 -0.029450116327908372 0.011675933413927642
-0.053207485494101314 -0.029445670390341638 0.010820422350484249
-0.053960142539149436 -0.029446067295406737 0.0099139562655291
-0.05445594531823733 -0.029469503598598897 0.008763049634903763
-0.05505880343314834 -0.029483424128610405 0.007711947547140607
0.07088283805647044 -0.03588492376795141 0.03781453334105328
0.06831469809516555 -0.035751768920489854 0.037813421440866135
0.0657669536217334 -0.03561971028015776 0.03781142855675235
0.06323796142173993 -0.035488623636730256 0.037809450340873185
0.06072751521956171 -0.03535849829820942 0.037807486631879494
0.058235411753908006 -0.03522932372884088 0.03780553727077968
0.0557614507229669 -0.03510108954627077 0.03780360210089234
0.05330543473072141 -0.034973785518762616 0.03780168096781544
0.05111221436290203 -0.03486708212214134 0.03763960999835153
0.05085614802462307 -0.03491584430909077 0.03621404096857295
0.05059936445731439 -0.03496474307648751 0.034784478991202294
0.050340524896469396 -0.035013671076903216 0.033351795093856884
0.05008229672243858 -0.035062844428989014 0.03191420241229781
0.04982334221478696 -0.03511215609386045 0.030472566129053913
0.04956365830469367 -0.03516160665589995 0.029026869159584634
0.049303241906024864 -0.03521119670278661 0.02757709432296923
0.049042089915220466 -0.0352609268255202 0.026123224341220386
0.048780199211151565 -0.03531079761844313 0.02466524183861052
0.04851756665501772 -0.0353608096792658 0.023203129340965134
0.04825418909020274 -0.03541096360908905 0.021736869274977366
0.04799140882691172 -0.03546137071132696 0.020265503942567986
0.04772653278879119 -0.03551181051127608 0.018790889673001465
0.04720365269019333 -0.035541142516791004 0.017493788619745154
0.044852419054843606 -0.035419244405937945 0.017492531334574124
0.0425185809863482 -0.03529828928620987 0.017490338319024135
0.04019931795934206 -0.03517804852973263 0.017489101348668157
0.03789710110795175 -0.03505873237237307 0.017486934849947178
0.03560916105598977 -0.034940115397947044 0.01748571776115193
0.03333792705740496 -0.03482240511489788 0.017483577265454242
0.031080679721845195 -0.03470537925086155 0.017482379636880596
0.02883855320044837 -0.03458913731790852 0.0174811900308951
0.026612639198122567 -0.03447377608412235 0.017479086065671834
0.02440029120446724 -0.034359077870469094 0.01747791532995574
0.022203837467736298 -0.03424524359055845 0.017475836161478187
-0.011972995854189095 -0.03142264478691088 0.04159988227071454
-0.015133153080376327 -0.031220388724734326 0.042480959420312714
-0.01801865465357161 -0.031040639462885045 0.04317222320984637
-0.02113953199368679 -0.030840073774065405 0.04406127285972811
-0.023761961465474213 -0.030681229168730336 0.044585730756439235
-0.02608128954373623 -0.030547652362167603 0.04489083657874815
-0.028164832536190287 -0.030433730812788162 0.04502532436283779
-0.029628263399452515 -0.03037262099160797 0.044685386210670586
-0.03101444341670212 -0.03031790442570406 0.04429061520804295
-0.03212734455371791 -0.03028654167147896 0.043684928425460345
-0.03336739154968915 -0.030244047064863593 0.04318348993445803
-0.03387620436387634 -0.030264755335440534 0.042101299813187
-0.03467454393374869 -0.03026040182945411 0.04124990564883013
-0.035691902483080795 -0.030236962809677536 0.04057601968476382
-0.036480025231701074 -0.03023342192604002 0.039718129957551696
-0.037087528637106626 -0.030245657590870563 0.03871299870267603
-0.037688165250302885 -0.030258547941870367 0.0377010083507458
-0.03854267480880952 -0.03024920134395256 0.03689739889045357
-0.039224598928636834 -0.03025500200218039 0.035951432618931245
-0.04004291915495761 -0.030248798604892706 0.03511873109755376
-0.04062663532944433 -0.030263304035283684 0.03408979631360698
-0.04119177836979093 -0.03027951821562507 0.033043734449569706
-0.042022171733495706 -0.030272255988611843 0.032220973287811705
-0.04239750541765047 -0.030305448564247054 0.03101100748152441
-0.043117717325490634 -0.030308035956384063 0.03009324231202165
-0.0435481944055951 -0.030336526447744608 0.0289255982182407
-0.04397495011061536 -0.030365476396346375 0.027751832209770122
-0.044438758248593446 -0.03039122900662337 0.026607373572275106
-0.045078901780214065 -0.030401233111336322 0.02561461753700206
-0.04536511908286783 -0.030443191832029346 0.024309438159864027
-0.04615296262847857 -0.030440010323577252 0.023443623866910013
-0.04635882152490889 -0.030489521318045013 0.022060684500010197
-0.04678410390990084 -0.030519338097242034 0.020868757296095608
-0.046896554821348635 -0.03057774764262548 0.019392676623359806
-0.04737604993471556 -0.030602954802215764 0.018242055712220373
-0.047724346935550666 -0.03064026503337331 0.01696970024719846
-0.048310319694607196 -0.030655975710469865 0.015910383407364503
-0.049253765259263005 -0.030638942765930325 0.015177392122661226
-0.05024998559676186 -0.030616976748959142 0.01449485274378598
-0.051184898113026456 -0.030600564110385958 0.01375777807717593
-0.0520689106014488 -0.0305887809653592 0.01297499255492962
-0.052922032373628414 -0.030579805500323628 0.012164509532211043
-0.05349619526400862 -0.030596690329441196 0.011092288839171738
-0.05398143153780882 -0.03062192874287608 0.00993410776528314
-0.05451798631774557 -0.030642496629533278 0.00882208163813264
0.07088283805671758 -0.03726511314366214 0.037814533340898904
0.06831469809540702 -0.03712683695591317 0.03781342144071442
0.06576554639221771 -0.03698958315167641 0.0378123177616006
0.06323656727181004 -0.036853455566390865 0.037810336279487544
0.06072613399557153 -0.03671832624992128 0.03780836932816878
0.0582340433045333 -0.036584184261429065 0.03780641674838636
0.055760094899147294 -0.03645101881937241 0.03780447838320605
0.05330409138562858 -0.03631881929861829 0.03780255407797012
0.050865838223459914 -0.036187575227616994 0.03780064368025193
0.04844514367400965 -0.03605727628563594 0.03779874703982439
0.046041818750276076 -0.03592791230005475 0.037796864008616926
0.0455323661925815 -0.03595693272110203 0.03654762071013645
0.04527032946379117 -0.036006869739837785 0.03513043863300336
0.045007563889100044 -0.03605694565662212 0.03370931471410005
0.04474406642338896 -0.03610716105177247 0.03228423248437978
0.044479834004541696 -0.036157516508842705 0.0308551753829307
0.04421486355334675 -0.03620801261464742 0.029422126756320832
0.04394915197335919 -0.036258649959283226 0.027985069857963674
0.04368269615078868 -0.036309429136152385 0.026543987847459927
0.04341417856049917 -0.036360238669762825 0.025099777049397864
0.043147539235296684 -0.03641141537686911 0.02364968065538764
0.04288014826727071 -0.03646273634853003 0.022195496512797452
0.042610685005257554 -0.03651408917296743 0.020738137936884282
0.042341780156662845 -0.03656570019007777 0.01927573212028716
0.04207079454423096 -0.036617343650622074 0.01781012870759624
0.040199317959469294 -0.03653105039627179 0.017489101348576785
0.03789710110807398 -0.03640714515593645 0.017486934849858915
0.03560916105610712 -0.03628396599018595 0.017485717761066777
0.03333792705751737 -0.03616172838855756 0.017483577265372197
0.031080679721952775 -0.0360402015297502 0.01748237963680166
0.02883980728013802 -0.03591959812488476 0.017480264643775167
0.026612639198220656 -0.03579969054890486 0.01747908606559906
0.024400291204560498 -0.035680580865495304 0.01747791532988613
0.022203837467824894 -0.035562368344049244 0.01747583616141174
0.02002067870099633 -0.035444830030330866 0.017474683902282517
-0.01461271883931392 -0.03246703751641923 0.042086395365080576
-0.017336169241634503 -0.03229478245297142 0.04265200314057083
-0.020408085493962336 -0.03209096269001291 0.04350072125979815
-0.022967455818783455 -0.0319317377980768 0.04397356844925432
-0.025663261531008896 -0.031759713648646416 0.044567012712736054
-0.028031684851184346 -0.031616117301473484 0.04492162685927398
-0.02978409925715314 -0.031526890200574885 0.04480740611246009
-0.031337326246844044 -0.03145509866356911 0.04454479103162079
-0.03261408250183456 -0.031407781364079984 0.04407014766001521
-0.03378673361403073 -0.031369612801299206 0.0435171483999246
-0.03447793725586362 -0.031374618701013025 0.04258264425780012
-0.0356849184180838 -0.03133311807907384 0.04206245667456587
-0.03618489334349001 -0.03135535475227413 0.04097460455133911
-0.03696724140196139 -0.03135210473174319 0.04011414796721968
-0.03778520783071809 -0.03134560671055672 0.0392831078341066
-0.03836660532662939 -0.03136060621328354 0.03825834861054733
-0.039263992935185954 -0.03134685612283134 0.037493116189911635
-0.039642546287043834 -0.031380460942350426 0.03629843877563993
-0.04039508789302387 -0.03137996009502502 0.03541267634742168
-0.041240339235857626 -0.03137094756063219 0.03460475505918964
-0.04184020111459069 -0.03138446830670212 0.033590709587615564
-0.04235262736472345 -0.03140610903598969 0.03250120431887482
-0.04275425866990529 -0.03143808154701166 0.03131513988242729
-0.04321835085551751 -0.03146441140467727 0.03017948596297937
-0.043705866017411776 -0.031488683942196886 0.029061437582174166
-0.04415611408579789 -0.031516530025215976 0.027908734666316937
-0.044846796110206255 -0.03152208830731314 0.026962630234938834
-0.04523077553904331 -0.03155632333030687 0.02574754248809702
-0.045614686369075785 -0.03159071739521822 0.024529017556826904
-0.04600033849420593 -0.03162510173302817 0.023308632651380057
-0.04624673681458369 -0.0316727364498657 0.02196102808419942
-0.04659158035606353 -0.03171130569362744 0.020696682358566865
-0.0471198858580541 -0.03173271676108423 0.019593334398454065
-0.04729645886997269 -0.03178752744741897 0.01817016997735954
-0.04821832079359151 -0.031771860165631695 0.01741818968991543
-0.04911590384135639 -0.031758431139929 0.016645620524072535
-0.05011485694908979 -0.03173527779094338 0.01596740213232961
-0.05113733582225466 -0.03170977135446824 0.01531321088318549
-0.05169898606085205 -0.031728278633665424 0.014234372993843503
-0.052424996665594525 -0.03173109499810464 0.013306832856184503
-0.05298511204984724 -0.0317498835408811 0.012223600939692547
-0.05331592198990193 -0.0317908683815111 0.010922532678681152
-0.05394594834306904 -0.031803124457635466 0.009900520483818509
-0.054620745549677996 -0.0318111002653984 0.008919857034391854
0.07088140418857225 -0.0386451804403692 0.037815429156656366
0.06831327763030998 -0.038501783816624696 0.037814313935965405
0.06576554639246235 -0.03835956771287052 0.037812317761446
0.06323656727204896 -0.038218398365166543 0.03781033627933572
0.06072613399580473 -0.038078264259197636 0.03780836932801973
0.058234043304760896 -0.03793915404890897 0.03780641674824009
0.055760094899369284 -0.03780105655344236 0.037804478383062556
0.053304091385844965 -0.03766396075414135 0.03780255407782951
0.050865838223670745 -0.037527855791621045 0.0378006436801141
0.04844514367421493 -0.0373927309628995 0.03779874703968944
0.04604181875047603 -0.03725857571859267 0.037796864008484754
0.043655677167905804 -0.03712537966016949 0.03779499444054174
0.04128653529626197 -0.036993132537263884 0.03779313819198671
0.040297765775930305 -0.036980943357329654 0.03687483259048213
0.040030684763693425 -0.03703187809369714 0.03546981270199323
0.03976286702261689 -0.03708295333083586 0.03406091714056986
0.039494309500146485 -0.037134169650894396 0.03264812984780835
0.039225009126847676 -0.037185527639242426 0.03123143467646261
0.038954962816272865 -0.037237027884491715 0.029810815389839984
0.03868288207552589 -0.03728855732015128 0.028387148767859693
0.03841133360616944 -0.03734034354220766 0.026958637780278683
0.038140317138933455 -0.03739238809688619 0.025525249116487347
0.037867255870603855 -0.03744446332151065 0.024088769190917847
0.03759472219807375 -0.037496798726215835 0.022647366921179968
0.037320135439008695 -0.03754916537942442 0.02120285117156684
0.03704607179985525 -0.037601794079101365 0.019753367923057152
0.03677123883027267 -0.037654570514022254 0.018299815796455732
0.0356091610562288 -0.03762781658242599 0.01748571776097846
0.03333792705763389 -0.037501051662218336 0.017483577265287154
0.031080679722064353 -0.03737502380863991 0.01748237963671978
0.0288398072802446 -0.037249953611001245 0.017480264643696508
0.026612639198322297 -0.03712560501368833 0.01747908606552362
0.024400291204657365 -0.03700208386052244 0.017477915329813853
0.022203837467916987 -0.03687949309754093 0.017475836161342684
0.02002067870108354 -0.03675760151294367 0.017474683902216737
0.017853104177357693 -0.036636622727719795 0.017472629061470124
-0.016495305837553542 -0.03356789489780774 0.0420110604761984
-0.019295926308344258 -0.03338158712783203 0.042648406550369944
-0.02253127392036608 -0.03315451059439388 0.0436374926536956
-0.025091818345253702 -0.03298866641818912 0.0441243463459291
-0.027519086219765232 -0.032834428447952965 0.044522407012485
-0.029483638146165836 -0.03272236248791544 0.04457214424272615
-0.03145263191643044 -0.03260940728134405 0.04463556053310663
-0.03279963964511562 -0.032553784673506364 0.044217003233897434
-0.034179128059942665 -0.03249489858459476 0.04382936541751897
-0.035151488937183784 -0.032473765502796396 0.04312143873668012
-0.036009358908128175 -0.032463252339690156 0.04232337424232219
-0.036806056987906455 -0.03245842890506317 0.041476817570310076
-0.037498023423650495 -0.032463424633659706 0.040545577079444284
-0.03835668952174015 -0.03245274598341293 0.039750094571679495
-0.038965704519620004 -0.032465578440751125 0.03875051013154163
-0.03950041677157262 -0.03248549313038737 0.037688372297015604
-0.04015877259829742 -0.03249377655395515 0.03672704229389817
-0.04109726018921184 -0.03247548962959354 0.03599875963291338
-0.04147376902561656 -0.032510615269936656 0.03480062591883337
-0.042008950498949316 -0.03253075827443532 0.03373305764456597
-0.042458709269403094 -0.03255915642922344 0.032591163268628764
-0.04299439593771115 -0.03257944641093173 0.0315198570737702
-0.04361486453157637 -0.03259168464032393 0.0305193010034423
-0.044013537643369405 -0.03262532197110098 0.029326506972211508
-0.044269243288789395 -0.03267289754562093 0.028006713582040488
-0.04482239580148567 -0.032691931704153174 0.02694138619594255
-0.04508432819465463 -0.03273926379603912 0.025619366914904407
-0.04552068984968338 -0.03276987060192125 0.02444631561556526
-0.0459795564701439 -0.03279842414546784 0.023290251608940882
-0.0462792852246931 -0.032842626307881644 0.021989967427330448
-0.046569873739993994 -0.0328879202996905 0.020677281279947224
-0.04699966757501062 -0.032919780227332315 0.019485321049494575
-0.048166290057085726 -0.032879434733580355 0.018955791507772435
-0.04886541132647143 -0.03288491449635429 0.018005697040263446
-0.05015273866935399 -0.032832401686152674 0.017591914530124764
-0.05078965629331861 -0.03284394892861445 0.016586497918244902
-0.05156322246392292 -0.03284200913071319 0.01570598454758293
-0.05186910470851169 -0.032886505740912106 0.014392084690933227
-0.05242677517078115 -0.03290614371350648 0.01330849026363834
-0.05273175894777127 -0.03295108065950178 0.01198626631325056
0.0708814041888376 -0.04002536545612007 0.03781542915649061
0.06869855112807483 -0.03991088759575431 0.03757224197813136
0.06641945033145796 -0.039787440016833375 0.037399126774223856
0.06323656727229643 -0.03958334116394444 0.03781033627917846
0.06072613399604637 -0.03943820226847617 0.037808369327865354
0.05823404330499665 -0.039294123836391 0.0378064167480886
0.05576009489959921 -0.03915109428751439 0.03780447838291395
0.05330409138606901 -0.039009102209666434 0.03780255407768385
0.05086583822388918 -0.03886813635562708 0.037800643679971324
0.04844514367442776 -0.038728185640165017 0.03779874703954955
0.04604181875068314 -0.038589239137132456 0.037796864008347864
0.04365567716810714 -0.03845128607662226 0.0377949944404079
0.04128653529645793 -0.03831431584218386 0.03779313819185576
0.03893421211269821 -0.03817831796810034 0.03779129512086066
0.03659852915489592 -0.03804328213672349 0.03778946508759323
0.03514885607216822 -0.03798819088009101 0.0371966879930557
0.0348769305210081 -0.03804008408008344 0.03580362360837058
0.03460426103392927 -0.03809211924986996 0.034406748067985826
0.03433084455384888 -0.03814429697285131 0.03300604571059923
0.034056678006911534 -0.03819661783562917 0.03160150078898055
0.03378050007094491 -0.038248966963204734 0.030193976534645506
0.033504823203809986 -0.038301575560449996 0.028781704374478967
0.03322838694629471 -0.03835432907540976 0.02736554191375723
0.03295244908002093 -0.038407344530013876 0.02594457747487794
0.03267574732496975 -0.03846050674921298 0.024519679328859123
0.032397015769974113 -0.03851369927460329 0.02309173785629276
0.03211877578463501 -0.038567156532027 0.021658928752909257
0.03183849778928993 -0.03862064467398381 0.020223054624807335
0.031558706725559715 -0.0386743994325574 0.018782268516205125
0.031080679722179927 -0.03870984608753071 0.01748237963663496
0.028839807280355012 -0.03858030909711877 0.017480264643615073
0.026612639198427657 -0.0384515194784728 0.017479086065445515
0.024400291204757507 -0.038323586855550526 0.01747791532973919
0.022203837468012078 -0.0381966178510335 0.017475836161271352
0.020020678701173744 -0.03807037299555732 0.017474683902148735
0.017853104177443013 -0.037945073539432154 0.017472629061405454
0.015698560783627136 -0.0378204832712274 0.017471494895765938
-0.018616782938638943 -0.03463834223766157 0.04212793799578185
-0.021440604697097687 -0.034442492062113236 0.042797137911256
-0.024389716750488788 -0.03423385333453095 0.04358046592206294
-0.027120755112719497 -0.03404519057610889 0.04421218050429898
-0.029491203183740877 -0.03389029308922229 0.04457806768778916
-0.03134670351597074 -0.03378420513137758 0.04455217288931246
-0.032830391432654704 -0.03371345932261862 0.044241341135026424
-0.034307878501340705 -0.03364300918521006 0.043931808454738375
-0.03546148171114222 -0.03360357149264207 0.04336941138634254
-0.03631205264491377 -0.033593325708452894 0.04256680290181647
-0.037316958996741256 -0.03356804982166603 0.04188988366418345
-0.03805003052070116 -0.03356911704826666 0.04099425831221165
-0.038776764128896024 -0.03357080696193618 0.040093358885155694
-0.03926766390553288 -0.03359555252546531 0.03899857054021538
-0.039962283159667766 -0.03360045255455089 0.0380698153626553
-0.040518117919189744 -0.03361899650239724 0.037025393357078384
-0.04108909082366352 -0.03363613216949526 0.03599194089536567
-0.0416887506505888 -0.03365051461153981 0.03498101692948541
-0.04205156505612678 -0.033688360694199594 0.03376900503148578
-0.042923962718469044 -0.03367591488858226 0.03298570474838208
-0.04319168886651775 -0.03372341950910828 0.031688049435689425
-0.04373146961164892 -0.03374407644846097 0.030619232386381923
-0.043818140344487944 -0.03380998816451419 0.02915816566784768
-0.04425386215527388 -0.03384132324465578 0.02799339229324327
-0.04468406084837151 -0.03387335035322752 0.026820945378076222
-0.04503277022099822 -0.03391369651926908 0.02557424166627914
-0.04543478186304656 -0.03394886230275007 0.02437073029271858
-0.04602292474429548 -0.03396542544240911 0.023328609474628725
-0.04645367364608999 -0.03399796166527881 0.022145019128716747
-0.047154069561202716 -0.03400334480406964 0.021199427570286367
-0.048320045826823754 -0.03396151071838181 0.020671650393593255
-0.049146188696770454 -0.03395404792669465 0.019840824696239323
-0.05000587282724123 -0.03394313267758022 0.019041146456451274
-0.050720836545367465 -0.033946952217732265 0.018110403686165844
-0.051114013591085805 -0.033983736497725486 0.016884080063064633
-0.05152050497996097 -0.03401932177580661 0.015666588377175106
-0.05184684780705723 -0.03406331305484945 0.014371451011153669
-0.052028802911200045 -0.0341223904277471 0.012937615781854483
0.06390536392182289 -0.041009652110430846 0.03738533695576046
0.0614344474037834 -0.040863262479491076 0.03735570877382649
0.058234043305240346 -0.040649093623875206 0.03780641674793195
0.055760094899836965 -0.04050113202158856 0.0378044783827603
0.05330409138630088 -0.04035424366519361 0.03780255407753319
0.050865838224115056 -0.040208416919635157 0.037800643679823664
0.04844514367464775 -0.040063640317432515 0.037798747039405
0.046041818750897245 -0.03991990255567419 0.037796864008206366
0.04365567716831564 -0.03977719249307694 0.03779499444026935
0.0412865352966606 -0.039635499147105686 0.037793138191720255
0.03893421211289516 -0.03949481169115672 0.03779129512072826
0.036598529155087156 -0.03935511945180086 0.037789465087464
0.03427931047725896 -0.03921641190608249 0.037787647954075854
0.031976382605224174 -0.039078678678878896 0.03778584358464282
0.030083550021009875 -0.03897908356733141 0.03751331737881425
0.029806971976120644 -0.03903189748748613 0.03613200703063507
0.0295296434266879 -0.039084854720121374 0.03474694844688819
0.02925033028483054 -0.03913783898537055 0.033358986410598035
0.028971490691845347 -0.03919108428030645 0.03196639077498403
0.028691891367450262 -0.03924447464833282 0.030570000848162915
0.028411529202446995 -0.039298010683161994 0.029169801101986248
0.0281316354637714 -0.039351811126344075 0.027764894371406668
0.02785097430450567 -0.039405759081102484 0.026356135627801314
0.027568306474033466 -0.03945973636070897 0.024944401473325217
0.027286100126114488 -0.03951398083765672 0.02352789652131937
0.02700187904419954 -0.039568255208871236 0.022108395210600817
0.02671811472592789 -0.03962279865947327 0.020684080000892557
0.026433567009448433 -0.03967749269010595 0.019255832633838232
0.026146992328910545 -0.03973221748467495 0.017824557014892606
0.02440152351905278 -0.03964520976346029 0.017476996087670615
0.02220383746811061 -0.03951374260452702 0.01747583616119741
0.02002067870126717 -0.03938314447817187 0.017474683902078292
0.01785310417753133 -0.039253524351145354 0.017472629061338507
0.015698560783710347 -0.03912463786679513 0.017471494895702433
0.013559299601119623 -0.03899671101588552 0.017469463925658013
-0.02090412874755171 -0.035683028411592134 0.042383786091302056
-0.023806413143410032 -0.03547193124459608 0.04312861192340223
-0.02637807544321885 -0.035292656479229766 0.04363376993958379
-0.029019661561231813 -0.03510568567182401 0.04420884931072755
-0.031058593185644412 -0.03497780985229285 0.04432537024248301
-0.03300268786744748 -0.03485883320972154 0.04437770178038852
-0.03424397829297776 -0.03480949045154513 0.043880964889834284
-0.035483602912696866 -0.034760102819800395 0.04338710680837832
-0.03681414832080959 -0.03470138981566845 0.04297059215302179
-0.037616194237350575 -0.03469551105518055 0.0421318164220319
-0.038271982861996734 -0.034704329945579135 0.041174665141472
-0.03897001922141802 -0.034708924893941645 0.04025127744421714
-0.03985364571014738 -0.03469477635308522 0.03947995609307248
-0.04012050739092743 -0.0347430574522813 0.03820048851269564
-0.040779647146620746 -0.03475171625622537 0.03724253135365224
-0.041526057060846944 -0.034751531982455286 0.03635666421089345
-0.04185456404752014 -0.034793966713119455 0.03512015089619519
-0.04237943123065663 -0.03481651766249837 0.034045575598314726
-0.04273765199909024 -0.03485623762698059 0.032827710633421325
-0.04324414109208846 -0.03488091140742466 0.03173276499523847
-0.04354070179805308 -0.034927292289885246 0.03045574301335341
-0.0438878216937339 -0.034968664875175755 0.029218198479401603
-0.04422219071712652 -0.035011538346635875 0.02796596230092452
-0.044789856578746234 -0.03503043974280349 0.026913056041406425
-0.04497305185703915 -0.035089333066341516 0.025521974173396134
-0.04569689038473779 -0.03509224535103124 0.024601343976131507
-0.04682682587111203 -0.03505282965246935 0.02403963457424385
-0.0476917666646966 -0.03504092852570636 0.02324582861751051
-0.04871068539749285 -0.0350128476925841 0.022590709662514086
-0.0494439492560953 -0.03501462481142671 0.021681451650352068
-0.04993792088812404 -0.03504158428600398 0.020555908111347443
-0.050415745927364364 -0.035070368087931424 0.01941327902028367
-0.05087834695680893 -0.03510089111143438 0.018254159619331967
-0.05109620820585947 -0.03515747541996205 0.016867744482636893
-0.051321011048833576 -0.03521358022102119 0.015482605235447422
0.058972870352780926 -0.04207439383111875 0.03733158599749553
0.0564349737811945 -0.04191553987662668 0.03736829750212611
0.05330409138654035 -0.04169938512072296 0.03780255407737754
0.05086583822434837 -0.041548697483645335 0.037800643679671175
0.048445143674875124 -0.04139909499470208 0.037798747039255565
0.04604181875111857 -0.04125056597421794 0.03779686400806004
0.043654382320907514 -0.04110297417316823 0.03779585508293337
0.041285252225774394 -0.04095655860274538 0.03779399577425069
0.03893294068425618 -0.04081118244258333 0.03779214966480604
0.03659726923637391 -0.04066683466360438 0.037790316614545516
0.03427806193807781 -0.04052350439221877 0.0377884964853894
0.03197514531707274 -0.040381180907594925 0.03778668914119332
0.02968834832955075 -0.040239853638984927 0.03778489444772348
0.027417502317850173 -0.040099512163108045 0.0377831122726186
0.02516244096899639 -0.039960146201588775 0.037781342485352976
0.024818781938153456 -0.0400077148862215 0.036455094270834376
0.024535774127151966 -0.04006143926809993 0.035082501535178834
0.02425321148717069 -0.04011542694540764 0.03370536539379565
0.023969886244208982 -0.040169560329035396 0.032324512525730265
0.02368579530683046 -0.040223840009646065 0.030939927864147787
0.0234021442035639 -0.04027838636214666 0.029550728369123314
0.023116513323051757 -0.0403329607463307 0.02815862927185342
0.022831317590626454 -0.04038780365278486 0.026761874098063354
0.022544134198270283 -0.040442675147148714 0.02536219920882976
0.0222573811989501 -0.040497817032573956 0.023957826562938156
0.021969845180705216 -0.04055310949057655 0.022549619082433747
0.02168030954670369 -0.04060843138592632 0.021138461268663866
0.02139119704503989 -0.04066402651161104 0.019722542329916604
0.021100076872891893 -0.0407196516507649 0.0183036523562653
0.020020678701363537 -0.04069591596078733 0.017474683902005572
0.01785310417762248 -0.04056197516285942 0.017472629061269396
0.015698560783796167 -0.04042879246236367 0.01747149489563704
0.013559299601200392 -0.04029660138308991 0.017469463925596118
-0.019557438002096028 -0.03700958868930912 0.04134616814958386
-0.0227201814941701 -0.03676516787338514 0.04228716656248799
-0.02596851953542456 -0.036510957996703286 0.04331480138067739
-0.02841276547467947 -0.03633806595028071 0.04373364801899504
-0.030755898136697712 -0.036174821111178077 0.04408708639405062
-0.032585158912681156 -0.036063762560669135 0.04404725665076198
-0.034336579668257206 -0.035960256738630264 0.04395464515089831
-0.03572859113903809 -0.03589345291750377 0.043583080343006786
-0.03671696370411798 -0.03586816859444518 0.042892435527728034
-0.037744148874513106 -0.03583874681290663 0.04223526820192658
-0.038651288403847406 -0.03582168533772492 0.041482971464021745
-0.03935860624833354 -0.03582538061327392 0.04056881165539694
-0.03976369464141699 -0.035860666203781505 0.03940606105979688
-0.04041020640227089 -0.035870828429877495 0.03843974315829862
-0.04104440128368514 -0.03588232723436109 0.037462346872825736
-0.04146176081729258 -0.03591667743217622 0.03630299796135372
-0.041813805199706844 -0.03595806095230839 0.03508595016042998
-0.04223731259024327 -0.03599207814492687 0.03392569182868693
-0.04270235659803978 -0.03602184812807073 0.0327977796360544
-0.04320796887639777 -0.036047445597651676 0.031701928155673686
-0.04363385221533611 -0.036081632200917195 0.030535573583468367
-0.043904106712077506 -0.036132551892169934 0.029232228567049878
-0.04442659344382782 -0.03615676258308774 0.02814299137037385
-0.04535388585888667 -0.03613775783080683 0.02740412605857423
-0.046285591881615296 -0.03611819514282372 0.026670752737394554
-0.04711870600870449 -0.03610914373145031 0.025852314894822925
-0.04800230048775411 -0.03609461319098927 0.025079304663652324
-0.04892078422919088 -0.036076250243368184 0.024338568966221996
-0.04942091570997803 -0.03610307990119211 0.02322550386933203
-0.04987735759857198 -0.03613476906056019 0.022070859029602097
-0.05019951605518047 -0.03618119905111329 0.020792177859473626
-0.050689619227469396 -0.03620954029277543 0.01966193445364267
-0.05093615228388154 -0.03626460833246355 0.01830691713967142
0.05399701075122448 -0.0431128845580943 0.037352189582865125
0.05155105631269746 -0.04295671050319152 0.037352778915163365
0.048443824863560636 -0.042734419050697324 0.03779961386817532
0.0460405119909168 -0.042581099707074105 0.03779772773277201
0.043654382321129614 -0.042428876565873165 0.03779585508278571
0.04128525222599044 -0.042277737912532885 0.037793995774106304
0.03893294068446618 -0.04212767219881666 0.03779214966466493
0.0365972692365778 -0.041978668039870076 0.03779031661440768
0.034278061938275706 -0.04183071421134245 0.0377884964852549
0.03197514531726464 -0.04168379964656888 0.037786689141062146
0.029688348329736824 -0.041537913433809616 0.03778489444759564
0.027417502318030473 -0.04139304481354907 0.037783112272494035
0.025162440969170807 -0.0412491831758512 0.037781342485231795
0.022923000274253758 -0.041106318057767925 0.037779584957095935
0.02069901848868938 -0.04096443914080307 0.03777783956115072
0.019909217402811097 -0.04096780011227539 0.03677384643002696
0.01962311878277684 -0.0410224932813992 0.035411837890661935
0.019336255242076772 -0.04107733267958957 0.03404618785013752
0.019048623708932122 -0.041132318894073705 0.032676881684891246
0.018760221095103558 -0.04118745251522821 0.03130390469294875
0.018472228656438716 -0.04124285579809795 0.029926382299281684
0.018183460388352668 -0.04129840833313314 0.028545148966629186
0.017892727306603906 -0.041353988405497165 0.027161059974701363
0.017602397203235587 -0.041409840929268964 0.025772364924368463
0.017310094480983085 -0.04146572154481205 0.02438079456214909
0.017018189850343146 -0.04152187649384725 0.0229845771816633
0.016725493523897517 -0.04157818374480275 0.021584573018462228
0.01643081274052194 -0.041634519934192225 0.02018166362926388
0.01613652258939091 -0.041691133316288896 0.018774044954287583
0.015698560783884985 -0.04173294705793308 0.017471494895569317
0.01355929960128377 -0.0415964917502951 0.017469463925532225
0.011432812670930215 -0.04146080292596855 0.017468347480521118
-0.022109841756419335 -0.03801542900861085 0.04181436912441727
-0.025033411638736347 -0.037787435959714406 0.04258652469719593
-0.02780760349991479 -0.037574275102831234 0.04325980454152395
-0.030452681993227204 -0.037373893044707285 0.04384839233603938
-0.03243766769288281 -0.0372427778084418 0.043930527607928704
-0.03411054587153678 -0.03714432805464971 0.043774796535244354
-0.03548268125210802 -0.03707754133590484 0.04338636954403696
-0.036799482440108944 -0.03701638380516472 0.0429587977375932
-0.038018930580609844 -0.03696539392066227 0.04245743019002307
-0.0387195840305688 -0.03696989025318841 0.04153848336985355
-0.03932315112135398 -0.036984853316383744 0.04053983946899359
-0.04014860849394952 -0.03697595225914919 0.03972226877519791
-0.040551699243780936 -0.03701266002324035 0.03855659830217317
-0.04109875209502367 -0.03703393489244135 0.037507472331276936
-0.04133400210089616 -0.03708914772428718 0.036196361387022424
-0.04177031835966938 -0.037122729072536415 0.035049460367288676
-0.04240386007132446 -0.037134955554568035 0.03406618247647214
-0.04265437931514021 -0.03718908529669923 0.0327570942242047
-0.04320616006345579 -0.03721046449162544 0.03170038614135612
-0.043695321568707146 -0.037238809978497156 0.030588253256489062
-0.04469836033210839 -0.03721076160012134 0.029916504609539263
-0.04567746011402046 -0.0371852277868271 0.02922634170626709
-0.04659530770021875 -0.037166347410067 0.028484965416388452
-0.047349903222237644 -0.03716545823282418 0.027602273323917126
-0.047966413108482986 -0.03717988793749367 0.02659816190305364
-0.04849084605116466 -0.037204622372289685 0.025511407749844117
-0.0491048936279026 -0.037219478836636524 0.02450226375331166
-0.049556024910358154 -0.03725260189011097 0.02334626263755324
-0.05033357479346262 -0.037249326629825365 0.022480759635612524
-0.05027595943128704 -0.037339756265100166 0.020861220638137445
-0.05035878053689352 -0.03741479954901737 0.019361558922528388
0.04914657319905524 -0.04414164824363806 0.03733771111236456
0.04673552365125955 -0.043982888962284916 0.03733834831079241
0.04365438232135854 -0.043754778958580175 0.03779585508263361
0.04128525222621304 -0.04359891722232241 0.03779399577395748
0.038932940684682615 -0.04344416195505196 0.03779214966451949
0.03659726923678808 -0.04329050141613771 0.03779031661426557
0.034278061938479654 -0.043137924030467976 0.037788496485116285
0.031975145317462594 -0.042986418385544664 0.037786689140926866
0.029688348329928727 -0.04283597322863609 0.037784894447463746
0.027417502318216158 -0.04268657746399179 0.03778311227236569
0.025162440969350608 -0.04253822015011529 0.03778134248510684
0.022923000274427563 -0.04239089049709133 0.03777958495697448
0.0206990184888573 -0.04224457786397074 0.037777839561032756
0.01849033609342854 -0.04209927175620915 0.03777610617208765
0.01629679575615217 -0.04195496182315609 0.03777438466666805
0.015078763108703652 -0.04191276315593627 0.03708671104516004
0.014788540428708363 -0.041968273232299416 0.035735940092527285
0.014497547976100589 -0.04202393054090113 0.03438158642039313
0.014205782684255763 -0.04207973566828717 0.033023635755878855
0.013914401487071015 -0.04213581234280321 0.031661227028914385
0.013621081937695678 -0.04219191520802348 0.030296034134481786
0.013328141645989666 -0.04224829146875951 0.028926343951832745
0.013034417461202652 -0.042304818589449164 0.027552988549160162
0.012738743453371393 -0.04236137271513925 0.02617682056741233
0.012443441322259385 -0.04241820304387564 0.024796095676543506
0.012146181641366327 -0.04247506092980179 0.023412539001968713
0.011849288827248228 -0.0425321969127282 0.02202438516146915
0.01155159619733298 -0.04258948681739871 0.020632491697502753
0.011251934298927402 -0.04264680512243183 0.01923773722008737
0.010952631622238251 -0.04270440440145951 0.017838324383590454
0.0006313164911956326 -0.04167362563686174 0.024198014341658913
-0.024221735296066527 -0.039056647050576404 0.041954378442209284
-0.027324856459503888 -0.03880113150423864 0.04288181229167032
-0.029784144002867552 -0.03861490973786098 0.04332211413717063
-0.032098340552087046 -0.038443787977782 0.04366197377532366
-0.03388885962992266 -0.038329426016204225 0.04359840714462082
-0.03538956835326418 -0.03824645876089314 0.04331188570381961
-0.03667935879273454 -0.03818639015602235 0.0428621933652516
-0.037756939124319544 -0.038149510789339196 0.042245609164451414
-0.03882243163689092 -0.038113810838316414 0.0416220797421436
-0.03947582880336603 -0.038123687187147086 0.040664600163418385
-0.03999982913956579 -0.03814799672603236 0.03960004615463236
-0.040417465289461996 -0.038184266401896164 0.038445738078593084
-0.04093474123856994 -0.03820956460019721 0.03737130021339724
-0.041276887521939865 -0.03825457693054637 0.03614868946908162
-0.04189712400453727 -0.03826858886176734 0.03515586294209966
-0.042118638734923664 -0.038327490099983944 0.033825584839972445
-0.042770225871888 -0.03833819110005325 0.032855333736486414
-0.04371999195259868 -0.038315267701602075 0.03213842819175866
-0.04480156643873523 -0.03827732613140511 0.03153631297792647
-0.04575308719203808 -0.03825396795565825 0.030825187054816405
-0.04674892176655371 -0.03822546902007013 0.030154312983165787
-0.04724244942374212 -0.038254069453478846 0.029048396976539936
-0.047818598871400386 -0.038273363393376475 0.02801249130181943
-0.04825040414446835 -0.03830926121944022 0.026848028708002347
-0.048702581089287655 -0.03834298301619228 0.02569868068870612
-0.04920886573386962 -0.03837063633314614 0.024594707115077163
-0.04947426136592736 -0.0384261652126091 0.023273183492068805
-0.04960783355358045 -0.0384971646513741 0.021828697904125727
0.04436513867240627 -0.045155776588465264 0.03732343861439702
0.041999839027221486 -0.044995747587663754 0.03731637823653322
0.03893294068490538 -0.0447606517112893 0.03779214966436972
0.036597269237004515 -0.044602334792407314 0.0377903166141193
0.03427806193868982 -0.044445133849595454 0.037788496484973455
0.03197514531766643 -0.04428903712452232 0.03778668914078759
0.02968834833012629 -0.044134033023464365 0.037784894447327966
0.027417502318407505 -0.04398011011443629 0.037783112272233466
0.025162440969535793 -0.04382725712438109 0.03778134248497822
0.022923000274606697 -0.043675462936416394 0.037779584956849355
0.02069901848903033 -0.04352471658714002 0.037777839560911186
0.018490336093595516 -0.0433750072639911 0.03777610617196975
0.01629679575631321 -0.043226324302663106 0.037774384666553695
0.01411824229507469 -0.04307865718457344 0.037772674922872895
0.0119545226410398 -0.04293199553438123 0.037770976820800384
0.010324374183808604 -0.0428428458264795 0.03739464896763128
0.010030192419135442 -0.04289914037682555 0.03605493193689219
0.009735236540632741 -0.04295558306139901 0.03471168955693388
0.009440639854171096 -0.04301229900660282 0.033364073912244885
0.009144127192617646 -0.043069040047942375 0.03201373394520174
0.008847968839693965 -0.04312605619108428 0.030658982543244062
0.008549887024864422 -0.043183097961134134 0.029301488570548484
0.008252154567437608 -0.043240416691962144 0.02793954459911302
0.007953630674014278 -0.04329788778812305 0.026573980291954458
0.007653171965299188 -0.043355385321571294 0.0252056456448278
0.0008055542271399041 -0.04268502298098995 0.028823592342870408
-0.0001257546382666952 -0.04267116766296216 0.02795714696454782
-0.0010553622544469676 -0.042657443831195706 0.027090418773141722
-0.001983278268145594 -0.04264385124067613 0.026223400577143452
-0.002910603118199684 -0.04263026730982669 0.02535693474753098
-0.026350602887255048 -0.04008641999211924 0.042118969086274716
-0.029520945249761454 -0.039814702484675786 0.04311492207370293
-0.03167677410360242 -0.039656333422556436 0.0433283332502164
-0.033501392867940405 -0.03953475063857475 0.0432901109439397
-0.035263186930519164 -0.039419768159833224 0.04321078935932743
-0.03651875815875366 -0.03936179726452392 0.04273303708518106
-0.037578703852303996 -0.03932584716179908 0.042101505312188536
-0.038632160772739566 -0.039290482264859976 0.04146742418364935
-0.03941132085935334 -0.039286325871015555 0.04061188744349181
-0.0398500122373846 -0.03932116286200882 0.03947697118589455
-0.040405669441518466 -0.03934271990310935 0.03843599620406535
-0.04099456452545014 -0.039360545729718324 0.037420969264880366
-0.04142009117007184 -0.0393972907247353 0.036268217489550725
-0.04199850068829292 -0.039416525654041815 0.03524092808402335
