# .PCD v0.7 - Point Cloud Data file format
VERSION 0.7
FIELDS x y z
SIZE 4 4 4
TYPE F F F
COUNT 1 1 1
WIDTH 772
HEIGHT 1
VIEWPOINT 0 0 0 1 0 0 0
POINTS 772
DATA ascii
-0.03978179090892531 0.02521533146429805 0.03245166648714909
-0.03745229372129999 0.025127101061419604 0.03244961988227851
-0.03513904187318506 0.02503948595563738 0.03244758754985455
-0.0333637803812718 0.024983795391157304 0.032082935859801376
-0.03271624742315682 0.02499568134038485 0.030937518233917494
-0.032068098048918914 0.025007578604389367 0.029791010232800452
-0.03142182958063222 0.025019638013726326 0.028641645635297364
-0.030773689754175326 0.02503163357929455 0.027492058215554227
-0.03042802423648655 0.02506201335597271 0.026124909349825975
-0.030238913987741034 0.025102027363529934 0.024641416340777156
-0.029837876414152253 0.025129306909194273 0.023305755079652324
-0.030723652957813707 0.025235184387661817 0.021032383286267553
-0.03148405915545405 0.025333837310364798 0.01883675538579116
-0.03672964568478393 0.025707592735871324 0.013336585500459075
-0.0002922728601354452 0.023524737867352468 0.03854552937598471
0.005843668484974807 0.02319632529408968 0.04155894607300914
0.009181477920333858 0.023038986029772623 0.04252816025094752
0.008935146725650767 0.02310233353613392 0.04082995436873377
0.011936042520445223 0.02296498884867221 0.041572017184276666
0.013440932813377104 0.02291984368405245 0.04119801291485181
0.0143038827771651 0.022914402768876917 0.04034066249208379
0.015134950336616382 0.02291092446816593 0.03945959952333433
0.015942467646959113 0.022908901215733007 0.038560853026622655
0.016495980132493537 0.022922755004822038 0.03746561181876151
0.01673845209003444 0.022956161435083926 0.036126280215103224
0.01491113372795283 0.023119705759904477 0.03316183352108204
0.0151389973072934 0.023154593279741464 0.03179334309310605
0.015321327102181592 0.023192501704769008 0.030384134428101783
0.01545693923515118 0.023233525246952637 0.02893265620409008
0.015612604249282014 0.023273454372991324 0.027491690515011935
0.015636738577538445 0.023321904669782904 0.025939554378305474
0.015531649745905596 0.023378784357265446 0.024276383539983848
0.015403214404628884 0.023437397856786883 0.02258652147783713
0.015274133438216764 0.0234963059975706 0.020888164732756787
0.014266498790253712 0.02361172384976949 0.018460049384242727
0.01303740464689962 0.023741853841654902 0.01583328015115476
0.009592049503183098 0.02401507652049859 0.011348628263860683
0.010039796218973496 0.02403858166313971 0.010075975977768548
0.010322053040183743 0.024072878600507223 0.008661231303668582
-0.10137897072592689 0.029060779610080203 0.030638205843634414
-0.09797987926223267 0.028912604899339733 0.031013289683711698
-0.0946152744420023 0.028765933545741463 0.03138456798249162
-0.09129550897012967 0.028621399001457756 0.03174545746261803
-0.08801814793399348 0.028478866509182695 0.03209708149497997
-0.08477326718929207 0.028337746585387548 0.03244522075676343
-0.08204813660804056 0.028227622527257152 0.03248693085341653
-0.07941404297764781 0.02812260431095541 0.03248462359748833
-0.07679947649397384 0.028018364619039053 0.032482333445706335
-0.07420422081999783 0.02791489482640536 0.03248006020857763
-0.07162806280261169 0.027812186434890526 0.03247780369939629
-0.06907079241425018 0.027710231070942292 0.03247556373419935
-0.06653078230169601 0.02760893325099075 0.032474252993266894
-0.06401068240927482 0.027508459942390324 0.032472042259738154
-0.061508858099571295 0.027408715258982173 0.03246984755821336
-0.05902511129100341 0.0273096913034951 0.032467668714931786
-0.056559246754259884 0.02721138029237465 0.03246550555862959
-0.054111072061136745 0.027113774553743072 0.032463357920500036
-0.051680397534472344 0.02701686652540318 0.0324612256341551
-0.04926570440965333 0.026920565816200823 0.03245999868080113
-0.04686948402700586 0.02682503153845322 0.03245789345583944
-0.04449021066367259 0.026730172916946487 0.032455803119788906
-0.04212770516911357 0.026635982809174907 0.03245372751525927
-0.039781790909047376 0.026542454172952982 0.032451666487065656
-0.037451020997776474 0.02644950000509635 0.03245049448006365
-0.035809873060223374 0.0263996371689749 0.03198404833496166
-0.035161022593638736 0.026412244912216977 0.0308341865499821
-0.034510289443110076 0.026424784793425693 0.02968410810160188
-0.03386272192953088 0.026437576546830942 0.02853027891615373
-0.03321452716121576 0.026450380690740804 0.02737533209460352
-0.032918406821363655 0.02648565612086641 0.025968756253606007
-0.03273253756456612 0.026528111034527322 0.02447912210988268
-0.03236923754705329 0.026559395823023933 0.02311168469788849
-0.033340506417932125 0.02667631513818864 0.020776830139906277
-0.03410420552750054 0.026780390545987586 0.01857824975218836
-0.04035269321530516 0.027237759366746137 0.012363348324567258
-0.008234127682950343 0.025223570755630007 0.03424953704262751
0.004395552231525324 0.024460039099259947 0.04200468192910106
0.007767798610972099 0.024292623247269787 0.04298648935742422
0.006828149271883133 0.02440422791555771 0.040772700054547695
0.009953660412993337 0.024252035396657847 0.04159383571123937
0.011391154221725874 0.024209168139072677 0.04116113789397918
0.012823575244714058 0.02416645215616719 0.04072996702816556
0.014369009601010951 0.02411616356994173 0.04039030499025331
0.015176574493652284 0.024114033936331842 0.03949149862713891
0.015983996771108344 0.024111904678813672 0.03859285099235199
0.016791276471153027 0.02410977579728769 0.037694362043848295
0.017306823458534792 0.024126884005143026 0.03656893674351369
0.017551464079164747 0.024161975057255574 0.03522921939042256
0.01564520582447171 0.024339718403784853 0.03219183429407624
0.015873182924044993 0.024376519733757082 0.030820889930945616
0.016060840804744902 0.024416161139302558 0.02941316337982469
0.01621420572448129 0.024458259056678682 0.027972929835338722
0.015734765885697832 0.024542822971632374 0.026018388702637674
0.016297984997768244 0.024557928549727596 0.02489596832064711
0.016212040524614724 0.024616664717309802 0.02324394980176392
0.0160904541367497 0.024678051908341526 0.021555221868286956
0.01595890672441358 0.02474037643729907 0.019850366835449662
0.014801374551847268 0.024872273931218578 0.017290095597315258
0.013548964840568445 0.02501116800176481 0.014633907991147554
0.009911223978615047 0.025312492734029985 0.009968660378076866
0.010903689269742722 0.025300326782646862 0.009149282072172915
0.011253972279183178 0.025331865115465736 0.0077897843830007085
-0.10153044995091565 0.030523360700905437 0.03054728237837684
-0.09812952836327571 0.030367680181273407 0.030922946657902184
-0.09477098949918117 0.03021407713308347 0.0312900217889413
-0.09145869233049975 0.030062808145244754 0.03164580739693068
-0.088174787822209 0.029912753722935066 0.03200087868180079
-0.08493261111605671 0.029764769156120262 0.032346796968101166
-0.08204813660824051 0.029639003653632753 0.032486930853292295
-0.07941404297784338 0.02952873452651567 0.03248462359736615
-0.07679800211964194 0.029419188519871464 0.032483259812775944
-0.07420276018111244 0.02931054593302696 0.03248098316191533
-0.07162661573731438 0.029202702809695346 0.032478723264069254
-0.06906935876312831 0.029095650357758875 0.0324764799349998
-0.06653078230186965 0.028989379913551487 0.03247425299315526
-0.06401068240944419 0.028883882939520784 0.032472042259628686
-0.061508858099736385 0.02877915102194197 0.03246984755810606
-0.059025111291164334 0.028675175868680295 0.03246766871482665
-0.05655924675441659 0.028571949307003564 0.032465505558526564
-0.05410971568719802 0.028469374943985246 0.03246425443822992
-0.051679053523513985 0.02836762214455712 0.03246211895422085
-0.04926570440979772 0.028266594107020305 0.032459998680704594
-0.046869484027146135 0.028166283115385073 0.032457893455745124
-0.044488902909512296 0.028066595707232578 0.03245668697687565
-0.04212640922452471 0.027967696698070324 0.03245460826420238
-0.039780506640696434 0.027869492227683663 0.0324525441496501
-0.038273531076731926 0.027826301243467147 0.031885277070274
-0.037624639689019246 0.027839725964151785 0.030730058486875267
-0.036972571911412344 0.02785299453655111 0.029575496460962802
-0.03632370313153599 0.027866529667437974 0.028417163924223
-0.0356742034109746 0.027880077959483617 0.027257705059394954
-0.03542861456735147 0.027920632062917887 0.025811360071080924
-0.03524731892451688 0.027965650822654148 0.024314628336123023
-0.03491742977380574 0.028000898835233167 0.022918763280621923
-0.035979711762295086 0.028129755323708063 0.020519094183294506
-0.03675056595380294 0.02823953715109061 0.018314741767176068
-0.04431578511618339 0.028807795121812543 0.011165088918891064
-0.0024968964302567453 0.026042428174121293 0.03999510994228633
0.002941278072119524 0.025728268734750037 0.04245120296794275
0.0031834527827441783 0.025765260302474148 0.04111027208639151
0.0065085899202182995 0.025592846889533952 0.04205226204822343
0.00795942840680297 0.02554738229243494 0.0416165751731703
0.0094051213292638 0.02550207894071547 0.04118243351124595
0.010845696013143502 0.02545693597808103 0.04074982885659306
0.012281179590837965 0.02541195255428992 0.040318753061350465
0.01371159900330482 0.025367127825099502 0.03988919803514568
0.015218189232722112 0.025316871186586154 0.03952339051338766
0.016025516499623804 0.025314635971999497 0.038624841718796266
0.016832701222016355 0.025312401152070688 0.037726451575087194
0.017639743437649513 0.025310166726695168 0.03682822004024672
0.01811851751295196 0.025330710366455574 0.03567322377632626
0.018364314224706246 0.025367548642131598 0.03433233714064521
0.01637844875381933 0.02556012173147838 0.03122077269526574
0.016608587486512727 0.025598702049792768 0.02984898972028499
0.01636711946334113 0.02567046612553853 0.028095250186586485
0.016390715823427493 0.02572394075018254 0.026545908748914604
0.016413380705086578 0.025777711050626623 0.024989266161030366
0.01696072159352474 0.025794741695211867 0.023852491153393107
0.016880460271615494 0.025856165921281527 0.022200776036301884
0.016780159161663366 0.025919274497813442 0.02052502781541099
0.01651226453421545 0.02599454357242885 0.018703073758679745
0.01531188073618367 0.02613642040363502 0.016097591532227173
0.0137683397408212 0.02630336032303232 0.013188085426185547
0.010408496117937482 0.026600694696453073 0.008733765661718407
0.011362792765213015 0.02659067272199765 0.007881579590441778
0.011521021023978006 0.02663768711219948 0.006355567756111791
-0.1016836369440895 0.0319869632640767 0.03045533384713245
-0.09828405115347816 0.0318239772389319 0.030829661390392338
-0.09493310387620058 0.03166358246350029 0.03119159009232403
-0.09161265380249217 0.031504589857702235 0.031551788798695024
-0.08834075541205433 0.03134820831669365 0.031898947116210496
-0.0850920636336095 0.031192764223884704 0.0322483061049228
-0.08204813660845012 0.03105038478001021 0.03248693085316212
-0.07941404297804822 0.03093486474207774 0.03248462359723814
-0.07679800211984211 0.03082010225892638 0.032483259812650156
-0.07420276018130806 0.03070628621556519 0.032480983161791765
-0.07162661573750545 0.030593307705407982 0.03247872326394785
-0.06906935876331483 0.03048115751766473 0.03247647993488062
-0.06653078230205162 0.03036982657611385 0.032474252993038355
-0.06400927512686228 0.03025921067878831 0.032472951800248284
-0.06150746376720567 0.030149492216588462 0.03247075380766029
-0.059023729758613974 0.030040566547641593 0.032468571697046256
-0.056557877874004236 0.029932425110145 0.03246640529688655
-0.054109715687357895 0.02982505946513831 0.03246425443812423
-0.05167905352366964 0.029718461294308572 0.03246211895411738
-0.04926437262863298 0.0296125311680494 0.03246088882034809
-0.04686816432813329 0.029507444108879517 0.03245878044298239
-0.04448890290965507 0.02940310026472966 0.03245668697677917
-0.042126409224663375 0.029299491778940374 0.03245460826410812
-0.04075751591651039 0.029264078208382914 0.03178486088436666
-0.0401060285272794 0.029278162015061275 0.030626010480179378
-0.03945391375862245 0.029292259384382718 0.029466044108248435
-0.038802456814400255 0.02930645968905812 0.028304066547993223
-0.03815165269012932 0.029320763208814205 0.027140064239477346
-0.03795759895999007 0.029366987329659536 0.025653609455833837
-0.03777709676133573 0.029414347529028276 0.02415245517014808
-0.03749032061169111 0.029454457703812317 0.022721518959134157
-0.03864025829075651 0.029595572207102967 0.020260074526237293
-0.039418328291688676 0.029711112454154996 0.018049910340408426
-0.014739851285492267 0.02803303047567106 0.034206641627068546
-0.0006055876020422679 0.027092679986119788 0.042896783453851506
0.0014829447143130947 0.02700089709181656 0.04290008173320048
0.003027587991721259 0.02694730372436449 0.04251454609320626
0.0044930335316152314 0.026899115773775944 0.04207661351389658
0.0059521939830310955 0.026851174866094743 0.041639462896609025
0.007406162514749903 0.02680340453961694 0.041203867729114774
0.008854966788050811 0.026755803885527406 0.04076981972436222
0.010298634268058604 0.02670837200145592 0.04033731065405932
0.011737192225485416 0.02666110799141971 0.03990633234815838
0.013170667738353237 0.02661401096576665 0.03947687669434552
0.01459908769368029 0.026567080041120367 0.03904893563752221
0.016067026835693388 0.02651709518764446 0.038656825208411794
0.016874116602746847 0.026514754477292443 0.0377585338477871
0.017682071595223503 0.026512341052488415 0.036861185872665625
0.018488874138134936 0.026510001181336954 0.03596321402439068
0.01892904514806165 0.02653437070668014 0.034776897625576064
0.01916090802606013 0.026574057702293572 0.03342289569631807
0.01712717952968129 0.026779732288130038 0.030261618550160407
0.017368672394275753 0.026819408869537546 0.028896422842611957
0.017043302725010145 0.026900922547319593 0.027070724215342012
0.017067288837875505 0.02695705277555449 0.025517953215479727
0.017091375256717167 0.027013417731064814 0.02395868878559748
0.017623916695427566 0.027032410514612942 0.022808292069339875
0.01754520733722692 0.027096804283762106 0.021153516850489884
0.017453725910124063 0.027162426629616265 0.01948060146509939
0.01705701571738255 0.027251062930666287 0.01754651224097814
0.01579911158126418 0.027404353124259675 0.014883113040906837
0.013743474398475564 0.027617974872071384 0.011532144837644198
0.011297077121693144 0.027861820800623303 0.007826145348700075
0.012405486779818065 0.027839709767854205 0.007105607178282347
0.012836127319710233 0.02786852560280748 0.005809911659412581
-0.09844345693590817 0.033281540658357076 0.03073342826492831
-0.09508745078567055 0.03311352616594373 0.03109787460301283
-0.0917760554932267 0.032947955698973005 0.0314520054066984
-0.08850376325574788 0.03278446055575428 0.031798833324555964
-0.08525162485299859 0.03262173278313599 0.032149748098635966
-0.08204813660866933 0.03246176590638961 0.03248693085302595
-0.0794125547039371 0.032340890873519386 0.0324855534033745
-0.07679800212005156 0.03222101599798317 0.03248325981251854
-0.07420276018151273 0.03210202649810525 0.032480983161662424
-0.07162661573770518 0.0319839126011224 0.0324787232638209
-0.06906935876350984 0.03186666467757233 0.032476479934756
-0.06652936191708553 0.031750172922104136 0.03247516584870813
-0.06400927512704785 0.031634629346019086 0.032472951800128325
-0.061507463767386694 0.031519923680991685 0.03247075380754266
-0.05902372975879033 0.0314060468452742 0.032468571696931015
-0.05655650900212483 0.03129289244012318 0.03246730502963796
-0.05410835932185387 0.031180647236347624 0.03246515095027902
-0.05167770952103623 0.031069204384469973 0.03246301226864973
-0.04926437262879124 0.030958555312062982 0.032460888820242284
-0.046868164328287054 0.030848691568385073 0.03245878044287909
-0.044487595163511084 0.03073951079051242 0.03245757082844808
-0.043260784185281786 0.030713016783228464 0.03168366515723253
-0.04260667471412055 0.030727761356407063 0.030521154986602905
-0.041953237014198674 0.03074261414353602 0.02935663467186833
-0.04130176481975739 0.030757669580263228 0.028189193170683857
-0.04068209178823673 0.030775095821426925 0.026998069582119977
-0.04050816089519893 0.030825034586063615 0.025493686268243387
-0.04014124121162549 0.030861102342007413 0.02411959099061034
-0.04008307861620891 0.030919880914105115 0.02252357137008759
-0.04132370909120081 0.031074008102437004 0.01999882500519351
-0.042114342966691254 0.031195747502694722 0.017779028241770578
-0.01652257296712689 0.029378116300439388 0.03449077504132081
-7.226018528316835e-05 0.028226545497502243 0.0447967516013697
8.627588655907292e-05 0.028273083491388403 0.04339904613232798
4.350584326262563e-05 0.028334707584207697 0.04184940429074718
-0.006285514394235192 0.028862639363070965 0.035679630549918795
0.003931829561878042 0.028163495986679152 0.04166250033629765
0.005394151175335038 0.028113227354447122 0.041225441905107796
0.006851261934512132 0.028063137850060687 0.040789940893095566
0.008303189642499764 0.02801322651776352 0.04035598899047471
0.00974996190495192 0.02796349240858603 0.039923577946476996
0.011191606131821963 0.027913934580286254 0.039492699568818845
0.012628149539099853 0.0278645520972899 0.039063345723188536
0.014059619150530445 0.027815344030631035 0.0386355083327386
0.015486041799294248 0.027766309457894867 0.03820917937756918
0.016915522616523293 0.02771683586524071 0.03779060886441038
0.01772237500952789 0.027714389744257342 0.03689257480329766
0.01853009015709467 0.0277118676341368 0.035995486279697175
0.019324620962085648 0.027710339306264944 0.03508829791983398
0.019672218988502077 0.027742929196328328 0.03382756276272114
0.019876096135582833 0.027786655481422163 0.032448852730592115
0.017848575782548504 0.02800167370862192 0.02928031216123167
0.01809626998762004 0.028042776364061887 0.027917528684937132
0.0177188684151518 0.028132194885068736 0.026044757624503312
0.01774529655916446 0.028190832928831806 0.02449020770570287
0.017900139438454532 0.028239792433888605 0.023034007712791016
0.018287570779461915 0.028270935896218968 0.021763370319056674
0.018211444330866466 0.028338223395116408 0.02010638079165239
0.018118450802708796 0.028407116754218493 0.018427782339104026
0.017511261552367874 0.02851642705449602 0.01631219602490752
0.016266243239595468 0.028676085948667687 0.01364899934067415
0.01371743327056324 0.028938608841037675 0.009867829804197092
0.012187452154234668 0.029122273744329418 0.006920710743902658
0.01311711668885257 0.02911316166494099 0.006049455296156747
0.013544326519841388 0.029143641986016086 0.004748636060016742
-0.09859977707792567 0.03473983968155487 0.030639057937767
-0.09524978001980133 0.0345649763165386 0.030999312450661842
-0.0919489168032056 0.034392992520467194 0.031346445373768905
-0.08866534448079594 0.03422159482895234 0.03169959571283615
-0.08542650723425615 0.03405278165571168 0.0320417264947811
-0.08219691643093624 0.03388398333039193 0.03239450716968806
-0.07941255470416086 0.03374701656368873 0.03248555340323467
-0.07679800212027016 0.033621929737041895 0.032483259812381204
-0.07420276018172633 0.03349776678064722 0.03248098316152742
-0.07162661573791379 0.03337451749683868 0.032478723263688336
-0.06906792512150622 0.0332520663904454 0.03247739612972922
-0.0665293619172842 0.03313061522307983 0.032475165848580456
-0.0662339402267324 0.033174323467490906 0.03103512879351039
-0.061506069443616196 0.03289025198060919 0.03247166005140317
-0.059022348234890776 0.03277142472221184 0.03246947467349631
-0.056556509002304134 0.03265345298101142 0.03246730502952011
-0.0541083593220284 0.03253632755098443 0.03246515095016367
-0.05167636552671834 0.0324199391222446 0.032463905577655106
-0.049263040855846374 0.0323044799332821 0.03246177895439173
-0.04686684463739005 0.032189840210201985 0.03245966742466161
-0.04578356130689898 0.03217324744755094 0.03158168077600959
-0.045126803298974505 0.0321886544470699 0.030415482569514596
-0.04447335473759467 0.032204372926911834 0.02924547517048831
-0.043820579243239455 0.032220205769268706 0.02807342323787626
-0.0432497206662672 0.03224229878042887 0.02684317059274799
-0.04308058471109527 0.03229492860557419 0.025331562774402905
-0.0425970914754113 0.032323898491752774 0.024034251803597806
-0.04276038551562167 0.032402207210816825 0.02227963038240821
-0.04402505620702729 0.0325648221298574 0.019739064014005825
-0.04484041246194459 0.03269376969812182 0.01750105911047478
-0.0005746392512138154 0.02937145003122343 0.04744495097389412
-6.59089330363738e-05 0.029392773677145923 0.04630789061481766
0.0003415813506045251 0.029421968866730274 0.045095548271323393
-0.006978007880755088 0.030046598176429594 0.03827068462034505
-0.00887850348052266 0.030255446696946926 0.03533703747449063
0.00043516104989038684 0.02959761335454306 0.04061195569258147
0.00021542303068999846 0.029676100556159327 0.03892015886889816
0.004834454174464764 0.029379020915314916 0.04081019364091598
0.006294719410553484 0.029326598695249555 0.040374789252861865
0.00774978270354415 0.02927436322030554 0.03994093591781123
0.00919967180055098 0.029222313494386264 0.039508625362460525
0.01064441425170154 0.02917044852846678 0.03907784937224135
0.012084037411887516 0.029118767340530656 0.03864859979080487
0.013518568442477119 0.02906726895550914 0.03822086851949624
0.014948034313039482 0.02901595240521854 0.03779464751685768
0.016372461803018323 0.02896481672830085 0.037369928798111685
0.017763676781646087 0.028916093511263594 0.036924741270639716
0.018554212282825167 0.02891481773212227 0.03601437396996321
0.019336655468386366 0.028914179885189083 0.035097771574871595
0.020119064134064835 0.028913542066396913 0.034181209618496966
0.02038648804384502 0.028954019582409212 0.03285495694807555
0.020591525551520773 0.028999662394331292 0.031474481120131625
0.018573260447629192 0.02922377945478728 0.02830112812609048
0.018394624969602646 0.029301030816725457 0.026591109205686025
0.018394842740199036 0.029364211992499483 0.02501817044894128
0.01842268830481153 0.02942543657161028 0.02346100895212383
0.01876511463518621 0.029461482792382775 0.02215567381925254
0.018951684322270124 0.029510318729548145 0.02071772515207365
0.01887505814550483 0.02958074734215003 0.019055965292961885
0.018748621582909963 0.029655538145444943 0.01734498532174139
0.0179570265334677 0.029784924732581916 0.015067735045247277
0.01673527234585942 0.029950050682445783 0.012413519260726147
0.013709395171877192 0.03026374227822187 0.008211339865484613
0.01335059208050915 0.03035977682371386 0.00624849323335136
0.013475734751388746 0.030416402463642845 0.004689852426615182
0.014251862705531637 0.03041957904067181 0.0036858291953498212
-0.09875939209675527 0.03619932589622615 0.030542698496479392
-0.09542326310246818 0.03601824378422097 0.03089397796722343
-0.09211410909998391 0.03583849396911121 0.03124556852463628
-0.08883781989268774 0.035660529335611355 0.03159366726755147
-0.08560456515028891 0.03548513037331137 0.03193174342198324
-0.08236083465725369 0.03530825231820363 0.03229267934107777
-0.07941255470439396 0.035153142253860147 0.03248555340308906
-0.07679800212049803 0.03502284347610267 0.032483259812237986
-0.07420276018194882 0.034893507063191165 0.03248098316138681
-0.07162516868186009 0.03476501174212842 0.032479642822487276
-0.06906792512171844 0.03463756915673022 0.032477396129593605
-0.06903315697738499 0.03470326820469856 0.030866022150763506
-0.06918106641607336 0.03478327860065848 0.029130372055499953
-0.06933399099240534 0.034863992626337506 0.027383884891576282
-0.059022348235082456 0.0341369007523188 0.032469474673371024
-0.056555140138965176 0.034013907601074166 0.03246820475665807
-0.054107002964956186 0.03389190270329151 0.03246604745674536
-0.051676365526895196 0.033770769919018534 0.03246390557753753
-0.049263040856018514 0.03365049993051558 0.03246177895427671
-0.04832607623256707 0.03364490272259909 0.031478898485246154
-0.04766797011963464 0.03366107752080018 0.030308086599013795
-0.04701320860791003 0.033677579384213174 0.02913344513023214
-0.046357804806324454 0.033694097435169074 0.027957651394091787
-0.04583941035617539 0.03372145534140306 0.02668611076396027
-0.04567515975350528 0.0337768268864874 0.025167210750701163
-0.04519204302372626 0.03380724894788351 0.02386449167376492
-0.04593726537445886 0.03393496862675979 0.02170063432853364
-0.04674845232258945 0.03406843803048697 0.01947799558263663
-0.04786963122275811 0.03422707623754787 0.01702335922734105
-0.003889702103406112 0.030796511133850173 0.046586619339692326
-0.0005638948063176885 0.030594403484169183 0.047452624208019045
0.00018412983717502884 0.030597488783855264 0.046487437152276434
0.0006773707909406568 0.03062099174441215 0.04533799074719236
-0.007821321174571072 0.031366217867913285 0.03765847599722044
0.0013360556508845711 0.030694650210753856 0.04279286424130735
0.0014454304576507204 0.030749434501402162 0.04135339563298429
-0.009833225828488223 0.031724058235677054 0.03150524711836572
0.0006552911462748834 0.030941326790245773 0.03770960494643982
0.005736527644344402 0.030593803644288552 0.03995840736409195
0.007194738739579709 0.030539230472959554 0.039524655082696425
0.008647756789507799 0.03048485165000398 0.03909244749889673
0.010095609485376633 0.030430666139083875 0.03866177637579543
0.011538324321895665 0.03037667291121703 0.03823263353494838
0.012975928598992159 0.030322870944710548 0.037805010855858856
0.014408449423516934 0.030269259225097742 0.03737890027545282
0.0158359137109646 0.030215836745073006 0.03695429378758519
0.017258348187142725 0.030162602504430085 0.03653118344252532
0.018566272148404617 0.030118605178136377 0.03602381687761813
0.019347686399540986 0.030118023844213426 0.035106455207909115
0.02049292647988088 0.03008724518119075 0.03447709566404039
0.020895447282045843 0.030118106892430174 0.03325992123104049
0.02110099775673757 0.030165518019264245 0.03188202343488861
0.021305195332470384 0.03021324579155252 0.030498171427695342
0.019300203078045697 0.03044610381171437 0.02732327233184967
0.019043100401273272 0.03053334003665453 0.025545085860130268
0.01907224557079984 0.0305968888372921 0.023991795210504485
0.01910151231261853 0.030660702716871605 0.022432025372586373
0.01963075101336692 0.030682579056456424 0.021278548124046226
0.01961625780115639 0.03075055990535061 0.01967135581688273
0.019524779050067498 0.030825365743397615 0.017992821929480207
0.019373185874868082 0.030905607478400873 0.016256033881822674
0.018403650817498507 0.031055867698612426 0.013820875113302433
0.017204108436739085 0.031226421027987263 0.011174905951024383
0.013701321360224283 0.031594763242173564 0.006547490193386074
0.01411671629438066 0.031628796826011614 0.005239178167741498
0.014405850404980491 0.0316738299119339 0.003818494745639389
-0.09893668870619171 0.037661153214393485 0.030435664695069253
-0.09559845092685298 0.03747268953108701 0.030787608408286538
-0.09228565660403143 0.03728549075900424 0.031140810784581863
-0.0890181298567046 0.037101122395106705 0.03148292711074796
-0.08577361706202624 0.036917848489906174 0.03182732319102988
-0.08252637386859518 0.036733644116134154 0.03218984453850904
-0.07941255470463637 0.03655926794403372 0.03248555340293763
-0.07679800212073495 0.03642375721516554 0.03248325981208916
-0.07420129955244043 0.036289131417788514 0.03248190610879936
-0.0717018753597442 0.0361617122730371 0.03243089813121908
-0.07185623852119666 0.03624524799883745 0.030695473784972116
-0.07201277174779869 0.03632928674724212 0.02895107775050554
-0.06254908361227707 0.03564407536439946 0.033416687985095395
-0.06191777467411946 0.035664106490764444 0.032204071313847504
-0.059020966719833645 0.03550226582736644 0.03247037764428218
-0.05655514013915952 0.035374463905132776 0.03246820475653028
-0.05410700296514531 0.03524757881143842 0.03246604745662035
-0.05167502154090464 0.035121492128033616 0.03246479888100795
-0.05088587791966037 0.035127899955969565 0.03137710254983761
-0.05022910633676764 0.03514507142086572 0.030199846672537833
-0.049571692344530405 0.03516225968172316 0.02902143928349582
-0.048916310314089106 0.03517968265693923 0.027840060497286656
-0.04844877853963758 0.03521250646639709 0.026528690375561714
-0.048289502112301874 0.03527067068718711 0.02500244201438878
-0.0478389200832357 0.035305200687777254 0.023672068926887502
-0.048670007841429996 0.03544510538543811 0.02144795252517484
-0.04949551413633946 0.03558512001420286 0.01921465852538229
-0.05093216901348019 0.03577608973604843 0.016538915862832126
-0.00520035974860894 0.03207123259495023 0.04716378939496979
-0.0010267339888351823 0.03179137653820109 0.04862006468903096
-0.0004403769363434673 0.03180793390912479 0.04754083551573057
0.00021093864328364242 0.03181915999520293 0.04650668788009815
0.0009430094599711669 0.03182370614086031 0.04552978384390749
0.0012442050158739115 0.031864233070736145 0.04423965211249237
0.0017913650506720113 0.031884356281600315 0.0431252043811457
-0.012062597405696485 0.03311150062423351 0.03143981090298342
0.0022371166467525794 0.03197932185527596 0.04041196935603908
0.0037090021753942715 0.03192198769394957 0.03997520258625853
0.005175619406175058 0.03186485874793173 0.03953999912919148
0.0066369965736798875 0.0318079339174042 0.03910635060652279
0.00809316171108665 0.031751212110394465 0.038674248699693825
0.00954414265197584 0.03169469224270456 0.038243685149383255
0.010991003192853177 0.03163828512064146 0.03781544156177741
0.012431692608532108 0.031582166222076775 0.0373879299684573
0.013867280183278985 0.03152624605454569 0.03696193230038375
0.015297792969529656 0.03147052356428001 0.03653744052998681
0.016723257828805127 0.03141499770494784 0.036114446686357216
0.01857833121590996 0.03132231296264875 0.036033259160378917
0.019631252291238466 0.031298321690878636 0.035329680438030864
0.020654627866546316 0.031276778170761556 0.03460507106566818
0.021403975590832014 0.031278845062689 0.03366454263581736
0.021610036346713213 0.031328014139613704 0.03228921888762387
0.02181475053123033 0.031377511383275686 0.030907959685257946
0.02202011262295772 0.03142716528251696 0.029522328886682936
0.020018260714673053 0.031669597610625086 0.026337713588831246
0.019718476620747383 0.03176426331237491 0.02451986344868995
0.0197490366908471 0.03183039403045584 0.022963968307242955
0.019779724273824795 0.031896800680994396 0.021401581145352955
0.020353427314824923 0.031915709644473295 0.02028340026371428
0.020282313258437934 0.031991570219519296 0.018625114231703543
0.020148373549134346 0.032073315297203954 0.016906493603782546
0.019998333609476726 0.03215684457543185 0.015166065187643574
0.018852173306461384 0.03232917102243505 0.01257248818009793
0.017673800435751896 0.03250512151778209 0.009934031426410694
0.01372104728416873 0.03292922905141951 0.004900087011916854
0.014416539219953006 0.03293982792040077 0.0038277035170240503
-0.09577060710592228 0.038927943868550335 0.030683079586719397
-0.09246981805879717 0.038734550263267394 0.031028350169584884
-0.08920012055930382 0.038542942782120726 0.03137115470231511
-0.08594126635055604 0.03835147597040402 0.03172376933442134
-0.08269203088819549 0.0381600503136819 0.03208693655213729
-0.07947655915240781 0.037970648329969665 0.032445566328080044
-0.07679652775591261 0.037824549673410354 0.032484186173183716
-0.07454187869857465 0.03771293815082732 0.03226669982967123
-0.06473892064719938 0.03697752463813867 0.036855637764584226
-0.06343036792008727 0.03694209033341367 0.036080179499837495
-0.06246021009021824 0.0369345721825424 0.03509033596466815
-0.06166027054551709 0.03694116485930823 0.033991136640828534
-0.06108260008354882 0.036966284842467695 0.032746894911342694
-0.059019585213227754 0.03686762236813145 0.03247128060954424
-0.056553771284360954 0.036734905815412305 0.032469104478054844
-0.05412599273290164 0.0366048450381791 0.03245349585636209
-0.05346718805672812 0.03662268654994748 0.03127360449400157
-0.0528104482688897 0.0366407730768168 0.03009075280268092
-0.052151707145910386 0.036658763556932095 0.02890764112906241
-0.05149637170802862 0.036677113810378956 0.027720627902563688
-0.051080743379253835 0.036715812049283106 0.026369070031336372
-0.05092518219744219 0.03677670693465882 0.02483632846935019
-0.05050781977280988 0.03681561573295869 0.02347804517811486
-0.051426506601004285 0.036968370073648574 0.021193074106821586
-0.05225422607513741 0.03711398820748122 0.018957587000269116
-0.05402444153315211 0.03734072441389251 0.01605051664656798
-0.0029756753588603413 0.03304639873970595 0.05022856751637639
-0.012054493687157497 0.03389274226997534 0.04232221281779397
-0.0010568308774657198 0.033016709018041004 0.04859868814002094
-0.00023755070783182397 0.03301384461164057 0.047685685543171485
0.00033421080742029874 0.03303233340525897 0.046595206513496745
0.0011505502859458505 0.03302974372867672 0.04567962986539892
0.0017019996413305538 0.033050102141268946 0.04457199101830572
-0.014068744167557934 0.034488160529985705 0.03154856898135383
0.00018878577550335285 0.03331875755558311 0.040431140092945295
0.001669198521991655 0.03325882544415816 0.039992901794255964
0.0031442950464573016 0.03319910855137072 0.03955623722696017
0.004614103933732683 0.033139605720009936 0.03912113792925487
0.0060786535640780515 0.03308031580114712 0.03868759549988682
0.007537972115024494 0.033021237654060356 0.038255601597624145
0.008992087563167106 0.032962370146162594 0.03782514794071068
0.010441027685958282 0.03290371215292873 0.03739622630634115
0.011885853418252934 0.032845171107032396 0.036969620452271645
0.013324519604011098 0.03278692912547987 0.03654373820719192
0.014758092654298283 0.032728893330955355 0.036119363661343606
0.01618659956723728 0.0326710626304854 0.035696488822583694
0.017610067150476527 0.03261343593880721 0.03527510575516263
0.019434907467387685 0.03251966459977713 0.03517511629695963
0.02045897082757797 0.03249726830864332 0.0344502221267714
0.02148261989756256 0.03247481344488666 0.03372711765733971
0.022115657195040717 0.03248742371191838 0.03269368038484938
0.022321877198218765 0.03253859111005905 0.03131579489866454
0.022519784324029624 0.032590730271023445 0.02992631523672984
0.02047208796419442 0.03284654293292829 0.026706592487067526
0.02070626628097544 0.03289627992234994 0.02532703658841573
0.020395275174115823 0.03299583798023162 0.023494854875897586
0.020427253873858076 0.03306455334287097 0.021936358479438256
0.020459366045855576 0.0331335555086454 0.020371357254378497
0.02101736655515357 0.03315469439715717 0.0192386423550564
0.020925364238310762 0.033235587125170656 0.017558466234959214
0.020774595859657297 0.03332223989470578 0.015820878972103658
0.020459774995963464 0.033424396918443205 0.013935757062259857
0.019300523390976654 0.033605022100832764 0.011320813900990434
0.01760955671096892 0.03383567821537516 0.008232567246501066
0.014553301323034395 0.03419405280476974 0.003945528640257878
-0.09595711767721055 0.04038544532401685 0.03056983514593331
-0.09265255977781478 0.04018460110111863 0.030916756534899115
-0.08938070757159772 0.03998574466289342 0.031260244392021685
-0.08610750987484561 0.039785999803369276 0.03162108379231521
-0.08285780584185914 0.03958747199409951 0.03198395530381137
-0.07963888239113426 0.03939078877679522 0.03234415413370789
-0.06765656119409247 0.03844576173449719 0.03822693674646038
-0.06557283930390179 0.03834309631774042 0.037934086154964686
-0.06402705155289762 0.03828609684882697 0.0373080082775864
-0.06287182528530383 0.038262387083314434 0.036437126319922575
-0.061936388095172934 0.038257481155770205 0.03542698686534973
-0.061099789245354696 0.038261070737203126 0.03435338123587656
-0.06052385489218326 0.038287175267958294 0.033110052601105444
-0.06007896743178681 0.0383247179743919 0.03177885877202119
-0.0567304239928062 0.03811076733076356 0.032352994102930466
-0.05607165456032798 0.03812953521213499 0.031167478575428842
-0.05541223597807793 0.03814832158733149 0.029980794843830372
-0.05475216728607679 0.038167126483702164 0.028792941180565856
-0.054095540809851905 0.0381863075154283 0.027601164701821446
-0.05373424193851922 0.03823141709768993 0.02620814373502922
-0.05358109559229074 0.038294965632533144 0.024669782432153953
-0.05320585357622376 0.03833925103735124 0.023277729026213112
-0.054207072783056254 0.03850493462440598 0.02093597030498562
-0.055035578256049544 0.03865604851265652 0.018699233221370626
-0.057505671306457506 0.038952930488671426 0.015308808575724808
-0.009473301823228586 0.03477634254685458 0.04717623683459421
-0.0033924311586086 0.03430734057530181 0.04993579469984749
-0.0021349934466045606 0.0342655399466182 0.04932908202293834
-0.0011449989076758316 0.03424741002080687 0.04853606611147698
-0.00025042218447646203 0.03423772940574078 0.04767649327174356
0.0005526896881886678 0.03423619634592392 0.04675209068996533
0.0007588154334012276 0.03428820534443678 0.04539679438540278
-0.014336829833075992 0.035715797044980985 0.03292850124877228
-0.001874183545439445 0.03466715057376784 0.040449641492295796
-0.00038515665375526975 0.03460458701818021 0.0400099219136405
0.0010985054475778355 0.03454224887179442 0.03957178659332489
0.0025779039814332605 0.03448003773666307 0.03913602252822268
0.004050917048133151 0.03441814711799359 0.03870102994244429
0.005518651562351595 0.03435647828478517 0.03826759615554737
0.006981135846933495 0.034295030047015576 0.03783571280356701
0.008438398022458493 0.03423380122316103 0.03740537158226881
0.00989046600904897 0.034172790640119924 0.036976564246621324
0.01133736752813963 0.03411199713313919 0.03654928261025886
0.012780160656247208 0.034051324765419416 0.036124312579711604
0.014216805800136456 0.033990962285055236 0.035700057786140105
0.01564836650100837 0.03393081343405957 0.03527730447626232
0.017074869702776274 0.03387087708034956 0.034856044693286514
0.01849634215931084 0.03381115209982723 0.03443627053654197
0.020263102388038634 0.03371907714333187 0.03429520587902507
0.02128743949782147 0.033695765459585185 0.03357181820564026
0.022310361235195975 0.0336724859866361 0.03284943006933633
0.020239494132815894 0.0339385322457802 0.029641126226799486
0.023006155724626165 0.03375219610391981 0.030319548246469485
0.023194271464761274 0.03380732118191298 0.02891923188134199
0.021158344134155238 0.034072094269085876 0.025696452380910895
0.021394632636626665 0.03412360550488633 0.024315829590136562
0.021071466258824445 0.03422824582176967 0.022468396214546216
0.021104863267559892 0.03429954931530836 0.020907289604623402
0.021138399710564137 0.034371150504587576 0.01933966529452802
0.021675669436320988 0.03439511627991004 0.01818804707929439
0.021552639776570015 0.03448217589033474 0.016477195676402046
0.021402417050662537 0.03457221740814982 0.01473513080550748
0.020907689587757794 0.03469566342977215 0.012690924225108313
0.019675143300972364 0.03489050296168578 0.010002789644977528
0.017249497273609582 0.035201024253899225 0.006268391575101839
0.015385473344330103 0.03545875191134293 0.002991064339123606
-0.09614219117188083 0.041843944552361984 0.030457463261254036
-0.09283544201391719 0.04163576693834231 0.030805077091607014
-0.08956143275671419 0.04142965047686588 0.03114924922074952
-0.08627539810259144 0.04122167515901355 0.03151738234738377
-0.08302369885556993 0.041015910242182534 0.03188090071526867
-0.07982070047082429 0.04081363543761658 0.03223056244725214
-0.0670130511176848 0.03976196860438983 0.038631261842750786
-0.06515002704771211 0.039675062580091514 0.03820125416409609
-0.06363285628333926 0.03961849216513073 0.037558507024814725
-0.062480284089763305 0.03959410262449357 0.036687347835661854
-0.06145822461211925 0.03958123903540873 0.03573429386804472
-0.06060307641172169 0.039583217506322994 0.03467441164174806
-0.05996651389138269 0.0396047461447708 0.03347229763406251
-0.0594330408165783 0.03963559513458839 0.03220104227290732
-0.05918530504545122 0.03969221443914391 0.030739448732372776
-0.05916575004756047 0.03976958164720896 0.02912238512221449
-0.057376075674963445 0.03968773861583572 0.02867549491591853
-0.05671539940817044 0.03970751446643184 0.027480750568839862
-0.05641091850436564 0.0397595979405075 0.026044968596076523
-0.05625884755351107 0.039825708394546376 0.02450186695011186
-0.05592384675258494 0.03987546706597219 0.023077603548754544
-0.05701202297432001 0.040054973986236864 0.020676611846618564
-0.05783424452576763 0.04021094873930573 0.018443428669652373
-0.009693508324735534 0.035892549107698304 0.05003025644104386
-0.006730627613002027 0.0356940632554593 0.05058802710951582
-0.005026660798243876 0.035610297400276596 0.050282889217034665
-0.009984315225126994 0.036138756769806046 0.04530496660926708
-0.002381119071652338 0.03551198783577436 0.049155225475640385
-0.0014776058367291234 0.03550124172760134 0.0482998294556794
-0.0004629264367705388 0.03548016641628914 0.04752473160363002
-0.015029540409083608 0.036903553023982155 0.035562884082183666
-0.014604171423581558 0.036940026239984824 0.034304603497502195
-0.003949754268085637 0.03602439679970684 0.04046906449681509
-0.0024520375557132157 0.035959168509157764 0.040027853401230384
-0.000959734781645738 0.03589417600548472 0.0395882371930823
0.0005271833565727579 0.03582941801251214 0.03915020724018997
0.0020098214369168588 0.03576479230970545 0.03871455289347148
0.003486051275537083 0.035700499908929546 0.03827966959366602
0.0049569831635061234 0.03563643824320686 0.03784634701978712
0.006422645569977903 0.03557260607265553 0.03741457678509702
0.007883066760488555 0.03550900216626191 0.036984350562835666
0.009338274798779966 0.03544562530180085 0.03655566008568961
0.010788297548602555 0.03538247426575687 0.036128497145267335
0.01223316267548058 0.03531954785324801 0.035702853591564276
0.013673925400907061 0.03525674676215582 0.035279517477097844
0.015108551688118255 0.0351942663636279 0.03485688824085453
0.016538102211776373 0.03513200702318033 0.034435754283222764
0.01796260386169035 0.03506996756971626 0.03401610768268848
0.019382083338058076 0.03500814684039713 0.03359794057358717
0.021092048244462425 0.03491803647017821 0.03341635098375845
0.02211068750569667 0.03489438003200657 0.032689704979168455
0.023126956994477532 0.034870851595310955 0.031963246338097606
0.020918154957720148 0.03516037697076334 0.028631392189386318
0.02367986953770218 0.034967472139578265 0.029313934672593578
0.02386814615513555 0.03502469496268599 0.02791076934876119
0.021847982117795373 0.035297999302973906 0.024688257349686993
0.02208336006549627 0.035351574864362696 0.02330409217698809
0.021749077236944747 0.03546129944465176 0.02144215651816561
0.022170494452560252 0.035497163920061234 0.02020112548116837
0.02241174207736507 0.03555094723511429 0.01880568538977062
0.022276616552581452 0.035642152289761315 0.017087904199779236
0.022138760355066123 0.035734028074762614 0.015359560301966002
0.022002233220781264 0.03582617614416029 0.01362402344957342
0.021272256189220407 0.0359777518911103 0.011371526749175798
0.02002473000194216 0.03618158382869228 0.008659347335878143
0.016886071453748375 0.036575233402043134 0.004290702026031323
-0.0930200298344584 0.04308819070633476 0.030692356110740393
-0.08973147148573074 0.042873679799588706 0.031044817301988825
-0.08644340653824123 0.04265837845753283 0.031413606652259285
-0.08320329802436005 0.04244660323469808 0.03176933171047297
-0.07044306556075125 0.041365564776066115 0.03808928324233246
-0.0668732779894542 0.04112029575356831 0.03871908297501053
-0.06485971806074381 0.04101658197824264 0.03838469556851576
-0.0633425475166034 0.040958008609637796 0.03774298915332486
-0.06208804020301767 0.04092335367877347 0.036938018418984364
-0.06105037537531588 0.040908537751442306 0.035996411179289534
-0.060284545009666624 0.040918754485945875 0.03488028163012069
-0.05964550132073465 0.04094073775371672 0.033680940474024035
-0.059132897457376155 0.04097452550192906 0.032397218697863495
-0.05887798458752974 0.04103237543400596 0.03094144446720587
-0.05894101999613571 0.04112003776048887 0.02927092415690352
-0.05913777536535908 0.0412205163816441 0.027504550829941188
-0.05986326489400462 0.041370787289891166 0.025376771375038243
-0.06528633002831535 0.041961350551884956 0.020079686610687597
-0.059042011572761455 0.04146003427182843 0.022620841206342557
-0.05983183622415034 0.041617741171095915 0.020421658513434637
-0.060654560801947144 0.04177918250386854 0.018187319666007118
-0.022082720319591187 0.03830159012197687 0.041469405794562875
-0.00801951188482275 0.037047000954303536 0.0496924920871365
-0.005764224360875203 0.036908257040689695 0.04976758933422981
-0.0041046166210274015 0.03682561185995858 0.049435481221668576
-0.002723843226188183 0.03676920751168092 0.04891313431519473
-0.001709371352598077 0.036747559512888044 0.0481352161971586
-0.014865940306552972 0.03808214254682857 0.03723870020828646
-0.013430284052265429 0.038022708896270484 0.036711269755064946
-0.0060391443356623276 0.037390679698515034 0.040488616821451495
-0.004532654944646164 0.03732275254637621 0.04004590406138453
-0.003031629266441793 0.03725507175140248 0.039604796925166885
-0.0015360376312815727 0.037187635975792756 0.03916528669373459
-4.585058383993479e-05 0.03712044389141545 0.03872736471103355
0.0014389611187163864 0.037053494179719794 0.03829102238346305
0.002918426508625227 0.03698678553165112 0.03785625117930197
0.004393640918419206 0.036920212651878795 0.03742384250579289
0.005862493903676547 0.03685398261422911 0.03699218797687753
0.007326086464715609 0.0367879897671638 0.036562079338452014
0.008784446809878332 0.03672223283877887 0.036133508300883854
0.010237602946173818 0.036656710566248855 0.03570646663369814
0.011685582681087325 0.036591421695744274 0.03528094616506294
0.013129444409152646 0.03652626319415944 0.034857737274929856
0.014567148145704478 0.03646143776278673 0.034435234677997584
0.015999757758566047 0.03639684202322096 0.03401422910744539
0.017427300274378943 0.036332474756842786 0.03359471262086611
0.018849802528943582 0.036268334753637485 0.03317667733194202
0.02026729116888676 0.036204420812120504 0.03276011540994028
0.02190780740982823 0.03611792616884556 0.0325274150190063
0.02292478466528758 0.03609355904394829 0.031800657777117824
0.023940390629116237 0.03606922477567173 0.0310748804943069
0.0215961893090727 0.036383000997829436 0.027620282147708175
0.024352972630057257 0.03618353244687074 0.02830694570466108
0.02454438712489082 0.03624256173956107 0.02690336096697621
0.022539982719068485 0.0365243293390608 0.023681204582888526
0.022733234301357874 0.03658417039935008 0.022259265547927953
0.02285462180541048 0.036651585487777666 0.02077214716463549
0.022960318505120147 0.03672089542702073 0.0192659956894784
0.022993656088628744 0.03679790463730291 0.017692760834373267
0.022860960442299627 0.03689225909678948 0.015971996151000867
0.022723515695191654 0.03698751616845615 0.014238917271241769
0.02256598308196539 0.03708525993848304 0.012480259897489299
0.021601733509772847 0.03726661741377233 0.010017988571014436
0.02037311454694607 0.037476097895929414 0.007310759555990365
-0.09320319479586175 0.0445415952380627 0.03058050401752399
-0.08990008514978581 0.044318603622002406 0.0309412606089437
-0.08662223849021017 0.04409711577491853 0.031303145471817506
-0.0833860576549662 0.0438786836406393 0.03165579939158236
-0.08018177920719466 0.04366240481822752 0.03200497683619763
-0.0668704551848689 0.04249070567519333 0.038720856576975105
-0.06468179186949569 0.0423669639305773 0.0384971241596746
-0.06319474681816617 0.042309261442648356 0.037836911867921263
-0.06196022349463276 0.04227532230908225 0.03701970200904625
-0.06103513023568885 0.04227070446125245 0.03600620895417295
-0.06096648339699473 0.042347756427287976 0.0344395381211155
-0.06210084432791113 0.04254008434061948 0.03208508478194699
-0.06334414077895817 0.042743607574824316 0.02964471182366596
-0.062491591884033804 0.04274684523986863 0.028566290967200092
-0.06198163097014964 0.04278303250087447 0.027261182174994125
-0.06217594653368286 0.04288720928995202 0.025485177958883498
-0.062108406540706984 0.0429665273116278 0.023876157281756072
