# .PCD v0.7 - Point Cloud Data file format
VERSION 0.7
FIELDS x y z
SIZE 4 4 4
TYPE F F F
COUNT 1 1 1
WIDTH 782
HEIGHT 1
VIEWPOINT 0 0 0 1 0 0 0
POINTS 782
DATA ascii
0.07362784140949155 -0.03300137425747374 0.0716809788992599
0.07379329782323879 -0.03313230596794975 0.07016170684506101
0.07395949953878003 -0.03326382746294115 0.06863559119881674
0.0741266647618969 -0.03339714019118312 0.06710185437416144
0.07429437323394081 -0.03352985636515193 0.06556190599663275
0.07445079880978381 -0.03359578052343287 0.06405660164049154
0.07448220599138128 -0.032960070190051705 0.06298098102651722
0.08050622809250062 -0.06134160719389192 0.03580924133846808
0.08007036125002419 -0.05806344602879904 0.03631579905925336
0.07992190649129273 -0.0563749246734101 0.0358066581824511
0.07961311666698045 -0.053809890054682175 0.03587638350212624
0.07125753240576044 -0.007187017272747898 0.06491690143805978
0.07096738878359538 -0.004825010897393622 0.06503978654659454
0.07068366830518337 -0.002504360006968631 0.0651469204151573
0.07052432253320916 -0.0008669069786705896 0.06480891619352475
0.0703060080697873 0.0010874191213862683 0.06469035797077183
0.07012374203978325 0.0028415493118678636 0.06444537973268727
0.06996443930471795 0.004467461190189703 0.06412069396374548
0.0698179589614487 0.006020663905399404 0.06375282796940418
0.06967905884868489 0.007529825935451651 0.06336069488147644
0.06954408727929925 0.00901483376109069 0.06295756964773946
0.06941917048002413 0.01044293575547578 0.06252045374137422
0.06929488790873005 0.011864918839882277 0.062084208268994856
0.06917439071386831 0.01326395989875001 0.06163697565209236
0.06905394188914346 0.014660117372759907 0.06119268979415521
0.06893520220259168 0.016044551720831968 0.06074506933652407
0.06881429824919846 0.017437896731098412 0.06030874359979904
0.06869107188308203 0.018840920112398796 0.05988439895200781
0.06855734438033333 0.020296818196497313 0.059503368727145844
0.06841796187856575 0.021779660470350293 0.05914748670493125
0.06827263480633891 0.02329078786916494 0.05881808684313167
0.06812702354173092 0.02480024300629885 0.05849355746516871
0.06798167350377458 0.02630515464249683 0.05817179780375914
0.06785122699262323 0.027728859011926787 0.057795913269648946
0.06776240278889088 0.028932225254755695 0.05726117565787947
0.06769158178407872 0.030039777184634464 0.05665833580202795
0.06764379908658584 0.031025902164862895 0.05596693524855467
0.06761328190001452 0.03192133003000697 0.05520880338489581
0.06760157908874972 0.03271859905338276 0.054377149903776734
0.06760991239109135 0.03341200657110055 0.05346640040561085
0.06762197274781115 0.03408636371815682 0.05254061639894486
0.06763048851406428 0.03477923545595635 0.0516286579008956
0.06763953886986364 0.03546954586476292 0.05071433895135691
0.06764628383191447 0.03617187417466183 0.04980904062139796
0.0676533852485559 0.03687252564935589 0.048902131426126316
0.06766102093906547 0.037570604061546 0.04799287895919352
0.06766617154458233 0.03828150967801397 0.047093502064787796
0.0676738101218021 0.038979879097294556 0.046183873559764554
0.0676807396196938 0.03968201207203104 0.045276939524241444
0.0676869596020716 0.040387887634605935 0.0443727293630235
0.06769886966983991 0.041065157272145325 0.04344499611660485
0.06771238468023019 0.04173459710892513 0.04251034340291815
0.0677200336953294 0.04243383361725678 0.0415995758529758
0.06772590502789462 0.04314215802770999 0.040695977481033874
0.0677292859285288 0.0438630813793765 0.03980258085499688
0.067727684318867 0.04460897437601691 0.03892987639457829
0.06772483724643734 0.045361042077497415 0.038062423996252925
0.06772501511776488 0.04609799900060224 0.037182351205364284
0.06776364826980807 0.04664406820484529 0.036140395055749786
0.06978050030085785 -0.04822099857608286 0.11659288324178793
0.06942624820397922 -0.04526230390134911 0.1167156293314873
0.06907557477422624 -0.042333498064025865 0.11683713543573793
0.06872842605639692 -0.039434130433135095 0.1169574202496727
0.06842093875290771 -0.03678580646294094 0.11696837633689028
0.06808050545771963 -0.03394251757680666 0.11708632463697433
0.06774344308862064 -0.03112738256628006 0.11720310502823522
0.06740988114308365 -0.028341079603615482 0.11731819190619155
0.06725298435269615 -0.026638296399082884 0.11690492359474841
0.06739338770909603 -0.02674665025778511 0.11558790522034465
0.06753455851161652 -0.026856549825124754 0.11426482428351367
0.06767614124555767 -0.026965815846842267 0.11293674543679416
0.06781831886849339 -0.027075540972222478 0.11160308639346253
0.06796109513763965 -0.027185728100883877 0.11026381190996104
0.06810447384191942 -0.02729638015691621 0.1089188864453153
0.06824864261098545 -0.02740860546965368 0.10756769827732604
0.06839323846048681 -0.0275201988949641 0.10621135814129701
0.06853844831047361 -0.02763226618183201 0.1048492585487675
0.06868446224383021 -0.02774592370840706 0.10348077210155263
0.06883091268050191 -0.027858950499119517 0.10210703800335327
0.06897798898095323 -0.027972460315848657 0.10072743317893129
0.06912569516576861 -0.028086456261579962 0.09934191991440697
0.06927403529004428 -0.028200941465934326 0.09795046017217279
0.06942320363358488 -0.028317045978291322 0.09655239961866538
0.0695728247626554 -0.0284325219424445 0.0951489263150922
0.0697230922126046 -0.028548496730011197 0.09373939040452273
0.06987420284931832 -0.028666108756178144 0.09232312088683775
0.07002577640508305 -0.028783093721882924 0.09090133601720274
0.07017800898768252 -0.0289005873266186 0.08947336936748243
0.07033090490455642 -0.029018592894882067 0.0880391805331859
0.0704844685007642 -0.029137113780203117 0.08659872875693964
0.07063890106851257 -0.029257302612722025 0.085151314388412
0.07079381407571014 -0.02937686716482668 0.08369820752159057
0.07094940803299139 -0.029496957286006542 0.0822387132424569
0.0711058869613224 -0.029618734308200334 0.08077211416496327
0.07126285723966855 -0.029739888913916768 0.07929971243208969
0.07142052209288245 -0.02986157961435354 0.07782079549609769
0.07157888614130366 -0.029983809975634823 0.07633532001759905
0.07173795404634196 -0.030106583595582326 0.07484324227195885
0.0718979345018166 -0.030231076597708573 0.07334381437083431
0.07205842518260672 -0.030354950626500787 0.07183839350278842
0.07221963396139704 -0.030479378916039246 0.07032623679364064
0.07238177241420303 -0.03060554664816484 0.06880657746383317
0.07254422517793056 -0.03072991322410784 0.06728153420657967
0.07270761740718923 -0.03085602680017352 0.06574889648313292
0.07287195687382288 -0.03098390029539516 0.06420859964009429
0.07303683042345133 -0.031111159549656764 0.06266206973671362
0.0789961556716175 -0.06052431834088351 0.036334498056244224
0.07869563667505045 -0.057964821589019 0.036379541073758515
0.0785152038967069 -0.05608358235953759 0.03599601681742659
0.07824803368388525 -0.053722214254285305 0.03593368926881679
0.0702653783980508 -0.008388011587854849 0.06412751153317575
0.07005500620801795 -0.0064397556119195065 0.06397249463899607
0.06982414271430787 -0.0043824708701758475 0.06389860191386926
0.06950164839559156 -0.0018229244207100814 0.06416993074123845
0.0693043460503874 3.7647541516361294e-05 0.06398479273441027
0.06913153869313238 0.0017587554090827684 0.06371356419525448
0.06896578425780461 0.0034372139981913574 0.06342051828367434
0.06880997696676752 0.005057360195592497 0.06309451119907644
0.06866547594340298 0.006612074285620495 0.06273002897265484
0.06852621292290327 0.008134929900128152 0.06234956298687011
0.06839526596129644 0.009609296146528501 0.06194122931637047
0.06826868054015138 0.011056995890798393 0.061519751860064364
0.06814292929800246 0.012497354044034903 0.06109843176445473
0.06801581485127381 0.013942322181794975 0.06068565865741854
0.06789262962047266 0.015363194942619063 0.06026113054169807
0.06776988979058032 0.016778930253129543 0.059838137392367596
0.0676450648418651 0.01820319035303536 0.05942646143603836
0.06751854003613898 0.01963383241835026 0.059024688210029874
0.06738496098439338 0.021099558188226786 0.05865376230186331
0.06724316507523612 0.022606364590516848 0.05831851170134944
0.06709610158726836 0.024138203322560114 0.05800768458184552
0.06694950308387754 0.025664300425919884 0.057698910749983456
0.0668046004530253 0.027178114865025693 0.05738730741257664
0.06667681099983049 0.02859775147564214 0.057011675811557305
0.06658640659419082 0.029816247634959603 0.056490689602629096
0.066517367146307 0.030919646903384834 0.05588681233452536
0.06646816573158151 0.03191672530106865 0.055205312414159435
0.06643279270779757 0.032839820576210765 0.05446955028338846
0.06641155212617199 0.033687793136684185 0.05367775233961758
0.06641329258160854 0.03441466604015625 0.052793571601228995
0.06641921095628973 0.035119693672403474 0.05189239264504847
0.066417818228663 0.03586306685629104 0.05102081929616903
0.06641868857926601 0.036594605378531486 0.05014004033412528
0.06641538108088338 0.03734790777206637 0.04927635587494794
0.06641242201313083 0.038099327230029345 0.04841132658974795
0.0664106814835531 0.03884436594752716 0.04754135068130155
0.06640876701237163 0.0395902656235414 0.04667214031393996
0.06640528648743016 0.0403442043311566 0.04580947969195248
0.06640285031907708 0.04109268817001188 0.04494256309902667
0.06639815255471329 0.041852738625141384 0.04408515629676135
0.06639223781239521 0.04261892458743538 0.04323297230543488
0.06638701979009932 0.043381414981849886 0.042378016332572654
0.06637728172783937 0.04416686446873397 0.04154225500718817
0.06636441797437424 0.04496802008710943 0.04071997033605523
0.06634443693117394 0.045805066502972225 0.03992822047410738
0.06632012842945363 0.04666361778438338 0.03915541475919604
0.06629358307816892 0.04753295019748993 0.03839280005226936
0.06628144519767173 0.04832894262635257 0.0375691921700933
0.0662901145562743 0.049019828899611206 0.036656531206577136
0.06636007289968313 0.04940278247257934 0.03547957608241192
0.06894265187377088 -0.051295391479344865 0.11642859960002655
0.0685907985667312 -0.048305327999679515 0.11655283456670529
0.06824251843386123 -0.0453456294969416 0.11667580789049425
0.06789775732018438 -0.0424158357599736 0.11679753869283294
0.0675564621595846 -0.039515495830800884 0.11691804571070138
0.06721839951728127 -0.036643035048280315 0.11703789888632454
0.06691928863468574 -0.0340209474231869 0.11704789505423771
0.06658809140663703 -0.031206004702994727 0.11716434153380201
0.0662599800632283 -0.028417693504420305 0.11728018412657562
0.06593508638536945 -0.025656726233534544 0.11739489069411652
0.06582059408099417 -0.02420482342236424 0.11686453440677791
0.06595743858505743 -0.024307669711058022 0.11555288045793588
0.06609502870434834 -0.024412025864074927 0.11423521135297068
0.0662330179117116 -0.02451573444350824 0.11291258779058413
0.06637158449552331 -0.02461987696187118 0.11158443008743052
0.0665107320871813 -0.024724456148414953 0.11025070343664131
0.0666504643485999 -0.02482947475532432 0.1089113727388461
0.0667909641018089 -0.024936029676544347 0.10756582912588317
0.06693187756880782 -0.02504193806666216 0.10621517901062552
0.06707338688244743 -0.025148294285910144 0.10485881772840311
0.06721567724462972 -0.025256203120783527 0.1034961208743923
0.0673583904167227 -0.02536346619160401 0.10212822309882161
0.06750171089904754 -0.025471185716137767 0.10075450428860677
0.06764564257644609 -0.025579364614222833 0.09937492720775015
0.06779018936696606 -0.025688005830660388 0.09798945430198402
0.06793554054345481 -0.025798227555569764 0.09659743447409874
0.06808133024521315 -0.025907805037092335 0.0952000508294929
0.06822774702218515 -0.026017853836666327 0.09379665671472143
0.06837498265538022 -0.026129500345136114 0.09238658451861875
0.0685226665931677 -0.026240503681157712 0.09097104728827943
0.06867098988045228 -0.026351987569928348 0.08954938195060749
0.06881995667802358 -0.02646395513881311 0.08812154862481053
0.0689695711828523 -0.026576409542366397 0.08668750708329648
0.06912002946838246 -0.02669049110352284 0.08524656133096037
0.06927095296402336 -0.026803931548836035 0.08379997581427173
0.06942253698440914 -0.02691786847228478 0.08234705923871205
0.06957498024887972 -0.027033450724008645 0.08088709804076233
0.06972789924955275 -0.027148393271460514 0.07942138844025928
0.06988149193289436 -0.027263842196768584 0.07794922167512458
0.07003576276058261 -0.027379800853580327 0.0764705549807275
0.07019071623378167 -0.02749627262522525 0.07498534521397018
0.07034655560221792 -0.027614420854111477 0.07349284860109523
0.07050288891423862 -0.027731932036177076 0.07199441592721445
0.07065991862249656 -0.027849966678895388 0.07048930839388579
0.0708176493905881 -0.027968528287756145 0.0689774813011988
0.07097608592384283 -0.028087620399612656 0.0674588895492288
0.07113523296979393 -0.02820724658304752 0.06593348763354284
0.07129529942327768 -0.02832858805590277 0.06440049391900482
0.07145588282887913 -0.02844929621567721 0.06286132744841982
0.07761431312022034 -0.060410967036644336 0.036407346948820474
0.07736548402758293 -0.05811688632046913 0.03628126023063738
0.077181820267233 -0.05619925633717332 0.03592083434599913
0.07692244451130437 -0.05385576556148658 0.03584639901359343
0.06941266735437872 -0.010421534051540449 0.06279091722870461
0.06902175372473944 -0.007427408482635123 0.06331968936110277
0.0688538233703862 -0.005700980064259786 0.06302223225257969
0.06863938015792238 -0.0037162693856197526 0.06290445178603443
0.0683273312062452 -0.001187550987906183 0.06316132073495478
0.06814746411806973 0.0005923517465037387 0.06292524028022328
0.0679785600947435 0.0023067989129241795 0.06265226658264567
0.06781252236288415 0.004001416233093413 0.06237288455303808
0.06766199714148718 0.005605760499989898 0.06203850441452308
0.06751817885467987 0.007169374415976593 0.061682371720144125
0.06738244479898362 0.008684833433266814 0.061298899724554934
0.06724943448736918 0.010182130311502668 0.060908525890700005
0.06711513947803642 0.011683535336155682 0.06052672064166392
0.06698336150219455 0.013168013478265017 0.06013870789632114
0.0668562277789392 0.014623928267526287 0.05973606079960536
0.06673118498250406 0.016065477630429315 0.059328619460934484
0.06660251203324026 0.017524128159850105 0.058938844146390834
0.06647486666065684 0.018974249114307395 0.058548464304419345
0.06634382112872114 0.020440073703295814 0.05817500551702287
0.06621065069056165 0.021914531768950474 0.05781352817571589
0.06606767118647369 0.02343937355539999 0.05749481134357687
0.065920072787853 0.024986077496876535 0.057198449276806285
0.06577400097325854 0.026521178295999703 0.05689991569153757
0.06563116942472813 0.02803545861573631 0.05659223486313353
0.06550359832726041 0.029464148716246363 0.056226616887120606
0.065411895708886 0.03069676472987365 0.05571874556977735
0.0653413583108569 0.03181354984656898 0.05512709065908422
0.06528603046449441 0.032847164545060814 0.05447514825134997
0.06524686093235223 0.03379304519626858 0.05375841340943388
0.06521900903994066 0.03467759321645453 0.05299615561484683
0.06520705536742924 0.035476777583090535 0.052169006420052566
0.06519903176893717 0.03625478987467573 0.051325899351365445
0.06519254603619037 0.037024459260577236 0.050476617122232836
0.06518247867240445 0.037812950836259074 0.04964244133920048
0.06517258497111407 0.03860029758936406 0.04880780980518934
0.0651620122704322 0.03939100189702305 0.04797629325568148
0.06515195433401368 0.04017875895215811 0.04714289403579863
0.06514104754534948 0.04097074642968268 0.04631334972713297
0.0651267379444275 0.04178031748612926 0.04549851384489684
0.06511209415177216 0.042591313087622595 0.044685482806361365
0.06509473447845658 0.04341614744431227 0.0438844236047668
0.0650719427150678 0.044268868788876425 0.043107061876850594
0.065044239924727 0.04514658666096294 0.04235138125368354
0.06501520283227001 0.04603059577850116 0.04160218738414162
0.0649761879760881 0.046965554941250265 0.04089684716923553
0.06494111461299495 0.047879293232588827 0.04017548755427458
0.06491673805723357 0.04873715790400712 0.03940860592185613
0.06490286511307732 0.049540503509410694 0.03859661279594778
0.06490337249353127 0.05026980992523794 0.037722140840829754
0.0649136921030348 0.050948932246956846 0.03680463731890876
0.064947211299526 0.05150986889504533 0.035784835003104365
0.06505766291751394 0.051679740382754746 0.034424783404894466
0.06774644747925235 -0.05138077455274792 0.11638830527528277
0.06740063145090357 -0.04838969041087743 0.11651277022556358
0.06705814417913 -0.04542781324144107 0.11663653214274611
0.06671930185146474 -0.04249704498398632 0.1167584846402554
0.06638386662109268 -0.03959574592722359 0.11687921089169681
0.06605178735696442 -0.03672347382045532 0.11699872929961219
0.06572301394605107 -0.03387979521820644 0.11711705790014812
0.06543212599255052 -0.031283548716091514 0.11712610959315717
0.0651096505800895 -0.028494335948271554 0.11724216218689468
0.06479033814990316 -0.025732481019735798 0.11735707648503615
0.06447431229243761 -0.022998653311955664 0.11747033178536043
0.06439998195863976 -0.02179136022164535 0.11682447732777815
0.06453332132092557 -0.0218887857513147 0.11551814429060503
0.06466738490209101 -0.021987686010528917 0.11420584293226871
0.06480183502805498 -0.02208592509496138 0.11288863002537453
0.0649368453899892 -0.022184573528706952 0.11156592846573218
0.06507241949684874 -0.02228363387566512 0.11023770387597853
0.0652085608869527 -0.022383108721185763 0.10890392159106277
0.0653454476496845 -0.022484083678011357 0.10756397556942832
0.06548273507433094 -0.02258439790748501 0.10621896793360452
0.06562060058111123 -0.022685134534429885 0.10486829681556767
0.06575922456753645 -0.02278738691099963 0.10351134077454799
0.0658982579944769 -0.022888978955729278 0.10214922994215828
0.06603788057828128 -0.022991001498710306 0.10078134713846665
0.06617809607174624 -0.023093457282118146 0.09940765559731352
0.06631890825960927 -0.023196349071470224 0.09802811823961707
0.0664605014871464 -0.023300783360333477 0.09664208717189987
0.06660251931984061 -0.02340455819367604 0.09525074058349547
0.06674514540118102 -0.023508777484566867 0.09385343499214271
0.06688856650842946 -0.023614555765575862 0.09244950614089514
0.06703242165611537 -0.023719675259442907 0.09104016191162795
0.06717689690694362 -0.02382524788220225 0.08962474255189162
0.0673219962791067 -0.023931276570072824 0.08820320869558243
0.06746772382558888 -0.024037764284696617 0.08677552063574367
0.06761427048521983 -0.024145839213678633 0.08534098599402185
0.06776126749367957 -0.024253256713540505 0.08390086361771998
0.06790890505328143 -0.024361142293652605 0.08245446579371077
0.06805737666777303 -0.02447063249785647 0.08100108274014037
0.06820630878389222 -0.024579466247796555 0.07954200480554599
0.06835589415526862 -0.024688777371016546 0.07807652697303802
0.06850613708937202 -0.02479856901524674 0.07660460704262417
0.06865704193162589 -0.02490884435595092 0.07512620244248144
0.06880880657696434 -0.025020754136190648 0.07364057346835337
0.06896104928295578 -0.025132009361262198 0.07214906455992937
0.06911377193966915 -0.025242604734030727 0.07065164924140799
0.06926756474268417 -0.025356003320221643 0.0691461585369183
0.06942184653959702 -0.025468748662637153 0.06763467282709923
0.06957681714395028 -0.025581997368538112 0.06611643892901015
0.06973248117894414 -0.025695752816439987 0.06459141154954373
0.06988904294396832 -0.025811186227839067 0.06305880706813083
0.07627381488913497 -0.060533997602496836 0.03632827752437556
0.07605308495928573 -0.05837742075348873 0.036112874361015956
0.07586937189065765 -0.05644032595129511 0.03576415071339467
0.07563553836150198 -0.054217708358291705 0.03560983003223256
0.07541871442612115 -0.052098593935957005 0.035397404441273095
0.06820440624218133 -0.009693498496437136 0.06182188010675416
0.06780859051636604 -0.006636092686696238 0.06240069369333945
0.06763071580076088 -0.004837657315761412 0.062154935560822244
0.06737501466718698 -0.002597866975414753 0.062213428854077046
0.06717615725415362 -0.0006886384242408838 0.0620594720848221
0.06700176425579246 0.0010765649206450068 0.06181617603846867
0.06682772678741622 0.0028357421554718876 0.061576268906545994
0.06666893938325842 0.004504340729175049 0.06128162436620249
0.066515967630445 0.006136342046944854 0.060968554450577916
0.06637449820843794 0.0076997903847508264 0.06061447806622505
0.06623327068218819 0.009258626005439918 0.06026331840827459
0.0660951424658602 0.010796765256879892 0.0599037608623349
0.06596114550806001 0.012308515126383424 0.05953158146018339
0.06582751365698294 0.013815141097752948 0.059161613594320206
0.06568965995601422 0.015342329966394286 0.058812177737013915
0.06556116504934328 0.016814078330516957 0.058428975420303286
0.06543194694367711 0.01828690818458012 0.058052199189923104
0.06530184285970098 0.019761700132161664 0.05768253608298607
0.06516999844760812 0.021243166425626125 0.05732348430126555
0.06503349914944302 0.02274739329862896 0.056986964982307875
0.0648934394118748 0.024268169971666143 0.05666870449077216
0.06474627061856154 0.025824951115434147 0.05638337363478796
0.06460062064759839 0.02736999203406515 0.056095831722257794
0.06445919052202416 0.028888505826954236 0.055794887081612066
0.06433089258022485 0.03033177643991264 0.0554435220702314
0.0642363107631196 0.03158764211866405 0.054955820192068794
0.06416151831901706 0.032733296753569896 0.05438835335749298
0.06410167528136146 0.0337957899561665 0.0537605169609639
0.06405468608063705 0.03478702912997905 0.0530804754585576
0.06401965686084883 0.03571230610944748 0.052351457777357
0.06398951883912957 0.036610300090644476 0.05160277631283572
0.06396877357374517 0.03745686166971657 0.05081518941350027
0.06395472795081292 0.038266831823123126 0.04999973993231499
0.06393717960843386 0.039095321139414496 0.049199586535174644
0.06391947390489448 0.0399242522662937 0.04840058530881669
0.06390211179793875 0.04075093656580636 0.0476005963227038
0.06388092279466279 0.04159767590481367 0.04681753129325178
0.06385908114077149 0.04244740954684384 0.04603786014888195
0.06383375687434564 0.04331517534995122 0.045273850978277685
0.06380562386551138 0.0441972749611087 0.04452272258526552
0.0637707002358435 0.04511471078705487 0.043801923218478755
0.06372967230180601 0.046063620225630375 0.043108734651107594
0.06368438702043333 0.047034048842994336 0.04243531711973886
0.06363866947489401 0.048005713452964394 0.041765037904955005
0.06360177892636902 0.04892996144103051 0.04105710284955838
0.06357731909597736 0.049788208237844134 0.040295216350266394
0.06356460078360666 0.050584486354783964 0.039481924906035804
0.06356377503947334 0.05131841186492636 0.03861607468697631
0.06357368461163809 0.051996420054007175 0.03770234176743131
0.0635925213672807 0.052628274714344114 0.03674837893898569
0.06362675355039824 0.053180751853094954 0.035724778983348915
0.06368952552252029 0.05358639206922228 0.03457171526531855
0.06391546536450153 0.0531513562804104 0.03267988552958956
0.06654958836136365 -0.051464987920701144 0.1163485629633608
0.06620981625270067 -0.048472896933374754 0.11647325482533002
0.0658734959637616 -0.04551120325760527 0.11659667991505457
0.06554057515869612 -0.04257944601499419 0.11671885743910099
0.0652110025543423 -0.039677173597296 0.11683980621771281
0.06488472789389264 -0.03680394343451476 0.11695954469447223
0.06456170192134386 -0.033959321769908735 0.11707809094568261
0.0642418763567089 -0.03114288344170102 0.11719546268946204
0.06395889245421607 -0.028571006951125577 0.11720412607923272
0.06364533401229062 -0.025809346710387537 0.1173187077495699
0.06333466808173661 -0.023073562099572398 0.11743270899733474
0.06302702026524545 -0.020364355588119387 0.11754560272483983
0.06299100330775359 -0.0193976610051782 0.11678474827825841
0.06312089027937684 -0.0194897510114313 0.11548369316606133
0.06325148049836668 -0.019583281306074285 0.11417671600553275
0.06338244501161948 -0.01967613724029893 0.11286486967065029
0.06351395298377038 -0.019769378495555434 0.11154757961251274
0.06364600780461156 -0.019863007475261096 0.11022481187622452
0.06377861289218516 -0.019957026602861694 0.10889653222391399
0.06391194167681123 -0.020052510361388942 0.10756213741359924
0.06404565837847874 -0.020147319631886984 0.10622272530921731
0.06417993577795718 -0.02024252645442559 0.10487769681265047
0.06431494954352546 -0.020339212901361536 0.10352643341831183
0.06445035969618262 -0.020435224896818094 0.10217006077366625
0.0645863412430515 -0.020531642036895115 0.10080796460336833
0.06472289780847261 -0.020628466891416453 0.09944010860322583
0.0648600330475032 -0.02072570205198382 0.09806645616136148
0.06499792645573525 -0.020824442475438854 0.09668636255589738
0.06513623088063956 -0.020922508701314513 0.09530100109938641
0.06527512513670568 -0.021020993153227197 0.09390973144895298
0.06541479107703359 -0.021120998668570645 0.09251189266766838
0.06555487713512191 -0.02122033026593484 0.09110868751452808
0.06569556447062122 -0.021320088214372812 0.08969945952386679
0.065836856963061 -0.021420275264758926 0.08828416983545306
0.06597875852541887 -0.0215208941916904 0.08686277925402167
0.06612145504443942 -0.02162306121620633 0.08543459898010178
0.06626458740970188 -0.021724555006244872 0.08400088230957539
0.06640834079326977 -0.021826489154381734 0.08256094507319811
0.06655290356766307 -0.02192998807044505 0.08111408123057909
0.06669791197864225 -0.022032814305299464 0.07966157531014473
0.0668435536708974 -0.022136089603229325 0.07820272600035916
0.06698983280200972 -0.022239816912398014 0.0767374916559744
0.06713675356603262 -0.02234399920682617 0.07526583026640463
0.06728450859065647 -0.02244977480861865 0.07378700615255229
0.06743253695380463 -0.022553740778591735 0.07230305645849741
0.06758140815166254 -0.022659306135872415 0.07081185815587054
0.06773093813147799 -0.02276533863889091 0.06931406103117788
0.06788132302953244 -0.022872987983053317 0.0678089048499585
0.06803218461310719 -0.02297996697928567 0.06629777212490262
0.06818371824928057 -0.023087422541537173 0.0647799076616512
0.06833612277064648 -0.023196513051187362 0.06325453229053812
0.06848901492517792 -0.023304934242387387 0.06172306269155414
0.07496857365013047 -0.0608702602431101 0.03611216773430126
0.0747537823755559 -0.058724820974414615 0.03588834628515464
0.0745800094775365 -0.056826315143951145 0.03551327629193263
0.07433108996178858 -0.054489559297063506 0.035432145897481726
0.07410324538588656 -0.052282422166926634 0.035276577833158795
0.06732013362916434 -0.011649635799933888 0.060528939175587826
0.06706068509106969 -0.009344849263038135 0.06060027228603959
0.06663687481115922 -0.006086380105178646 0.06132031091864465
0.06639916446434449 -0.003922323575227482 0.06132324419907598
0.06620853547172316 -0.002037641953815006 0.06114773647416355
0.06602135590508634 -0.0001774371775981609 0.06096393223410723
0.06584425138440181 0.0016200328713568135 0.06074545945565418
0.06567976108586653 0.003340442963609358 0.06048181032221278
0.06552323633870104 0.005011054078064181 0.060190989278682994
0.06537652566925996 0.006621502740784657 0.059865268755162515
0.06522976224720292 0.008228825282437069 0.05954384678823155
0.06508436138934172 0.00982490435238531 0.05922102440721083
0.06494118679283807 0.011404845332718072 0.058893253506464294
0.06480335888225844 0.012950906536996099 0.05854778445550296
0.06466507066970135 0.014496369400654519 0.05820802817888304
0.06452875762345005 0.016027366535330212 0.05786405767840813
0.06439629673026663 0.01753331413373166 0.05750809883676472
0.06426145698194664 0.01904963925339359 0.05716561113899593
0.06412872095291301 0.020550921887470264 0.056818200255435936
0.06399346446890555 0.02206331871007522 0.056484920615507805
0.06385826823289313 0.023572214911557754 0.05615515845648422
0.06371958667961511 0.025097528690556203 0.055843687325365654
0.06357494583852165 0.02665300567808976 0.05556099752840338
0.06343029043289236 0.02820518329315741 0.05528239797063311
0.06329012551486037 0.02972891327828281 0.05498892631586244
0.06315987372587922 0.031194146607943174 0.05465749408690446
0.06305893682318285 0.032493381385935105 0.0542054795333185
0.06298158848791459 0.033659409659142325 0.05365600060125614
0.06291414653442816 0.034768794470019126 0.053066425830872566
0.06285835657764262 0.03581224091861035 0.052428871975725766
0.06281120164792398 0.03680678707023838 0.05175580350523529
0.0627721511777833 0.03775565396517794 0.051049144637472454
0.0627388817650052 0.03867187803793226 0.050318595426685764
0.06271006586879355 0.039562932837181986 0.049569668693679236
0.06268438310198664 0.040436190755136936 0.04880792011174062
0.06265708757303162 0.04131764366498847 0.048053922579095576
0.0626276938535747 0.04220987666277204 0.047309867911916936
0.062598001564265 0.043103043902101235 0.04656794285832311
0.06256263600678082 0.044026257731933416 0.045851831436345136
0.06252584613327779 0.044956345940305675 0.04514299805020511
0.06248211278875592 0.04592303514004192 0.044465963722892354
0.06243178959050278 0.04692417820735989 0.0438194463856722
0.06238041382123394 0.047929799171251786 0.04317902529005352
0.06233526656252764 0.04890083403881429 0.0425121696188242
0.062305204658131094 0.0497901314186151 0.041778871166244846
0.062281789394493664 0.050643255046867064 0.04101648859500234
0.062270007650261965 0.05143388280157413 0.04020222503344434
0.06226581245077885 0.052183925435514034 0.03935392559187034
0.06227549433685847 0.052860298806967576 0.03844269197432515
0.0622932523331885 0.053494176303817365 0.03749438207336231
0.062317160916419534 0.05409600449290142 0.03651746075700785
0.062350469669444644 0.05464888486095132 0.035496770649825204
0.06240309238451605 0.05510105115847541 0.034386322981628414
0.0625103934670281 0.055267758005768275 0.0330221684968367
0.06535244613176949 -0.051550437696038565 0.11630823716037095
0.06501872080065638 -0.04855732491258302 0.11643315934544912
0.0646883865187265 -0.04559462574078338 0.11655681217132308
0.06436121628640096 -0.042660717718049246 0.1166797733399389
0.0640375126258077 -0.039757485124292224 0.11680094167107777
0.06371704879254504 -0.036883309885800686 0.11692089727414581
0.06339977638950103 -0.03403775793867603 0.11703965826508667
0.06308564797873942 -0.031220403821674625 0.11715724240080924
0.0627746170578555 -0.028430830464146184 0.11727366708803555
0.06249973359585793 -0.02588515809337888 0.11728086528929946
0.06219460327690801 -0.023148498532861828 0.11739507232432544
0.06189243783799852 -0.020438430453981526 0.1175081696361295
0.061593355072261755 -0.01775561443995155 0.11761964134125905
0.06159351581034303 -0.01702348399039766 0.11674534324527297
0.06172000220350452 -0.017110322167461778 0.11544952359007232
0.061847009162151474 -0.01719751773439887 0.11414837087909249
0.06197470270160704 -0.01728612443088351 0.11284130429644745
0.062102761152123424 -0.017374043832586394 0.11152938164342993
0.06223134991325819 -0.017462327322641746 0.1102120261079047
0.06236063711490076 -0.017552035947185185 0.10888864218820687
0.06249029711382055 -0.017641056868920424 0.10756031446725003
0.06262049741325917 -0.017730448745830185 0.10622645152983512
0.06275124139746195 -0.017820213901443116 0.1048870187053865
0.06288253247899597 -0.017910354678727314 0.10354198103317405
0.06301454240281738 -0.01800194452397269 0.10219071779626354
0.06314693873946597 -0.018092846146008923 0.10083435951009842
0.06327989258854995 -0.01818413054888718 0.09947228968663085
0.06341357792103211 -0.01827687876068712 0.09810387201841492
0.06354765813306032 -0.018368938542967728 0.0967302653883994
0.06368230653867779 -0.018461388448245686 0.09535083780632667
0.06381752675731626 -0.01855423096162967 0.09396555219233574
0.06395332243921459 -0.01864746858938271 0.09257437115095923
0.06408987136264749 -0.0187421952314083 0.0911766315948013
0.0642268297915289 -0.018836233280638326 0.08977354107699964
0.06436437482732253 -0.01893067410438415 0.08836444097943966
0.06450268659376708 -0.019026619475475903 0.086948651649631
0.0646414169657565 -0.019121876275341287 0.085527410710202
0.06478074537790245 -0.01921754370905232 0.08410004307228527
0.06492067570561327 -0.019313624437589272 0.0826665090337656
0.06506121185785427 -0.01941012114497409 0.0812267685487493
0.06520253797188251 -0.019508148974887618 0.07978011349826764
0.06534429842052378 -0.01960548847364707 0.07832783311477454
0.06548667663072946 -0.019703252156974993 0.07686922400547838
0.06562985921342979 -0.019802563349637647 0.07540356043519686
0.06577311919604857 -0.019898939950035666 0.07393354328148063
0.0659175584775077 -0.019999116224374724 0.07245500791243739
0.06606244855943272 -0.020098604678675247 0.07097066565901478
0.06620797699571798 -0.02019853145753464 0.06947978371463664
0.06635433463117589 -0.020300033778602344 0.06798160606190878
0.0665011533243198 -0.02040084873568504 0.06647750859345064
0.06664862317397624 -0.020502110817763597 0.06496674029275085
0.06679674852169551 -0.02060382300602065 0.06344925668240248
0.0669457237058286 -0.020707133887504448 0.061924276645790644
0.07346318244189384 -0.05913746728793984 0.03562164902312964
0.07328769715719531 -0.05720888046110473 0.03526462722578544
0.07306934630710626 -0.05502749303055399 0.035080547661637485
0.07286084206049398 -0.05291021687864905 0.034863940777686286
0.06678937349249622 -0.015789108086629755 0.05779288721499726
0.06609335375295615 -0.010846311112167217 0.05960230000900979
0.06588037649924881 -0.008792916549451912 0.0595113088467179
0.06547413583513102 -0.005597483837638417 0.06019734699373103
0.0652506841912686 -0.003494484731546177 0.06016311677717012
0.0650612103967786 -0.0015976707952914393 0.059998714301606804
0.06487818555204553 0.00025658512449350246 0.05981368629356898
0.06470204252025683 0.0020659646876359794 0.05960600691282969
0.0645388561900698 0.0037950179097516745 0.05935071780648865
0.06438545074630483 0.005462830604773261 0.05906020717168731
0.06423539607215635 0.007107382009673868 0.05876034897510074
0.06408012113981455 0.008778848630182134 0.05848616576917692
0.06393442981065495 0.01039076218166779 0.05817693252844802
0.06378422581660909 0.01202545488006257 0.057890475405911856
0.063640047009751 0.013621598315412875 0.05758330335382894
0.06350062013307942 0.015186783149631844 0.05726045611207736
0.06336010125427731 0.016754961220633968 0.05694612240394392
0.06322325233291987 0.01829862265471821 0.05662040604845886
0.06308851154556215 0.019826889791483837 0.05628971379037201
0.06295350394994521 0.02135348198266307 0.0559639693361732
0.06281974199851167 0.022869718647878623 0.055636785660194144
0.06268321631173149 0.0243985827481758 0.05532512817613544
0.06254462979067646 0.02593596251595126 0.055026120960429914
0.06240549923240585 0.0274731425627206 0.054733370405965875
0.0622617280268536 0.029033394711496407 0.05446446269871308
0.06212303397454362 0.030561418424588482 0.05417779521480576
0.06199261132243114 0.03203931018327305 0.05385936684195025
0.061882043898958024 0.03340191924154573 0.05345867026124235
0.06180018618885119 0.034600034116032685 0.052936396987803835
0.06172500353198817 0.03575864651972205 0.052387355355275445
0.061659348453618694 0.03686198053648915 0.051798789112618315
0.06160139145758367 0.037920625547387565 0.05117831789422528
0.06155221359845502 0.03892881307125412 0.05052085668887141
0.0615034348526898 0.039933603424063824 0.04986302871677156
0.06146145725309191 0.040899374204532546 0.049176461932573357
0.06142273492086854 0.04184606406525676 0.048476622144904835
0.06138422105768945 0.0427906765964885 0.047776951746944074
0.061345117437378 0.043737634031136785 0.047081011238255255
0.06130192204199313 0.044706242403838525 0.046404535123552304
0.06125338000548215 0.04570326607003322 0.04575334443960871
0.06120110438682891 0.046719650278153946 0.045120385078409264
0.06114765005729188 0.04774125299685572 0.04449424652286371
0.06110299142656096 0.04871345983035935 0.04382966958839163
0.06106329690549882 0.049657502778110596 0.04314373952356482
0.06103328352470971 0.050547863442383434 0.042414683842499856
0.061012607247962494 0.05138675755660066 0.041643667981556276
0.061001249125331114 0.0521746213295054 0.040830381728546195
0.0610010913448729 0.05290160165234059 0.0399657450666403
0.06100771627417606 0.053591952872126425 0.03906972470033099
0.06102491635295473 0.05422548388891879 0.038124427991357124
0.0610498658293792 0.054817763597713176 0.037142561716817624
0.0610767330010296 0.05540035056888748 0.03615103148926585
0.06111074597144979 0.055945331445105995 0.0351252650655553
0.06115779371205755 0.05642151257087363 0.03403728838150899
0.06123891098220765 0.05671727802443277 0.032787414269182136
0.06148452052683839 0.056140453692501924 0.03075768742235635
0.0641546551892826 -0.05163471686499449 0.11626846379537453
0.06382698321896171 -0.048640596117279056 0.11639361322715513
0.06350264142757994 -0.04567690506364597 0.11651749074651643
0.0631815793041571 -0.04274318215722267 0.11664011564537818
0.0628637473540846 -0.03983897513828866 0.11676150682747216
0.06254909707369043 -0.03696384080185894 0.11688168281805375
0.062237580925561184 -0.034117344772191804 0.11700066177333307
0.061929152314600826 -0.03129906128402293 0.11711846148961597
0.061623765564797525 -0.028508572970268875 0.11723509941217533
0.061353708234074024 -0.025960997597630986 0.11724300879185351
0.0610541176450729 -0.02322346262712721 0.11735742175864661
0.06075759805831636 -0.0205135913268083 0.11747018774252879
0.06046378686477172 -0.017828868006978194 0.11758239586403013
0.060172803614228276 -0.015169985242768413 0.11769352397830538
0.06020737946038253 -0.014668591322515023 0.11670625828106682
0.06033051616838008 -0.014750259856352643 0.11541563212529005
0.06045415758934494 -0.014832263133313539 0.11411971594861273
0.06057846530990389 -0.014915644246339121 0.11281793151251598
0.06070312616366008 -0.014998325572418536 0.11151133270500102
0.06082830113982559 -0.01508134789022908 0.11019934526336922
0.060954153874383486 -0.015165761458744542 0.10888137638960824
0.06108036734810162 -0.015249474510109717 0.10755850654238197
0.06120710458902789 -0.015333534958208772 0.10623014698134498
0.06133436886427551 -0.01541794497000426 0.10489626346319766
0.06146216346818687 -0.015502706730518734 0.10355682145924691
0.06159065553993957 -0.015588882658603032 0.10221120317625573
0.06171952148077142 -0.015674356990906857 0.10086053463836425
0.06184892780384982 -0.01576018974847032 0.09950420225090822
0.06197904380523193 -0.01584745078384897 0.09814157276819155
0.062109541839313845 -0.015934009668706117 0.0967738003519093
0.06224059056495717 -0.016020933825298178 0.09540025604229704
0.062372193475345915 -0.016108225570642398 0.0940209032266911
0.06250435409327057 -0.016195887241391926 0.09263570498211438
0.06263724540344594 -0.01628500130845123 0.09124400152355575
0.06277053284666126 -0.016373412457626857 0.08984699528269516
0.06290438875121133 -0.016462200673941496 0.08844403091090225
0.06303898837391422 -0.01655245614492129 0.08703443220911217
0.06317399290151553 -0.016642008342304226 0.08561943142769785
0.06330957692251331 -0.01673194493347696 0.08419835689728108
0.06344574417605763 -0.016822268398714868 0.0827711694273166
0.06358249843353773 -0.0169129812396841 0.08133782948936219
0.06372001883929565 -0.017005186747078238 0.0798976326812677
0.06385795930948356 -0.01709668856645763 0.07845186242659061
0.06399649829965935 -0.017188587409721845 0.07699981901363112
0.0641354620785594 -0.017279777155635168 0.07554214245685231
0.06427520907951942 -0.01737247516501722 0.074077435167929
0.06441574559974017 -0.017466692092244218 0.07260563886436255
0.06455671805111209 -0.01756020515430845 0.0711280900588222
0.06469830888602957 -0.017654128416598636 0.06964405990271205
0.06484052218229754 -0.017748464584097734 0.06815350565608075
0.06498354441671775 -0.017844341335373937 0.06665566933215417
0.06512701581936176 -0.017939514275181756 0.06515193136647224
0.06527112213931535 -0.018035108392576327 0.06364153876958767
0.0654160523991912 -0.018132259739934098 0.062123714838737965
0.07205160128130363 -0.05794993946007637 0.03478297442732642
0.07183189327767016 -0.05573409561958581 0.034618705949199025
0.07164808762458068 -0.053742440636459166 0.03431693652586859
0.07143105024358132 -0.05155306753105232 0.03415411232139637
0.06553843283530103 -0.014908469325981888 0.05690231701273041
0.06489630894505025 -0.010222611371700774 0.058555725629387545
0.06466307790378954 -0.008025090471257712 0.058565720672407784
0.06432234273862336 -0.005184404173053658 0.059020970205415135
0.06411823499296067 -0.003174917079362072 0.05892678755040576
0.06392441707733026 -0.0012322337541711414 0.05879623514021548
0.06374071432012755 0.0006450680345490567 0.05862958686199793
0.06356783510745274 0.002453115341117862 0.05842347363009376
0.06340474400804404 0.004198488349827001 0.058181724507543275
0.06324473310064582 0.005921539575275747 0.05793185859952937
0.06308518404935941 0.007637961316977859 0.05768468752496625
0.06293071327373975 0.009320356677424091 0.057420826956068094
0.06277597600628428 0.011000584456908935 0.05716255341704651
0.06262724811332951 0.01264151918657852 0.056883371931726656
0.06247804325349012 0.014281661378020227 0.05661051116572341
0.06233323884362233 0.015892266708486535 0.05632325071891853
0.062189104102984984 0.017495423558515355 0.05603731875003087
0.06205045593428492 0.01906290257980381 0.055732063230618245
0.061914576626658085 0.020610811265581064 0.05541892109129498
0.061780115245283644 0.022147141546209836 0.05510359518874447
0.06164689308505375 0.023672986710853328 0.05478679689358901
0.06151113958377994 0.02521032529541728 0.05448483367531798
0.06137419325410202 0.0267512952735795 0.05419198788209373
0.06123655981084694 0.028292923757035682 0.05390610222221215
0.06109567334872679 0.029850018318099525 0.05363845171237436
0.06095992677231232 0.031374046035852976 0.053352273727017785
0.060828616777586254 0.0328692424080021 0.05305044799522801
0.060712989806370125 0.03427116642717204 0.052683006328131665
0.06061763041794854 0.03555410943166687 0.052228911553152735
0.06053744318444718 0.03674795468190306 0.05170998408203842
0.06046394016399167 0.0379017022792002 0.05116350100403105
0.060395498196933066 0.039024840522775106 0.05059645029675386
0.06033271230201261 0.04011417169760034 0.050005936003508056
0.06027523390423312 0.04117187853355608 0.04939328586436992
0.06022005735119394 0.04221516420403493 0.04877187660689125
0.060161230239899936 0.043277727051304504 0.04816864153277284
0.060110942976634496 0.04429074006494482 0.047528199446972896
0.06005575515274715 0.04533008903343688 0.046911608813597405
0.059997714807747175 0.04638410441905161 0.04630969205518709
0.05994180360358011 0.04742479151353379 0.04569966039993456
0.0598853770138253 0.04846700166926332 0.045093622880059636
0.05984235346629774 0.049433128385473535 0.044427183629214106
0.059808813260553435 0.05034546200405565 0.04371795955624569
0.059782563763034764 0.05121651713648129 0.04297575093288192
0.059764511295689215 0.05204153976747744 0.042196007626837395
0.05975371586215878 0.052826022511950343 0.04138277910732213
0.059755874565678296 0.05353881659866516 0.04050897126137276
0.05976497386378716 0.05421347802240989 0.03960237617718293
0.05978565043954588 0.05482480593441419 0.03864076397231575
0.05980896732164858 0.05542217326778576 0.03766602871872937
0.0598346214526033 0.05600733239090522 0.03667949798401521
0.0598613808167972 0.05658708674747703 0.03568695059258287
0.059890022821356775 0.05715724663670646 0.03468461697166886
0.05993683793376926 0.057629440823014744 0.03359419335494279
0.06000766453519412 0.057972705191825735 0.03238677312738414
0.06014575911806508 0.057954126341910106 0.03085235947827547
0.06328150958616889 -0.054746294537853346 0.11610143214326007
0.06295657402390743 -0.05172023342045923 0.11622810647723755
0.06263495834671019 -0.0487250897409664 0.11635348657221947
0.06231661193399272 -0.04576039207980942 0.11647759216236378
0.06200148518909581 -0.04282567855303776 0.11660044258265698
0.06168952951352759 -0.039920496572434405 0.11672205677895234
0.061380531450754526 -0.03704326772626615 0.1168430059503964
0.06107477763484175 -0.03419584040752266 0.11696219995491092
0.06077205481118802 -0.031376640144914925 0.11708021236780225
0.06047231813193305 -0.028585249278825386 0.1171970606724069
0.06017552362965923 -0.025821258349029652 0.11731276200883006
0.059913368950671564 -0.0232995259078686 0.11731921912804669
0.05962217891453409 -0.02058772101687001 0.11743272694888618
0.05933380566085001 -0.01790214835723991 0.1175451367689746
0.059048208514776136 -0.015242429130858826 0.11765646444364011
0.05876549958225976 -0.012609215127986129 0.1177661988265532
0.058832456517056916 -0.01233274899508885 0.11666748950175382
0.05895229353379719 -0.01240932859569055 0.11538201539008988
0.0590726197438349 -0.012486220806089576 0.11409129377361696
0.05919359237279788 -0.012564458212566854 0.11279474896752031
0.059314906631544526 -0.012641983727272432 0.11149343097398015
0.05943671916627426 -0.01271982766373636 0.11018676805633798
0.059559189188172254 -0.012799029636589687 0.10887417009492753
0.05968200817339568 -0.01287751867621073 0.10755671345408613
0.05980533474353428 -0.012956332094426759 0.10623381204329141
0.05992917205171556 -0.01303547190628479 0.10490543203952568
0.06005352327723679 -0.013114940143550635 0.10357153933904734
0.06017855102504653 -0.01319578834520313 0.1022315190441015
0.060303940394134115 -0.013275921995800521 0.1008864927217788
0.06042985338238647 -0.013356390280125863 0.09953584964288115
0.06055645468402409 -0.013438252025724129 0.09817895959339892
0.06068342547604677 -0.013519398329035814 0.09681697205078688
0.060810929834806834 -0.013600885631751769 0.09544926105601312
0.06093897113068077 -0.013682716087860758 0.09407579045579664
0.0610675527624902 -0.013764891869525342 0.09269652379172566
0.06119684299708816 -0.013848484174253106 0.0913108045478418
0.06132651631184046 -0.013931359686090772 0.08991983007623677
0.06145674033715781 -0.014014587162520131 0.08852294826475784
0.061587685540274946 -0.014099245364533108 0.08711948633235159
0.061719022276594405 -0.014183186053754793 0.08571067120209666
0.06185092036541242 -0.014267485517769796 0.08429583458903556
0.06198338341339102 -0.014352146061687165 0.08287493780543781
0.06211641505815572 -0.014437170010407507 0.08144794183143783
0.06225018953130787 -0.01452364896587316 0.0800141459426125
0.06238437014412991 -0.014609409362491887 0.07857482780403496
0.06251895842088538 -0.014694445835681968 0.07712996351105716
0.062654301460053 -0.014780947055882843 0.07567817380815012
0.0627902317603865 -0.014867823609765407 0.07422008470686836
0.06292675315243501 -0.014955077945526807 0.07275565511789761
0.06306404455181377 -0.01504381747446265 0.0712841493457575
0.06320176051822518 -0.01513183746194191 0.06980690845151771
0.06334007927481584 -0.015220242717579435 0.06832320159450428
0.06347918215185189 -0.0153101487359113 0.06683227497194905
0.063618719203321 -0.015399334851510571 0.06533550242287184
0.06375887105418479 -0.015488913920532532 0.0638321351030372
0.06389982149889348 -0.01558000963912537 0.06232140067440006
0.07062269767634803 -0.05664379352331306 0.03402411931778537
0.07045187895520258 -0.05470947511237467 0.0336813238373318
0.07024516054710835 -0.05255677165920508 0.03349069771088248
0.07007680953399788 -0.050646614519047284 0.03314834646690212
0.06432151967218254 -0.014235044050980361 0.055873885105087895
0.06399016950888498 -0.011397586220647071 0.05629902193226377
0.06343097502322394 -0.007166760435935782 0.057681177684086093
0.06319543088623315 -0.004936658862164267 0.057729474120668256
0.06299305241818991 -0.0029155756393192678 0.05764584795735983
0.06279665207773982 -0.0009360478463246724 0.05754306642003171
0.06261147883471302 0.0009701172729896235 0.05739873356037167
0.062438546254647724 0.0027971638684508027 0.05720806467122286
0.0622686142225517 0.004601700123855856 0.05700975102415229
0.06210113233741132 0.006387175417923219 0.056806005044993446
0.06193775706134774 0.008143654871436368 0.05658963653682103
